# .PCD v0.7 - Point Cloud Data file format
VERSION 0.7
FIELDS x y z intensity
SIZE 4 4 4 4
TYPE F F F F
COUNT 1 1 1 1
WIDTH 1161
HEIGHT 1
VIEWPOINT 0 0 0 1 0 0 0
POINTS 1161
DATA ascii
-1.3880379 -3.6832832e-06 -0.049554743 0
-1.0454097 -2.7740884e-06 0.34780172 0
-1.0165844 -2.6975981e-06 0.42090249 0
-1.3977864 -0.017604928 -0.049906734 0
-1.0434562 -0.013142187 0.34717932 0
-1.0186684 -0.012829989 0.4217988 0
-1.3972114 -0.035197247 -0.049898073 0
-1.0513015 -0.026483405 0.34987286 0
-1.024422 -0.025806284 0.4242821 0
-1.3923265 -0.052623346 -0.049743343 0
-1.056587 -0.039933983 0.3517713 0
-1.0127395 -0.038276758 0.41960993 0
-1.4035769 -0.070756361 -0.050173134 0
-1.043915 -0.052625284 0.34774548 0
-1.0165688 -0.051246721 0.42143047 0
-1.400709 -0.088305868 -0.050106399 0
-1.0477324 -0.066052914 0.34926647 0
-1.0118178 -0.063788734 0.41976064 0
-1.4043719 -0.10630533 -0.050281327 0
-1.0368804 -0.078487694 0.34595096 0
-1.0279717 -0.077813342 0.42683488 0
-1.3931808 -0.12311879 -0.049932197 0
-1.050346 -0.092821635 0.35080588 0
-1.0134064 -0.089557193 0.42122191 0
-1.4081622 -0.14233299 -0.050529364 0
-1.0421244 -0.10533494 0.34847531 0
-1.034809 -0.10459551 0.43063116 0
-1.3968105 -0.15897687 -0.050189886 0
-1.0435128 -0.11876658 0.34941196 0
-1.0175725 -0.1158142 0.42403162 0
-1.3905649 -0.17602858 -0.050041147 0
-1.0553786 -0.13359807 0.35392037 0
-1.0194627 -0.12905157 0.42546266 0
-1.3984779 -0.19495095 -0.050410252 0
-1.0345929 -0.14422457 0.34753138 0
-1.0200769 -0.14220101 0.42643249 0
-1.3882158 -0.21137214 -0.050132304 0
-1.0589263 -0.16123396 0.356359 0
-0.99869835 -0.15206353 0.41826272 0
-1.3907334 -0.22970828 -0.050323687 0
-1.0337552 -0.17074598 0.34858412 0
-1.0184368 -0.16821584 0.42738259 0
-1.3827069 -0.24630618 -0.050141506 0
-1.0499121 -0.18702434 0.35479826 0
-1.0173441 -0.18122289 0.42784774 0
-1.3629034 -0.26052484 -0.0495384 0
-1.0286452 -0.19662996 0.34842059 0
-1.0125837 -0.19355974 0.42683697 0
-1.3715988 -0.28013277 -0.049978714 0
-1.0255831 -0.20946318 0.34824923 0
-1.0339987 -0.21118198 0.43695042 0
-1.3628407 -0.29626712 -0.049791574 0
-1.0314255 -0.22422101 0.35116398 0
-1.0272 -0.22330241 0.43523112 0
-1.3722857 -0.31646681 -0.050278258 0
-1.0289202 -0.23728228 0.35130039 0
-1.0136507 -0.23376094 0.43070325 0
-1.356976 -0.33098468 -0.049866088 0
-1.044397 -0.25474244 0.35765147 0
-1.0220256 -0.24928576 0.43556103 0
-1.3625784 -0.35058582 -0.050230209 0
-1.042864 -0.26832461 0.35825515 0
-1.017139 -0.2617057 0.43484843 0
-1.3616446 -0.3686862 -0.050362937 0
-1.0400798 -0.28161761 0.35848853 0
-1.0156028 -0.27499008 0.43563759 0
-1.3486918 -0.38346952 -0.050058488 0
-1.0392791 -0.29549509 0.35946652 0
-1.0264618 -0.29185084 0.44183686 0
-1.3476489 -0.4015806 -0.050203484 0
-1.0199025 -0.30391675 0.35406014 0
-1.0135602 -0.30202684 0.43788573 0
-1.3311701 -0.41498968 -0.049780328 0
-1.0234557 -0.31906036 0.35666013 0
-1.0199882 -0.31797934 0.4423576 0
-1.3212614 -0.43022719 -0.049608443 0
-1.0267996 -0.33434495 0.35926411 0
-1.0230654 -0.33312908 0.44547611 0
-1.3437339 -0.45633632 -0.050663937 0
-1.0268908 -0.34873539 0.3608039 0
-1.0248102 -0.34802881 0.44810852 0
-1.3298318 -0.47037211 -0.050359104 0
-1.0238934 -0.36215925 0.3613244 0
-1.0276341 -0.36348242 0.45130894 0
-1.3027915 -0.4793478 -0.049559768 0
-1.0310793 -0.37937427 0.36551711 0
-1.2988124 -0.49653915 -0.049642313 0
-1.0348922 -0.39564186 0.3686057 0
-1.3083444 -0.51915747 -0.050252523 0
-1.0399889 -0.41267267 0.37224236 0
-1.2897279 -0.53066242 -0.049790192 0
-1.0325325 -0.42483857 0.37145883 0
-1.2888662 -0.54938388 -0.050020024 0
-1.0525315 -0.44864541 0.38065583 0
-1.2820201 -0.56564534 -0.050026797 0
-1.0400004 -0.45886284 0.3781836 0
-1.271558 -0.58026493 -0.04989972 0
-1.0354598 -0.47252342 0.37866607 0
-1.2462333 -0.58777863 -0.049192458 0
-1.0322738 -0.48686585 0.37971288 0
-1.2706259 -0.61895925 -0.050458957 0
-1.0386922 -0.50597751 0.38438705 0
-1.2409654 -0.62396461 -0.049589168 0
-1.2312567 -0.61908305 0.35160643 0
-1.0315644 -0.51867658 0.38413578 0
-1.2479392 -0.64728367 -0.05018957 0
-1.2118164 -0.62854743 0.34828755 0
-1.0275892 -0.53299206 0.38512424 0
-1.2324767 -0.65908784 -0.049897525 0
-1.2040375 -0.64387953 0.34835446 0
-1.0448112 -0.55873054 0.39418438 0
-1.2318586 -0.67884034 -0.050214592 0
-1.19484 -0.65844053 0.34806463 0
-1.0310558 -0.56818402 0.39166304 0
-1.2302573 -0.69829524 -0.050503753 0
-1.1944673 -0.67798078 0.35041526 0
-1.0297101 -0.58446437 0.39391628 0
-1.2198259 -0.71282947 -0.05044001 0
-1.1793653 -0.6891855 0.34850314 0
-1.0355386 -0.60513753 0.39902937 0
-1.19073 -0.71608996 -0.049605817 0
-1.164754 -0.70046836 0.34676448 0
-1.028589 -0.61858046 0.39932132 0
-1.1880101 -0.73497981 -0.049874119 0
-1.1655478 -0.72108322 0.34967637 0
-1.0239353 -0.63347256 0.40057969 0
-1.1845665 -0.75363678 -0.050123978 0
-1.1561233 -0.73554081 0.34959987 0
-1.0185288 -0.64800137 0.40162495 0
-1.1610483 -0.75937796 -0.049529515 0
-1.1539967 -0.75476593 0.35180292 0
-1.0176384 -0.66558152 0.40454665 0
-1.1708449 -0.78701067 -0.050366201 0
-1.1434358 -0.76858693 0.35150594 0
-1.0205159 -0.68596351 0.40909189 0
-1.1555102 -0.79800791 -0.050134838 0
-1.1265918 -0.77803659 0.34931198 0
-1.0270686 -0.70930481 0.41526622 0
-1.1402647 -0.80887192 -0.049911343 0
-1.1091884 -0.78682727 0.34696043 0
-1.0170647 -0.72147727 0.4148618 0
-1.1331149 -0.82544178 -0.050049383 0
-1.1964226 -0.87155956 0.052845661 0
-1.1778553 -0.85803384 0.15660918 0
-1.1842804 -0.86271441 0.26424599 0
-1.1045703 -0.8046478 0.34865764 0
-1.0250331 -0.74670726 0.42191401 0
-1.1232797 -0.84012824 -0.050078269 0
-1.1327481 -0.84720987 0.050500393 0
-1.1234418 -0.84024948 0.15076916 0
-1.1255407 -0.84181929 0.25348467 0
-1.0899161 -0.81517476 0.34724459 0
-1.0210384 -0.76365942 0.42419422 0
-1.1109899 -0.85295945 -0.050005242 0
-1.1057934 -0.8489697 0.049771342 0
-1.0980031 -0.84298885 0.14876799 0
-1.1060942 -0.84920073 0.25149339 0
-1.0933973 -0.83945268 0.35169357 0
-1.0242406 -0.78635788 0.42960438 0
-1.101464 -0.86790639 -0.050064418 0
-1.0928016 -0.86108071 0.049670685 0
-1.0866252 -0.85621405 0.14867541 0
-1.0889368 -0.8580355 0.25002915 0
-1.0711169 -0.84399414 0.34791791 0
-1.0250041 -0.80765933 0.43415597 0
-1.1073489 -0.89537138 -0.050840333 0
-1.0744218 -0.86874735 0.049328592 0
-1.0696489 -0.86488819 0.14783105 0
-1.0718968 -0.86670578 0.24860279 0
-1.0719597 -0.86675668 0.35170898 0
-1.0152439 -0.82089782 0.43436575 0
-1.083279 -0.8987003 -0.050250825 0
-1.0604532 -0.87976372 0.049191985 0
-1.0526812 -0.87331605 0.14699423 0
-1.0691694 -0.88699478 0.25054079 0
-1.0614544 -0.88059443 0.35187247 0
-1.0244241 -0.8498736 0.44283703 0
-1.0571885 -0.89976716 -0.04956219 0
-0.82598686 -0.7029928 0.038723197 0
-0.83271837 -0.70872194 0.11751593 0
-0.82824874 -0.70491785 0.19614984 0
-1.047986 -0.89193505 0.3511031 0
-1.0227078 -0.87042087 0.4467977 0
-1.0546486 -0.92075372 -0.049982712 0
-0.80099982 -0.69930738 0.037961595 0
-0.81658572 -0.71291459 0.11649689 0
-0.79973024 -0.69819897 0.1914629 0
-1.0289658 -0.89833158 0.34849301 0
-1.0300206 -0.92236269 -0.04936206 0
-0.77203923 -0.69134557 0.036998723 0
-0.78418213 -0.70221931 0.11312662 0
-0.77918863 -0.69774771 0.18863361 0
-1.0337942 -0.92574185 0.35404828 0
-1.0303727 -0.94632351 -0.049946044 0
-0.76932132 -0.70656645 0.037291899 0
-0.76558131 -0.70313156 0.11171168 0
-0.7744832 -0.71130729 0.18964779 0
-1.0226938 -0.93927085 0.35426918 0
-1.0098075 -0.95115155 -0.049525812 0
-0.74708015 -0.7036851 0.036640406 0
-0.74649876 -0.70313752 0.11021043 0
-0.74046421 -0.69745344 0.18345359 0
-1.0250765 -0.96553373 0.35927781 0
-1.0008568 -0.96679062 -0.049679961 0
-0.72354347 -0.69891626 0.035914842 0
-0.72460061 -0.69993746 0.10827011 0
-0.71689916 -0.69249815 0.17976142 0
-1.0344504 -0.99924088 0.36694422 0
-0.99115157 -0.9818393 -0.049807966 0
-0.71508014 -0.70836169 0.035934653 0
-0.7052111 -0.69858539 0.10667887 0
-0.7161395 -0.70941108 0.18179648 0
-1.0284351 -1.0187726 0.36933181 0
-0.98876005 -1.0044503 -0.050319407 0
-0.69046652 -0.70142329 0.035138823 0
-0.69572061 -0.70676076 0.10658105 0
-0.68773669 -0.69865012 0.17680554 0
-1.0266395 -1.0429308 0.3733736 0
-0.97254819 -1.0131885 -0.050139673 0
-0.67032349 -0.69833457 0.034558494 0
-0.67335582 -0.70149362 0.10449981 0
-0.67288691 -0.70100516 0.17524335 0
-1.0330286 -1.0761962 0.38059562 0
-0.95320946 -1.0184045 -0.04979986 0
-0.65763843 -0.70261776 0.034357924 0
-0.65977997 -0.70490581 0.10376225 0
-0.65645468 -0.70135307 0.17325014 0
-1.0198106 -1.0895607 0.38075033 0
-0.93302768 -1.0223453 -0.049414128 0
-0.64667702 -0.7085827 0.034248695 0
-0.63649583 -0.69742686 0.10147351 0
-0.64251059 -0.70401734 0.17189607 0
-1.0304595 -1.1291043 0.39000359 0
-0.92285812 -1.0371331 -0.04956327 0
-0.63098693 -0.70912027 0.033887956 0
-0.61422622 -0.69028413 0.099301055 0
-0.62622929 -0.7037735 0.16989769 0
-1.0299326 -1.1574663 0.39528912 0
-0.91977078 -1.0602494 -0.050110511 0
-0.6064921 -0.69912297 0.03304261 0
-0.60953856 -0.70263475 0.099965684 0
-0.61474782 -0.70863962 0.16919024 0
-1.0212429 -1.1772195 0.39761183 0
-0.90847242 -1.0742586 -0.050227966 0
-0.60601109 -0.71660137 0.033505369 0
-0.59679484 -0.7057032 0.099325188 0
-0.5986864 -0.70793998 0.16721003 0
-1.01873 -1.2046369 0.40250754 0
-0.89780211 -1.0891641 -0.050392307 0
-0.57679754 -0.69973904 0.032374796 0
-0.58732432 -0.71250957 0.099234372 0
-0.58832318 -0.71372128 0.16681251 0
-1.0199885 -1.237394 0.4091287 0
-0.88605064 -1.1029135 -0.050508227 0
-0.56629974 -0.70490289 0.03228122 0
-0.57361913 -0.7140137 0.16517955 0
-0.86997813 -1.1112806 -0.050385717 0
-0.55459625 -0.70842242 0.16225763 0
-0.83921528 -1.10025 -0.049402542 0
-0.83479786 -1.1235187 -0.049971372 0
-0.81344068 -1.1240679 -0.049536288 0
-0.81383187 -1.1549536 -0.050441768 0
-0.79066014 -1.1526232 -0.049901206 0
-0.7776041 -1.1647633 -0.049998909 0
-0.76799595 -1.1823431 -0.050334428 0
-0.74690384 -1.1821946 -0.049923748 0
-0.73880285 -1.2026453 -0.050390512 0
-0.71798056 -1.2024386 -0.049999077 0
-0.7067591 -1.2182363 -0.05028192 0
-0.67975968 -1.2064432 -0.049437951 0
-0.67787927 -1.2393396 -0.050432198 0
-0.65254223 -1.2295401 -0.049695123 0
-0.64827693 -1.2595515 -0.050574161 0
-0.62608474 -1.2550225 -0.050071791 0
-0.60510439 -1.2521933 -0.049650978 0
-0.592336 -1.266225 -0.049907643 0
-0.57726949 -1.275624 -0.049987629 0
-0.56232947 -1.2854601 -0.050091621 0
-0.54355931 -1.286427 -0.049858626 0
-0.52650392 -1.2911713 -0.049781602 0
-0.51085341 -1.2993482 -0.049844895 0
-0.49674433 -1.3117292 -0.050075922 0
-0.47742757 -1.3103019 -0.049787983 0
-0.46710351 -1.3339498 -0.050459042 0
-0.44626567 -1.3278098 -0.050010253 0
-0.42760417 -1.3274025 -0.049788166 0
-0.41583195 -1.3488194 -0.050391078 0
-0.39240098 -1.3321707 -0.049580563 0
-0.37863347 -1.3478177 -0.049981497 0
-0.35983473 -1.3457537 -0.049732983 0
-0.347853 -1.3698338 -0.050457008 0
-0.33087733 -1.3753512 -0.050502762 0
-0.31086102 -1.3676494 -0.050072249 0
-0.29317909 -1.3694144 -0.049997739 0
-0.27423266 -1.3646342 -0.049693197 0
-0.25795797 -1.3729259 -0.049872898 0
-0.24169545 -1.3820388 -0.050089404 0
-0.22538657 -1.3918384 -0.050337721 0
-0.20471548 -1.373576 -0.049580079 0
-0.18911257 -1.3885883 -0.050032031 0
-0.1708826 -1.384935 -0.049818922 0
-0.15496314 -1.4008267 -0.050316393 0
-0.13588561 -1.3880883 -0.049793437 0
-0.11806773 -1.3858231 -0.049654908 0
-0.10197107 -1.4059775 -0.050327055 0
-0.083436221 -1.3933924 -0.049835011 0
-0.066789918 -1.413481 -0.050519399 0
-0.048747085 -1.4072784 -0.050271787 0
-0.03074404 -1.3950821 -0.049818326 0
-0.013127265 -1.3902155 -0.049634699 0
0.0044611474 -1.4165866 -0.050574221 0
0.022050638 -1.4007471 -0.050014671 0
0.039773796 -1.4034567 -0.050125331 0
0.057360895 -1.4008672 -0.050054677 0
0.075329363 -1.4062767 -0.05027787 0
0.091787688 -1.3864498 -0.049606401 0
0.10919294 -1.3846192 -0.049586166 0
0.28798097 -3.6517382 0.13077652 0
0.12866773 -1.4055218 -0.050388761 0
0.32277671 -3.5259008 0.12640557 0
0.14536281 -1.3942759 -0.050047245 0
0.35971761 -3.4503016 0.12384786 0
0.16149391 -1.3802584 -0.049613152 0
0.40182161 -3.4342945 0.12344512 0
0.17858237 -1.3759747 -0.049536075 0
0.4443166 -3.4234531 0.12324677 0
0.19880626 -1.3940421 -0.050272655 0
0.48674831 -3.4131103 0.12308531 0
0.21281926 -1.3687642 -0.049453791 0
0.53144455 -3.4180281 0.12349422 0
0.33881289 -2.1791022 0.23700041 0
0.23467657 -1.3935274 -0.05045126 0
0.57271516 -3.4008265 0.12312351 0
0.36691713 -2.178782 0.23744926 0
0.3740024 -2.2208548 0.40616804 0
0.24953945 -1.3757708 -0.049918208 0
0.26700419 -1.3733525 -0.049948495 0
0.28545415 -1.375563 -0.050155643 0
0.2995109 -1.3571755 -0.049618781 0
0.24676417 -1.1181638 0.040880442 0
0.31835008 -1.360882 -0.0498969 0
0.2607955 -1.1148479 0.040876031 0
0.33757645 -1.3653257 -0.050211702 0
0.3171578 -1.2827426 0.047174603 0
0.29233775 -1.182358 0.13089354 0
0.35437369 -1.3595586 -0.050159741 0
0.2948356 -1.1311401 0.041732438 0
0.31003973 -1.1894709 0.1321027 0
0.36888373 -1.3455764 -0.049811311 0
0.30510288 -1.1129231 0.04119882 0
0.32148644 -1.1726855 0.13067776 0
0.38648021 -1.3431998 -0.049899533 0
0.37331575 -1.2974471 0.048199832 0
0.33683649 -1.1706647 0.13091484 0
0.40627003 -1.3478746 -0.05025927 0
0.33719373 -1.1187016 0.041713908 0
0.35211641 -1.1682101 0.13112581 0
0.42680931 -1.354074 -0.050686814 0
0.36096886 -1.1451918 0.042867765 0
0.36914337 -1.1711259 0.13196437 0
0.43550056 -1.3232985 -0.049736135 0
0.38137683 -1.1588398 0.043554958 0
0.38361233 -1.1656325 0.13187923 0
0.45836356 -1.3358835 -0.050422076 0
0.39063007 -1.1384767 0.042971082 0
0.39288202 -1.14504 0.13009882 0
0.47416216 -1.3272479 -0.050317504 0
0.45980242 -1.2870529 0.048793662 0
0.41316089 -1.1564965 0.13198115 0
0.48607191 -1.3083483 -0.049829092 0
0.41295013 -1.1115282 0.0423331 0
0.42549664 -1.1452993 0.13130435 0
0.50592315 -1.3109764 -0.050167836 0
0.43516991 -1.1276366 0.043151874 0
0.44323885 -1.1485453 0.13230589 0
0.52136672 -1.3019472 -0.050069578 0
0.45560497 -1.1377283 0.043754134 0
0.46199441 -1.1536839 0.13355738 0
0.53798127 -1.2959125 -0.050094049 0
0.46630803 -1.1232629 0.043420207 0
0.47982341 -1.1558193 0.1344934 0
0.55211502 -1.2840573 -0.049900569 0
0.48478511 -1.1274678 0.043815244 0
0.49363637 -1.1480532 0.13430235 0
0.56552571 -1.270906 -0.049662296 0
0.51548755 -1.1584553 0.13626777 0
0.58391374 -1.2689668 -0.049869884 0
0.59488773 -1.2510879 -0.049457721 0
0.6179722 -1.258526 -0.050055414 0
0.62860149 -1.2404467 -0.049647234 0
0.64783806 -1.2394505 -0.049929906 0
0.66200072 -1.2286115 -0.049825124 0
0.67468625 -1.2152582 -0.049624205 0
0.69200635 -1.2102908 -0.049773239 0
1.2711626 -2.2232113 0.46186605 0
0.70997125 -1.2062058 -0.04996895 0
1.2955718 -2.201112 0.46062768 0
0.72424263 -1.1957511 -0.049909689 0
1.3288205 -2.1939311 0.46258992 0
0.74975687 -1.2034158 -0.050619654 0
1.3690093 -2.1973619 0.46691108 0
0.74906367 -1.1692387 -0.049574882 0
1.4064009 -2.1952984 0.47019845 0
0.77155858 -1.1716075 -0.050083283 0
1.4482393 -2.1991434 0.47489032 0
0.77932262 -1.1515645 -0.049642056 0
1.5122029 -2.2345035 0.096325785 0
1.5097537 -2.2308843 0.28949368 0
1.5007675 -2.2176058 0.48291975 0
0.79859388 -1.1486125 -0.049944341 0
1.5246024 -2.1928258 0.09534917 0
1.5247034 -2.1929712 0.2870425 0
1.5204229 -2.1868145 0.48034561 0
0.8168534 -1.143872 -0.050181497 0
0.82885605 -1.1303115 -0.050040506 0
0.84226924 -1.1187853 -0.049995806 0
0.85672486 -1.108655 -0.050021231 0
0.8702274 -1.0972896 -0.049998891 0
0.4862164 -0.61308134 0.46404821 0
0.88233477 -1.0842303 -0.049906138 0
1.5712097 -1.9307333 0.088869907 0
0.50239331 -0.61735076 0.47203073 0
0.90571892 -1.0847749 -0.050452169 0
1.5743405 -1.8855795 0.087697059 0
0.50488847 -0.60470235 0.46718374 0
0.90192443 -1.0529921 -0.049498267 0
1.2407891 -1.448615 0.068095408 0
1.2471337 -1.4560223 0.20603138 0
1.2456998 -1.4543482 0.34535226 0
0.93407357 -1.0631346 -0.050523929 0
1.5781809 -1.7962383 0.085363619 0
0.93833488 -1.0412457 -0.050041251 0
1.5804266 -1.7537582 0.084283903 0
1.3057021 -1.4489036 0.4976173 0
0.94402796 -1.0214036 -0.049655013 0
1.5770088 -1.7062656 0.082949236 0
1.3532128 -1.4641266 0.35956171 0
1.3131133 -1.4207402 0.49358448 0
0.96211565 -1.0150294 -0.049930155 0
1.5718027 -1.6582478 0.08157061 0
1.406019 -1.4833463 0.36860052 0
1.3476367 -1.4217533 0.49979228 0
0.9729479 -1.0009091 -0.049834277 0
1.5974451 -1.6433535 0.08182095 0
1.4296223 -1.4707077 0.36990395 0
1.3785449 -1.4181625 0.50459224 0
0.98971206 -0.99283117 -0.050048623 0
0.62380987 -0.62577581 0.22543252 0
0.62422359 -0.62619084 0.29416072 0
0.61679399 -0.61873782 0.36172417 0
0.61295104 -0.61488277 0.43440074 0
1.0011635 -0.97934091 -0.050000127 0
0.63330823 -0.61950392 0.29474235 0
0.63971418 -0.62577015 0.37051532 0
0.62711805 -0.61344862 0.43893161 0
1.0153853 -0.96853656 -0.050097324 0
0.82558608 -0.78749448 0.040732965 0
1.0241879 -0.95259446 -0.049935844 0
0.82544768 -0.76774669 0.040245961 0
1.0464134 -0.94897532 -0.050432861 0
0.84633029 -0.76752317 0.040789668 0
1.0395588 -0.91917187 -0.049540725 0
0.84462821 -0.7468155 0.04025121 0
1.0585024 -0.91243398 -0.049892005 0
0.86727184 -0.74759227 0.040878437 0
1.0644735 -0.89446795 -0.049638618 0
1.2562675 -1.0556308 0.058582377 0
1.0827855 -0.88683689 -0.049967829 0
1.2692136 -1.0395277 0.058571018 0
0.61193615 -0.50119585 0.46909419 0
1.0841706 -0.86539412 -0.049524944 0
1.2523733 -0.99965495 0.057208452 0
0.61109537 -0.48778147 0.46370444 0
1.1137347 -0.86626112 -0.050373159 0
1.2562982 -0.97714674 0.056821167 0
0.63461626 -0.49360347 0.47679806 0
1.1196318 -0.84843934 -0.050152682 0
1.2558447 -0.95165938 0.056254197 0
1.1243739 -0.82995498 -0.04989301 0
1.2581258 -0.92868376 0.055828121 0
1.1429526 -0.82163942 -0.05025433 0
1.2757968 -0.91713768 0.056095339 0
1.1387368 -0.79705447 -0.049623732 0
1.2624948 -0.88367844 0.055016842 0
1.1503174 -0.78376722 -0.049694367 0
1.2619342 -0.85981709 0.054516267 0
1.1687725 -0.77497506 -0.050066084 0
1.2595586 -0.83517241 0.053955041 0
1.1706963 -0.75520349 -0.049737189 0
1.2591524 -0.81226557 0.053495262 0
1.1744003 -0.73681939 -0.04949645 0
1.2638984 -0.79297048 0.053268444 0
1.2008922 -0.73253125 -0.050220232 0
1.2705104 -0.77499759 0.053131603 0
1.2663975 -0.77248877 0.15942091 0
1.2181951 -0.72219872 -0.050559506 0
1.2864456 -0.76266062 0.053392153 0
1.2556061 -0.74437755 0.15687001 0
1.2123927 -0.69827932 -0.049949791 0
1.3350505 -0.7689243 0.055003215 0
1.2602446 -0.72583973 0.15629524 0
1.2339575 -0.69015604 -0.050476201 0
1.3626977 -0.76216078 0.055742439 0
1.2480315 -0.69802767 0.1536783 0
1.2300156 -0.66775978 -0.049967032 0
1.4168303 -0.76917911 0.057556022 0
1.2461746 -0.67653227 0.15238854 0
1.2402593 -0.65323764 -0.05004504 0
1.4464645 -0.76184487 0.05836552 0
1.2719966 -0.66995358 0.15450233 0
1.2495307 -0.63815415 -0.050090928 0
1.2674463 -0.64730388 0.15294744 0
1.2602323 -0.62373918 -0.050201092 0
1.2632494 -0.62523252 0.15147892 0
1.2672743 -0.60748076 -0.050172914 0
1.2572832 -0.60269141 0.14984156 0
1.2745893 -0.59136778 -0.050163727 0
1.2603321 -0.58475286 0.14931555 0
1.2791375 -0.57401717 -0.050054286 0
1.2458501 -0.55907935 0.14675413 0
1.2918 -0.56026697 -0.05026973 0
1.2642051 -0.54829878 0.14809121 0
1.2855296 -0.53841931 -0.049757939 0
1.2628335 -0.52891344 0.1471387 0
1.2458234 -0.52178907 0.24359359 0
1.3077234 -0.52846044 -0.050355412 0
1.2701856 -0.51329118 0.14723055 0
1.2521359 -0.50599718 0.24356273 0
1.3140272 -0.51185673 -0.050345968 0
1.3171382 -0.51306856 0.15191205 0
1.2574018 -0.48979929 0.24336801 0
1.3037901 -0.48905262 -0.049713854 0
1.3430754 -0.50378853 0.15415962 0
1.2617074 -0.47326738 0.24302866 0
1.3196706 -0.47614282 -0.050086789 0
1.359606 -0.49055171 0.15533569 0
1.2601234 -0.45465794 0.24160162 0
1.3074024 -0.45319432 -0.049400654 0
1.3881652 -0.48118976 0.15789381 0
1.2565809 -0.43557772 0.23985179 0
1.3163223 -0.43779993 -0.049525466 0
1.4325062 -0.47644195 0.16224203 0
1.2545887 -0.41726777 0.23844971 0
1.3441429 -0.42833328 -0.050365265 0
1.4567652 -0.46422219 0.16431445 0
1.2600256 -0.40152791 0.23850316 0
1.3331448 -0.40641049 -0.049757462 0
1.2731271 -0.38811404 0.24003898 0
1.3383217 -0.38964051 -0.049763609 0
1.2438697 -0.36214164 0.23364438 0
1.3407116 -0.37208968 -0.049674317 0
1.2645726 -0.3509587 0.23668428 0
1.3611149 -0.35935691 -0.050258633 0
1.2869618 -0.33977926 0.24005492 0
1.3687944 -0.34300798 -0.050378717 0
1.2602304 -0.31580275 0.23430842 0
1.3685791 -0.324696 -0.050216328 0
1.2789696 -0.3034361 0.23706332 0
1.2496411 -0.29647788 0.32767352 0
1.3678331 -0.30637965 -0.050043426 0
1.2679653 -0.28401035 0.23434214 0
1.2418967 -0.27817127 0.32469863 0
1.3721192 -0.28924584 -0.050063014 0
1.2755331 -0.26888528 0.2350964 0
1.2474643 -0.26296833 0.32526276 0
1.3894246 -0.27466884 -0.050564215 0
1.3789781 -0.25460556 -0.050063401 0
1.3718667 -0.23547027 -0.049693637 0
1.3838488 -0.2196265 -0.050023526 0
1.4051995 -0.22301501 0.25659767 0
1.2595603 -0.19990104 0.32537612 0
1.3767359 -0.20076028 -0.049671087 0
1.4246384 -0.20774558 0.25964907 0
1.2505686 -0.18236214 0.32243457 0
1.3938555 -0.1853646 -0.050200544 0
1.4695299 -0.19542833 0.2673611 0
1.2632654 -0.16799784 0.32513699 0
1.3980914 -0.16804148 -0.050272912 0
1.2820362 -0.1540924 0.32944265 0
1.3811351 -0.14838731 -0.049592074 0
1.2605088 -0.13542739 0.32344693 0
1.3870857 -0.13138242 -0.049742389 0
1.2560214 -0.11896823 0.32188556 0
1.4021538 -0.11501625 -0.05022683 0
1.2723925 -0.10437216 0.3257184 0
1.4143455 -0.098105252 -0.050615288 0
1.263062 -0.087611556 0.32302186 0
1.3919216 -0.078953497 -0.049773276 0
1.2762668 -0.072393253 0.32613993 0
1.381142 -0.060906917 -0.049356475 0
1.2670031 -0.055873509 0.32356721 0
1.4087429 -0.044360273 -0.050318871 0
1.2750987 -0.040151913 0.32547975 0
1.2559434 -0.039548729 0.41805217 0
1.4003011 -0.026451072 -0.050001472 0
1.2646651 -0.02388897 0.32271415 0
1.2504821 -0.023621058 0.41610232 0
1.4048564 -0.0088447724 -0.05015618 0
1.2717618 -0.0080068279 0.32447359 0
1.2616924 -0.0079434318 0.41976604 0
1.411544 0.0088868756 -0.050394937 0
1.3009559 0.0081906291 0.33192208 0
1.2507174 0.0078743352 0.41611463 0
1.4064616 0.026567442 -0.050221451 0
1.3119484 0.024782129 0.33477974 0
1.2485985 0.023585478 0.41547555 0
1.4009832 0.044115923 -0.050041702 0
1.3227341 0.041651919 0.33763909 0
1.2569714 0.039581098 0.41839433 0
1.3970194 0.061607093 -0.049923867 0
1.3297212 0.058639318 0.33958417 0
1.2726111 0.056120817 0.42380178 0
1.3968689 0.079234123 -0.04995019 0
1.3437138 0.076219022 0.34337547 0
1.2581269 0.071364298 0.41924429 0
1.3943365 0.096717328 -0.04989922 0
1.3527029 0.093829438 0.34594706 0
1.2546871 0.087030634 0.41843009 0
1.403697 0.11514284 -0.05028211 0
1.3594444 0.11151288 0.3480027 0
1.2519838 0.10269807 0.4179267 0
1.3817884 0.13088067 -0.049552426 0
1.7307633 0.16393499 0.062067043 0
1.7181234 0.16273776 0.18547195 0
1.7328241 0.16413018 0.31391129 0
1.3423188 0.12714218 0.34400132 0
1.2599421 0.11933959 0.4210515 0
1.3916798 0.14952022 -0.049970698 0
1.6089606 0.17286459 0.057772547 0
1.6148299 0.17349516 0.17454338 0
1.5337559 0.16478468 0.27820274 0
1.3689927 0.14708276 0.35128394 0
1.2547024 0.13480356 0.41983452 0
1.3992584 0.16818173 -0.050314873 0
1.604624 0.19286534 0.057699461 0
1.61314 0.19388892 0.17461078 0
1.4920667 0.1793367 0.27102903 0
1.3688229 0.1645236 0.35174409 0
1.2541198 0.15073702 0.42024133 0
1.3942566 0.18541795 -0.050214991 0
1.6070077 0.21371108 0.057877354 0
1.6009374 0.21290381 0.17356636 0
1.4909534 0.19827737 0.27125883 0
1.22259 0.16258854 0.314668 0
1.264606 0.16817611 0.42443112 0
1.3978521 0.2038395 -0.050432932 0
1.610382 0.23483133 0.058100775 0
1.6056637 0.23414329 0.17438459 0
1.4767383 0.21534297 0.26914459 0
1.1315211 0.16500223 0.29174051 0
1.250232 0.18231304 0.42034402 0
1.3764924 0.21845898 -0.049757604 0
1.0397559 0.16501656 0.037585218 0
1.0307678 0.16359006 0.11216232 0
1.0305871 0.16356139 0.18819125 0
1.0379049 0.16472277 0.26811695 0
1.042729 0.16548841 0.35125166 0
1.3814658 0.23711789 -0.050041351 0
0.96241903 0.16519175 0.03486206 0
0.95101255 0.16323392 0.10369925 0
0.94023257 0.16138363 0.17204945 0
0.96865481 0.16626209 0.25074887 0
0.95430708 0.16379941 0.3221353 0
1.3732678 0.25355124 -0.049856089 0
0.90360093 0.16683501 0.03280497 0
0.91584963 0.16909651 0.1000893 0
0.91635561 0.16918994 0.1680568 0
0.92271322 0.17036377 0.23939262 0
0.91874987 0.169632 0.31082901 0
1.3723906 0.27130148 -0.049944315 0
0.92187285 0.18224074 0.033548981 0
0.92247933 0.18236062 0.10105678 0
0.91784233 0.18144394 0.1687351 0
0.9187634 0.18162604 0.2389423 0
0.92476088 0.18281165 0.31361657 0
1.3636266 0.28745559 -0.049753152 0
0.91599548 0.19309393 0.033420928 0
0.91485959 0.19285448 0.10048012 0
0.91596913 0.19308837 0.16882434 0
0.92718619 0.19545296 0.24175371 0
0.92298144 0.19456659 0.31381914 0
1.3754178 0.30807856 -0.050320923 0
0.93412054 0.20923278 0.034175657 0
0.91422409 0.20477618 0.10068554 0
0.91468078 0.20487848 0.16904899 0
0.91854501 0.20574403 0.2401571 0
0.92838418 0.20794791 0.31652132 0
1.3556063 0.32161817 -0.049740322 0
0.92104584 0.21851853 0.033795297 0
0.91075784 0.21607769 0.10059548 0
0.92850471 0.22028814 0.17210291 0
0.93948281 0.22289272 0.24634567 0
0.91839933 0.21789064 0.31402764 0
1.3588295 0.34051082 -0.050011951 0
0.93426043 0.23411752 0.034385618 0
0.932989 0.23379892 0.10336795 0
0.91870087 0.23021844 0.17080952 0
0.92475975 0.23173673 0.24323095 0
0.90880114 0.22773765 0.3117016 0
1.3477107 0.355818 -0.049763687 0
0.9148441 0.24153402 0.033780258 0
0.91993153 0.2428772 0.10225202 0
0.91898185 0.24262646 0.17141621 0
0.91693628 0.2420864 0.24195582 0
0.91486245 0.24153887 0.31479871 0
1.3525198 0.37536681 -0.050111819 0
0.91696751 0.25448734 0.033974297 0
0.92076212 0.25554049 0.10269387 0
0.90941012 0.25238994 0.17021014 0
0.91022968 0.25261739 0.24100642 0
0.91030139 0.2526373 0.31429902 0
1.347926 0.39243674 -0.050120737 0
0.92245054 0.2685633 0.034300026 0
0.92808455 0.27020359 0.10388179 0
0.91269308 0.26572251 0.17143726 0
0.91499037 0.26639134 0.24313582 0
0.91700459 0.26697776 0.31774899 0
1.3343875 0.40678933 -0.049803846 0
0.91946536 0.2802999 0.034317549 0
0.91643715 0.27937675 0.10296369 0
0.9175818 0.2797257 0.17300346 0
0.91768539 0.27975729 0.24476863 0
0.92739153 0.28271621 0.32255614 0
1.3321545 0.42451298 -0.049916059 0
0.91431361 0.29136109 0.034259491 0
0.93457097 0.29781643 0.10541404 0
0.91676736 0.29214302 0.17352974 0
0.91967082 0.29306826 0.246263 0
0.91535693 0.29169354 0.31962258 0
1.3273062 0.4414531 -0.04993872 0
0.91896939 0.30564302 0.03457541 0
0.92296916 0.30697334 0.10453315 0
0.91030163 0.30276018 0.17301379 0
0.9109925 0.30298999 0.2449414 0
0.91626525 0.30474365 0.32125422 0
1.323203 0.45867142 -0.049997684 0
0.92013556 0.31895325 0.034767643 0
0.92507493 0.32066539 0.10522062 0
0.91077161 0.31570736 0.17384492 0
0.92496973 0.32062894 0.24976525 0
0.92348331 0.32011369 0.32517245 0
1.3137757 0.47401592 -0.049863055 0
0.91699874 0.3308571 0.034803778 0
0.92761075 0.33468598 0.10598001 0
0.91477883 0.33005616 0.1753892 0
0.90992951 0.3283065 0.24680075 0
0.92449319 0.33356112 0.32698113 0
1.3012989 0.48811814 -0.049618859 0
0.92297459 0.34620845 0.035193257 0
0.89660263 0.33631632 0.10291301 0
0.93158859 0.34943956 0.17944154 0
0.92741787 0.34787512 0.25271222 0
0.91812235 0.34438837 0.32623577 0
1.293287 0.5037778 -0.049551327 0
0.9333936 0.36358744 0.035762277 0
0.92732805 0.36122474 0.10695332 0
0.91767514 0.35746461 0.1776145 0
0.915353 0.35656005 0.25062826 0
0.92218846 0.35922268 0.32926178 0
1.2892095 0.52097887 -0.049642514 0
1.2771206 0.51609367 0.35143358 0
1.237112 0.49992594 0.44391581 0
1.2756799 0.53429395 -0.049376696 0
1.2655776 0.53006274 0.35006616 0
1.2901711 0.55956054 -0.050206345 0
1.2469552 0.54081726 0.34677127 0
1.2622553 0.56644124 -0.049393661 0
1.2538284 0.56265968 0.35062525 0
1.2803319 0.59403211 -0.050389737 0
1.2495167 0.57973492 0.35143307 0
1.2617044 0.60481083 -0.049952399 0
1.2600514 0.60401839 0.35650694 0
1.257912 0.62259084 -0.050108664 0
1.2526276 0.61997539 0.35658708 0
1.2443402 0.63550329 -0.049882855 0
1.2393254 0.63294214 0.35504106 0
1.2332798 0.64956164 -0.049763419 0
1.2370856 0.65156615 0.35672158 0
1.2274177 0.66634935 -0.049861498 0
1.2485434 0.67781824 0.36245793 0
1.2169522 0.68064493 -0.049780581 0
1.2311039 0.68856001 0.35988373 0
1.2205997 0.70300615 -0.050287914 0
1.2279445 0.70723641 0.36153486 0
1.2028924 0.71312666 -0.049924392 0
1.229338 0.72880483 0.36461824 0
1.2103963 0.73832864 -0.050617684 0
1.2212838 0.74496984 0.36498275 0
1.1909299 0.74719 -0.050193105 0
1.2166923 0.76335335 0.36645418 0
1.1785812 0.76029003 -0.050072186 0
1.2028335 0.77593488 0.36519396 0
1.1742871 0.77863163 -0.050302312 0
1.1963205 0.79324132 0.36622018 0
1.1473606 0.78175259 -0.049566627 0
1.2031261 0.81974834 0.37143397 0
1.1597676 0.81177497 -0.050540213 0
1.1904262 0.83323431 0.37072307 0
1.123968 0.80799192 -0.049419601 0
1.1880202 0.8540374 0.37329328 0
1.1184373 0.82557279 -0.049629573 0
1.1784509 0.86987185 0.37369862 0
1.1209391 0.84943002 -0.050211243 0
1.1615667 0.88021696 0.37182978 0
1.1139789 0.86645097 -0.050384197 0
1.1609687 0.90299952 0.37524849 0
1.0900038 0.87005025 -0.049791411 0
1.1520541 0.91957921 0.37608004 0
1.0925617 0.894844 -0.05041898 0
1.1295717 0.9251563 0.37251425 0
1.0651414 0.89502913 -0.049669765 0
1.1292057 0.94886184 0.37630409 0
1.0690697 0.921543 -0.050390087 0
1.123399 0.96837515 0.37840265 0
1.0417187 0.92108178 -0.049643662 0
1.1153319 0.98617011 0.37983808 0
1.0400056 0.94316417 -0.050124031 0
1.1078465 1.0046879 0.38156712 0
1.0287167 0.95680666 -0.050156653 0
1.0956049 1.0190192 0.38174009 0
1.0078425 0.9613418 -0.049725175 0
1.0857868 1.0356898 0.38283294 0
0.99587941 0.974172 -0.049736228 0
1.090471 1.0667018 0.38918966 0
0.9932704 0.99640071 -0.050228562 0
1.0751402 1.0785285 0.38853434 0
0.98166621 1.0098779 -0.050280828 0
1.0648758 1.0954789 0.38977915 0
0.96264482 1.0155877 -0.049957618 0
1.0826598 1.1422033 0.056185946 0
1.0902637 1.1502254 0.17032081 0
1.0825915 1.1421313 0.28381112 0
1.0583411 1.1165471 0.39250246 0
0.95127314 1.0292425 -0.050036103 0
1.0598459 1.1467143 0.055746935 0
1.0544268 1.140851 0.16695338 0
1.0589622 1.1457582 0.28137648 0
1.0339438 1.1186891 0.38864779 0
0.94109946 1.0443135 -0.050188687 0
1.0396804 1.1537062 0.055445991 0
1.0436053 1.1580617 0.16753562 0
1.0394197 1.1534169 0.2800208 0
1.0107054 1.1215533 0.38519081 0
0.92852992 1.056825 -0.050224077 0
1.0216231 1.1627809 0.055259474 0
1.0160685 1.1564587 0.16543962 0
1.0125126 1.1524116 0.27665949 0
1.0029647 1.1415446 0.38768837 0
0.90931356 1.0616189 -0.049903788 0
1.0059096 1.1743942 0.055205043 0
1.0160815 1.1862699 0.16786064 0
1.0107015 1.1799889 0.28020242 0
0.99897945 1.1663034 0.3917937 0
0.89926976 1.0770508 -0.050092924 0
0.98456448 1.1792078 0.054844178 0
0.98536706 1.180169 0.16522849 0
0.98899245 1.1845112 0.27829695 0
0.98735797 1.1825535 0.39304483 0
0.88548678 1.0881035 -0.050084423 0
0.98381478 1.208931 0.055645995 0
0.98123813 1.2057647 0.16706885 0
0.97709864 1.200678 0.27918243 0
0.97191072 1.194303 0.39285111 0
0.86880094 1.0954909 -0.049916934 0
0.96954453 1.2225208 0.055705156 0
0.98737353 1.2450018 0.17076923 0
0.9742021 1.2283937 0.28275204 0
0.96334696 1.2147062 0.39554089 0
0.86044669 1.1134713 -0.050238539 0
0.98814547 1.2787215 0.057694431 0
0.98608691 1.2760575 0.17331202 0
0.98284119 1.2718573 0.28988481 0
0.94275784 1.219987 0.39336365 0
0.8372882 1.112169 -0.049700137 0
0.93982673 1.2483708 0.39866808 0
0.8225379 1.1216954 -0.049659058 0
0.92464715 1.2609419 0.39893273 0
0.82876617 1.1605539 -0.05091333 0
0.90662509 1.2695829 0.3980231 0
0.79676539 1.1459826 -0.049829986 0
0.88134283 1.2676297 0.39390025 0
0.78379452 1.1581724 -0.049926911 0
0.87597454 1.294382 0.39875397 0
0.76544946 1.1623309 -0.04968673 0
0.8490904 1.2893392 0.39387542 0
0.75480002 1.1781929 -0.04995453 0
0.84066206 1.3122177 0.39759916 0
0.73124743 1.1737067 -0.049369995 0
0.82787985 1.3288089 0.39943588 0
0.71779674 1.1851087 -0.049465485 0
0.80702376 1.3324258 0.39743689 0
0.70179772 1.1923194 -0.04939368 0
0.79918778 1.3577803 0.40196604 0
0.69812775 1.2209967 -0.050213523 0
0.77956331 1.3634243 0.40069899 0
0.68102562 1.2266769 -0.050090477 0
0.75700337 1.3635296 0.39789692 0
0.66275686 1.2300148 -0.049882039 0
0.74167025 1.3764707 0.39891636 0
0.6472249 1.2382774 -0.049882647 0
0.72864306 1.3940475 0.40131944 0
0.63044143 1.2440774 -0.049792551 0
0.70711994 1.3953905 0.39911106 0
0.61920679 1.2610401 -0.050155412 0
0.6912058 1.4076692 0.40010181 0
0.60626245 1.2750098 -0.050403394 0
0.67383987 1.4171295 0.40034726 0
0.58199281 1.2647922 -0.049705822 0
0.66059256 1.4356059 0.40318504 0
0.56569207 1.2712798 -0.049676906 0
0.63709939 1.4317535 0.3998183 0
0.5508303 1.2810694 -0.049784459 0
0.6209293 1.4440991 0.4010506 0
0.5364964 1.2923357 -0.049955789 0
0.60549021 1.4585309 0.40290919 0
0.52220029 1.3040289 -0.050149631 0
0.58647144 1.4645256 0.40249321 0
0.50224859 1.3014545 -0.049803462 0
0.56853414 1.4732175 0.40288252 0
0.48471111 1.3046856 -0.049689595 0
0.55194968 1.48567 0.40435517 0
0.47316948 1.3244692 -0.05021216 0
0.53700787 1.5031619 0.40724322 0
0.4547914 1.3254726 -0.050029121 0
0.51534539 1.5019549 0.40512598 0
0.4387835 1.333274 -0.050111063 0
0.49823841 1.5139318 0.40663201 0
0.42255002 1.3405612 -0.05018099 0
0.47634161 1.5112177 0.40425992 0
0.40299433 1.337007 -0.049854036 0
0.45415968 1.5067574 0.40150505 0
0.38306031 1.331314 -0.049457978 0
0.43639615 1.5166811 0.40265322 0
0.37119085 1.3539921 -0.050122846 0
0.41688374 1.520666 0.40228561 0
0.35543546 1.3636321 -0.050310031 0
0.40116981 1.5390924 0.40579167 0
0.33604345 1.3591254 -0.04998368 0
0.38001367 1.5369627 0.40393651 0
0.32103366 1.3723538 -0.050317511 0
0.36003879 1.5390927 0.40327281 0
0.30278242 1.3719996 -0.050160758 0
0.34317881 1.555048 0.40628892 0
0.28746313 1.3852439 -0.050508626 0
0.32134691 1.548525 0.40349543 0
0.26499948 1.3630412 -0.049573474 0
0.29920551 1.5389819 0.39999539 0
0.25295979 1.3946279 -0.050602417 0
0.28188115 1.5540783 0.40296456 0
0.23307669 1.3840271 -0.050107315 0
0.26319841 1.5628921 0.40435851 0
0.21312749 1.3707465 -0.049525414 0
0.24273124 1.5611454 0.40308383 0
0.1994922 1.398852 -0.050446112 0
0.22220767 1.5581343 0.40155208 0
0.17826605 1.3735374 -0.049448334 0
0.21303685 1.6414459 0.059093233 0
0.21495849 1.6562521 0.17948912 0
0.21528192 1.6587441 0.30166134 0
0.20086557 1.5476664 0.39817095 0
0.16208842 1.3853396 -0.049795792 0
0.18856137 1.6115988 0.057928644 0
0.18933399 1.6182024 0.1750934 0
0.18879484 1.6135943 0.29299477 0
0.18181239 1.5539167 0.39915833 0
0.14498925 1.3906928 -0.049918633 0
0.1669044 1.6008962 0.05746384 0
0.16688423 1.6007028 0.17295881 0
0.16745754 1.6062016 0.29124644 0
0.16352297 1.5684626 0.40233395 0
0.12809102 1.399222 -0.050162911 0
0.14575334 1.592159 0.057079814 0
0.14611109 1.5960668 0.17224543 0
0.14681736 1.6037819 0.29044941 0
0.14313644 1.5635729 0.40058556 0
0.10967983 1.3907933 -0.049807277 0
0.12523998 1.5881035 0.056873377 0
0.12448148 1.5784854 0.1701654 0
0.12616594 1.5998452 0.28942579 0
0.12306706 1.5605497 0.39938235 0
0.092823401 1.4020942 -0.050166149 0
0.10531977 1.5908514 0.056919776 0
0.10591503 1.5998429 0.17231038 0
0.10513303 1.5880309 0.28702623 0
0.1039473 1.5701203 0.40146485 0
0.074988618 1.3999156 -0.050050441 0
0.086364046 1.6122763 0.057642866 0
0.085905954 1.6037244 0.17259823 0
0.085601903 1.5980483 0.28861913 0
0.083977155 1.567717 0.40054822 0
0.057536453 1.4051547 -0.050207872 0
0.066087678 1.6139927 0.057669908 0
0.065971479 1.6111548 0.17329477 0
0.065966129 1.6110243 0.29078957 0
0.064534381 1.5760581 0.40243983 0
0.040018521 1.4120921 -0.050433747 0
0.046345431 1.6353431 0.058407295 0
0.046256233 1.6321957 0.17548135 0
0.046329249 1.6347721 0.29494739 0
0.044827495 1.5817813 0.40372509 0
0.022009952 1.3981625 -0.049922388 0
0.024691675 1.5685166 0.40022838 0
0.0044294191 1.4065118 -0.050214533 0
0.0049382378 1.5680813 0.40006971 0
-0.01322593 1.4006644 -0.050007757 0
-0.014777143 1.5649424 0.39928472 0
-0.030938957 1.403927 -0.050134175 0
-0.034501102 1.5655676 0.39952341 0
-0.048204921 1.3916267 -0.049712669 0
-0.054137468 1.5628933 0.39898327 0
-0.066029079 1.3973793 -0.049943905 0
-0.073580146 1.5571833 0.39773056 0
-0.084175825 1.4057438 -0.05027676 0
-0.093415007 1.5600389 0.39872882 0
-0.10169236 1.4021347 -0.050189499 0
-0.11874628 1.3937875 -0.049940277 0
-0.13618511 1.3911479 -0.049903184 0
-0.15384749 1.3907415 -0.049954142 0
-0.17237821 1.3970565 -0.050254948 0
-0.18883552 1.386554 -0.049958732 0
-0.20724364 1.3905392 -0.050192371 0
-0.22236589 1.3731846 -0.049663078 0
-0.23834828 1.3628994 -0.049395733 0
-0.25833768 1.3749466 -0.049946304 0
-0.2773205 1.38 -0.050252743 0
-0.29274869 1.3674041 -0.04992434 0
-0.30678543 1.3497187 -0.049415771 0
-0.32584819 1.3544468 -0.049735151 0
-0.34448442 1.3565685 -0.049968384 0
-0.35932654 1.343853 -0.049662746 0
-0.38054311 1.3546153 -0.050233576 0
-0.40052262 1.3597431 -0.05060675 0
-0.41394308 1.3426926 -0.050162185 0
-0.42612934 1.3228242 -0.049616445 0
-0.44537809 1.3251688 -0.049910787 0
-0.45885876 1.3104045 -0.049568404 0
-0.47732586 1.3100228 -0.049777377 0
-0.49125475 1.2972331 -0.04952253 0
-0.51938367 1.3210448 -0.050677206 0
-0.52977884 1.2992027 -0.050091252 0
-0.54569995 1.2914932 -0.050054982 0
-0.56310511 1.2872332 -0.050160717 0
-0.58185583 1.2857587 -0.050384775 0
-0.59706599 1.2763361 -0.050306167 0
-0.61369836 1.2699777 -0.050356146 0
-0.62208116 1.2469971 -0.049751598 0
-0.63233292 1.2285734 -0.049330316 0
-0.65940642 1.2424738 -0.050217871 0
-0.67645335 1.2367327 -0.050326116 0
-0.68197715 1.2103789 -0.04959923 0
-0.69722474 1.2018019 -0.0496036 0
-0.72640342 1.2165449 -0.050585635 0
-0.73546833 1.1972172 -0.050163079 0
-0.74996275 1.1870362 -0.05012821 0
-0.75720036 1.1657231 -0.049626883 0
-0.78425556 1.1747265 -0.050426591 0
-0.79893285 1.1646831 -0.050423324 0
-0.80463904 1.1419076 -0.049871992 0
-0.81224847 1.1224204 -0.049463686 0
-0.82982743 1.1168292 -0.049673837 0
-0.85495925 1.1208912 -0.050329354 0
-0.85405636 1.0909426 -0.049463596 0
-0.87798983 1.0928798 -0.050048731 0
-0.8967436 1.0878799 -0.050332893 0
-0.90238547 1.0670607 -0.049891427 0
-0.92275703 1.0636919 -0.05027321 0
-0.92312914 1.0374377 -0.049577825 0
-0.94026649 1.0302771 -0.049797501 0
-0.95154679 1.0166281 -0.049712989 0
-0.97148055 1.0120763 -0.050084632 0
-0.98318541 0.99878728 -0.050035704 0
-0.99810773 0.98873007 -0.050157532 0
-1.0064285 0.97217274 -0.049956527 0
-1.0246327 0.96511561 -0.050252914 0
-1.0383152 0.95361805 -0.050331045 0
-1.0366322 0.92828315 -0.049678903 0
-1.046207 0.91338384 -0.049582642 0
-1.0646617 0.90612757 -0.049912546 0
-1.0758148 0.89250791 -0.049904581 0
-1.0933905 0.88408494 -0.050199479 0
-1.0991408 0.86607575 -0.049958821 0
-1.1176759 0.85809255 -0.050306175 0
-1.1128435 0.83232272 -0.049612999 0
-1.1274562 0.82131958 -0.049799439 0
-1.1448036 0.81209165 -0.050110016 0
-1.1548394 0.79754466 -0.050105732 0
-1.1622279 0.78121853 -0.049995527 0
-1.1694939 0.76490182 -0.049889803 0
-1.1793613 0.7503252 -0.049903728 0
-1.195628 0.73969281 -0.050193932 0
-1.2019018 0.72280854 -0.050071236 0
-1.2075187 0.70563751 -0.049931105 0
-1.214438 0.68931615 -0.049854346 0
-1.2244787 0.67477357 -0.049913768 0
-1.2311885 0.65839899 -0.049845375 0
-1.2474724 0.6470415 -0.050170794 0
-1.2508752 0.62894738 -0.049985167 0
-1.2591645 0.61337596 -0.050003797 0
-1.2554039 0.59210384 -0.049554441 0
-1.2773622 0.58291358 -0.050127491 0
-1.274352 0.56226206 -0.049727574 0
-1.2933353 0.5512889 -0.05019347 0
-1.291505 0.53139359 -0.049858794 0
-1.2943466 0.51360309 -0.049714878 0
-1.3070216 0.49967757 -0.049956083 0
-1.3184524 0.48511001 -0.050155528 0
-1.3179989 0.4661867 -0.049911004 0
-1.3227277 0.44920254 -0.049871922 0
-1.3307537 0.43331805 -0.049964845 0
-1.3364683 0.41664141 -0.049978461 0
-1.3553457 0.40387416 -0.050490212 0
-1.3413671 0.38138688 -0.04978662 0
-1.3462697 0.36452323 -0.049794272 0
-1.3616322 0.35034236 -0.050195329 0
-1.3569326 0.3309741 -0.049864493 0
-1.3663076 0.31508818 -0.050059229 0
-1.3653612 0.29681507 -0.049883664 0
-1.3579813 0.27735159 -0.049482521 0
-1.3758831 0.26300597 -0.050010186 0
-1.3776314 0.24540207 -0.049957454 0
-1.3683003 0.22600301 -0.04951195 0
-1.373054 0.20906359 -0.049584772 0
-1.3894373 0.19369067 -0.050084367 0
-1.0240374 0.14275311 0.42808816 0
-1.3835998 0.17514689 -0.049790498 0
-1.0271059 0.1300191 0.4286525 0
-1.3988992 0.15921459 -0.050264936 0
-1.0495965 0.11945899 0.35144907 0
-1.0253593 0.11670043 0.42727637 0
-1.3758981 0.13907184 -0.04937163 0
-1.0568665 0.10682502 0.35340491 0
-1.0252331 0.10362761 0.42664623 0
-1.4017315 0.12387443 -0.050238658 0
-1.0784413 0.095304482 0.27621719 0
-1.0423856 0.092118159 0.34814718 0
-1.0175245 0.089921117 0.42293361 0
-1.3943062 0.10554339 -0.049920935 0
-1.0971581 0.083050467 0.039282016 0
-1.0983225 0.083138615 0.11837364 0
-1.0910689 0.082589537 0.19733578 0
-1.0803355 0.081777073 0.27641672 0
-1.0495229 0.079444677 0.35016906 0
-1.0177727 0.077041313 0.4226 0
-1.3965193 0.08804173 -0.049956519 0
-1.0635366 0.06704928 0.35453489 0
-1.0183985 0.064203605 0.42249072 0
-1.3964106 0.070395105 -0.049916964 0
-1.0440246 0.052630808 0.34778199 0
-1.020206 0.051430076 0.42293832 0
-1.4054153 0.053118039 -0.05021096 0
-1.051252 0.039732348 0.34999514 0
-1.0251107 0.03874433 0.42473575 0
-1.409521 0.035507336 -0.050337683 0
-1.0595469 0.026691118 0.35261694 0
-1.0210998 0.025722593 0.42290616 0
-1.3984743 0.017613592 -0.049931295 0
-1.048321 0.013203459 0.34879795 0
-1.0032731 0.012636088 0.41542411 0
-1.4030149 3.7230259e-06 -0.050089441 0
-1.0549184 2.7993206e-06 0.3509652 0
-1.0170227 2.6987609e-06 0.42108396 0
