# .PCD v0.7 - Point Cloud Data file format
VERSION 0.7
FIELDS x y z
SIZE 4 4 4
TYPE F F F
COUNT 1 1 1
WIDTH 1413
HEIGHT 1
VIEWPOINT 0 0 0 1 0 0 0
POINTS 1413
DATA ascii
0.32131228 1.7714715 -0.29589421
0.37443715 2.0643618 -0.29484805
0.44836766 2.4719584 -0.29361987
0.56244153 3.1008749 -0.29415932
0.61974871 3.4168231 -0.24276565
0.62159377 3.4269955 -0.16214578
0.6195507 3.4157317 -0.080713101
0.61713499 3.4024131 9.8718287e-05
0.61536551 3.3926573 0.080364838
0.14542969 0.86357248 -0.29587469
0.15764846 0.9361285 -0.29630417
0.17120628 1.0166359 -0.2956388
0.18752873 1.1135598 -0.29556376
0.20515287 1.2182133 -0.29279903
0.22963789 1.3636073 -0.29393247
0.26249382 1.5587083 -0.29771817
0.2979188 1.7690645 -0.29484215
0.34925467 2.0739009 -0.29555893
0.41903728 2.4882753 -0.29490787
0.52385002 3.1106615 -0.2944386
0.82315534 4.887959 -0.34652606
1.2329353 7.3212638 -0.34563825
2.4679413 14.654823 -0.34552902
0.57923692 3.439553 0.081296474
0.13328883 0.85725778 -0.29311287
0.14326759 0.92143697 -0.29105991
0.15913033 1.0234594 -0.29701686
0.17328289 1.1144828 -0.29520619
0.19195832 1.2345953 -0.29613197
0.21182825 1.3623903 -0.29307193
0.23970513 1.5416827 -0.29386643
0.24680717 1.58736 -0.26401937
0.24461994 1.5732927 -0.22375876
0.24783553 1.5939741 -0.18853137
0.24682213 1.5874563 -0.14995407
0.24640632 1.584782 -0.11212239
0.24640739 1.5847888 -0.074665777
0.24764287 1.5927349 -0.037476745
0.24726491 1.590304 4.5946115e-05
0.2481792 1.5961844 0.03765019
0.24712799 1.5894235 0.074976169
0.24651681 1.5854926 0.11226472
0.24833491 1.5971859 0.15096623
0.12297556 0.86231244 -0.29428837
0.1335036 0.93613577 -0.29514846
0.14745298 1.0339497 -0.29949862
0.15643845 1.0969565 -0.29001898
0.17673939 1.2393079 -0.29670504
0.19402067 1.3604853 -0.29211342
0.22016685 1.543824 -0.29372284
0.2522091 1.7685064 -0.29359722
0.29818714 2.0909071 -0.29681802
0.35562837 2.4936888 -0.29439443
0.44348842 3.1097691 -0.29320377
0.69676298 4.8857465 -0.34501559
1.0479107 7.3480163 -0.3455455
2.0977445 14.709517 -0.34546319
0.24654338 1.7287779 0.0407013
0.24605243 1.7253352 0.081234798
0.24356996 1.7079281 0.12070733
0.25301972 1.7741903 0.1673823
0.11323398 0.87246627 -0.29724345
0.12315824 0.94893253 -0.29867047
0.13117434 1.0106965 -0.29226136
0.14600615 1.1249754 -0.29691714
0.1609202 1.239888 -0.29633528
0.17990088 1.3861338 -0.2971105
0.20070192 1.5464054 -0.29370984
0.23232824 1.7900858 -0.29667053
0.26938358 2.0755968 -0.29413974
0.32348675 2.4924607 -0.29374528
0.40714121 3.1370173 -0.29526606
0.6352914 4.8949113 -0.34507048
0.95625025 7.3678946 -0.34588662
1.9128877 14.738772 -0.34555712
0.45841876 3.53211 0.083015382
0.22047985 1.698794 0.11985607
0.10118583 0.86481643 -0.2941798
0.11128862 0.95116311 -0.29890776
0.12033389 1.0284714 -0.29693958
0.13044511 1.11489 -0.29379848
0.14474201 1.2370831 -0.29520589
0.16168648 1.3819042 -0.29574409
0.18215792 1.5568699 -0.29523829
0.20956808 1.7911394 -0.29638427
0.24314034 2.0780752 -0.2940338
0.24422267 2.0873258 -0.24561678
0.24601136 2.1026132 -0.19759743
0.24513245 2.0951014 -0.14746648
0.24462385 2.0907545 -0.097998329
0.2453942 2.0973387 -0.049096704
0.24691758 2.1103587 6.0658316e-05
0.24612732 2.1036046 0.049364377
0.24366723 2.0825784 0.09773507
0.24538551 2.0972643 0.14773987
0.09152665 0.87789577 -0.29821321
0.097630858 0.93644547 -0.29387304
0.1063701 1.0202696 -0.29416156
0.11798055 1.1316336 -0.29779568
0.13001278 1.247043 -0.2971684
0.14372559 1.378572 -0.29462028
0.16265832 1.5601691 -0.29545212
0.18666765 1.7904593 -0.29585934
0.21845223 2.0953274 -0.29606214
0.26143992 2.5076523 -0.29466608
0.32752064 3.1414783 -0.29481596
0.51075113 4.8989692 -0.34434041
0.76916683 7.377614 -0.34532386
1.541539 14.785972 -0.34564376
0.37679142 3.6140685 0.084691733
0.078733265 0.86005491 -0.29179293
0.087264329 0.95324534 -0.2987766
0.094360821 1.0307649 -0.29682142
0.10392578 1.1352493 -0.29837912
0.11401534 1.2454641 -0.2964265
0.12626067 1.3792278 -0.29439729
0.14229071 1.5543344 -0.29398456
0.16368486 1.7880368 -0.29509506
0.1917138 2.0942152 -0.29554048
0.22873959 2.498672 -0.29324916
0.28778437 3.1436567 -0.29465696
0.4494569 4.9097114 -0.34467033
0.67753786 7.4011889 -0.34600055
1.353629 14.786574 -0.34523201
0.33178526 3.6243074 0.084827036
0.19051524 2.0811224 0.097410642
0.070643753 0.89579695 -0.30359337
0.075061783 0.95181972 -0.29800987
0.080887549 1.0256932 -0.29504427
0.088894591 1.1272265 -0.2959528
0.098859824 1.2535903 -0.29804069
0.1098352 1.3927634 -0.29696772
0.12265309 1.5553005 -0.29385188
0.14166248 1.7963487 -0.29614896
0.16541408 2.0975304 -0.29569092
0.19905624 2.5241294 -0.29591924
0.24859101 3.1522543 -0.29514602
0.38869432 4.9288316 -0.34564161
0.58219481 7.3825121 -0.34475735
1.167891 14.809422 -0.34539473
0.29006127 3.678117 0.085994147
0.058363423 0.88157749 -0.29850152
0.061302766 0.92597622 -0.28965375
0.068302408 1.0317055 -0.29650283
0.074599735 1.1268264 -0.29557773
0.082168445 1.2411515 -0.29481399
0.091549754 1.3828559 -0.29458606
0.10326921 1.5598779 -0.29444769
0.11859066 1.7913078 -0.29504833
0.13842461 2.090899 -0.294487
0.16705842 2.5234118 -0.29556507
0.20877744 3.1535761 -0.29500023
0.3258267 4.9216013 -0.34481952
0.4897922 7.398294 -0.34517899
0.98146486 14.824992 -0.34544224
0.13843903 2.0911167 0.048845548
0.13780285 2.0815072 0.097235344
0.046823841 0.87412494 -0.295755
0.05080371 0.94842267 -0.2964516
0.054760091 1.0222818 -0.29357308
0.060767062 1.1344222 -0.29734588
0.065763421 1.2276961 -0.29139808
0.07426326 1.3863744 -0.29511297
0.083788291 1.5641911 -0.29503933
0.096195221 1.7958082 -0.29556665
0.1123642 2.097657 -0.29521614
0.13499863 2.5202048 -0.29496694
0.16880357 3.151288 -0.29456401
0.26489922 4.9452376 -0.34621438
0.39743242 7.4194169 -0.34590358
0.79506153 14.842505 -0.34558964
0.19831255 3.7021728 0.086412378
0.11042048 2.0613708 0.09622211
0.03568805 0.87157321 -0.29471624
0.038966984 0.95165128 -0.29728383
0.04244262 1.0365332 -0.29748866
0.046081081 1.1253917 -0.29480341
0.050809924 1.2408794 -0.29435202
0.056865729 1.3887743 -0.29544801
0.063918315 1.5610125 -0.29426461
0.073202923 1.7877611 -0.29406717
0.086135663 2.1036043 -0.29587707
0.10336319 2.5243349 -0.29527459
0.12937053 3.1594858 -0.29515463
0.20255782 4.9468651 -0.34612232
0.3033739 7.4089942 -0.34521219
0.60791421 14.846476 -0.34547645
0.15276079 3.7307227 0.087026961
0.086720429 2.1178856 0.098801337
0.086829618 2.1205521 0.14849259
0.024919491 0.87930816 -0.29720208
0.026532933 0.93624008 -0.29234201
0.029381184 1.0367434 -0.29741919
0.032058809 1.1312259 -0.29620248
0.034892458 1.231214 -0.2919319
0.039148398 1.3813889 -0.29374868
0.044039804 1.5539869 -0.29281247
0.050712422 1.7894366 -0.2942144
0.059603091 2.1031523 -0.29568449
0.07173533 2.5312502 -0.29595435
0.090099148 3.1792352 -0.29687005
0.14012387 4.9444056 -0.34579936
0.2102764 7.419805 -0.34556514
0.42063692 14.842579 -0.34523514
0.10590148 3.7368355 0.087131537
0.059769943 2.10904 0.098345779
0.060377426 2.1304755 0.14912242
0.056095749 1.9793925 0.1849454
0.013823103 0.87810028 -0.29671144
0.01506466 0.95696902 -0.29873174
0.016327616 1.0371971 -0.29746681
0.017739605 1.1268926 -0.29498595
0.019787086 1.2569569 -0.29795307
0.022116425 1.4049261 -0.29867089
0.02481677 1.5764631 -0.29696518
0.028112385 1.7858142 -0.29353735
0.033173528 2.1073186 -0.296188
0.03975879 2.5256417 -0.29521665
0.049823273 3.1649787 -0.2954568
0.077840589 4.9447536 -0.34572774
0.11695237 7.4292946 -0.34591109
0.23361073 14.839912 -0.34507734
0.058942899 3.7442949 0.087281242
0.031819839 2.0213268 0.18881115
0.0027245639 0.86515439 -0.29230225
0.0029864174 0.94830292 -0.2959913
0.0032077727 1.0185918 -0.29209608
0.0035410286 1.1244134 -0.29430199
0.0039188303 1.2443801 -0.29493672
0.0043882569 1.3934412 -0.29619411
0.0049615186 1.5754739 -0.29674354
0.0056333514 1.7888068 -0.29399428
0.0066115558 2.0994246 -0.29504338
0.0080078188 2.5427921 -0.29718599
0.0099517778 3.160074 -0.29496384
0.015581523 4.9477358 -0.34589511
0.023398237 7.4298449 -0.34589556
0.046753876 14.846162 -0.34518161
0.0057965941 1.8406427 5.2547639e-05
0.0057955389 1.8403076 0.042893317
0.0057662525 1.831008 0.085347138
0.0058017899 1.8422924 0.12889996
0.0054595689 1.7336241 0.16191772
-0.0089291139 0.94561911 -0.2951653
-0.0096794488 1.0250819 -0.29396883
-0.010594039 1.1219395 -0.29366609
-0.011709305 1.2400495 -0.29392195
-0.013156137 1.3932732 -0.29617015
-0.014862078 1.5739374 -0.29646587
-0.017057948 1.8064862 -0.29691169
-0.019823959 2.0994151 -0.29505375
-0.023723807 2.5124202 -0.29364794
-0.029740909 3.1496487 -0.29400238
-0.046532642 4.9279423 -0.34452498
-0.070066199 7.4202142 -0.34546089
-0.14023291 14.851072 -0.34530947
-0.03574137 3.7851152 0.088225782
-0.018796364 1.9905897 0.18592526
-0.019180138 0.87034327 -0.29412532
-0.020788362 0.94332016 -0.29450607
-0.022853114 1.0370132 -0.29744938
-0.024737164 1.1225063 -0.29387268
-0.027279615 1.2378758 -0.2934649
-0.030937642 1.4038674 -0.29848129
-0.034500178 1.5655257 -0.29493988
-0.039789554 1.8055434 -0.29681554
-0.046352092 2.1033337 -0.29566309
-0.055831328 2.5334761 -0.29616761
-0.06989155 3.1714914 -0.29609996
-0.10874135 4.9343915 -0.34504423
-0.16313797 7.4027643 -0.34471682
-0.32728782 14.851445 -0.34538656
-0.083265603 3.7783701 0.088086024
-0.044001181 1.9966557 0.1865288
-0.030260365 0.87358576 -0.29532644
-0.032531649 0.93915534 -0.29331043
-0.03562228 1.0283787 -0.29507804
-0.039140798 1.1299548 -0.2959283
-0.043634027 1.2596698 -0.29873818
-0.047535881 1.3723122 -0.29187638
-0.054616947 1.5767354 -0.29715776
-0.062274743 1.7978081 -0.29564941
-0.072623014 2.0965521 -0.29481497
-0.087938994 2.5387087 -0.29688525
-0.10940947 3.1585395 -0.29499599
-0.1708319 4.9317422 -0.34498206
-0.25658861 7.4074507 -0.34505814
-0.51369596 14.829876 -0.34500802
-0.130825 3.7767839 0.088080466
-0.054838151 1.5831212 0.073836505
-0.055132978 1.5916326 0.11142824
-0.055106305 1.5908625 0.1486724
-0.041664686 0.88175344 -0.29824135
-0.044617351 0.94424105 -0.29505083
-0.048711594 1.0308878 -0.29595053
-0.053245038 1.1268295 -0.29526198
-0.058143303 1.2304919 -0.29196897
-0.065264091 1.3811898 -0.29391602
-0.074044898 1.5670187 -0.29547885
-0.08529079 1.8050166 -0.29698792
-0.099555753 2.1069074 -0.29642388
-0.11897752 2.5179319 -0.29460737
-0.14919671 3.1574633 -0.29504752
-0.18151399 3.841397 -0.26884949
-0.18043517 3.8185656 -0.17797035
-0.18037334 3.8172572 -0.088851959
-0.18142428 3.839498 0.00010973378
-0.17864513 3.7806828 0.088216864
-0.074987985 1.5869774 0.074054524
-0.075872354 1.6056935 0.11247059
-0.075608976 1.6001195 0.14961462
-0.051746458 0.86417043 -0.29249135
-0.056976572 0.95151389 -0.29752401
-0.061305206 1.0238024 -0.29411471
-0.067711011 1.13078 -0.29649702
-0.074825674 1.2495955 -0.29670188
-0.083944492 1.4018805 -0.29852027
-0.093422674 1.560167 -0.29438534
-0.1076696 1.798092 -0.29604819
-0.12627861 2.1088641 -0.29689938
-0.15059531 2.514955 -0.29445758
-0.18878193 3.1526752 -0.29479888
-0.22803561 3.8082151 -0.266707
-0.22822799 3.8114281 -0.17775755
-0.22816907 3.8104439 -0.088753209
-0.22806305 3.8086734 0.00010892624
-0.22734198 3.7966313 0.088648774
-0.094764657 1.5825783 0.11092629
-0.06227183 0.85860425 -0.29084972
-0.069152378 0.95347333 -0.29838532
-0.07491219 1.0328896 -0.29697272
-0.080860615 1.1149064 -0.29257867
-0.090124182 1.2426326 -0.29529467
-0.10098911 1.3924383 -0.29675686
-0.11317612 1.5604728 -0.29468861
-0.13029496 1.7965075 -0.29603395
-0.15200762 2.0958817 -0.29531771
-0.18369469 2.5327833 -0.29679227
-0.22903237 3.1578991 -0.2955336
-0.27695125 3.8186049 -0.26765767
-0.27727482 3.8230662 -0.17844902
-0.27687269 3.8175218 -0.088992223
-0.27787995 3.8314099 0.00010966788
-0.11640894 1.6050469 0.037508011
-0.11611743 1.6010276 0.07482291
-0.11553775 1.593035 0.11175232
-0.074879482 0.87889987 -0.2980206
-0.080733009 0.94760579 -0.29684371
-0.087735273 1.0297951 -0.29637712
-0.095599674 1.1221037 -0.29475993
-0.10590307 1.2430401 -0.29568496
-0.11881327 1.3945738 -0.29750729
-0.13211496 1.5507028 -0.29313451
-0.15448941 1.8133236 -0.29910183
-0.17891915 2.1000681 -0.29620156
-0.21397173 2.5114987 -0.2945905
-0.26784155 3.1437969 -0.29450613
-0.42040393 4.9345021 -0.34621793
-0.63077945 7.4037905 -0.34592956
-1.2597778 14.786674 -0.34504223
-0.32272109 3.7879474 0.088607699
-0.13401498 1.5730042 0.11045679
-0.084472716 0.86289924 -0.29293251
-0.091540948 0.93510222 -0.29326472
-0.099357046 1.0149446 -0.29244
-0.11024634 1.1261801 -0.29617193
-0.12074726 1.2334483 -0.29374173
-0.13537334 1.3828555 -0.29534763
-0.15293498 1.5622499 -0.29565787
-0.17537992 1.7915277 -0.29584748
-0.20406678 2.0845675 -0.29435438
-0.24532238 2.5059986 -0.29428437
-0.30794585 3.145705 -0.29502475
-0.48111483 4.9146481 -0.34522262
-0.72286034 7.3841081 -0.34540787
-1.4465767 14.776961 -0.34521326
-0.37241939 3.8043106 0.089093104
-0.095571093 0.86393797 -0.29367039
-0.10362812 0.93677139 -0.29417413
-0.11322073 1.0234861 -0.2952885
-0.12458885 1.126251 -0.29657969
-0.13772579 1.2450054 -0.29688349
-0.15219955 1.3758446 -0.29423624
-0.17258759 1.5601472 -0.2956478
-0.19716232 1.7822963 -0.29470965
-0.22821325 2.0629888 -0.29168999
-0.27696726 2.5037124 -0.29440212
-0.34554648 3.1236508 -0.29334119
-0.54402357 4.9178324 -0.34590009
-0.81426328 7.3607297 -0.34476656
-1.6325796 14.758097 -0.34522545
-0.41836697 3.7819293 0.088685304
-0.10645784 0.86279815 -0.29371533
-0.11468954 0.92951286 -0.29232508
-0.12624176 1.0231389 -0.29562354
-0.13851927 1.1226432 -0.29606548
-0.15472923 1.2540185 -0.29947361
-0.16994338 1.377323 -0.2949867
-0.19250207 1.5601523 -0.29608464
-0.21948047 1.7788014 -0.29456541
-0.25603214 2.0750382 -0.29382622
-0.30849561 2.5002334 -0.2944265
-0.38637218 3.1313918 -0.29450169
-0.60666043 4.9167399 -0.34633309
-0.9078036 7.3573852 -0.34511799
-1.818934 14.741732 -0.34535107
-0.46553457 3.7729716 0.088605687
-0.23538604 1.9077097 0.089596257
-0.23336649 1.891342 0.13333468
-0.11893994 0.87333488 -0.2977885
-0.12828039 0.94191861 -0.29671109
-0.13954264 1.0246135 -0.29653376
-0.15220293 1.1175736 -0.29521054
-0.16729853 1.2284153 -0.2938391
-0.18779159 1.3788887 -0.29580504
-0.20943598 1.537816 -0.29232299
-0.24404667 1.7919503 -0.29722819
-0.28231221 2.072921 -0.2940065
-0.3383466 2.4843624 -0.29303598
-0.4194628 3.0799704 -0.29013935
-0.42043567 3.0871139 -0.21781066
-0.41799173 3.0691688 -0.1442031
-2.0032055 14.708847 -0.34514424
-0.51200724 3.7594924 0.088433541
-0.25935555 1.9043583 0.089585133
-0.25934368 1.904271 0.13446569
-0.23871495 1.7528014 0.16521928
-0.12942921 0.86842901 -0.29664791
-0.14082012 0.94485837 -0.29817209
-0.15276492 1.0250043 -0.29718003
-0.16634448 1.1161188 -0.29535615
-0.18328442 1.2297804 -0.29469433
-0.20491233 1.3748969 -0.29547879
-0.23295291 1.5630403 -0.29765189
-0.23670842 1.5882385 -0.26391226
-0.23571457 1.5815701 -0.2247204
-0.23684974 1.5891868 -0.18778497
-0.23710568 1.5909041 -0.1501357
-0.23735707 1.5925908 -0.11256685
-0.23792139 1.5963771 -0.075139649
-0.23688541 1.5894262 -0.037363041
-0.23757704 1.5940666 4.6010678e-05
-0.23908302 1.6041714 0.037802316
-0.23663846 1.5877692 0.074826337
-0.23744145 1.5931569 0.11269929
-0.23888955 1.6028732 0.15135857
-0.14106329 0.87111354 -0.29814807
-0.15220657 0.9399271 -0.29719719
-0.16367917 1.0107743 -0.29362863
-0.18281122 1.1289212 -0.29932946
-0.1991419 1.2297688 -0.29526904
-0.22124746 1.3662781 -0.29420194
-0.24959828 1.5413539 -0.29409733
-0.28722307 1.7736996 -0.29530728
-0.3358922 2.0742481 -0.29530105
-0.35010603 2.1620233 -0.25597438
-0.41835105 2.5834594 -0.24428222
-0.41842455 2.5839133 -0.18299301
-0.41811305 2.5819895 -0.12176947
-2.3739753 14.660101 -0.34529403
-0.60697711 3.7482889 0.088501565
-0.15041302 0.86007673 -0.29499546
-0.16089915 0.92003745 -0.29152575
-0.17702085 1.012223 -0.29467365
-0.19510095 1.1156068 -0.29642707
-0.21543112 1.2318568 -0.29639822
-0.23963833 1.370276 -0.29568917
-0.27070242 1.5479035 -0.29597396
-0.308431 1.7636393 -0.29425564
-0.36257365 2.0732324 -0.29578298
-0.38098353 2.1785021 -0.25847292
-0.42101401 2.4074004 -0.22811794
-0.42107591 2.4077544 -0.17087938
-0.42024192 2.4029856 -0.113568
-2.5607266 14.642491 -0.34561136
-0.64888 3.710361 0.087792002
-0.15967637 0.84984314 -0.29215193
-0.17343843 0.92308867 -0.29316136
-0.19031049 1.0128866 -0.29554108
-0.20825672 1.1084017 -0.29518601
-0.23156069 1.232432 -0.29721466
-0.2546604 1.3553752 -0.29314247
-0.28851262 1.5355464 -0.2942825
-0.33045259 1.7587627 -0.29411295
-0.38759482 2.0628901 -0.29498038
-0.41096061 2.1872494 -0.26010412
-0.43333265 2.3063197 -0.21903954
-0.42780975 2.2769253 -0.16196387
-0.42927489 2.2847233 -0.10822567
-2.745199 14.610731 -0.34565023
-0.69616705 3.7051992 0.08787033
-0.17199485 0.85587931 -0.29494816
-0.18780632 0.93456024 -0.29753205
-0.20059472 0.99819779 -0.29196903
-0.22308214 1.1100994 -0.29636279
-0.24289766 1.2087053 -0.29220715
-0.2732622 1.3598051 -0.29482144
-0.3103891 1.5445557 -0.2967346
-0.35241482 1.7536836 -0.29398236
-0.41136789 2.0470455 -0.29343218
-0.46037376 2.2909081 -0.27309877
-0.45938334 2.2859795 -0.21763989
-0.46141848 2.2961068 -0.16372862
-0.45846462 2.2814078 -0.10833351
-2.9257686 14.559186 -0.34527501
-0.74226844 3.69367 0.087811612
-0.18443593 0.86148447 -0.29765651
-0.19759227 0.92293656 -0.29460025
-0.21425681 1.0007751 -0.29348877
-0.235269 1.0989213 -0.29414615
-0.25865346 1.2081481 -0.29283664
-0.28893676 1.3495988 -0.29337415
-0.32796586 1.5319003 -0.29507333
-0.3789497 1.7700415 -0.29750091
-0.43721136 2.0421767 -0.29350016
-0.49282628 2.3019493 -0.27513295
-0.49284899 2.3020554 -0.21974383
-0.49214008 2.298744 -0.16434555
-0.49011171 2.2892697 -0.10899125
-3.1094301 14.523881 -0.34533894
-0.78392345 3.661639 0.087277874
-0.19103387 0.84046364 -0.29120156
-0.20991497 0.92353201 -0.29561061
-0.2289298 1.0071888 -0.29619154
-0.25041038 1.1016937 -0.29570881
-0.27846104 1.2251041 -0.29777279
-0.31003451 1.3640133 -0.29733264
-0.34686589 1.5260549 -0.29476532
-0.39826983 1.7522092 -0.29532322
-0.46660322 2.0528455 -0.29585445
-0.52241433 2.2983894 -0.27547193
-0.51855755 2.2814214 -0.21838021
-0.52018404 2.2885771 -0.16407397
-0.52217907 2.2973545 -0.10968051
-3.2941623 14.492841 -0.34555981
-0.82571971 3.6327975 0.086831369
-0.20276907 0.84284621 -0.29288852
-0.22093077 0.91833854 -0.29481536
-0.24231151 1.0072114 -0.29707196
-0.26276836 1.092244 -0.29403722
-0.28903279 1.2014169 -0.29287678
-0.32513788 1.3514942 -0.29547274
-0.36734399 1.5269315 -0.29580468
-0.42085448 1.7493576 -0.29571235
-0.49079177 2.0400643 -0.29487976
-0.5525353 2.2967124 -0.27608293
-0.54923439 2.2829919 -0.21917516
-0.55131805 2.2916529 -0.16477913
-0.54860246 2.280365 -0.10919055
-3.4736984 14.439053 -0.34529287
-0.87024528 3.6173313 0.086716741
-0.21557465 0.84892601 -0.29592109
-0.23416248 0.92212427 -0.29695377
-0.25657403 1.0103803 -0.29893583
-0.27541307 1.0845678 -0.29288113
-0.30474487 1.2000754 -0.29346201
-0.34046373 1.3407352 -0.29403451
-0.38234866 1.5056766 -0.29259661
-0.44418409 1.7491826 -0.29660475
-0.51560104 2.0304203 -0.29440087
-0.58461016 2.302176 -0.27760261
-0.5835278 2.2979138 -0.22129561
-0.57980382 2.2832489 -0.16468675
-0.58184069 2.29127 -0.11005481
-3.6548345 14.39262 -0.34525567
-0.91319627 3.5961375 0.086477481
-0.22511089 0.84189701 -0.29443568
-0.23750667 0.88825631 -0.28698754
-0.26573902 0.99384302 -0.29500967
-0.2926231 1.0943874 -0.29650441
-0.31997421 1.1966784 -0.29359329
-0.35798717 1.3388438 -0.29458496
-0.39321694 1.4706005 -0.28671977
-0.39021283 1.4593654 -0.24827464
-0.3941052 1.4739225 -0.21441402
-0.3947497 1.4763329 -0.17860544
-0.39242092 1.4676235 -0.14180093
-0.39381102 1.4728222 -0.10658133
-0.61183023 2.288197 -0.11026853
-3.8370085 14.35011 -0.34536758
-0.94703484 3.5418358 0.08545167
-0.23747209 0.84532696 -0.2966575
-0.25703135 0.9149518 -0.29663479
-0.28117073 1.0008805 -0.29812598
-0.30793458 1.0961516 -0.29800931
-0.34138596 1.2152281 -0.29917523
-0.37255031 1.3261635 -0.29280391
-0.3934119 1.4004244 -0.27398181
-0.39676222 1.4123504 -0.24110708
-0.392598 1.397527 -0.20400362
-0.3925961 1.3975203 -0.16965538
-0.39245337 1.3970122 -0.13544525
-0.39172426 1.3944168 -0.10125642
-0.64540148 2.2974288 -0.11109625
-4.0166469 14.298016 -0.34530374
-0.99107301 3.5279121 0.085410066
-0.24562098 0.83386415 -0.29369688
-0.26789388 0.9094789 -0.29593065
-0.28953037 0.98293304 -0.29384276
-0.31752765 1.0779816 -0.29413319
-0.352806 1.1977489 -0.29594234
-0.39319804 1.3348768 -0.29579747
-0.39243349 1.3322811 -0.2615962
-0.39286849 1.333758 -0.22851671
-0.3980636 1.351395 -0.19798551
-0.39396346 1.3374753 -0.16295539
-0.3921527 1.3313279 -0.12954542
-0.39388391 1.3372053 -0.097454406
-0.67454076 2.2900133 -0.11113959
-4.196022 14.245169 -0.34527612
-1.0270356 3.4867058 0.084718846
-0.25563318 0.82918829 -0.29316053
-0.27577198 0.89451182 -0.29216737
-0.30719447 0.99643588 -0.29901204
-0.33255643 1.0787015 -0.29544881
-0.36520371 1.1845984 -0.29380605
-0.39378634 1.2773108 -0.28411761
-0.3953267 1.2823073 -0.25274113
-0.39186558 1.2710806 -0.21860611
-0.39406502 1.2782148 -0.18797636
-0.39158174 1.27016 -0.15534227
-0.3966313 1.286539 -0.12566324
-0.39683867 1.2872115 -0.094167627
-0.70437509 2.2847567 -0.1113061
-4.3728185 14.183957 -0.34509975
-1.0649642 3.4543867 0.08425273
-0.26704526 0.82898289 -0.29425347
-0.28642461 0.88914174 -0.29156831
-0.31319433 0.97224247 -0.2929123
-0.34742588 1.0785067 -0.29657018
-0.38187721 1.1854532 -0.29518729
-0.39149028 1.215295 -0.27139819
-0.3914724 1.2152394 -0.24047467
-0.39614186 1.2297347 -0.21233635
-0.40062895 1.2436639 -0.1836226
-0.39288053 1.2196107 -0.14975321
-0.3921321 1.2172873 -0.11937189
-0.41517287 1.2888123 -0.094659679
-0.7386741 2.2930503 -0.11215439
-4.5540309 14.13698 -0.34532464
-1.1020439 3.421051 0.08377149
-0.27876928 0.82944447 -0.29563987
-0.30361333 0.90336496 -0.29746249
-0.32789811 0.9756214 -0.29515085
-0.36142108 1.0753649 -0.29693416
-0.39545476 1.176628 -0.29420641
-0.39664397 1.1801664 -0.26464772
-0.39218462 1.1668981 -0.23186763
-0.39529908 1.1761649 -0.20392984
-0.3939282 1.1720859 -0.17377296
-0.39320418 1.1699317 -0.14424977
-0.39038584 1.161546 -0.11437869
-0.4297587 1.2786952 -0.094306603
-0.77223176 2.2976828 -0.11284763
-4.7312365 14.077225 -0.3452929
-1.1369469 3.3828487 0.08318001
-0.29068351 0.83013123 -0.29716575
-0.30929503 0.88328183 -0.29210877
-0.33688271 0.96206647 -0.2923103
-0.37261108 1.0640992 -0.29509562
-0.39509183 1.1282996 -0.28334376
-0.39242223 1.1206757 -0.25239527
-0.39775464 1.135904 -0.22668622
-0.39751413 1.1352171 -0.19768232
-0.39525095 1.1287539 -0.16807316
-0.39445364 1.1264771 -0.13949329
-0.39626038 1.1316366 -0.11191596
-0.44301912 1.2651699 -0.093713082
-0.80246955 2.2916851 -0.1130404
-1.1751305 3.3559268 -0.082672179
-1.1715821 3.345793 0.00010120367
-1.1692803 3.3392198 0.082462728
-0.29987651 0.82301229 -0.29594564
-0.32415095 0.88963366 -0.29553583
-0.35197318 0.9659918 -0.29482621
-0.39188755 1.075537 -0.29961228
-0.40475261 1.1108452 -0.28021824
-0.40633732 1.1151944 -0.25229314
-0.40720165 1.1175666 -0.22403225
-0.4041791 1.1092712 -0.19403508
-0.40478295 1.1109285 -0.16616473
-0.40396139 1.1086737 -0.13790764
-0.40303764 1.1061385 -0.10988746
-0.46508825 1.2764366 -0.094973892
-0.83717465 2.2976291 -0.11384456
-1.2019726 3.2988186 -0.081631728
-1.205204 3.3076873 0.00010050213
-1.1980506 3.2880549 0.081565291
-0.30648005 0.8093074 -0.29238209
-0.33691734 0.88968164 -0.29693758
-0.36535272 0.96476966 -0.29583389
-0.39721903 1.0489174 -0.29356697
-0.41977733 1.1084862 -0.2809343
-0.41844419 1.1049658 -0.25115123
-0.4203535 1.1100075 -0.2235603
-0.41921106 1.1069908 -0.19454414
-0.41852471 1.1051784 -0.16607976
-0.41531035 1.0966903 -0.13705668
-0.41948277 1.1077082 -0.1105594
-0.48018089 1.2679909 -0.094787873
-0.86810464 2.2923629 -0.11411621
-1.2481374 3.2958972 -0.081941865
-1.2520519 3.3062344 0.00010092902
-1.2275114 3.2414312 0.080785751
-0.31759188 0.80779028 -0.29325557
-0.34403735 0.87505394 -0.29347813
-0.37872282 0.96327591 -0.29681465
-0.41312766 1.0507841 -0.29552194
-0.43354258 1.1027092 -0.28083155
-0.42657459 1.0849862 -0.24781127
-0.43317693 1.1017792 -0.22298399
-0.4297412 1.0930405 -0.19302818
-0.43256271 1.1002169 -0.16613953
-0.43728134 1.1122186 -0.13967437
-0.43271446 1.1006029 -0.11038531
-0.49251854 1.2527137 -0.094101988
-0.90043586 2.2902455 -0.11456616
-1.3004227 3.3076057 -0.082633525
-1.3006759 3.30825 0.0001014825
-1.2516227 3.1834841 0.079728015
-0.33111361 0.81200618 -0.29627624
-0.35736972 0.87639534 -0.29541382
-0.38873321 0.95330954 -0.2952286
-0.42057002 1.0313845 -0.29153231
-0.44487509 1.090989 -0.27925125
-0.44327745 1.0870711 -0.24954256
-0.44994938 1.1034329 -0.22444758
-0.4397777 1.0784885 -0.19142112
-0.44441557 1.0898621 -0.16540784
-0.44176692 1.0833668 -0.13673884
-0.44188458 1.0836552 -0.10923494
-0.50957149 1.2496473 -0.094346166
-0.9319483 2.2854626 -0.11490484
-5.6077595 13.752183 -0.34530592
-1.2811366 3.1417942 0.079081677
-0.33954507 0.80359209 -0.29474288
-0.36991253 0.875462 -0.29664582
-0.40069753 0.94831991 -0.29522255
-0.44044718 1.0423944 -0.29618859
-0.46019408 1.0891289 -0.28023615
-0.45422915 1.0750118 -0.24806763
-0.45612279 1.0794934 -0.22072886
-0.45889419 1.0860524 -0.19377393
-0.45268983 1.0713687 -0.1634533
-0.45180315 1.0692703 -0.13566695
-0.45900312 1.0863101 -0.11007647
-0.52119154 1.2334899 -0.093614385
-0.96684533 2.2882066 -0.11564573
-5.7812471 13.682321 -0.34535226
-1.3078024 3.0951407 0.078315675
-0.35015798 0.8004455 -0.29518259
-0.37489259 0.85698777 -0.29196239
-0.41210148 0.94204557 -0.29486138
-0.45271644 1.0348896 -0.29565254
-0.46754652 1.0687906 -0.27649596
-0.47255796 1.0802464 -0.25062883
-0.47743842 1.0914029 -0.22437558
-0.46772468 1.0691978 -0.19180234
-0.46886614 1.071807 -0.16440789
-0.47142038 1.0776459 -0.13747191
-0.47199789 1.0789661 -0.10992584
-0.54249525 1.2401199 -0.094628513
-1.0036203 2.2942309 -0.11657967
-5.9524164 13.606958 -0.34531459
-1.3230882 3.0245204 0.076944254
-1.3232127 3.0248053 0.15389219
-0.35904893 0.79341012 -0.29423213
-0.39251569 0.86736345 -0.29715753
-0.42424047 0.93746746 -0.29507712
-0.46503687 1.0276175 -0.29522452
-0.48637778 1.0747757 -0.27960661
-0.48540881 1.0726346 -0.2502611
-0.48541349 1.0726448 -0.22175825
-0.48092109 1.0627178 -0.19171105
-0.48411635 1.0697784 -0.16501874
-0.47990921 1.0604818 -0.13604245
-0.48855245 1.0795811 -0.11060649
-0.55441916 1.2251304 -0.094009988
-1.0360671 2.2894545 -0.11699062
-6.1264582 13.537971 -0.34549421
-1.3463881 2.9751878 0.076114498
-1.3358464 2.9518931 0.15102649
-0.3626743 0.77528167 -0.28917995
-0.39726391 0.84922326 -0.29263335
-0.43796211 0.93622297 -0.29639778
-0.47400689 1.0132751 -0.29279569
-0.49437129 1.0568078 -0.27652976
-0.49763623 1.0637872 -0.24963911
-0.49715906 1.0627671 -0.22099286
-0.49978244 1.0683751 -0.19385155
-0.49853709 1.0657129 -0.16534686
-0.50111735 1.0712287 -0.13821964
-0.49589422 1.0600632 -0.10923792
-0.57207495 1.2229133 -0.094385147
-1.070817 2.2890644 -0.11765039
-6.2953997 13.457551 -0.34543759
-1.3586205 2.9042962 0.074732624
-1.364127 2.9160674 0.15006049
-0.37972271 0.78579217 -0.29486051
-0.41162169 0.85180336 -0.29528511
-0.44603786 0.9230237 -0.29397389
-0.49030897 1.0146376 -0.29495004
-0.51047462 1.0563681 -0.27807465
-0.51096088 1.0573744 -0.24962431
-0.51544726 1.0666584 -0.22313398
-0.50798357 1.0512131 -0.19188303
-0.52039528 1.0768977 -0.16808558
-0.50923604 1.0538049 -0.13678801
-0.5167169 1.0692856 -0.11084998
-0.59100819 1.2230231 -0.094960473
-1.1121132 2.3013895 -0.11899418
-6.461956 13.37227 -0.34530979
-1.384973 2.8660412 0.074191131
-1.3716421 2.8384542 0.1469437
-0.39284092 0.78747195 -0.29732347
-0.42301914 0.84796596 -0.29577795
-0.45873863 0.9195677 -0.2946896
-0.50236356 1.0070164 -0.29455015
-0.52450198 1.0513941 -0.27848184
-0.52198869 1.046356 -0.24855515
-0.52726752 1.0569377 -0.2224718
-0.52278912 1.0479605 -0.19247571
-0.52527672 1.0529472 -0.16536656
-0.52512777 1.0526485 -0.13748534
-0.5190261 1.0404173 -0.10852621
-0.59759068 1.1979046 -0.093587026
-1.1453578 2.2959349 -0.11944841
-6.631959 13.294139 -0.34542137
-1.3849052 2.7761214 0.072309144
-1.3709054 2.7480578 0.14314631
-0.40421626 0.78536057 -0.29842442
-0.43803173 0.85106146 -0.29875794
-0.47657955 0.92595685 -0.29863659
-0.51151991 0.99384326 -0.29255787
-0.53759569 1.0445064 -0.27842847
-0.53780746 1.0449179 -0.24980243
-0.53447175 1.0384369 -0.2199768
-0.53622031 1.0418341 -0.19257538
-0.53964454 1.0484872 -0.16572021
-0.54031742 1.0497946 -0.13799028
-0.54262829 1.0542843 -0.11067665
-0.62279075 1.2100338 -0.095139772
-1.1795545 2.2917824 -0.1199956
-6.7976885 13.207377 -0.34536374
-1.3961024 2.712518 0.071104743
-1.3883311 2.6974187 0.14140795
-0.41083068 0.77409977 -0.29608777
-0.44380423 0.83622956 -0.2954897
-0.48440883 0.91273797 -0.29631707
-0.52983004 0.99832201 -0.29581678
-0.55091494 1.0380508 -0.27853477
-0.54400414 1.0250293 -0.24666587
-0.55401051 1.0438837 -0.22259076
-0.54090446 1.0191888 -0.1896335
-0.55021125 1.0367249 -0.1649431
-0.55180514 1.0397282 -0.13756953
-0.54972929 1.0358168 -0.10945597
-0.63155794 1.1900009 -0.094182491
-1.2170843 2.2932675 -0.12086622
-6.962575 13.119098 -0.34532055
-1.4000102 2.6379423 0.069606453
-1.3865234 2.61253 0.13786213
-0.41820219 0.76458234 -0.29443833
-0.45596805 0.83362818 -0.29657584
-0.49154487 0.89867187 -0.2937367
-0.53920227 0.98580194 -0.29409549
-0.56708384 1.0367767 -0.28008676
-0.55758744 1.0194149 -0.24698482
-0.56768757 1.0378805 -0.2228173
-0.56584519 1.0345122 -0.193795
-0.56490099 1.0327859 -0.16543503
-0.55717313 1.0186573 -0.13569915
-0.56401104 1.0311589 -0.10970557
-0.65176505 1.191596 -0.094950765
-3.5647454 6.5172815 -0.3458305
-7.1334815 13.04186 -0.34562448
-1.4003247 2.5601578 0.068013869
-1.3917279 2.5444405 0.13518316
-0.42477551 0.75389522 -0.29235938
-0.46622431 0.82745886 -0.29644611
-0.50744849 0.90062392 -0.29643983
-0.54860556 0.97366977 -0.29251382
-0.57794887 1.0257486 -0.27905142
-0.58706135 1.0419215 -0.25420862
-0.57885563 1.0273578 -0.2221055
-0.57833862 1.0264404 -0.1936318
-0.58360654 1.0357898 -0.16708013
-0.58290076 1.0345372 -0.13878135
-0.57249957 1.016077 -0.10885935
-0.6620096 1.1749402 -0.094280355
-3.6430759 6.4657621 -0.34550354
-7.2872534 12.933479 -0.34515673
-1.4005222 2.4856589 0.066497952
-1.3901097 2.4671786 0.13199784
-0.43892992 0.75658077 -0.29552084
-0.47557369 0.81974339 -0.29580399
-0.51897055 0.89454627 -0.29656687
-0.56695884 0.97726345 -0.2957148
-0.59331375 1.0226914 -0.28022999
-0.58281612 1.0045966 -0.24687307
-0.59350252 1.0230167 -0.22276503
-0.59686244 1.0288081 -0.19548078
-0.58613217 1.0103124 -0.16414797
-0.58260524 1.004233 -0.1356895
-0.59931576 1.0330369 -0.11147606
-0.67779487 1.1683109 -0.094425783
-3.7188358 6.4101348 -0.34500602
-7.4559684 12.851807 -0.34545532
-1.3970892 2.4081542 0.064889997
-1.3941702 2.4031224 0.12949973
-0.44703469 0.74867183 -0.29460698
-0.49097914 0.82226777 -0.29892218
-0.53181159 0.89065206 -0.29747236
-0.58701372 0.98310179 -0.29969442
-0.60503757 1.0132873 -0.27971864
-0.60501975 1.0132575 -0.25085375
-0.60914367 1.0201639 -0.22379635
-0.60270566 1.0093819 -0.19321637
-0.60729969 1.0170758 -0.1664761
-0.60296303 1.0098128 -0.13745843
-0.60659057 1.0158882 -0.11044103
-0.69801784 1.1690061 -0.09518481
-1.4085851 2.3590293 -0.12791209
-1.4075532 2.357301 -0.06383539
-1.4104425 2.3621399 7.8542071e-05
-1.4047929 2.3526783 0.063866742
-1.3907604 2.3291774 0.12644868
-0.46245095 0.7527914 -0.29849589
-0.49721545 0.80938208 -0.29649037
-0.54096407 0.88059741 -0.29636583
-0.58487976 0.95208472 -0.29246098
-0.61448252 1.000273 -0.27823997
-0.61173809 0.99580544 -0.24842051
-0.61696619 1.004316 -0.22200644
-0.61343777 0.99857229 -0.19261056
-0.62221229 1.0128556 -0.16705456
-0.61653149 1.0036083 -0.13765973
-0.61392152 0.99935979 -0.10947591
-0.70122623 1.1414769 -0.093654834
-1.4253968 2.3203032 -0.12677546
-1.434495 2.3351138 -0.063718662
-1.4254737 2.3204286 7.7745826e-05
-1.398789 2.2769904 0.062285304
-1.3911397 2.2645388 0.1238807
-0.46732011 0.73967123 -0.29560342
-0.50906587 0.80574614 -0.29748306
-0.54956704 0.86985111 -0.29505479
-0.60259366 0.95378131 -0.29528961
-0.63419372 1.0037977 -0.28141949
-0.63561296 1.0060441 -0.25295132
-0.63287038 1.0017031 -0.2231728
-0.62325287 0.98648053 -0.19177683
-0.63094962 0.99866295 -0.16601095
-0.63333178 1.0024334 -0.13858147
-0.62827599 0.99443114 -0.10979396
-0.72699493 1.1506828 -0.095153704
-1.4601755 2.3111563 -0.12727021
-1.451421 2.2972999 -0.063180536
-1.4588664 2.3090842 7.7975055e-05
-1.3935782 2.2057464 0.06081168
-1.3938347 2.2061524 0.1216372
-0.47707459 0.73446465 -0.29589999
-0.51113731 0.78690475 -0.29287988
-0.56250334 0.86598366 -0.29612207
-0.61578995 0.94801933 -0.29588291
-0.64117414 0.98709875 -0.27897927
-0.64498293 0.99296242 -0.25168431
-0.64225316 0.98875988 -0.22207333
-0.63559115 0.97850358 -0.19176678
-0.64555562 0.99384415 -0.166548
-0.64438838 0.99204713 -0.13825642
-0.64086837 0.986628 -0.10981471
-0.7364037 1.1337063 -0.094509177
-1.4872733 2.2896831 -0.12710896
-1.4956125 2.3025215 -0.063837029
-1.4874737 2.2899916 7.7956654e-05
-1.4006412 2.1563115 0.059930272
-1.3984998 2.1530149 0.11966889
-0.48473451 0.72607762 -0.2949568
-0.52353054 0.7841897 -0.29429966
-0.56925696 0.85268271 -0.29400167
-0.61982054 0.92842126 -0.29217905
-0.66346759 0.99379963 -0.28321186
-0.65006661 0.97372651 -0.2488637
-0.6533336 0.97862011 -0.22162613
-0.64998972 0.97361135 -0.1923968
-0.66478091 0.99576688 -0.1682597
-0.66875488 1.0017194 -0.14076683
-0.66597444 0.9975546 -0.1119554
-0.74764431 1.1198869 -0.09413451
-1.5344508 2.2984343 -0.12865722
-1.5379369 2.3036561 -0.0644003
-1.5365235 2.3015389 7.9002144e-05
-1.3972191 2.0928767 0.058651574
-1.3928646 2.0863543 0.11692935
-0.49443871 0.720792 -0.29531541
-0.54093367 0.78857225 -0.29847705
-0.58316588 0.85013837 -0.29563293
-0.63847649 0.93077004 -0.29542497
-0.66474861 0.96906948 -0.27852765
-0.66719335 0.97263348 -0.25071171
-0.67037249 0.97726804 -0.22321396
-0.67795914 0.9883278 -0.19697635
-0.66704774 0.97242117 -0.16572103
-0.67347693 0.98179358 -0.13914746
-0.67431772 0.98301935 -0.11126824
-0.75702727 1.1035932 -0.093558781
-4.1959877 6.1169043 -0.34533021
-8.408967 12.258579 -0.34562984
-1.4002997 2.0413547 0.057697278
-1.3915223 2.0285592 0.11466319
-0.5090059 0.72235829 -0.29855952
-0.54844093 0.77832264 -0.29718795
-0.59270513 0.84114045 -0.29507592
-0.65466583 0.92907226 -0.29747903
-0.67451787 0.95724535 -0.27754843
-0.68982869 0.97897381 -0.25456491
-0.68932986 0.97826588 -0.22540662
-0.68522614 0.97244215 -0.19551447
-0.68831354 0.97682363 -0.1679351
-0.68800181 0.97638118 -0.13959716
-0.6882537 0.97673869 -0.11152947
-0.77558249 1.1006718 -0.094131596
-4.2745395 6.0662341 -0.34548098
-8.5525026 12.137327 -0.34522021
-1.3977795 1.9836657 0.056559741
-1.3853906 1.9660841 0.11210901
-0.51437569 0.71079946 -0.29643568
-0.55076832 0.76108932 -0.29323262
-0.60251909 0.83260208 -0.29471883
-0.66358876 0.91699237 -0.29626322
-0.70416605 0.97306484 -0.28468359
-0.69695705 0.96310288 -0.25270003
-0.69899541 0.96591967 -0.22457214
-0.69800651 0.96455318 -0.19568001
-0.70218688 0.97032982 -0.16832547
-0.69203758 0.95630485 -0.13796175
-0.69918007 0.96617478 -0.11131971
-0.78334147 1.0824748 -0.093411542
-4.3472161 6.0072803 -0.34521368
-8.7134733 12.040874 -0.34557018
-1.3993171 1.9336721 0.055632286
-1.3866235 1.9161311 0.11024752
-0.51965284 0.69937849 -0.29437825
-0.56362277 0.75855577 -0.29496756
-0.60075343 0.80852836 -0.28885221
-0.67273438 0.90540445 -0.29523286
-0.70766342 0.95241392 -0.28122661
-0.70815849 0.95308024 -0.25239
-0.71088809 0.95675391 -0.22450456
-0.71457845 0.96172053 -0.19691519
-0.71404183 0.96099836 -0.16825314
-0.7064386 0.95076549 -0.13843496
-0.71143866 0.95749485 -0.111343
-0.7982043 1.0742691 -0.09356337
-4.419981 5.9486637 -0.34501627
-8.8618793 11.926824 -0.34547222
-1.3986158 1.8823371 0.054657724
-1.3906176 1.8715727 0.10868268
-0.52801943 0.69225794 -0.2941564
-0.57856101 0.75852025 -0.29776308
-0.63723814 0.83544874 -0.30131254
-0.67681581 0.88733685 -0.29209727
-0.72217673 0.94680715 -0.28223389
-0.72873259 0.95540214 -0.25541466
-0.73019171 0.95731515 -0.22677584
-0.72894937 0.95568633 -0.19754346
-0.72765231 0.95398581 -0.16861624
-0.7241329 0.94937176 -0.13954864
-0.72574461 0.9514848 -0.11169796
-0.82112169 1.0765285 -0.094653197
-4.4926734 5.8901029 -0.34487364
-9.0285006 11.836782 -0.34612975
-1.4112837 1.8502584 0.054237969
-1.392997 1.8262836 0.10706284
-0.53841954 0.68775892 -0.29510221
-0.58467579 0.74684501 -0.29604656
-0.64260995 0.82084811 -0.2989414
-0.69398022 0.8864668 -0.29466417
-0.7433452 0.94952393 -0.28581131
-0.74439013 0.95085871 -0.25668558
-0.73329413 0.93668503 -0.22405845
-0.73876601 0.94367468 -0.19696788
-0.73510528 0.93899858 -0.16759005
-0.73862815 0.94349855 -0.14004138
-0.73903978 0.94402438 -0.11190576
-0.82472569 1.0534766 -0.093532056
-4.5773616 5.8469663 -0.34569535
-9.1509895 11.689164 -0.34515536
-1.4408035 1.8404336 0.054477487
-1.39477 1.7816318 0.10546647
-0.54338098 0.67637467 -0.29313016
-0.59892714 0.74551588 -0.29848558
-0.65086722 0.81016839 -0.29801318
-0.70937711 0.8829987 -0.29645711
-0.75742966 0.94281226 -0.28663924
-0.75336879 0.93775749 -0.25568953
-0.75814152 0.94369829 -0.22800156
-0.7546224 0.93931788 -0.1980262
-0.74982846 0.93335068 -0.16825387
-0.75715494 0.94247025 -0.14129271
-0.74924487 0.93262422 -0.11166392
-0.84657437 1.0537753 -0.094497554
-4.6472454 5.7846689 -0.34544459
-9.296525 11.571871 -0.3451212
-1.4674073 1.8265586 0.054609403
-1.3960727 1.7377647 0.10390209
-0.54848921 0.66539693 -0.29134274
-0.59697646 0.72421896 -0.29294533
-0.66025597 0.80098623 -0.29767025
-0.71044713 0.86187536 -0.29234555
-0.75980991 0.92175955 -0.28312504
-0.77036518 0.93456465 -0.25744352
-0.76132697 0.92359996 -0.22544405
-0.77824974 0.94412971 -0.20109068
-0.7585721 0.92025787 -0.16760232
-0.76484394 0.92786658 -0.14053608
-0.77132738 0.93573195 -0.11318994
-0.86730224 1.0521634 -0.095324799
-4.7177286 5.7232885 -0.34529933
-9.4536057 11.468595 -0.34556401
-1.4934045 1.8117162 0.054723546
-1.3953649 1.6927799 0.10225488
-1.3932048 1.6901594 0.1532522
-0.5695408 0.67347568 -0.29799652
-0.60839546 0.71942079 -0.29408005
-0.66083354 0.78142834 -0.29347116
-0.720056 0.85145819 -0.29186445
-0.78030217 0.92269862 -0.28640881
-0.77897877 0.9211337 -0.25642547
-0.78462219 0.92780703 -0.22886449
-0.77380973 0.91502136 -0.19695063
-0.7798692 0.92218661 -0.16972865
-0.78406376 0.92714667 -0.14191118
-0.78125143 0.92382109 -0.11293021
-0.87853932 1.0388629 -0.095114529
-4.7929087 5.6675611 -0.34555101
-9.5825272 11.331232 -0.34503353
-1.5106918 1.7863761 0.054528415
-1.3940797 1.6484836 0.10063154
-1.3897717 1.6433896 0.15058629
-0.56512088 0.65143311 -0.29136881
-0.61304402 0.70667565 -0.29200256
-0.67457342 0.77760255 -0.29520109
-0.74428201 0.8579579 -0.2972815
-0.8031612 0.92582989 -0.29049703
-0.79535514 0.91683149 -0.25799543
-0.79007244 0.91074198 -0.2270911
-0.79159904 0.91250175 -0.19853811
-0.79922771 0.92129558 -0.17140335
-0.80595142 0.92904621 -0.14374393
-0.79756242 0.91937596 -0.11360551
-0.88800812 1.0236356 -0.094736643
-4.866693 5.6099944 -0.34575015
-9.7353086 11.222205 -0.34541911
-1.5282229 1.761632 0.054356202
-1.4030728 1.6173674 0.099802665
-1.3910167 1.6034698 0.14852163
-0.58823842 0.66107833 -0.29897222
-0.62387872 0.70113188 -0.29293478
-0.68396473 0.76865816 -0.29505172
-0.75478822 0.84825152 -0.29718795
-0.81123161 0.91168416 -0.28924084
-0.80491662 0.90458721 -0.25738168
-0.81846809 0.91981667 -0.23190533
-0.80554014 0.90528792 -0.19915974
-0.81125313 0.9117083 -0.17150663
-0.80811816 0.90818518 -0.14207946
-0.80723584 0.9071936 -0.11334723
-0.89584321 1.006773 -0.094212569
-4.9234962 5.5331588 -0.34480837
-9.8746958 11.097452 -0.34537914
-1.5569232 1.7497126 0.054589022
-1.3957382 1.5685686 0.097868204
-1.3977381 1.5708162 0.14711568
-0.58744615 0.6436817 -0.29442668
-0.63511688 0.69591588 -0.29407361
-0.68718374 0.752967 -0.29232702
-0.75437182 0.82658696 -0.29290256
-0.82054591 0.89909577 -0.28850225
-0.82855463 0.90787119 -0.26126394
-0.82005054 0.89855301 -0.2291296
-0.83481109 0.91472656 -0.2035327
-0.83158529 0.911192 -0.17336561
-0.82585204 0.90490985 -0.14318261
-0.8186416 0.89700919 -0.11335375
-0.90736139 0.99422199 -0.094099805
-5.007597 5.4869685 -0.34583199
-10.016287 10.975135 -0.34547034
-1.5803705 1.7316576 0.054642268
-1.4005136 1.5345831 0.096840404
-1.3850654 1.5176562 0.143759
-0.58765215 0.62784481 -0.29054445
-0.64551967 0.68967021 -0.29484585
-0.69541609 0.74297929 -0.29182601
-0.77220368 0.82501876 -0.29576907
-0.83252501 0.88946581 -0.28875318
-0.83259869 0.88954455 -0.25898653
-0.8401171 0.89757711 -0.23156001
-0.83713865 0.89439499 -0.20133837
-0.83841276 0.89575624 -0.17242379
-0.83741164 0.89468664 -0.14322214
-0.83586586 0.89303511 -0.11417258
-0.9207387 0.98371291 -0.094195031
-5.0652976 5.4117398 -0.34508327
-10.147285 10.841311 -0.3452526
-1.6044097 1.7141438 0.054722786
-1.3956147 1.4910682 0.095195845
-1.3831706 1.477773 0.14161968
-0.60431349 0.62956619 -0.29483914
-0.63900375 0.6657061 -0.28801796
-0.7082442 0.73783994 -0.29328704
-0.78082585 0.81345457 -0.29512477
-0.84931302 0.88480359 -0.29068851
-0.85149485 0.88707662 -0.26136902
-0.86142516 0.8974219 -0.23429978
-0.84999788 0.88551712 -0.20173331
-0.84814084 0.88358247 -0.1721226
-0.83918107 0.87424827 -0.14163071
-0.8494187 0.88491374 -0.11449267
-0.92851537 0.96731567 -0.093737058
-5.1365519 5.3511953 -0.34531963
-10.28189 10.711543 -0.34521583
-1.3986878 1.4571354 0.094146423
-1.3846047 1.4424638 0.13989568
-0.61811984 0.62792856 -0.29769379
-0.67363197 0.68432164 -0.29971817
-0.72637534 0.73790193 -0.29692391
-0.79758722 0.81024384 -0.29758009
-0.8718453 0.88568032 -0.29455999
-0.8614136 0.87508309 -0.26101053
-0.86613858 0.87988305 -0.2325498
-0.86572725 0.87946516 -0.202822
-0.86920166 0.88299471 -0.17412643
-0.8628248 0.87651664 -0.14374694
-0.86857748 0.88236064 -0.11556827
-0.94614965 0.96116376 -0.094287969
-5.2150197 5.2977748 -0.3460826
-10.438858 10.604508 -0.34597519
-1.4028705 1.4251322 0.093212649
-1.3938439 1.4159622 0.13901666
-0.62821263 0.62231034 -0.2987569
-0.68682343 0.68037045 -0.30175161
-0.74784696 0.74082065 -0.30186376
-0.79618007 0.78869969 -0.29332641
-0.88038313 0.87211156 -0.29371098
-0.87945044 0.87118769 -0.2631309
-0.87830985 0.87005776 -0.23285764
-0.88109809 0.87281978 -0.203832
-0.87848258 0.87022889 -0.17377667
-0.88432074 0.87601215 -0.14547889
-0.8763352 0.86810166 -0.11513688
-0.95354563 0.94458663 -0.093832232
-5.2726126 5.2230744 -0.34551254
-10.550185 10.451062 -0.34527588
-1.3925513 1.3794677 0.091365576
-1.3854319 1.3724152 0.13644326
-0.62092239 0.59978813 -0.29167497
-0.67791021 0.65483624 -0.29418957
-0.73544526 0.71041292 -0.29322377
-0.80549592 0.77807933 -0.29312563
-0.89063579 0.86032122 -0.29349399
-0.88552058 0.85538018 -0.26170361
-0.90575606 0.87492687 -0.23719448
-0.89564985 0.86516464 -0.20466189
-0.89127928 0.8609429 -0.17414969
-0.90137362 0.87069362 -0.14646895
-0.8996464 0.86902517 -0.11675262
-0.97210407 0.93901664 -0.094487414
-5.3363986 5.1547642 -0.34541151
-10.677702 10.314266 -0.34517118
-1.3974493 1.3498844 0.090564512
-1.3902899 1.3429687 0.1352455
-0.62694418 0.59052736 -0.29098755
-0.68445754 0.64469999 -0.29348463
-0.74514002 0.70185763 -0.29354212
-0.82400435 0.77614105 -0.29628089
-0.90629721 0.85365385 -0.29508927
-0.91580397 0.86260837 -0.26742211
-0.92236143 0.86878496 -0.23865919
-0.9109059 0.85799485 -0.20566289
-0.90359104 0.85110486 -0.1744474
-0.90783614 0.85510337 -0.14575784
-0.90263253 0.85020208 -0.11574161
-0.98239386 0.92533028 -0.094347529
-5.4005027 5.0868077 -0.34538734
-10.817066 10.188744 -0.34550148
-1.3986578 1.3174151 0.089560643
-1.4036353 1.3221034 0.1349135
-0.63596886 0.58409184 -0.2917394
-0.69722754 0.6403535 -0.29547927
-0.75808024 0.69624233 -0.29516265
-0.83456701 0.76648992 -0.2965849
-0.91472721 0.84011137 -0.29436627
-0.93921179 0.86259872 -0.27106407
-0.93563354 0.8593123 -0.23927453
-0.92074853 0.84564149 -0.20546466
-0.92064625 0.84554762 -0.17567059
-0.91802299 0.84313834 -0.14567724
-0.92653275 0.85095388 -0.11742295
-0.99728858 0.91593808 -0.094662815
-1.4046446 1.2900654 -0.088787615
-1.4063464 1.2916284 -0.044396263
-1.4152168 1.2997751 5.4856406e-05
-1.4060105 1.2913198 0.044494718
-1.3988816 1.2847724 0.088532008
-1.3876424 1.2744501 0.13182338
-0.65097243 0.58293271 -0.29523131
-0.70636398 0.63253468 -0.29595226
-0.76879281 0.68843842 -0.29593486
-0.84242582 0.75437534 -0.29597846
-0.93033028 0.83309203 -0.29598808
-0.93703198 0.83909321 -0.26736432
-0.93941498 0.84122717 -0.23751377
-0.92898816 0.83189017 -0.20494951
-0.94390351 0.84524655 -0.17806333
-0.93473893 0.83703989 -0.14664562
-0.94365698 0.84502578 -0.11823525
-1.0055059 0.90041023 -0.0943591
-1.411117 1.2636267 -0.088183947
-1.3987042 1.2525114 -0.043653656
-1.4088837 1.261627 5.3990851e-05
-1.4149607 1.2670689 0.044269528
-1.4065346 1.2595233 0.088005617
-1.3871907 1.2422013 0.13028418
-0.64782971 0.56558329 -0.29055303
-0.71899647 0.62771493 -0.29790965
-0.78021777 0.68116379 -0.29700747
-0.85077494 0.74276322 -0.29560232
-0.93311387 0.81464869 -0.29358673
-0.95750731 0.83594513 -0.27018166
-0.961568 0.83949035 -0.24042301
-0.95971024 0.83786839 -0.20938306
-0.94853741 0.82811409 -0.17695631
-0.95606321 0.83468443 -0.14833036
-0.96738142 0.84456569 -0.11986579
-1.0183216 0.88903868 -0.094503708
-1.4148988 1.2352676 -0.087441295
-1.4222933 1.2417234 -0.043898389
-1.4263337 1.2452508 5.4054373e-05
-1.4123735 1.233063 0.043699328
-1.4079988 1.2292438 0.087121829
-1.3960187 1.2187846 0.12966162
-0.67361033 0.57330596 -0.29885417
-0.73201215 0.62301141 -0.30002826
-0.78704631 0.66985071 -0.29637247
-0.85351706 0.72642356 -0.29335359
-0.94793069 0.80677849 -0.29502881
-0.97219461 0.82742941 -0.27136448
-0.96594167 0.82210755 -0.23890924
-0.9718194 0.82711005 -0.20973602
-0.96754372 0.82347101 -0.17855345
-0.9718504 0.82713646 -0.14915195
-0.97330272 0.82837248 -0.11929754
-1.02318 0.87082279 -0.093929492
-1.4407794 1.2262393 -0.08807949
-1.430374 1.2173833 -0.043671198
-1.4201903 1.2087159 5.3240521e-05
-1.4303846 1.2173923 0.043778826
-1.4001863 1.1916907 0.085703112
-1.3817592 1.1760075 0.12695171
-0.67902428 0.56332612 -0.29808539
-0.72464377 0.60117251 -0.29388216
-0.78383392 0.65027732 -0.2920562
-0.86251342 0.71555072 -0.29332551
-0.95365649 0.79116404 -0.2936869
-0.97960955 0.81269497 -0.27055627
-0.9880994 0.81973827 -0.24181737
-0.98935467 0.82077962 -0.21127312
-0.98432976 0.81661087 -0.1797393
-0.98398024 0.8163209 -0.14942411
-0.99339259 0.82412952 -0.12047842
-1.0315315 0.85576999 -0.093699485
-1.4547993 1.2069176 -0.088000499
-1.4487566 1.2019045 -0.04376689
-1.4541972 1.2064182 5.3941603e-05
-1.451007 1.2037715 0.043942578
-1.3886595 1.1520473 0.084102966
-1.3906288 1.153681 0.12642187
-0.67793733 0.54816115 -0.29455468
-0.7373364 0.59618962 -0.29596162
-0.81499636 0.65898323 -0.30055162
-0.87977242 0.71135938 -0.2961252
-0.97398633 0.78753811 -0.29687014
-1.008009 0.81504786 -0.27554342
-1.0080363 0.81506991 -0.24416536
-1.0083638 0.8153348 -0.21312311
-1.0051585 0.81274307 -0.18165946
-0.99954987 0.80820805 -0.15023108
-1.0030366 0.81102735 -0.12039992
-1.0506279 0.84950835 -0.094454944
-1.4752448 1.1928416 -0.088321656
-1.4696555 1.1883223 -0.043942712
-1.4678957 1.1868994 5.3891072e-05
-1.4756649 1.1931813 0.044230804
-1.3989466 1.1311491 0.083856694
-1.4076289 1.1381694 0.12665439
-0.68630189 0.54077643 -0.2952069
-0.74629509 0.58804852 -0.29656181
-0.80128473 0.631378 -0.29253998
-0.88356602 0.69621211 -0.2944279
-0.96570981 0.76093787 -0.29140383
-1.021955 0.80525666 -0.27656189
-1.0296128 0.81129062 -0.24689752
-1.02372 0.80664742 -0.21420491
-1.026624 0.80893564 -0.18368337
-1.019716 0.80349243 -0.15172932
-1.0266385 0.80894703 -0.12200058
-1.0696701 0.84285408 -0.095205165
-1.5142984 1.1932021 -0.089753114
-1.5018086 1.1833608 -0.044455022
-1.5119153 1.1913244 5.4952063e-05
-1.5002933 1.1821667 0.044519283
