# .PCD v0.7 - Point Cloud Data file format
VERSION 0.7
FIELDS x y z
SIZE 4 4 4
TYPE F F F
COUNT 1 1 1
WIDTH 1403
HEIGHT 1
VIEWPOINT 0 0 0 1 0 0 0
POINTS 1403
DATA ascii
-13.3362 -6.5114813 -0.34505856
-0.76896101 -0.39978433 -0.29281515
-0.82900274 -0.43100011 -0.2916342
-0.91295171 -0.47464538 -0.29506931
-0.98908234 -0.51422584 -0.29177648
-1.1175976 -0.5810411 -0.29854643
-1.2233179 -0.63600528 -0.29307431
-1.3810118 -0.71799076 -0.29316905
-1.5889709 -0.82610905 -0.2943351
-1.8554494 -0.96465176 -0.29389042
-2.6266224 -1.365586 -0.34599179
-3.2918887 -1.7114593 -0.34631184
-4.3842945 -2.279403 -0.34545243
-6.5772395 -3.4195194 -0.34511161
-13.188691 -6.8568263 -0.34560961
-0.76102954 -0.42038456 -0.29374158
-0.83451581 -0.46097761 -0.29757184
-0.90194452 -0.4982245 -0.29548183
-0.98296064 -0.54297692 -0.29391968
-1.0851043 -0.59940004 -0.29381415
-1.2198009 -0.673805 -0.29621166
-1.3626543 -0.75271565 -0.29321158
-1.5727222 -0.86875486 -0.29529279
-1.8382435 -1.015426 -0.29513046
-2.5918221 -1.4316949 -0.34605733
-3.2409003 -1.7902386 -0.34559116
-4.3244352 -2.3887715 -0.3453764
-6.497694 -3.5892565 -0.34558102
-12.99147 -7.1763492 -0.3450779
-0.75107265 -0.43997484 -0.29409093
-0.81357801 -0.47659019 -0.29430127
-0.87847924 -0.51460904 -0.29195651
-0.97527444 -0.57131124 -0.2958388
-1.0648643 -0.62379247 -0.29250354
-1.1993858 -0.70259458 -0.29546618
-1.3640337 -0.79904455 -0.29775307
-1.5453824 -0.90527773 -0.29435572
-1.8218024 -1.0672033 -0.2967208
-2.5475526 -1.4923444 -0.34506565
-3.1864007 -1.8665786 -0.34469345
-4.2667494 -2.4994419 -0.3456974
-6.3990374 -3.7485261 -0.34525582
-12.827526 -7.5143051 -0.34565073
-0.73993653 -0.4589116 -0.29417202
-0.80192167 -0.49735501 -0.29453173
-0.87481022 -0.54256076 -0.29519412
-0.9618634 -0.59655154 -0.29624355
-1.0623728 -0.6588878 -0.29629278
-1.1737239 -0.72794825 -0.29357702
-1.3219982 -0.81990856 -0.29300109
-1.5196681 -0.94250417 -0.29389518
-1.7912538 -1.1109427 -0.29621774
-2.5245693 -1.5657479 -0.34719467
-3.1566188 -1.9577475 -0.34670651
-4.1945662 -2.6014867 -0.34505892
-6.3074093 -3.9118805 -0.34552908
-12.622643 -7.8286133 -0.34534413
-0.72773063 -0.47717807 -0.29401383
-0.79291159 -0.51991767 -0.29594782
-0.86441052 -0.5668 -0.29641768
-0.9435783 -0.61871088 -0.29532731
-1.0385326 -0.68097311 -0.2943435
-1.165676 -0.76434195 -0.2962949
-1.3094857 -0.85863894 -0.29493704
-1.4940436 -0.97965485 -0.29362783
-1.7548484 -1.1506664 -0.29490611
-2.4585173 -1.612067 -0.34359691
-3.0962214 -2.0302141 -0.34559074
-4.1349764 -2.7113328 -0.34567615
-6.211194 -4.0727234 -0.34577921
-12.423798 -8.1463709 -0.34541908
-0.71606457 -0.4958066 -0.29426256
-0.79085243 -0.54759008 -0.30024207
-0.84140468 -0.58259273 -0.29347745
-0.91523135 -0.63371068 -0.29136831
-1.0255033 -0.71006346 -0.29563585
-1.1386875 -0.78843278 -0.29439917
-1.2870708 -0.89117408 -0.2948606
-1.4711986 -1.0186651 -0.29409727
-1.7287863 -1.1970202 -0.29550934
-2.4354703 -1.6863315 -0.34621397
-3.0371881 -2.1029639 -0.34481606
-4.067555 -2.8163948 -0.34587213
-6.098362 -4.2225356 -0.34532079
-12.214684 -8.4575062 -0.3454299
-0.699763 -0.51111269 -0.29277146
-0.76828563 -0.56116211 -0.29695711
-0.8305791 -0.60666186 -0.29494822
-0.90120107 -0.65824467 -0.29209766
-0.9973051 -0.72843987 -0.2927137
-1.1186583 -0.81707722 -0.29445872
-1.2569195 -0.91806436 -0.2931681
-1.4548432 -1.0626295 -0.29609481
-1.7064214 -1.2463843 -0.296969
-2.3832443 -1.7407413 -0.34492543
-2.9994774 -2.1908431 -0.34670201
-3.9942563 -2.9174376 -0.34579048
-5.983871 -4.3706684 -0.34497425
-11.99797 -8.7634163 -0.3454462
-0.70397019 -0.54194373 -0.30015883
-0.74913126 -0.57671052 -0.29508564
-0.8087396 -0.62259936 -0.2926797
-0.89615583 -0.68989575 -0.29601181
-1.0000422 -0.76987153 -0.29912481
-1.0974878 -0.84488899 -0.2944054
-1.232193 -0.94859028 -0.29289171
-1.4335356 -1.1035917 -0.29733241
-1.6552293 -1.2742603 -0.29356354
-2.3242645 -1.7893096 -0.3428162
-2.9311247 -2.2564943 -0.34527424
-3.9168105 -3.0153139 -0.34556425
-5.8829851 -4.5289516 -0.34563786
-11.773614 -9.0637884 -0.34546301
-0.67491353 -0.54724181 -0.29356527
-0.73542213 -0.59630418 -0.29551974
-0.80373937 -0.65169799 -0.29672816
-0.88447201 -0.71715868 -0.29803637
-0.96666944 -0.78380704 -0.29496586
-1.079522 -0.87531161 -0.2954182
-1.2189856 -0.98839313 -0.29558784
-1.3967805 -1.1325551 -0.29554361
-1.6361051 -1.3266071 -0.29601571
-1.9593377 -1.5886948 -0.29481173
-2.8756008 -2.3316307 -0.34555575
-3.8280137 -3.103878 -0.34453183
-5.770731 -4.6790967 -0.34587094
-11.539508 -9.3566084 -0.34541306
-0.67239225 -0.57391292 -0.29867399
-0.7170592 -0.6120379 -0.29425442
-0.78275144 -0.66810876 -0.29511109
-0.86597502 -0.73914331 -0.29799479
-0.95042402 -0.8112238 -0.29616198
-1.0412326 -0.88873255 -0.29098573
-1.1980091 -1.0225474 -0.29666501
-1.3574145 -1.1586061 -0.29330811
-1.5980549 -1.364002 -0.295266
-1.92084 -1.6395117 -0.29515138
-2.8215764 -2.4083252 -0.34625775
-3.7570629 -3.2067993 -0.34532061
-5.6465745 -4.819571 -0.34561011
-11.298234 -9.6434822 -0.34536645
-0.65305799 -0.58652818 -0.29656693
-0.71027106 -0.63791275 -0.29798087
-0.77114135 -0.69258195 -0.29722956
-0.84159136 -0.75585485 -0.29607439
-0.93186635 -0.83693314 -0.29686695
-1.0266453 -0.92205662 -0.29331931
-1.1669332 -1.0480528 -0.29542583
-1.3463972 -1.2092339 -0.29742745
-1.5603756 -1.4014136 -0.29474553
-1.8765041 -1.6853366 -0.29478097
-2.7569401 -2.476079 -0.34588468
-3.6766684 -3.3021107 -0.34548151
-5.5174327 -4.9553485 -0.34525084
-11.049962 -9.9242554 -0.34532392
-0.63727289 -0.60208321 -0.29620507
-0.68844664 -0.65043122 -0.29561785
-0.73715526 -0.69645017 -0.29081249
-0.82620049 -0.78057843 -0.29749599
-0.90772283 -0.8575992 -0.29597673
-1.0127333 -0.95681113 -0.29614979
-1.1396738 -1.0767421 -0.29531068
-1.3080161 -1.2357886 -0.29574475
-1.5340918 -1.4493806 -0.29659614
-1.839936 -1.7383363 -0.29583442
-2.6813204 -2.5332603 -0.34430933
-3.5993659 -3.4006121 -0.34617239
-5.4002304 -5.1020341 -0.34586453
-10.794903 -10.198818 -0.34528738
-0.62001717 -0.61612058 -0.29531837
-0.67210662 -0.66788268 -0.29574552
-0.73246795 -0.72786462 -0.29611632
-0.8112005 -0.8061024 -0.29932538
-0.8831563 -0.87760597 -0.29509479
-0.98866004 -0.98244667 -0.29626676
-1.1248235 -1.1177543 -0.29867756
-1.283867 -1.2757983 -0.2974703
-1.5008709 -1.4914384 -0.29735628
-1.7941875 -1.7829117 -0.29561976
-2.6244667 -2.6079729 -0.34535104
-3.5049288 -3.4829018 -0.34543416
-5.2665753 -5.2334771 -0.34565413
-10.530405 -10.464225 -0.34516492
-0.59731889 -0.62429833 -0.29191905
-0.65546727 -0.68507314 -0.29593784
-0.72127438 -0.75385255 -0.29918766
-0.7835353 -0.81892568 -0.29664934
-0.86373729 -0.90275019 -0.29612502
-0.95431846 -0.9974227 -0.2934261
-1.0940173 -1.1434314 -0.2980656
-1.244714 -1.3009348 -0.29591206
-1.4386399 -1.5036198 -0.29245251
-1.7491132 -1.8281164 -0.29570118
-2.5616496 -2.6773531 -0.34586683
-3.4022734 -3.5559459 -0.34405252
-5.1317124 -5.3634992 -0.3455773
-10.26895 -10.732773 -0.34536403
-0.58852118 -0.64702481 -0.29550621
-0.63584352 -0.69905132 -0.29494977
-0.69394022 -0.7629233 -0.29574239
-0.75234318 -0.82713205 -0.2926504
-0.84500676 -0.92900705 -0.2976473
-0.93928075 -1.0326526 -0.29672161
-1.059473 -1.164793 -0.29656911
-1.2148242 -1.3355873 -0.29672548
-1.4159606 -1.5567182 -0.29573503
-1.7128798 -1.8831534 -0.29751599
-2.4917607 -2.7394612 -0.3456558
-3.3333001 -3.6646564 -0.3463206
-4.9921699 -5.488431 -0.3453986
-9.9904375 -10.983565 -0.34521043
-0.56299436 -0.65124047 -0.2908493
-0.62683719 -0.72509027 -0.29916584
-0.66799998 -0.77270508 -0.29290542
-0.74511915 -0.86191225 -0.29820731
-0.81217492 -0.93947864 -0.29434103
-0.91434819 -1.0576669 -0.29718354
-1.0228348 -1.1831582 -0.29457843
-1.176728 -1.3611733 -0.29571742
-1.3684216 -1.5829138 -0.29405659
-1.6534755 -1.9126481 -0.29548854
-2.4303939 -2.8113439 -0.34687549
-3.2230303 -3.7282217 -0.34453052
-4.8431029 -5.602231 -0.344758
-9.7149038 -11.237659 -0.34538013
-0.55855381 -0.68005544 -0.29732764
-0.60213196 -0.73311317 -0.29611146
-0.66028434 -0.80391538 -0.29832405
-0.71738124 -0.87343252 -0.29583457
-0.79240352 -0.96477431 -0.2959061
-0.878784 -1.069945 -0.29430771
-0.99440688 -1.2107192 -0.29509774
-1.1476742 -1.3973267 -0.29718423
-1.3312817 -1.620874 -0.29477271
-1.6055653 -1.9548224 -0.29564953
-2.3510499 -2.8624716 -0.34575233
-3.1451912 -3.8293617 -0.34643096
-4.707304 -5.7312794 -0.34527823
-9.4357681 -11.488321 -0.34565467
-0.53878605 -0.69081426 -0.29599187
-0.57695174 -0.73974913 -0.29281694
-0.63638854 -0.81595713 -0.29673776
-0.69846112 -0.89554453 -0.2972585
-0.76262891 -0.97781843 -0.2939097
-0.85566366 -1.0971047 -0.29574385
-0.96216047 -1.2336514 -0.2946744
-1.1050278 -1.4168315 -0.29530686
-1.2922277 -1.6568532 -0.29529056
-1.5460517 -1.9822983 -0.29380989
-1.9474064 -2.4969025 -0.29556501
-3.0386941 -3.8961167 -0.34542182
-4.5613337 -5.8483963 -0.3452884
-9.136117 -11.714038 -0.34539813
-0.52237326 -0.70579445 -0.29666692
-0.5633415 -0.76114792 -0.29556516
-0.61552233 -0.83165103 -0.29670098
-0.66715884 -0.90141875 -0.29352567
-0.74611694 -1.0081013 -0.29725716
-0.82253361 -1.1113503 -0.29389423
-0.92681712 -1.252251 -0.29343623
-1.0630393 -1.4363049 -0.29368001
-1.2456378 -1.6830194 -0.29425716
-1.5030633 -2.0308349 -0.29528704
-1.8966162 -2.5625763 -0.29757789
-2.9417973 -3.9747522 -0.34570071
-4.4095278 -5.9578476 -0.3450698
-8.8411179 -11.945505 -0.34553361
-0.50034559 -0.71297371 -0.29428282
-0.54374808 -0.77482063 -0.29545128
-0.58657503 -0.83584744 -0.29282317
-0.64707637 -0.9220596 -0.29483497
-0.71726197 -1.0220714 -0.29594424
-0.79582071 -1.1340147 -0.29448238
-0.89654189 -1.2775385 -0.29396588
-1.0368284 -1.4774417 -0.29664609
-1.2089807 -1.7227521 -0.29577485
-1.4514118 -2.0682075 -0.29530066
-1.8140285 -2.5849228 -0.29476231
-2.8305743 -4.0334625 -0.34448376
-4.2672834 -6.080719 -0.34583825
-8.529789 -12.15463 -0.34524551
-0.47868586 -0.72008872 -0.29213983
-0.52719319 -0.79305845 -0.29723728
-0.56816095 -0.85468638 -0.29430562
-0.62290663 -0.93704045 -0.29450434
-0.68694252 -1.0333699 -0.29410189
-0.76241297 -1.1469003 -0.29273838
-0.85859716 -1.2915905 -0.29211986
-0.99879295 -1.5024875 -0.29651901
-1.158155 -1.7422163 -0.29400447
-1.3971843 -2.1017888 -0.29496655
-1.7483102 -2.6299889 -0.29477569
-2.7374945 -4.118022 -0.34569472
-4.1073899 -6.1787605 -0.34540835
-8.2219954 -12.368375 -0.34531251
-0.45845705 -0.72890383 -0.29092914
-0.50305164 -0.79980505 -0.29491332
-0.54683721 -0.86941999 -0.29453275
-0.59717172 -0.94944721 -0.2935732
-0.66101325 -1.0509492 -0.29426321
-0.73914731 -1.1751751 -0.29509971
-0.82973862 -1.3192068 -0.29353598
-0.95871413 -1.5242659 -0.29594743
-1.1197996 -1.7803767 -0.2955806
-1.3555671 -2.1552248 -0.29756954
-1.6920545 -2.6902084 -0.29664421
-2.630497 -4.1822443 -0.34540269
-3.9527118 -6.2844419 -0.34562919
-7.909286 -12.575026 -0.34539872
-0.44879895 -0.75517917 -0.29680088
-0.48295647 -0.81265491 -0.2950629
-0.52110291 -0.87684268 -0.29249862
-0.57675093 -0.97047973 -0.29548147
-0.6319536 -1.0633675 -0.29318097
-0.70899236 -1.1929981 -0.29498783
-0.79878402 -1.3440875 -0.29449245
-0.9074986 -1.527018 -0.29194173
-1.0685691 -1.798046 -0.29394293
-1.2938508 -2.17712 -0.2959896
-1.6140012 -2.7158265 -0.29488331
-2.5175354 -4.2361741 -0.34449926
-3.792449 -6.3814287 -0.34558892
-7.5943618 -12.778782 -0.34562054
-0.42842504 -0.76416284 -0.29598764
-0.46075094 -0.82182109 -0.29407507
-0.50359023 -0.89823157 -0.29529968
-0.55014789 -0.98127455 -0.29444677
-0.60661703 -1.081996 -0.29400218
-0.67249143 -1.1994933 -0.29230395
-0.76562613 -1.3656135 -0.29488111
-0.87698811 -1.564245 -0.29473338
-1.0285486 -1.8345766 -0.29557696
-1.238029 -2.2082176 -0.2958751
-1.553039 -2.770087 -0.29642448
-2.417671 -4.3122931 -0.34561715
-3.6252084 -6.4661241 -0.34511068
-7.2681408 -12.963861 -0.3455548
-0.4042246 -0.76566845 -0.29252598
-0.45085126 -0.85398704 -0.30141735
-0.48233169 -0.91361618 -0.29626098
-0.52626717 -0.99683732 -0.29503706
-0.57979983 -1.098237 -0.29434523
-0.64701283 -1.2255496 -0.29458034
-0.72529703 -1.3738328 -0.29260993
-0.83393514 -1.5796115 -0.29356945
-0.97881979 -1.8540471 -0.29463986
-1.1786776 -2.2326107 -0.29506359
-1.4728749 -2.7898691 -0.29446962
-1.9724891 -3.7362216 -0.29536271
-3.4635661 -6.5605688 -0.34537578
-6.9383435 -13.142373 -0.34553525
-0.38892636 -0.7839871 -0.29568022
-0.42007291 -0.84677154 -0.29503456
-0.45546314 -0.91811013 -0.293897
-0.50287974 -1.0136913 -0.29617453
-0.55614763 -1.1210672 -0.29660758
-0.6149531 -1.2396057 -0.29413462
-0.6973598 -1.4057188 -0.29555839
-0.80001366 -1.6126456 -0.29586202
-0.93101764 -1.8767198 -0.29441497
-1.123475 -2.2646701 -0.295459
-1.4084748 -2.839165 -0.29582644
-1.8789606 -3.7875574 -0.29557788
-3.3001349 -6.6523213 -0.34571108
-6.6038318 -13.311824 -0.34549823
-0.36792445 -0.7911908 -0.294801
-0.40483043 -0.87055397 -0.29966548
-0.42642117 -0.91698313 -0.28999871
-0.4701145 -1.010942 -0.29181159
-0.52220953 -1.122968 -0.29352987
-0.58229518 -1.2521771 -0.2935369
-0.6560725 -1.4108291 -0.29305801
-0.75636148 -1.6264921 -0.29480615
-0.8838132 -1.9005666 -0.29456276
-1.0688987 -2.2985773 -0.29626867
-1.3347895 -2.8703532 -0.29547182
-1.7804949 -3.8288054 -0.29519594
-3.1262398 -6.7227173 -0.34515905
-6.2634349 -13.468993 -0.34536454
-0.34533551 -0.79444939 -0.29267436
-0.37646779 -0.86606961 -0.29475728
-0.41204256 -0.94790989 -0.29639611
-0.45308253 -1.0423229 -0.29747424
-0.49227786 -1.1324924 -0.29267859
-0.54969227 -1.264575 -0.29309762
-0.62871981 -1.4463791 -0.2970517
-0.71717829 -1.6498791 -0.29567012
-0.83460176 -1.9200134 -0.29421836
-1.0105715 -2.3248343 -0.29627118
-1.2616508 -2.9024458 -0.29540345
-1.6811427 -3.8674932 -0.29481348
-2.9571805 -6.8030367 -0.34534085
-5.9244709 -13.629331 -0.34553167
-0.32913479 -0.81267238 -0.29623306
-0.3568196 -0.88102937 -0.29668915
-0.3858698 -0.95275772 -0.29477286
-0.42230317 -1.042716 -0.29445076
-0.4644517 -1.1467856 -0.29324967
-0.52130198 -1.2871556 -0.29518771
-0.59156179 -1.4606353 -0.29681873
-0.67265403 -1.6608616 -0.29450208
-0.79168177 -1.9547551 -0.29638582
-0.94008833 -2.3211882 -0.29268962
-1.1876401 -2.9324226 -0.2953096
-1.5830326 -3.9086931 -0.29481456
-2.7785454 -6.8605542 -0.34459099
-5.5823922 -13.783581 -0.34576017
-0.30198309 -0.80331439 -0.28995129
-0.3370336 -0.89655328 -0.29895714
-0.36504897 -0.97107786 -0.29749563
-0.39443225 -1.0492412 -0.29338875
-0.43854609 -1.1665897 -0.29538941
-0.48487839 -1.2898397 -0.29290345
-0.55204958 -1.4685239 -0.29549628
-0.63587397 -1.6915077 -0.29699585
-0.74750972 -1.9884732 -0.29854262
-0.89060777 -2.3691328 -0.29580659
-1.109175 -2.9505498 -0.29422224
-1.4897693 -3.9629807 -0.29597896
-2.6128256 -6.9504566 -0.34568423
-5.2281923 -13.907673 -0.34545293
-0.28445101 -0.81883162 -0.29286757
-0.30996644 -0.89228135 -0.29483008
-0.33861789 -0.97475845 -0.29591072
-0.36743554 -1.0577141 -0.29307151
-0.40701699 -1.1716548 -0.29397717
-0.45122978 -1.2989273 -0.29228786
-0.51154357 -1.472549 -0.2936148
-0.58971357 -1.6975721 -0.29535329
-0.68593729 -1.9745655 -0.29376179
-0.82533669 -2.3758459 -0.29395029
-1.0376714 -2.9870808 -0.29515943
-1.3872421 -3.9933684 -0.29553944
-2.4372299 -7.0159035 -0.34576976
-4.8770361 -14.039224 -0.34555301
-0.26752052 -0.83770972 -0.29711008
-0.28648785 -0.89710379 -0.29394075
-0.31082046 -0.97329855 -0.29299277
-0.33719915 -1.0559005 -0.29011849
-0.37653074 -1.1790627 -0.29335803
-0.41752258 -1.3074239 -0.29173562
-0.47574067 -1.4897273 -0.29455206
-0.54468018 -1.7056035 -0.29426509
-0.6411128 -2.007571 -0.2961705
-0.77102917 -2.4143891 -0.29621702
-0.96088016 -3.0088859 -0.29482377
-1.5073379 -4.7200556 -0.34639394
-2.2518799 -7.0515032 -0.34461343
-4.5190144 -14.150774 -0.34538138
-0.24210212 -0.82980764 -0.29204726
-0.26649803 -0.91342485 -0.29698998
-0.29115734 -0.99794489 -0.298105
-0.31731862 -1.087613 -0.29653686
-0.34714946 -1.1898584 -0.29377055
-0.39044231 -1.3382453 -0.29631975
-0.435572 -1.4929277 -0.29291794
-0.50039083 -1.715095 -0.29363024
-0.58607262 -2.0087702 -0.29407156
-0.70154357 -2.4045482 -0.29274407
-0.88749927 -3.0419133 -0.29577097
-1.3868227 -4.7533498 -0.34615836
-2.0759187 -7.1152339 -0.34505758
-4.1603222 -14.259549 -0.34536347
-0.2243792 -0.84809107 -0.29639453
-0.24138485 -0.91236764 -0.29457161
-0.26572978 -1.0043848 -0.29793042
-0.28723395 -1.0856645 -0.29393545
-0.31755459 -1.2002681 -0.29426813
-0.35282815 -1.3335923 -0.29322433
-0.40019619 -1.5126303 -0.29470807
-0.45884645 -1.7343121 -0.29484367
-0.53858447 -2.0356996 -0.29592964
-0.64361054 -2.4326689 -0.29409635
-0.81297529 -3.0728207 -0.29668659
-1.2607147 -4.765151 -0.34459084
-1.8938935 -7.1583915 -0.34472266
-3.7992706 -14.360188 -0.3453685
-0.2021987 -0.85049218 -0.29535609
-0.22096308 -0.92941922 -0.29818141
-0.23691174 -0.99650282 -0.29372516
-0.25833094 -1.0865967 -0.29232949
-0.2878783 -1.2108793 -0.29499438
-0.31762937 -1.3360189 -0.29190227
-0.3635622 -1.5292225 -0.29605868
-0.4126274 -1.7356015 -0.29319903
-0.48238891 -2.0290337 -0.29309741
-0.58376193 -2.4554307 -0.29497299
-0.73007447 -3.0708537 -0.29462373
-1.1424019 -4.8051934 -0.3452915
-1.7146144 -7.2120447 -0.34511253
-3.4339869 -14.444103 -0.34519231
-0.183402 -0.86822999 -0.29981306
-0.19761805 -0.93552911 -0.29844642
-0.21326499 -1.0096022 -0.2959055
-0.23159474 -1.0963757 -0.29329443
-0.25628179 -1.2132449 -0.29390126
-0.28391239 -1.3440489 -0.29199809
-0.32261321 -1.5272596 -0.29400864
-0.36888945 -1.7463325 -0.2933456
-0.43243033 -2.0471368 -0.2940422
-0.52160412 -2.4692879 -0.29496223
-0.65382087 -3.0952053 -0.29528284
-1.0188981 -4.8234911 -0.34464866
-1.5354096 -7.2686701 -0.34585768
-3.0678308 -14.523193 -0.3451221
-0.1574323 -0.85093355 -0.29237515
-0.17006104 -0.91919279 -0.29177272
-0.18596007 -1.0051283 -0.2931253
-0.20500557 -1.1080707 -0.29494488
-0.22678192 -1.2257735 -0.2954556
-0.25034797 -1.3531499 -0.29250944
-0.28405991 -1.5353655 -0.29409528
-0.32383183 -1.7503356 -0.29255196
-0.38171482 -2.0631976 -0.29487142
-0.45769373 -2.4738693 -0.29403597
-0.57574123 -3.1119251 -0.29539755
-0.89859813 -4.8569913 -0.34531185
-1.3491161 -7.2920747 -0.34524119
-2.7018666 -14.603794 -0.34530699
-0.1394154 -0.87666279 -0.29991102
-0.14689679 -0.92370683 -0.29193577
-0.16120723 -1.0136927 -0.29434264
-0.17882437 -1.1244717 -0.29801422
-0.19536632 -1.2284898 -0.29482794
-0.21718556 -1.365692 -0.29394212
-0.24572875 -1.5451754 -0.29469252
-0.28272009 -1.7777821 -0.29585251
-0.32945666 -2.0716679 -0.29479972
-0.39665335 -2.4942098 -0.29516968
-0.49464011 -3.1103637 -0.29397067
-0.7751689 -4.8743663 -0.34504631
-1.1636809 -7.3173823 -0.34493902
-2.3310196 -14.657764 -0.34508216
-0.11597589 -0.87032527 -0.29664707
-0.12716077 -0.95426071 -0.30048224
-0.13718008 -1.0294491 -0.29781762
-0.14812329 -1.1115711 -0.29351097
-0.16500154 -1.2382314 -0.29607216
-0.18203813 -1.3660803 -0.29294354
-0.20602909 -1.5461172 -0.29378685
-0.2370065 -1.7785829 -0.29489639
-0.2758368 -2.0699794 -0.2934753
-0.33166206 -2.4889126 -0.29345873
-0.41852421 -3.1407576 -0.29575077
-0.65170246 -4.8906121 -0.34492213
-0.98011422 -7.3551335 -0.34544247
-1.9640487 -14.738935 -0.345716
-0.093521185 -0.86871415 -0.29519939
-0.10126171 -0.94061553 -0.29528677
-0.11019053 -1.023555 -0.29521385
-0.12003475 -1.1149975 -0.29352227
-0.1326362 -1.2320518 -0.29370055
-0.14639527 -1.3598592 -0.29072458
-0.16657604 -1.5473175 -0.29312271
-0.19287664 -1.7916225 -0.29615697
-0.22421598 -2.0827324 -0.29438731
-0.26960203 -2.5043213 -0.29437947
-0.34034738 -3.1614718 -0.29679793
-0.52782261 -4.9029212 -0.3447409
-0.79367793 -7.3724394 -0.34520453
-1.5913692 -14.782158 -0.34567764
-0.071458749 -0.86940831 -0.29472855
-0.07756979 -0.94375885 -0.29556483
-0.084006645 -1.0220733 -0.29408133
-0.092892312 -1.1301813 -0.29680771
-0.1015108 -1.2350389 -0.29370835
-0.11340317 -1.3797283 -0.29426676
-0.12776518 -1.5544647 -0.29377225
-0.14767849 -1.7967417 -0.29629269
-0.1697173 -2.0648785 -0.29116553
-0.20826745 -2.5339019 -0.29714411
-0.25846502 -3.1446345 -0.29451105
-0.40432474 -4.9192481 -0.34506148
-0.60740072 -7.3899875 -0.34519842
-1.2172815 -14.810148 -0.34550372
-0.049708273 -0.8745994 -0.29596877
-0.053640902 -0.94379264 -0.29505745
-0.058299996 -1.0257677 -0.29462713
-0.063465059 -1.1166452 -0.29273894
-0.069880903 -1.2295296 -0.29188579
-0.078234211 -1.3765031 -0.29306445
-0.081302255 -1.4304843 -0.26986796
-0.081363149 -1.4315557 -0.23565781
-0.081430107 -1.4327338 -0.20167372
-0.081806198 -1.439351 -0.16849318
-0.082360193 -1.4490983 -0.13547762
-0.081468426 -1.433408 -0.10037045
-0.42059541 -7.4002266 -0.34507099
-0.84303832 -14.832959 -0.34542948
-0.027362533 -0.8672421 -0.29315197
-0.029823871 -0.94525301 -0.29518467
-0.032465246 -1.02897 -0.29521757
-0.035340872 -1.1201117 -0.29332048
-0.03945516 -1.250512 -0.29653609
-0.041388474 -1.3117875 -0.27897492
-0.041678648 -1.3209844 -0.24893253
-0.04127128 -1.308073 -0.21509056
-0.041408781 -1.3124311 -0.18453383
-0.041429456 -1.3130864 -0.1535411
-0.041428175 -1.3130457 -0.12262113
-0.042820867 -1.3571864 -0.094927348
-0.23394048 -7.4146295 -0.34535727
-0.4683381 -14.843747 -0.34529549
-0.0055900193 -0.88629591 -0.29944962
-0.0059145293 -0.93774688 -0.29270083
-0.0064521614 -1.0229882 -0.29336122
-0.0069760312 -1.1060476 -0.28949928
-0.0077112801 -1.2226212 -0.28978387
-0.00754127 -1.1956662 -0.25415823
-0.0076687927 -1.2158848 -0.22901765
-0.0076444997 -1.2120332 -0.19920325
-0.0076387161 -1.2111162 -0.17020719
-0.0076324209 -1.2101181 -0.1414333
-0.0076243915 -1.208845 -0.11283625
-0.0085410243 -1.3541769 -0.094671614
-0.046842009 -7.4267869 -0.34575835
-0.093722947 -14.859745 -0.34550259
0.016606594 -0.87731755 -0.29646334
0.018050933 -0.95362133 -0.29770315
0.019571515 -1.0339527 -0.29655269
0.021256398 -1.1229643 -0.29397389
0.022621304 -1.1950716 -0.28329921
0.022459803 -1.1865395 -0.25225839
0.022698902 -1.1991711 -0.22590549
0.022502758 -1.1888088 -0.19541734
0.022516919 -1.189557 -0.16720395
0.02282287 -1.2057202 -0.14094174
0.022906356 -1.2101307 -0.11297425
0.025655881 -1.3553866 -0.094771281
0.14040817 -7.4176903 -0.34538984
0.28125954 -14.858793 -0.34553546
0.038171086 -0.86381519 -0.29213315
0.041779593 -0.945476 -0.29539546
0.04545033 -1.0285451 -0.29523671
0.049587954 -1.1221799 -0.29400256
0.05374955 -1.2163572 -0.28857478
0.052796476 -1.1947891 -0.25421458
0.052878018 -1.1966344 -0.2256072
0.052910402 -1.1973672 -0.19698097
0.053145111 -1.2026787 -0.16918299
0.053307086 -1.2063442 -0.14112702
0.052827992 -1.1955023 -0.11169749
0.059583947 -1.3483902 -0.094357178
0.32796583 -7.4218965 -0.34586102
0.65587288 -14.842463 -0.34543064
0.06131706 -0.88219029 -0.29877564
0.065343834 -0.94012499 -0.29414523
0.071536176 -1.0292164 -0.29585344
0.078094453 -1.1235726 -0.29478994
0.082830645 -1.1917139 -0.2831341
0.083043419 -1.1947751 -0.2545765
0.083593145 -1.2026842 -0.22707327
0.083358198 -1.199304 -0.19758278
0.083329014 -1.1988841 -0.16889127
0.083467394 -1.200875 -0.14068884
0.083185747 -1.1968228 -0.11198137
0.093948819 -1.3516749 -0.0947228
0.51500648 -7.4095807 -0.3457827
1.0308255 -14.830853 -0.34565586
0.081578366 -0.85952497 -0.29170388
0.089218244 -0.94002014 -0.29472309
0.096280478 -1.0144292 -0.29220822
0.10622629 -1.1192201 -0.2942577
0.11435699 -1.2048868 -0.28685814
0.1136512 -1.1974504 -0.2556763
0.11289517 -1.1894846 -0.22504742
0.11423152 -1.2035646 -0.19869642
0.11392528 -1.2003381 -0.1694472
0.11256179 -1.1859721 -0.13923138
0.11423612 -1.2036132 -0.11285055
0.12872499 -1.3562706 -0.095242202
0.70214033 -7.397882 -0.34595358
1.4035817 -14.788401 -0.34538209
0.10611747 -0.88109255 -0.29983693
0.11352684 -0.94261253 -0.29633987
0.12352835 -1.0256549 -0.29624557
0.13382214 -1.1111242 -0.2929239
0.14401355 -1.1957433 -0.28545576
0.14337303 -1.1904252 -0.25486776
0.14585498 -1.2110327 -0.22974759
0.14457116 -1.2003732 -0.19870865
0.14479169 -1.2022042 -0.17017232
0.14495748 -1.2035809 -0.14168301
0.14525823 -1.2060781 -0.11338928
0.16240311 -1.3484317 -0.094949327
0.88803744 -7.3733678 -0.34574524
1.7770282 -14.754651 -0.34553134
0.12860684 -0.88013524 -0.30052003
0.13686341 -0.9366399 -0.29545408
0.14701983 -1.0061466 -0.29158977
0.16122817 -1.1033828 -0.29186288
0.1756966 -1.2023991 -0.28801155
0.17357166 -1.1878569 -0.25517455
0.17331178 -1.1860783 -0.22577138
0.17256351 -1.1809576 -0.1961531
0.176615 -1.2086843 -0.17166588
0.17702597 -1.2114968 -0.14309525
0.17624792 -1.2061722 -0.1137801
0.19500867 -1.3345635 -0.09428934
1.0730885 -7.3438005 -0.34551874
2.1461954 -14.687726 -0.34512267
0.14770138 -0.85875386 -0.29439855
0.16222663 -0.94320542 -0.29872149
0.17627317 -1.0248737 -0.29821143
0.18856671 -1.0963498 -0.29116872
0.20492789 -1.1914757 -0.28654271
0.20919952 -1.2163115 -0.26233786
0.20572524 -1.1961117 -0.22859679
0.205037 -1.1921101 -0.19880174
0.20558694 -1.1953076 -0.17044869
0.20543095 -1.1944007 -0.14164326
0.20454717 -1.1892623 -0.11263608
0.23062387 -1.3408754 -0.095116243
1.2562829 -7.3041825 -0.34503666
2.5163274 -14.630235 -0.34515417
0.16903715 -0.8533181 -0.29390404
0.18726298 -0.94532412 -0.30079362
0.19754533 -0.99723047 -0.2915259
0.21541548 -1.087441 -0.29015422
0.23674257 -1.1951025 -0.28875995
0.23638275 -1.1932861 -0.2585761
0.23808134 -1.2018607 -0.23077045
0.2370135 -1.1964701 -0.20046259
0.23925842 -1.2078028 -0.17303649
0.23766285 -1.1997482 -0.14294323
0.23887156 -1.2058499 -0.11474157
0.26407802 -1.3330948 -0.095006861
1.442789 -7.2833567 -0.34566298
2.887984 -14.578861 -0.34555173
0.18914314 -0.84267664 -0.29179013
0.20597893 -0.91768408 -0.29355949
0.2233174 -0.99493098 -0.29240823
0.24732448 -1.1018881 -0.29558048
0.27143914 -1.2093245 -0.293758
0.26847598 -1.196123 -0.26057619
0.26871651 -1.1971946 -0.23110315
0.27325055 -1.2173948 -0.20505859
0.26924109 -1.1995317 -0.17277004
0.26840305 -1.195798 -0.14323409
0.26868436 -1.1970514 -0.11451317
0.294655 -1.3127567 -0.094057448
1.6260579 -7.2444663 -0.34565493
3.2550216 -14.501879 -0.34556425
0.20996061 -0.83610749 -0.29125765
0.22895274 -0.91173816 -0.29341251
0.25214165 -1.0040814 -0.29687327
0.27556267 -1.0973487 -0.29613414
0.30035731 -1.1960863 -0.29229069
0.29823449 -1.1876327 -0.26028347
0.30238688 -1.2041684 -0.23384815
0.30089954 -1.1982455 -0.20304762
0.30345905 -1.208438 -0.17510021
0.29997063 -1.1945463 -0.14394519
0.3025499 -1.2048177 -0.11594967
0.32768586 -1.3049144 -0.094058178
1.8062572 -7.1928983 -0.34525964
3.61869 -14.410388 -0.34545046
0.23441002 -0.84284234 -0.29557052
0.24926591 -0.896258 -0.29036289
0.27423704 -0.98604399 -0.29349321
0.30151501 -1.0841243 -0.29452521
0.33380654 -1.2002314 -0.29526845
0.33667451 -1.2105435 -0.26708186
0.33114091 -1.190647 -0.23277122
0.33593717 -1.2078924 -0.20605345
0.33054119 -1.1884906 -0.17336348
0.33521473 -1.2052947 -0.14621332
0.33317664 -1.1979666 -0.11606265
0.36290976 -1.3048748 -0.094685383
1.9910146 -7.1588721 -0.34592831
3.9813945 -14.315462 -0.34547374
0.25456131 -0.83325595 -0.29436809
0.27681807 -0.90610904 -0.29572368
0.30170652 -0.98757648 -0.29612157
0.32647136 -1.0686393 -0.29246375
0.36520168 -1.1954153 -0.29625681
0.36655062 -1.1998308 -0.26667452
0.36623001 -1.1987813 -0.23609334
0.36501801 -1.194814 -0.20532863
0.36656433 -1.1998757 -0.17631759
0.36876711 -1.2070861 -0.14751272
0.36821541 -1.2052801 -0.11763412
0.39494166 -1.2927632 -0.094499744
2.1670918 -7.0935454 -0.34530461
4.338099 -14.199907 -0.34521744
0.27702051 -0.83111727 -0.29598829
0.29685158 -0.89061451 -0.29301867
0.32552376 -0.97663683 -0.29521084
0.35960078 -1.0788748 -0.29765412
0.39028889 -1.1709453 -0.29254055
0.43534958 -1.3061364 -0.29265097
0.49294716 -1.4789407 -0.29362598
0.56767023 -1.703125 -0.29505002
0.66688293 -2.0007832 -0.29638711
0.79171193 -2.3752952 -0.29262319
0.99699974 -2.9912 -0.29430026
1.5646024 -4.6941223 -0.34591228
2.344923 -7.0352411 -0.34523746
4.694531 -14.084538 -0.34518325
0.29732969 -0.82227987 -0.29541945
0.32196441 -0.8904084 -0.29553026
0.35033819 -0.96887743 -0.29544407
0.3851884 -1.0652574 -0.29648495
0.42470142 -1.1745327 -0.29602051
0.4708603 -1.3021873 -0.29433513
0.53194022 -1.4711068 -0.29464233
0.61030561 -1.6878302 -0.29497489
0.71620566 -1.9807019 -0.29599586
0.85418671 -2.3622952 -0.29358411
1.0718006 -2.9641173 -0.29420349
1.4360831 -3.9715581 -0.29524308
2.5220692 -6.974906 -0.34529039
5.0500259 -13.966094 -0.34529421
0.31834128 -0.8154366 -0.2957533
0.34424537 -0.88179034 -0.29545954
0.37574479 -0.96247661 -0.29628971
0.40735897 -1.0434569 -0.29318553
0.45133924 -1.1561131 -0.29415548
0.50787073 -1.3009194 -0.29685134
0.57055765 -1.461493 -0.29550689
0.65054357 -1.6663784 -0.29400173
0.76784736 -1.9668541 -0.29672804
0.91665548 -2.3480284 -0.2945925
1.14913 -2.9435158 -0.29494345
1.5329976 -3.9267993 -0.29469815
2.6979525 -6.9108505 -0.34538034
5.401804 -13.836812 -0.34535864
0.3371506 -0.80318177 -0.29430109
0.36644644 -0.87297219 -0.2955097
0.40407428 -0.96261168 -0.29937544
0.43517333 -1.0366979 -0.29427871
0.48589718 -1.1575354 -0.2975429
0.54141217 -1.2897867 -0.29733443
0.60009342 -1.4295809 -0.29202384
0.69721317 -1.6609459 -0.29605365
0.81267053 -1.9359958 -0.29507303
0.98116124 -2.3373852 -0.29626971
1.2277254 -2.9247663 -0.29607531
1.6337175 -3.8919468 -0.29508308
2.8689477 -6.8345914 -0.34507802
5.7501006 -13.698259 -0.3454127
0.36087054 -0.80233943 -0.29723516
0.38706177 -0.86057162 -0.29452512
0.42578545 -0.94666773 -0.2976642
0.46245098 -1.0281878 -0.29508224
0.5110727 -1.1362906 -0.29530355
0.57269818 -1.2733053 -0.2967726
0.6312868 -1.4035679 -0.28987247
0.73738575 -1.6394624 -0.29544753
0.8666935 -1.9269582 -0.29693499
1.033013 -2.2967434 -0.29432929
1.3000672 -2.890497 -0.29583362
1.736161 -3.8600836 -0.29589534
3.0422947 -6.7640686 -0.34528422
6.0944185 -13.549991 -0.34544262
0.38126951 -0.79354101 -0.29744586
0.41032803 -0.85402083 -0.29573333
0.44755584 -0.93150359 -0.29635352
0.48385963 -1.0070632 -0.29243129
0.53981334 -1.1235203 -0.29543144
0.59984738 -1.2484698 -0.29441899
0.66975546 -1.3939704 -0.29128867
0.78087825 -1.6252515 -0.29634392
0.91592485 -1.9063258 -0.29722324
1.0989333 -2.2872236 -0.29656923
1.3652711 -2.8415556 -0.29425761
1.8280104 -3.8046608 -0.29508957
3.2095764 -6.680131 -0.34502473
6.4364996 -13.396366 -0.3455576
0.40425524 -0.78969556 -0.29973343
0.43096349 -0.841869 -0.2951979
0.46912697 -0.91641974 -0.29522759
0.51761669 -1.0111423 -0.2973147
0.56491214 -1.1035321 -0.29383105
0.62569636 -1.2222713 -0.29187194
0.70746428 -1.3820016 -0.29242569
0.81289309 -1.5879523 -0.29319045
0.958857 -1.8730867 -0.29571983
1.1563672 -2.2589145 -0.29658842
1.4426609 -2.8181772 -0.29551312
1.9327234 -3.7754936 -0.2965163
3.3878448 -6.618012 -0.34612241
6.767344 -13.219721 -0.34529689
0.42263663 -0.77664471 -0.29873347
0.44906279 -0.82520592 -0.29323587
0.49381405 -0.90744162 -0.29625601
0.5413726 -0.99483603 -0.29644328
0.59689283 -1.096861 -0.29597181
0.6598466 -1.2125461 -0.29343301
0.75401926 -1.3855994 -0.29711917
0.84923363 -1.5605671 -0.29199862
1.0002353 -1.8380505 -0.29408035
1.2069259 -2.2178686 -0.29510477
1.5120617 -2.7785919 -0.29526994
2.3574386 -4.3320718 -0.34479144
3.5391276 -6.5035648 -0.3446987
7.1026211 -13.051905 -0.34548587
0.44057763 -0.76310128 -0.2977064
0.47524214 -0.82314187 -0.29667023
0.51321703 -0.88891619 -0.29434305
0.56738883 -0.98274422 -0.29701278
0.62071544 -1.0751084 -0.2942358
0.69041228 -1.1958268 -0.29351038
0.77541775 -1.3430601 -0.29210094
0.88911527 -1.5399897 -0.29225415
1.0482417 -1.8156043 -0.29462817
1.2648222 -2.1907318 -0.29564744
1.5836217 -2.7429078 -0.29563114
2.4683747 -4.275342 -0.34512481
3.7049482 -6.4171457 -0.34496465
7.4296083 -12.868433 -0.34548289
0.46099079 -0.75386745 -0.29854807
0.49541253 -0.81015801 -0.29640278
0.54087847 -0.88450944 -0.29730946
0.59092677 -0.96635437 -0.29647243
0.64997792 -1.0629219 -0.29529619
0.72209853 -1.1808622 -0.29421696
0.81190747 -1.3277285 -0.29312986
0.93663275 -1.5316943 -0.29507217
1.097755 -1.7951807 -0.29571578
1.3137248 -2.1483605 -0.29431021
1.6489307 -2.6965294 -0.29502404
2.5780861 -4.2159958 -0.34547675
3.8624148 -6.3162842 -0.34467331
7.7508502 -12.67512 -0.34543493
0.47379231 -0.73260647 -0.29477003
0.50919372 -0.7873463 -0.2926656
0.55778438 -0.8624801 -0.29454297
0.60674173 -0.93818092 -0.29243395
0.67880791 -1.0496141 -0.29626438
0.745597 -1.1528875 -0.29184264
0.85667795 -1.3246475 -0.29712856
0.97478646 -1.5072742 -0.29501337
1.1401168 -1.7629179 -0.29504734
1.3699449 -2.1182921 -0.29483384
1.7208772 -2.6609249 -0.29578641
2.6837456 -4.1497707 -0.34549043
4.032083 -6.234652 -0.34566191
8.0630627 -12.467598 -0.34521547
0.49720132 -0.72784895 -0.29781011
0.53500009 -0.78318232 -0.29604268
0.58378661 -0.85460049 -0.29678935
0.63328499 -0.92706072 -0.29385629
0.70140439 -1.0267801 -0.2947222
0.78407311 -1.1477982 -0.2954697
0.87829608 -1.2857305 -0.29327807
1.0045007 -1.4704804 -0.29268086
1.1902895 -1.742455 -0.29655606
1.4284089 -2.0910361 -0.29596379
1.7866684 -2.6154892 -0.29565424
2.7816446 -4.0720267 -0.34475306
4.1888943 -6.1320882 -0.34572697
8.3805361 -12.268198 -0.34544098
0.50959438 -0.70700741 -0.29445127
0.55933356 -0.77601522 -0.29857469
0.60246801 -0.83585966 -0.29546756
0.65742075 -0.91210067 -0.29428005
0.73480356 -1.019461 -0.2978498
0.80643821 -1.1188464 -0.29316297
0.9112516 -1.2642637 -0.29353413
1.0495789 -1.4561781 -0.29501277
1.2256613 -1.7004734 -0.2945821
1.4850966 -2.0604119 -0.29683998
1.851041 -2.5681205 -0.2954866
2.8867021 -4.0049891 -0.3451359
4.3398767 -6.0211124 -0.34553567
8.6845284 -12.04885 -0.34532651
0.53411978 -0.7029388 -0.29827613
0.56377822 -0.74197131 -0.29085827
0.61452138 -0.80875289 -0.29127544
0.67816228 -0.89250869 -0.2933878
0.75221485 -0.98996705 -0.29468566
0.84154159 -1.1075273 -0.29566821
0.94438815 -1.2428805 -0.29400983
1.0854897 -1.4285799 -0.29487804
1.2696018 -1.6708843 -0.29491335
1.527962 -2.0109041 -0.29516938
1.9238632 -2.5319376 -0.29681581
2.986815 -3.9308562 -0.34513381
4.4917393 -5.9114413 -0.34563768
8.9794531 -11.817584 -0.34508383
0.5513007 -0.68875778 -0.29806805
0.58908361 -0.7359612 -0.29423687
0.65770781 -0.82169563 -0.30181921
0.71066505 -0.88785684 -0.29765999
0.77527356 -0.96857429 -0.29404858
0.86900377 -1.0856745 -0.29559547
0.97673339 -1.2202646 -0.29439768
1.115911 -1.3941436 -0.29348999
1.3155282 -1.6435318 -0.29585171
1.5711328 -1.962867 -0.29384527
1.9772877 -2.4702892 -0.29534507
3.0877011 -3.8575649 -0.34543115
4.6384616 -5.79498 -0.34556326
9.2815075 -11.595688 -0.34533477
0.55667412 -0.66059136 -0.29186603
0.60794401 -0.72143203 -0.29446885
0.66445339 -0.7884903 -0.29568821
0.72476077 -0.86005557 -0.29437828
0.80562723 -0.95601779 -0.29631516
0.89653748 -1.0638987 -0.29573324
1.0041279 -1.1915735 -0.29349652
1.156132 -1.3719531 -0.29486743
1.3623488 -1.6166654 -0.29711041
1.6362298 -1.9416732 -0.29676023
2.3842247 -2.8293004 -0.34535256
3.1797898 -3.7733774 -0.34496912
4.766881 -5.6567397 -0.34438443
9.5674677 -11.353476 -0.34520286
0.57907069 -0.65299606 -0.29487368
0.62968993 -0.71007746 -0.29622686
0.68753308 -0.77530503 -0.29715636
0.7534188 -0.84960181 -0.29721415
0.82700431 -0.93258142 -0.29542649
0.92033565 -1.0378276 -0.29484916
1.0350828 -1.1672236 -0.29384005
1.1868615 -1.3383787 -0.29399595
1.4029635 -1.5820688 -0.29716513
1.6783575 -1.8926201 -0.29564312
2.4533892 -2.7665939 -0.34514678
3.2776129 -3.6960399 -0.34535158
4.9251776 -5.553936 -0.3455835
9.8642139 -11.1235 -0.34567007
0.59159112 -0.63413548 -0.29300597
0.64143664 -0.68756568 -0.2934958
0.69362921 -0.74351168 -0.29158768
0.7640115 -0.81895554 -0.29314557
0.85524058 -0.91674536 -0.29715317
0.95416647 -1.0227855 -0.29732281
1.0689428 -1.145816 -0.29514864
1.2249141 -1.313004 -0.29511911
1.4293487 -1.5321407 -0.29446936
1.7208486 -1.8446038 -0.29483321
2.5289595 -2.7108302 -0.34604272
3.3681951 -3.6104195 -0.34518459
5.0621352 -5.4261799 -0.34547395
10.125494 -10.853671 -0.34511667
0.60458159 -0.61613226 -0.29164511
0.66907978 -0.68186271 -0.29817483
0.73420888 -0.74823612 -0.30061209
0.78987777 -0.8049686 -0.29518095
0.87460458 -0.89131409 -0.29597074
0.97400427 -0.99261284 -0.29560369
1.0965663 -1.1175165 -0.29489416
1.2573498 -1.2813718 -0.29504809
1.4753916 -1.5035794 -0.29604259
1.7718083 -1.8056592 -0.29566196
2.5961852 -2.645786 -0.34599391
3.4567485 -3.5227904 -0.345038
5.1919923 -5.2911863 -0.34511238
10.403642 -10.602407 -0.34536642
0.62908006 -0.6095432 -0.29594749
0.68482399 -0.66355598 -0.29763296
0.73659807 -0.71372217 -0.29412118
0.81302184 -0.78777248 -0.29630539
0.9012832 -0.8732928 -0.29744542
1.0103664 -0.97898835 -0.29904523
1.1282641 -1.0932245 -0.2959041
1.2870963 -1.2471241 -0.29454839
1.50327 -1.4565842 -0.29416624
1.8197771 -1.7632619 -0.29614601
2.6602056 -2.5775898 -0.34574583
3.5509939 -3.4407136 -0.34566709
5.323915 -5.1585746 -0.34511715
10.661819 -10.330705 -0.34517154
0.64467442 -0.59385943 -0.29613826
0.70030928 -0.645109 -0.2971921
0.75871408 -0.69891018 -0.29581434
0.83462012 -0.76883304 -0.2970103
0.91745985 -0.84514314 -0.29565033
1.0131048 -0.93324906 -0.29279095
1.1561984 -1.0650637 -0.29608601
1.3126042 -1.2091411 -0.29330856
1.5423535 -1.420781 -0.29470333
1.8662515 -1.7191484 -0.29655355
2.7283452 -2.5132895 -0.34624729
3.6443319 -3.3570757 -0.34639478
5.4675508 -5.0365834 -0.34607768
10.922717 -10.061759 -0.34528655
0.66526544 -0.58249396 -0.29874849
0.7146914 -0.62577045 -0.29649857
0.78404063 -0.68649131 -0.29883835
0.84802276 -0.74251288 -0.29501688
0.94244373 -0.82518613 -0.29689535
1.0480469 -0.91765034 -0.29610157
1.1821982 -1.0351107 -0.29595968
1.3489026 -1.1810739 -0.29466477
1.5757178 -1.3796691 -0.29433116
1.9089907 -1.6714767 -0.29654697
2.7854245 -2.4388657 -0.34556931
3.7174203 -3.254904 -0.34542343
5.5865541 -4.8914828 -0.34568575
11.186405 -9.7946072 -0.34569746
0.67300576 -0.55991191 -0.29578418
0.72624493 -0.6042046 -0.29487133
0.78421825 -0.6524359 -0.29253653
0.85774928 -0.71361059 -0.29204187
0.95193058 -0.79196537 -0.29349363
1.0589314 -0.88098544 -0.29280144
1.2093481 -1.0061257 -0.296305
1.3710722 -1.1406732 -0.29312533
1.6277241 -1.3541965 -0.29756647
1.9428428 -1.6163619 -0.29537433
2.8429089 -2.3651781 -0.34518516
3.7900321 -3.1531441 -0.34466597
5.6997766 -4.7419696 -0.34517607
11.420287 -9.5011892 -0.34540457
0.68601191 -0.54203659 -0.29539374
0.73556542 -0.58119023 -0.29260668
0.80679536 -0.6374709 -0.29486284
0.87753898 -0.69336736 -0.29272828
0.98850435 -0.78104413 -0.29859704
1.0761902 -0.85032707 -0.29154652
1.2293806 -0.971367 -0.29511243
1.4167918 -1.1194457 -0.29676491
1.6427554 -1.2979856 -0.2942318
1.9759444 -1.5612473 -0.29432237
2.8993938 -2.2908897 -0.34491321
3.8782148 -3.0642829 -0.34554201
5.8253684 -4.6027818 -0.34563661
11.658401 -9.2116184 -0.34546456
0.69814134 -0.52355921 -0.2948328
0.7696507 -0.57718641 -0.30027515
0.82372648 -0.61773962 -0.29525852
0.89609772 -0.67201322 -0.29316789
1.0130166 -0.75969458 -0.30011401
1.1143333 -0.83567524 -0.29607159
1.2581403 -0.9435209 -0.29620543
1.4427177 -1.0819416 -0.29638124
1.6727992 -1.2544873 -0.2938484
2.363781 -1.7726773 -0.34531751
2.9544623 -2.2156484 -0.34470204
3.9492371 -2.961663 -0.34510005
5.9373231 -4.4525943 -0.34550142
11.884223 -8.9123707 -0.34538075
0.70614189 -0.50223076 -0.29276514
0.77412128 -0.55057985 -0.29650339
0.84256774 -0.59926116 -0.29649627
0.91459513 -0.65048933 -0.29375476
1.023255 -0.72777176 -0.2976107
1.1271565 -0.80166984 -0.29400915
1.2769248 -0.90818983 -0.29513738
1.4677318 -1.0438979 -0.29601315
1.711886 -1.2175483 -0.2952224
2.4072766 -1.7121323 -0.34524891
3.0189872 -2.1472003 -0.34579733
4.0370383 -2.8712709 -0.3463296
6.0366564 -4.2934632 -0.34486616
12.106114 -8.6102562 -0.34540376
0.72061521 -0.48561978 -0.29359072
0.7852025 -0.52914488 -0.29553837
0.85086137 -0.57339209 -0.29422846
0.92837846 -0.62563062 -0.29301682
1.0304583 -0.69442183 -0.29451445
1.1512533 -0.77582514 -0.29509309
1.2923237 -0.87089181 -0.29352269
1.4912674 -1.0049592 -0.29555023
1.7353703 -1.1694592 -0.29408854
2.4355168 -1.6412852 -0.34324872
3.071645 -2.0699694 -0.34573466
4.1022205 -2.7644703 -0.3458257
6.1516762 -4.1455903 -0.34534967
12.320322 -8.3026171 -0.34542668
0.73441315 -0.46841523 -0.2943019
0.79362828 -0.50618315 -0.2938076
0.87868822 -0.56043518 -0.29886454
0.93498468 -0.59634155 -0.290259
1.0444938 -0.66618747 -0.29362682
1.1645396 -0.74275374 -0.29360002
1.3249953 -0.84509379 -0.29600459
1.5258185 -0.97318059 -0.29743519
1.7781124 -1.1340959 -0.29638681
2.4968419 -1.5925081 -0.34611672
3.1148398 -1.9866725 -0.34484291
4.1579142 -2.6519547 -0.34476843
6.2472882 -3.984576 -0.34496167
12.518348 -7.984314 -0.34521887
0.74892122 -0.45149854 -0.29545516
0.81039494 -0.48855886 -0.29535577
0.88509846 -0.53359503 -0.29636985
0.97487271 -0.58771682 -0.29794216
1.0681198 -0.64393216 -0.29560557
1.1965066 -0.72133213 -0.2969749
1.3448868 -0.81078541 -0.29578263
1.5387433 -0.92765474 -0.29529664
1.7991358 -1.0846363 -0.29523405
2.5293086 -1.524832 -0.34517249
3.1698666 -1.9110022 -0.34548518
4.2285132 -2.5492234 -0.3451775
6.3584394 -3.8332815 -0.34564692
12.725642 -7.6718464 -0.34548569
0.75753349 -0.43101299 -0.29446739
0.82188851 -0.46762899 -0.29514918
0.9008345 -0.51254678 -0.29721272
0.96086013 -0.54669952 -0.28935045
1.0890278 -0.61962295 -0.29696932
1.19707 -0.68109554 -0.29275486
1.3696738 -0.77930182 -0.29681376
1.5689601 -0.89268947 -0.2966772
1.8295733 -1.0409702 -0.29582322
2.5718412 -1.4632976 -0.34582666
3.2160213 -1.829816 -0.34537211
4.2939572 -2.4431279 -0.34537622
6.4507999 -3.6703043 -0.34552196
12.908167 -7.3443451 -0.34529862
0.76751041 -0.41141039 -0.29421562
0.83423615 -0.44717756 -0.29543623
0.90835559 -0.48690796 -0.29554549
0.98796499 -0.52958119 -0.29339427
1.0856012 -0.58191735 -0.29193693
1.2169811 -0.65234119 -0.2935043
1.3826139 -0.74112576 -0.29547033
1.6005651 -0.85795462 -0.29846379
1.845021 -0.9889909 -0.2941913
2.5947418 -1.3908654 -0.3440761
3.2707827 -1.7532454 -0.34639063
4.3668933 -2.340796 -0.34638047
6.541151 -3.5062683 -0.34551135
13.086872 -7.0149865 -0.34523293
0.78348345 -0.39485613 -0.29642403
0.84181923 -0.42425591 -0.29423594
0.93018615 -0.46879065 -0.29870361
1.0064224 -0.5072118 -0.29497996
1.0985457 -0.55363959 -0.29156739
1.2316185 -0.62070507 -0.29316291
1.4108487 -0.71103263 -0.29757437
1.5981393 -0.80542237 -0.29412714
1.8748996 -0.94490272 -0.29505888
2.6433845 -1.3321998 -0.34595758
3.3014154 -1.6638311 -0.3450776
4.4229064 -2.2290344 -0.34625071
6.6191916 -3.3359077 -0.34507638
13.267307 -6.6863918 -0.34543097
0.78305757 -0.3701694 -0.29263496
0.85908198 -0.4061079 -0.29659271
0.9372502 -0.44305983 -0.29728645
1.0119178 -0.47835693 -0.29295871
1.1184746 -0.52872878 -0.29322159
1.2460808 -0.58905113 -0.29297325
1.4247509 -0.6735127 -0.29682672
1.6329488 -0.7719326 -0.29685336
1.8927492 -0.89474624 -0.29422033
2.6709507 -1.2626201 -0.3452847
3.3413339 -1.5795257 -0.34497324
4.4611187 -2.1088738 -0.34496552
6.7071691 -3.1706338 -0.34538105
13.424735 -6.3461828 -0.34524959
0.78920013 -0.34899065 -0.29154596
0.86240369 -0.38136187 -0.29432273
0.94226485 -0.41667715 -0.2954472
1.0336438 -0.45708567 -0.29581448
1.1374974 -0.50301057 -0.29478648
1.2714958 -0.56226569 -0.29551807
1.427609 -0.63130021 -0.29400903
1.6515002 -0.73030674 -0.29678053
1.9211613 -0.84955305 -0.29520983
2.7016039 -1.194671 -0.34523949
3.4006484 -1.5037942 -0.34706804
4.5203137 -1.9989192 -0.34553164
6.7962732 -3.005367 -0.34595329
13.575944 -6.0033917 -0.3451317
0.80534357 -0.33209684 -0.29431954
0.89286429 -0.36818749 -0.30145094
0.96013677 -0.39592844 -0.29782286
1.0433092 -0.43022597 -0.29537898
1.149417 -0.47398132 -0.29468146
1.2705957 -0.52395135 -0.29214233
1.4474496 -0.59687996 -0.29489869
1.6655154 -0.6868031 -0.29608983
1.9451771 -0.80212623 -0.2956951
2.7355332 -1.1280428 -0.34582695
3.4237635 -1.411846 -0.34568033
4.5752769 -1.8866917 -0.34598291
6.8760777 -2.8354654 -0.34626245
13.730308 -5.6619215 -0.34531313
0.83518499 -0.31999284 -0.30217758
0.88393527 -0.33867103 -0.29545632
0.96691579 -0.37046415 -0.29693076
1.0553478 -0.40434599 -0.29580382
1.1659179 -0.44670984 -0.29592711
1.286056 -0.49273959 -0.29274443
1.454586 -0.55731016 -0.29339346
1.6772152 -0.64260834 -0.29519245
1.9550593 -0.74906152 -0.29422972
2.7681456 -1.0605875 -0.34645545
3.4514067 -1.3223722 -0.34499171
4.6114755 -1.7668409 -0.34523815
6.9201283 -2.6513784 -0.34500101
13.867029 -5.3130145 -0.34526923
0.81581867 -0.28918591 -0.29243675
0.89035922 -0.31560856 -0.29484713
0.9752351 -0.34569475 -0.29671168
1.0707155 -0.37954003 -0.29733157
1.1766057 -0.41707528 -0.29587382
1.3039103 -0.4622013 -0.29405951
1.4772702 -0.52365279 -0.29520911
1.6903387 -0.59917986 -0.2947467
1.9739815 -0.69972366 -0.29432589
2.7975147 -0.9916442 -0.3468883
3.4957221 -1.23914 -0.346185
4.6575336 -1.6509712 -0.34545675
6.9949727 -2.4795308 -0.34550241
13.996913 -4.9615312 -0.34527528
0.84250242 -0.27492106 -0.29941916
0.89555138 -0.29223174 -0.29403043
0.98518854 -0.32148167 -0.29717675
1.0821542 -0.35312295 -0.2979382
1.17869 -0.38462406 -0.29386327
1.3068663 -0.42644989 -0.29220581
1.4953582 -0.48795763 -0.29626831
1.7045115 -0.55620742 -0.29467633
2.0036187 -0.65381056 -0.29619014
2.8070869 -0.91599417 -0.34509864
3.5210841 -1.148982 -0.34571469
4.6902056 -1.5304837 -0.34490517
7.0337195 -2.2952073 -0.34444526
14.126369 -4.6096439 -0.34548873
0.82831913 -0.24734974 -0.29206687
0.90320051 -0.26971057 -0.29421315
0.99377179 -0.29675663 -0.29741183
1.0779179 -0.32188407 -0.29444143
1.1787028 -0.35198009 -0.2915588
1.337666 -0.39944914 -0.29674372
1.4951565 -0.44647837 -0.29390213
1.7210344 -0.51392925 -0.29519638
2.3569036 -0.70381027 -0.34567937
2.8253403 -0.8436932 -0.34461507
3.5382066 -1.0565668 -0.34466785
4.7487764 -1.4180628 -0.34647003
7.1095572 -2.1230309 -0.34542507
14.234688 -4.2507124 -0.34540406
0.83371294 -0.22621341 -0.29186264
0.91138661 -0.24728879 -0.29475278
1.0003202 -0.27141938 -0.29722682
1.103358 -0.29937688 -0.29923129
1.2010009 -0.3258706 -0.29494604
1.3527322 -0.36704022 -0.29793602
1.5025554 -0.4076921 -0.29324049
1.718097 -0.46617553 -0.29258126
2.3738551 -0.644104 -0.34567124
2.8518002 -0.77378607 -0.34535041
3.5671027 -0.96787089 -0.34499323
4.7717023 -1.2947179 -0.34564847
7.1658101 -1.9443172 -0.34566385
14.322844 -3.8862529 -0.34505323
0.84407169 -0.20630771 -0.29357266
0.93148857 -0.22767411 -0.29930025
1.0030707 -0.24517021 -0.2961112
1.0921381 -0.26694 -0.29426759
1.1887953 -0.29056495 -0.29005516
1.3578792 -0.33189234 -0.29713008
1.5190908 -0.37129566 -0.29454488
1.7455591 -0.42664894 -0.29533008
2.3948529 -0.58534908 -0.34646723
2.8658748 -0.70047611 -0.34480408
3.5892775 -0.87728995 -0.34488657
4.7976418 -1.1726379 -0.34527364
7.204349 -1.7608845 -0.34526911
14.430037 -3.5269845 -0.34538111
0.84731382 -0.18457615 -0.29298672
0.91788775 -0.19994976 -0.29321522
0.98836058 -0.21530133 -0.29007217
1.1070894 -0.24116485 -0.29656163
1.2181493 -0.26535776 -0.29548907
1.3576519 -0.29574659 -0.29535297
1.5174992 -0.33056721 -0.29252541
1.7613916 -0.38369596 -0.29627597
2.3969574 -0.52214557 -0.34475535
2.8795938 -0.62728161 -0.34444016
3.6206384 -0.78870839 -0.34587708
4.8273387 -1.0515722 -0.3453908
7.2439456 -1.5779982 -0.34514812
14.509386 -3.1606786 -0.34526104
0.87319726 -0.16725631 -0.30038142
0.9275915 -0.17767525 -0.29478866
1.0044377 -0.19239473 -0.29327208
1.0942979 -0.20960698 -0.29162511
1.2034607 -0.23051652 -0.29042223
1.3626149 -0.26100165 -0.29490563
1.5420212 -0.29536599 -0.29572126
1.7641629 -0.33791608 -0.29521355
2.4112809 -0.46186808 -0.34502897
2.8987226 -0.55523497 -0.34494218
3.6350322 -0.69627118 -0.34546334
4.8488688 -0.92877513 -0.34514415
7.2836146 -1.3951378 -0.34525055
14.597511 -2.7960761 -0.34556872
0.85765582 -0.14194682 -0.29370922
0.92887962 -0.15373476 -0.29387134
1.0252537 -0.16968518 -0.29800448
1.1261437 -0.18638305 -0.29876307
1.2308379 -0.20371054 -0.29569408
1.3594656 -0.22499914 -0.29290175
1.536584 -0.25431323 -0.29335418
1.7838261 -0.29523316 -0.29716244
2.4316401 -0.40245003 -0.34637848
2.9176013 -0.48287928 -0.34562838
3.6381617 -0.60213602 -0.34420684
4.8805776 -0.8077628 -0.34583989
7.314002 -1.2105081 -0.34513283
14.665006 -2.4271402 -0.3456063
0.86358237 -0.12062785 -0.29460236
0.92538744 -0.12926096 -0.2916415
