# .PCD v0.7 - Point Cloud Data file format
VERSION 0.7
FIELDS x y z
SIZE 4 4 4
TYPE F F F
COUNT 1 1 1
WIDTH 1444
HEIGHT 1
VIEWPOINT 0 0 0 1 0 0 0
POINTS 1444
DATA ascii
0.94370639 0.77292657 0.20055304
0.93392402 0.76491445 0.22744684
0.66430634 0.55821091 -0.29316068
0.72757471 0.61137474 -0.29662529
0.78384954 0.65866202 -0.29360065
0.86673385 0.72830898 -0.29631367
0.88312978 0.74208635 -0.27340037
0.89330745 0.75063854 -0.24802046
0.89508444 0.75213176 -0.22020787
0.89260519 0.75004846 -0.1916168
0.89395571 0.75118333 -0.16409691
0.8837952 0.7426455 -0.13491738
0.89852494 0.75502276 -0.10954699
0.89636719 0.75320965 -0.081850745
0.88852894 0.74662322 -0.054030079
0.89319241 0.75054187 -0.027125468
0.89867747 0.75515091 3.3510922e-05
0.88935047 0.7473135 0.027075153
0.89254135 0.74999481 0.054340776
0.88589621 0.74441099 0.080960989
0.89941633 0.75577182 0.10972333
0.89447176 0.75161695 0.13661484
0.89695257 0.75370151 0.16471523
0.9285078 0.78021711 0.19939519
0.93180752 0.78298986 0.2293144
0.67011589 0.57764292 -0.29891071
0.71415436 0.61560434 -0.29429096
0.78494382 0.67662519 -0.29717833
0.85587579 0.73776883 -0.29575419
0.88371646 0.76176763 -0.27652967
0.88249147 0.76071167 -0.24765739
0.86916429 0.74922359 -0.21613491
0.87763387 0.75652438 -0.19043283
0.88549101 0.76329732 -0.16429441
0.87273943 0.75230539 -0.1346651
0.87990785 0.7584846 -0.10843307
0.87591052 0.75503892 -0.080844536
0.87144703 0.75119132 -0.053562306
0.86989343 0.74985212 -0.026702534
0.8646329 0.74531752 3.258881e-05
0.8697443 0.74972355 0.026763557
0.87170696 0.75141543 0.053644136
0.87436342 0.75370532 0.080767974
0.8845275 0.76246679 0.10906962
0.87311542 0.75262946 0.13478984
0.86635029 0.74679792 0.16080962
0.64592272 0.57112122 -0.29130396
0.701684 0.62042499 -0.29234838
0.76761371 0.6787197 -0.29382962
0.83788347 0.74085176 -0.29273731
0.87630081 0.77482021 -0.27724025
1.0443877 0.92344165 -0.29633078
1.1682777 1.0329845 -0.29372668
1.3367 1.1819025 -0.29324907
1.5606982 1.3799604 -0.29277351
1.8950907 1.6756284 -0.29564786
2.7645419 2.4443922 -0.34444669
3.694134 3.2663321 -0.34472901
5.5568795 4.9133611 -0.34532139
11.137578 9.8477831 -0.34566188
0.64332205 0.58341831 -0.29342103
0.70486885 0.63923413 -0.29700544
0.77491528 0.70275807 -0.29998809
0.83535981 0.7575742 -0.29516509
0.87178814 0.79061049 -0.27894011
1.0228958 0.92764753 -0.29352385
1.1604296 1.0523747 -0.29506186
1.3337518 1.2095578 -0.29592025
1.5544884 1.4097402 -0.29491532
1.8800747 1.7050091 -0.29663119
2.7352221 2.4805284 -0.34465802
3.658869 3.3181686 -0.34530988
5.5104508 4.9973383 -0.34631926
11.021016 9.9947796 -0.34592289
0.63362259 0.58933067 -0.29235861
0.70284736 0.65371644 -0.29959846
0.76258981 0.70928276 -0.2986505
0.83432698 0.77600527 -0.29822919
0.87828922 0.81689447 -0.284289
1.0157336 0.94473106 -0.29485893
1.098557 1.021765 -0.28257865
1.1040399 1.0268645 -0.24780318
1.5287464 1.421883 -0.29340518
1.8469039 1.7178004 -0.29478711
2.7175245 2.5275624 -0.34641102
3.6206293 3.3675375 -0.34567556
5.4347405 5.0548377 -0.345534
10.875223 10.115016 -0.3453173
0.62413096 0.59533423 -0.29141498
0.68446124 0.65288097 -0.2952421
0.74417591 0.70984048 -0.29491627
0.81728631 0.77957761 -0.29562351
0.8851282 0.84428936 -0.28992093
0.99919724 0.95309544 -0.29351926
1.109081 1.0579094 -0.28868946
1.097308 1.0466795 -0.24923074
1.5148008 1.4449097 -0.29419735
1.8313425 1.7468464 -0.29579079
2.667207 2.5441451 -0.34405342
3.5675042 3.4029036 -0.34466723
5.3668251 5.119206 -0.34528705
10.756958 10.260645 -0.34563723
0.62396038 0.61035979 -0.29490057
0.67861259 0.66382074 -0.29630145
0.73310208 0.7171225 -0.29408306
0.80603474 0.78846544 -0.29512155
0.87410063 0.85504764 -0.28981256
0.98829561 0.96675348 -0.29386958
1.100836 1.0768408 -0.29004988
1.1045859 1.0805089 -0.25395393
1.489465 1.4569987 -0.29281676
1.7996316 1.7604046 -0.29422605
2.6493506 2.5916021 -0.34593222
3.5313234 3.4543502 -0.34534678
5.3048668 5.1892352 -0.34547746
10.619313 10.387841 -0.34539011
0.62404895 0.62601566 -0.29864442
0.66711605 0.66921848 -0.29493779
0.72396547 0.72624707 -0.29406315
0.79553115 0.7980383 -0.29493177
0.87407321 0.8768279 -0.293441
0.97907966 0.98216522 -0.29478335
1.0985326 1.1019946 -0.29307595
1.1003083 1.103776 -0.25614569
1.4705949 1.4752295 -0.29273582
1.7802821 1.7858927 -0.29471585
2.6141763 2.6224148 -0.34562376
3.4984014 3.5094268 -0.34642142
5.2290735 5.245553 -0.34481582
10.498334 10.53142 -0.34574109
0.61603868 0.63374281 -0.29860637
0.65629554 0.67515659 -0.29388931
0.72927803 0.75023645 -0.30003449
0.7833569 0.80586952 -0.29415712
0.85845101 0.88312173 -0.29190654
0.97537726 1.0034083 -0.29744929
1.067914 1.0986044 -0.28857508
1.1049106 1.1366643 -0.26052842
1.4547225 1.4965292 -0.2933042
1.7581806 1.8087083 -0.29480407
2.5786273 2.6527336 -0.34531277
3.4553921 3.5546954 -0.34656745
5.1776404 5.3264389 -0.34581965
10.344156 10.641433 -0.3450492
0.59732068 0.63017178 -0.29335648
0.65744811 0.69360608 -0.29829291
0.71031654 0.74938208 -0.29609227
0.76983613 0.8121751 -0.29289708
0.85085535 0.89765018 -0.29314408
0.9649877 1.0180595 -0.29816669
1.0452864 1.1027744 -0.28619033
1.1003705 1.1608881 -0.2628839
1.429695 1.5083245 -0.2920644
1.7357526 1.8312145 -0.2948865
2.5446959 2.6846473 -0.34526855
3.3993554 3.5863111 -0.34544909
5.1098409 5.3908691 -0.34579781
10.22832 10.790852 -0.34569043
0.58931589 0.63761812 -0.29334515
0.64671487 0.69972169 -0.2973972
0.7102446 0.76845855 -0.30007213
0.76208586 0.8245489 -0.29387543
0.83984095 0.90867704 -0.29326823
0.93491495 1.0115435 -0.29278719
1.0223917 1.1061902 -0.28371319
1.1064579 1.1971468 -0.26791841
1.0942657 1.1839553 -0.22656906
1.716558 1.8572526 -0.29557529
2.5080574 2.7136257 -0.34490636
3.3487992 3.6232774 -0.34492064
5.0337787 5.446363 -0.3452642
10.077536 10.903522 -0.34520727
0.58859044 0.65314347 -0.29705441
0.63735515 0.70725644 -0.29716495
0.69554472 0.77182788 -0.29794416
0.75076187 0.83310086 -0.29353076
0.8144837 0.90381134 -0.28836495
0.93179107 1.0339842 -0.29586294
1.0046798 1.1148671 -0.28267148
1.1001126 1.2207662 -0.27008271
1.0991749 1.2197257 -0.23074731
1.6878736 1.8729894 -0.29467389
2.4878652 2.7607191 -0.3468827
3.3112495 3.6744072 -0.34579128
4.9722614 5.5175891 -0.34578288
9.951354 11.042758 -0.34562081
0.57385629 0.65314609 -0.29374582
0.62144572 0.70731097 -0.29387662
0.68521726 0.77989382 -0.29770344
0.75142282 0.85524696 -0.29797617
0.83039594 0.94513184 -0.29818857
0.91799557 1.0448351 -0.29563668
1.0070928 1.1462429 -0.28738859
1.067848 1.2153926 -0.26589787
1.1023002 1.2546051 -0.23470129
1.6655465 1.8956752 -0.29492
2.4418025 2.7791867 -0.34531233
3.2630603 3.7139177 -0.34561533
4.8926749 5.5686965 -0.34509733
9.8114691 11.167121 -0.3456189
0.57021314 0.66572094 -0.29614854
0.60813087 0.70998973 -0.29178482
0.67129093 0.78372872 -0.29591712
0.73220837 0.85484952 -0.29460195
0.81057209 0.94633883 -0.2953257
0.89883864 1.0493895 -0.29369956
0.89106202 1.0403104 -0.25799528
1.0382977 1.2122072 -0.2623198
1.1033335 1.2881362 -0.23835607
1.0990707 1.2831594 -0.19745897
2.3984449 2.8001723 -0.34413993
3.2272 3.7677398 -0.34681475
4.8371348 5.6473308 -0.34616828
9.6674852 11.286739 -0.34552601
0.56630087 0.67825562 -0.2985287
0.60896468 0.72935385 -0.29656798
0.66705287 0.79892576 -0.29845998
0.72643363 0.87004578 -0.29666302
0.7942493 0.95126826 -0.29371962
0.88010609 1.0540985 -0.29189262
0.88310111 1.0576856 -0.25952595
1.0262192 1.2290975 -0.26315758
1.0878248 1.3028822 -0.23853104
1.1033708 1.3215015 -0.20120522
2.3701451 2.8387105 -0.34518093
3.1724861 3.7996702 -0.34604928
4.747282 5.6857948 -0.34483442
9.5146627 11.395662 -0.34516531
0.55551463 0.68262726 -0.29735041
0.60614359 0.74484116 -0.29973805
0.65602589 0.8061375 -0.29804447
0.70508063 0.86641699 -0.29237518
0.78147322 0.96028966 -0.29344344
0.86798638 1.0665988 -0.29230431
0.88844556 1.0917394 -0.26511565
1.005352 1.2353964 -0.26177496
1.0651706 1.3089026 -0.23715885
1.1005346 1.3523586 -0.20377724
1.9975837 2.4546702 -0.29540038
3.1265275 3.8419385 -0.34628579
4.684577 5.7565002 -0.34551758
9.3818293 11.528576 -0.34558547
0.54953164 0.69291699 -0.29879463
0.58563209 0.73843682 -0.2941699
0.6315015 0.7962746 -0.29143485
0.70113373 0.88407546 -0.29533136
0.76898211 0.96962708 -0.29331455
0.86262751 1.0877067 -0.29508874
0.89274257 1.1256795 -0.27060628
0.89517975 1.1287526 -0.23677032
1.0368947 1.3074442 -0.23451026
1.0994596 1.3863338 -0.20679419
1.1086246 1.3978901 -0.16653197
3.0654707 3.8653219 -0.34488684
4.6150503 5.819222 -0.34576675
9.2335052 11.642737 -0.34549487
0.53438199 0.69152337 -0.29526863
0.58303022 0.75447714 -0.29761159
0.63689786 0.82418525 -0.29869112
0.68966722 0.89247203 -0.29521179
0.76357317 0.98811096 -0.2959739
0.85364938 1.1046752 -0.29675242
0.89250481 1.1549565 -0.27492079
0.89790308 1.1619421 -0.24134141
1.0203505 1.3203967 -0.2345103
1.0864838 1.4059774 -0.20766711
1.1036906 1.428244 -0.16847903
3.0141973 3.900558 -0.34461689
4.5381746 5.8726788 -0.34552017
9.0868998 11.75901 -0.34552234
0.52309847 0.69483113 -0.29384518
0.56987 0.75695765 -0.29573599
0.62315047 0.82773 -0.29710844
0.67850846 0.90126199 -0.29526976
0.74504876 0.98964745 -0.29360068
0.83306587 1.1065605 -0.29441753
0.89782858 1.1925846 -0.2811642
0.88255531 1.1722972 -0.2411648
0.98950267 1.3143553 -0.23120601
1.0585508 1.4060719 -0.20569596
1.1083765 1.4722552 -0.17201068
1.1016138 1.4632722 -0.12804534
4.4636374 5.9290442 -0.34550211
8.9353409 11.868803 -0.34541494
0.52807099 0.72013074 -0.30170837
0.55879241 0.76202554 -0.29494351
0.60392618 0.82357454 -0.29286397
0.66750896 0.91028231 -0.2954478
0.7414974 1.0111805 -0.29719532
0.82141232 1.1201605 -0.29526061
0.90201885 1.2300837 -0.28730434
0.88554597 1.2076195 -0.24611783
0.89144737 1.2156672 -0.21185456
1.028044 1.4019442 -0.20318222
1.08143 1.4747466 -0.17069721
1.1004257 1.5006512 -0.13009337
4.3859787 5.9811616 -0.3452934
8.7864208 11.982048 -0.34546334
0.51238769 0.71751672 -0.2978864
0.54035664 0.75668269 -0.29021895
0.59886843 0.83861911 -0.2955088
0.64664906 0.90552819 -0.29123881
0.7268976 1.0179033 -0.2964575
0.80476576 1.1269453 -0.2943545
0.89379048 1.25161 -0.28968045
0.88882923 1.2446626 -0.25136638
0.8918345 1.248871 -0.2156668
0.99859202 1.3983679 -0.20082557
1.0687773 1.4966509 -0.17166121
1.1024535 1.5438092 -0.1326208
4.3159747 6.0438294 -0.34574631
8.6450663 12.106028 -0.34587184
0.50412148 0.72507471 -0.29836509
0.54626012 0.78568244 -0.29867962
0.58606058 0.84292722 -0.29440305
0.6449163 0.92757899 -0.29569554
0.71290302 1.0253639 -0.29599237
0.79334217 1.1410589 -0.29540822
0.89294928 1.2843233 -0.29462603
0.90487587 1.3014772 -0.26051858
0.88333368 1.2704931 -0.21746264
0.97952563 1.4088454 -0.200543
1.0402504 1.4961855 -0.17009193
1.0962251 1.5766937 -0.13424927
1.0965142 1.5771095 -0.08942394
8.4826841 12.20059 -0.34549439
0.48605779 0.71822232 -0.29300356
0.53644735 0.79268032 -0.29874822
0.57613838 0.85132968 -0.29478052
0.63112456 0.93257987 -0.29473293
0.6951555 1.0271951 -0.29397079
0.7671352 1.1335558 -0.29094177
0.87267268 1.289503 -0.29327014
0.89362603 1.3204647 -0.2620461
0.89602488 1.3240093 -0.22467363
0.88720626 1.3109785 -0.18500714
1.0138501 1.4981135 -0.16884637
1.0813769 1.5978944 -0.1348843
1.0923996 1.6141821 -0.09073884
8.3288326 12.307082 -0.34551266
0.47937173 0.72792333 -0.29447523
0.51025862 0.77482492 -0.2895743
0.562033 0.85344404 -0.29303885
0.61359674 0.93174326 -0.29200348
0.67386234 1.0232563 -0.2903921
0.76337236 1.1591767 -0.29502717
0.86278582 1.3101356 -0.29546827
0.90261579 1.3706172 -0.2697219
0.90730304 1.3777348 -0.23183329
0.88511455 1.3440417 -0.18808527
0.99080074 1.5045255 -0.16814953
1.0520712 1.5975645 -0.13372755
1.0932117 1.660036 -0.09253528
8.1728964 12.4105 -0.3454994
0.46943989 0.73276454 -0.29401904
0.49917939 0.77918589 -0.28883204
0.56589532 0.88332504 -0.30082822
0.60718405 0.94777405 -0.29460794
0.66430295 1.0369328 -0.29187635
0.74407053 1.1614448 -0.2931965
0.83650464 1.3057283 -0.2920756
0.96432137 1.5052418 -0.29380158
0.89787513 1.4015235 -0.23391521
0.88413405 1.3800746 -0.19155456
0.8879922 1.386097 -0.15365179
1.0237234 1.5979643 -0.13267143
1.087895 1.698132 -0.093887806
1.1028748 1.7215143 -0.047535334
0.46204343 0.74161416 -0.295212
0.5021854 0.80604506 -0.29642075
0.54568881 0.87587124 -0.29592609
0.60066652 0.96411455 -0.29731256
0.6513474 1.0454612 -0.29194507
0.72493166 1.1635695 -0.29140535
0.82758188 1.3283306 -0.29477707
0.94891733 1.5230831 -0.29492831
0.89237779 1.432333 -0.23716305
0.89597744 1.4381106 -0.19802827
0.88725519 1.4241108 -0.1566148
1.0003464 1.6056306 -0.13225161
1.0524683 1.68929 -0.092658855
1.0962043 1.7594895 -0.04819895
0.45772162 0.75571519 -0.29850712
0.49451587 0.81646383 -0.29793862
0.52922529 0.8737703 -0.29294148
0.58137029 0.95986366 -0.29372081
0.64394945 1.0631841 -0.29460648
0.71975124 1.1883357 -0.29531461
0.80619562 1.3310585 -0.29310632
0.92229885 1.5227492 -0.29259157
1.0927205 1.8041216 -0.29642132
0.89367229 1.4754857 -0.20160927
0.88582194 1.4625244 -0.15959993
0.89757198 1.4819242 -0.12112169
1.0329361 1.7054154 -0.092822537
1.1050522 1.8244816 -0.049594209
1.1026134 1.8204552 6.0760554e-05
0.44427484 0.75480092 -0.29591274
0.48359808 0.82160914 -0.29757047
0.52851456 0.89792001 -0.298783
0.57232481 0.97235143 -0.29531339
0.62724185 1.0656527 -0.29307869
0.70438391 1.1967133 -0.29516891
0.80071759 1.3603795 -0.29731911
0.9036513 1.5352588 -0.29278561
1.0659217 1.810948 -0.29531419
0.899836 1.5287768 -0.20732623
0.8927812 1.5167909 -0.16428199
0.89480883 1.5202358 -0.12332229
1.009225 1.7146231 -0.092624664
1.078962 1.8331027 -0.049455315
1.1056368 1.878422 6.2225678e-05
0.43260637 0.75661081 -0.29446334
0.46430767 0.81205511 -0.29196948
0.5091328 0.89045238 -0.29414153
0.5544551 0.96971923 -0.29237035
0.61807984 1.0809963 -0.2951346
0.69067377 1.2079601 -0.29577434
0.77905697 1.3625387 -0.29562354
0.88970065 1.5560499 -0.29459074
1.0380769 1.8155539 -0.29391035
1.253526 2.1923656 -0.29515529
0.90700096 1.5863074 -0.17056073
0.88225996 1.5430365 -0.12426082
0.97173929 1.6995322 -0.091141202
1.0472485 1.8315946 -0.049054958
1.097383 1.9192778 6.3116328e-05
0.42352185 0.76285595 -0.29479492
0.45946842 0.8276037 -0.29545623
0.50341129 0.90675443 -0.29740903
0.55305046 0.99616551 -0.29822055
0.60175252 1.0838885 -0.29383218
0.67347026 1.2130681 -0.29492518
0.75564134 1.3610762 -0.29321852
0.86593276 1.5597354 -0.29320088
1.016886 1.8316352 -0.29441744
1.2281703 2.2122047 -0.29572067
0.89759111 1.6167589 -0.17260593
0.88390416 1.5921057 -0.12730595
0.89120036 1.6052479 -0.085476406
1.0156333 1.829379 -0.048649237
1.0898163 1.9629989 6.4097738e-05
1.0993534 1.9801773 0.05278885
0.41475049 0.76973814 -0.29541284
0.44426271 0.8245101 -0.29233149
0.48343992 0.89721936 -0.29226172
0.53330302 0.98976064 -0.29426941
0.5837425 1.0833715 -0.29167619
0.65873909 1.2225581 -0.29519233
0.74321371 1.3793353 -0.29511255
0.84790349 1.5736296 -0.29378238
0.99752176 1.8513072 -0.29553702
1.1962636 2.2201533 -0.29474619
1.2764586 2.3689878 -0.25117832
0.90408856 1.6779039 -0.13324557
0.89277416 1.6569054 -0.08762151
0.98689628 1.8315873 -0.048373651
1.0617795 1.9705634 6.3903099e-05
1.0957677 2.0336425 0.053842053
0.40800014 0.78059012 -0.2975823
0.43752307 0.83707368 -0.29480919
0.47245309 0.90390217 -0.29247752
0.51826537 0.99155074 -0.29283813
0.57548833 1.1010302 -0.29445609
0.64383852 1.2317986 -0.29544252
0.72500157 1.3870806 -0.29479304
0.82375157 1.5760101 -0.29226711
0.97365701 1.8628109 -0.29539278
1.1774845 2.2527757 -0.29708514
1.2474086 2.3865552 -0.25135559
0.90196306 1.7256452 -0.13612406
0.89649951 1.7151922 -0.090099744
0.89031106 1.7033525 -0.044687234
1.0288215 1.9683518 6.3406238e-05
1.0957316 2.0963652 0.055133004
0.40181747 0.79292393 -0.30033156
0.42722023 0.84305227 -0.29499677
0.46411109 0.91585058 -0.29442933
0.5014661 0.98956484 -0.2903637
0.56048727 1.1060339 -0.29388347
0.62771243 1.2386923 -0.29517671
0.70559788 1.3923869 -0.29400918
0.81435794 1.607008 -0.29609042
0.9448266 1.8644675 -0.29374558
1.1420704 2.2536972 -0.29528672
1.2464989 2.4597707 -0.25739318
1.2489004 2.4645095 -0.19315204
0.89905322 1.7741408 -0.092594296
0.89183569 1.7598982 -0.045872442
0.99847633 1.9703368 6.3060164e-05
1.066187 2.1039534 0.054975122
1.1035092 2.1776028 0.11379109
0.37902865 0.77190751 -0.29054049
0.42014921 0.8556512 -0.29753044
0.45894992 0.93467045 -0.29859799
0.49403968 1.0061322 -0.29337633
0.54756093 1.1151304 -0.29444507
0.60994041 1.2421689 -0.2941516
0.68610376 1.3972785 -0.29319453
0.78824425 1.6052918 -0.29392213
0.92591774 1.8856697 -0.29522562
1.1101351 2.2608359 -0.29436713
1.2439212 2.5332966 -0.26342708
1.2450511 2.535598 -0.19747908
0.89592355 1.8245853 -0.094630741
0.88532495 1.8030008 -0.046701647
0.89296472 1.8185595 5.7838108e-05
1.0416005 2.1212623 0.055080321
1.1019387 2.2441437 0.11653388
0.38341188 0.80634034 -0.30165961
0.41049939 0.86330718 -0.29837155
0.44512892 0.93613535 -0.29725173
0.48356599 1.016971 -0.29473788
0.53291428 1.1207536 -0.29413465
0.59710312 1.2557471 -0.29556307
0.67192978 1.4131124 -0.29471821
0.76756209 1.6142335 -0.29376632
0.90246016 1.897933 -0.29534301
1.0827523 2.2770994 -0.29468611
1.3567462 2.8533261 -0.29490572
1.814481 3.8159728 -0.29539517
3.1888785 6.7064209 -0.34571347
0.90016514 1.8931063 -0.048738111
0.88867164 1.8689348 5.9079674e-05
1.005373 2.1143653 0.054568183
1.1029495 2.3195753 0.11972019
0.36555472 0.79442692 -0.29545718
0.39466417 0.85768789 -0.29468846
0.42206576 0.91723728 -0.28954047
0.4704653 1.0224196 -0.29457667
0.51685262 1.123229 -0.29305297
0.57493669 1.2494577 -0.2923556
0.65487784 1.4231867 -0.29507604
0.74647123 1.6222382 -0.29348919
0.87854248 1.9092567 -0.29536021
1.052139 2.2865183 -0.29416719
1.3178511 2.8639662 -0.29426694
1.7686104 3.8435607 -0.29578331
3.1066341 6.7513661 -0.34598637
0.90241814 1.9611435 -0.050193198
0.89110535 1.9365585 6.0857819e-05
0.89388269 1.9425942 0.04984061
1.0970669 2.384156 0.1223307
0.35398903 0.79551959 -0.29418242
0.38379604 0.86250484 -0.29465967
0.41674504 0.93655109 -0.29395735
0.4590452 1.0316123 -0.2955364
0.50165761 1.1273751 -0.29246342
0.56614935 1.2723075 -0.29601052
0.63988888 1.4380224 -0.29645786
0.72165555 1.6217765 -0.29173848
0.85880059 1.9299825 -0.29686999
1.0283202 2.3109441 -0.29562026
1.2817574 2.8804934 -0.29428339
1.7176863 3.8601563 -0.29537255
3.0166168 6.779243 -0.34544089
6.0402474 13.574248 -0.34544313
0.90281159 2.0288885 6.339707e-05
0.89594817 2.0134642 0.051365376
1.1050956 2.4834814 0.12670302
0.34831059 0.81006807 -0.29791689
0.37241533 0.86612868 -0.29427224
0.40667987 0.94581783 -0.29523519
0.44451848 1.0338193 -0.29454178
0.49256507 1.1455616 -0.29554886
0.54145813 1.2592725 -0.29136845
0.61484843 1.4299568 -0.29317573
0.70724565 1.6448456 -0.29426298
0.82530314 1.9194126 -0.29362229
1.0048776 2.33705 -0.29731753
1.2445284 2.8944073 -0.29408053
1.6693025 3.8823071 -0.29543561
2.935535 6.8271918 -0.34597316
5.8684731 13.648343 -0.34542078
0.89604259 2.0839317 6.4759319e-05
0.88899255 2.0675354 0.052455045
1.10159 2.5619745 0.12998959
0.33494136 0.80682123 -0.29514828
0.36651969 0.88288844 -0.29837477
0.39852327 0.95998007 -0.29806581
0.42625067 1.0267711 -0.29098138
0.47893676 1.1536835 -0.29606488
0.53425115 1.2869272 -0.29618713
0.59906262 1.4430479 -0.2942898
0.6881355 1.6576105 -0.29497305
0.80188257 1.9316094 -0.29392013
0.97133386 2.3397908 -0.29608673
1.2078249 2.909461 -0.2940414
1.6252357 3.914938 -0.2963379
2.8431826 6.8487806 -0.34522554
5.7024989 13.736425 -0.34580526
0.98523653 2.3732803 7.3359639e-05
0.89946473 2.1666696 0.054678462
0.88988066 2.1435831 0.1081841
0.32339013 0.80756384 -0.29390699
0.34710148 0.86677539 -0.2914291
0.38298181 0.95637512 -0.29542571
0.42080569 1.0508282 -0.29627389
0.46291173 1.1559746 -0.29513353
0.51103473 1.2761465 -0.29220173
0.57888103 1.4455711 -0.29329452
0.67377251 1.6825324 -0.29787451
0.78408468 1.9580017 -0.29641023
0.9437905 2.3568163 -0.29671374
1.1773552 2.9400697 -0.29561308
1.5715446 3.9244323 -0.29553521
2.7594442 6.8908334 -0.34556639
5.5263443 13.800285 -0.34563363
0.9526487 2.3789368 7.3157884e-05
0.89616859 2.2378957 0.056186702
0.882222 2.2030685 0.11061683
0.31553572 0.81763381 -0.29610234
0.33722511 0.87383658 -0.29235229
0.37220758 0.96448511 -0.29645962
0.40787709 1.0569139 -0.29651812
0.44834694 1.1617817 -0.29515135
0.5022791 1.3015337 -0.29654297
0.56770909 1.4710795 -0.29699603
0.64607489 1.6741453 -0.29492599
0.75986052 1.9689931 -0.29660213
0.90863729 2.3545117 -0.29495978
1.1459209 2.9693742 -0.29708514
1.5254433 3.9528139 -0.29620251
2.6710224 6.9213028 -0.34538028
5.3509974 13.865804 -0.3455596
0.91881651 2.3808887 7.2856325e-05
0.90057629 2.3336236 0.058300797
0.89274168 2.3133221 0.11557909
0.30319989 0.81611598 -0.29414669
0.32494086 0.8746357 -0.29122764
0.36160219 0.97331607 -0.29775083
0.39018333 1.0502473 -0.29324612
0.43418369 1.1686821 -0.29549199
0.48154968 1.296176 -0.29391739
0.54510587 1.4672487 -0.29481345
0.62759995 1.6892961 -0.29617932
0.72899956 1.9622309 -0.29417738
0.88154387 2.3728309 -0.29584062
1.1055499 2.9757829 -0.29631001
1.4751529 3.9706342 -0.29612243
2.5885763 6.9676099 -0.34603706
5.1773272 13.935691 -0.34564915
0.88444132 2.38063 7.2501862e-05
0.90129209 2.4259868 0.060319979
0.892528 2.4023967 0.11945848
0.29544851 0.8270027 -0.29670611
0.31705889 0.88749331 -0.29415613
0.34374928 0.9622035 -0.29300395
0.3816672 1.0683413 -0.29693279
0.4177064 1.1692201 -0.29427478
0.46637702 1.305456 -0.29466668
0.52578521 1.4717482 -0.29436389
0.60853499 1.7033767 -0.29728097
0.71206343 1.9931676 -0.29744756
0.84953707 2.3779759 -0.29512495
1.0602658 2.9678361 -0.29416597
1.4240841 3.9862154 -0.29592362
2.498024 6.9923272 -0.34567499
4.999989 13.995687 -0.34554818
0.8536042 2.3893607 7.2434654e-05
0.90302122 2.5276859 0.062560946
0.89243406 2.4980507 0.12364626
0.28726885 0.83723438 -0.29905543
0.30498043 0.88885409 -0.29331103
0.33750632 0.98364961 -0.29821676
0.36855027 1.074126 -0.29722717
0.4036063 1.1762955 -0.29475307
0.45321292 1.3208722 -0.29683468
0.50379628 1.4682955 -0.29238129
0.58294457 1.6989703 -0.29520744
0.68440425 1.9946707 -0.29636228
0.82271963 2.3977859 -0.29627427
1.0292913 2.9998312 -0.29602912
1.3761562 4.010756 -0.29643551
2.4045963 7.0081062 -0.34493083
4.8212838 14.051452 -0.34539872
0.81395996 2.372256 7.159973e-05
0.89728314 2.6150982 0.064439669
0.89246577 2.6010582 0.1281784
0.27250844 0.82803571 -0.29452068
0.29527611 0.89721686 -0.29482031
0.32089943 0.97507507 -0.29436877
0.35295859 1.072489 -0.2955209
0.39048913 1.1865282 -0.29606155
0.43060729 1.30843 -0.29279685
0.48877552 1.4851781 -0.29449418
0.56486923 1.7163941 -0.29697546
0.6569733 1.9962587 -0.29534566
0.77929527 2.3679423 -0.29135114
0.98871928 3.0042918 -0.29521728
1.5455666 4.6963105 -0.34563908
2.3197274 7.0486522 -0.34546134
4.6454086 14.115395 -0.34550521
0.78570539 2.3874202 7.1753107e-05
0.89716685 2.7261035 0.066891313
0.8849932 2.6891129 0.13195805
0.2601088 0.82520819 -0.29232678
0.28509569 0.9044804 -0.29600397
0.30780184 0.97651678 -0.29361063
0.34021151 1.0793381 -0.29620418
0.37076259 1.1762629 -0.29231206
0.41437703 1.3146319 -0.29299381
0.46929729 1.4888693 -0.29403099
0.54002434 1.7132545 -0.29523227
0.63531697 2.0155749 -0.29699633
0.75206244 2.3859558 -0.29237914
0.74761581 2.3718488 -0.23212667
0.74825877 2.3738887 -0.17400622
0.7503857 2.3806362 -0.116205
0.75399411 2.3920844 -0.058314484
0.75259346 2.3876407 7.1469251e-05
0.88498062 2.8076456 0.068613254
0.87704974 2.7824845 0.13598719
0.25213709 0.83651066 -0.29518253
0.27457872 0.91096491 -0.29697102
0.29995328 0.99514955 -0.29805368
0.32751173 1.0865797 -0.29703617
0.35734561 1.185559 -0.29348072
0.39768651 1.3193973 -0.2929166
0.45152807 1.4980265 -0.29469323
0.51673418 1.7143598 -0.29427814
0.60439181 2.0051799 -0.29431984
0.71756691 2.3806586 -0.29059973
0.7148459 2.3716314 -0.23120612
0.71802038 2.3821633 -0.17393622
0.72000307 2.3887413 -0.11614886
0.71911263 2.385787 -0.057935629
0.71732825 2.3798671 7.0960559e-05
0.87382078 2.8990593 0.070572734
0.86812502 2.8801627 0.14021559
0.24103382 0.83770543 -0.29450977
0.262229 0.91136867 -0.29600275
0.28147563 0.97825968 -0.29191035
0.31220448 1.0850568 -0.29552174
0.34369633 1.1945058 -0.29460075
0.38162413 1.3263227 -0.29336396
0.43375912 1.5075161 -0.29546213
0.49541897 1.7218131 -0.29446334
0.57832032 2.0099339 -0.29392546
0.68617642 2.3847845 -0.29002565
0.68156111 2.3687444 -0.23006974
0.68878824 2.393862 -0.1741433
0.6869005 2.387301 -0.1156491
0.68364888 2.3760004 -0.057484362
0.68551153 2.3824739 7.0775292e-05
0.85275835 2.9637349 0.07188005
0.84581345 2.9395981 0.14257929
0.23155706 0.84465021 -0.29590273
0.25056556 0.91398746 -0.29580507
0.27601385 1.0068151 -0.29937038
0.29824677 1.0879141 -0.29525369
0.33113429 1.2078779 -0.29684681
0.3653155 1.3325607 -0.29370293
0.41656303 1.5194962 -0.2967585
0.47630161 1.7374043 -0.29608056
0.55488151 2.0240402 -0.29494315
0.65167236 2.377104 -0.28807077
0.65589428 2.3925042 -0.23155694
0.65534645 2.390506 -0.17328511
0.65184468 2.3777325 -0.11477883
0.65545374 2.3908973 -0.057640523
0.65123963 2.3755257 7.0319693e-05
0.82851148 3.0221596 0.07303822
0.82419467 3.0064132 0.14530513
0.21741062 0.83409822 -0.29122394
0.23977686 0.91990662 -0.29672006
0.25847039 0.99162447 -0.29386246
0.28516611 1.0940429 -0.295919
0.31596059 1.2121862 -0.2969043
0.34930947 1.3401296 -0.29437837
0.39617491 1.5199294 -0.29584536
0.45500717 1.74564 -0.29648414
0.53192544 2.0407379 -0.29637676
0.62184775 2.3857257 -0.28814381
0.61949307 2.3766921 -0.2292534
0.62045169 2.3803699 -0.17197038
0.62081808 2.3817754 -0.11458754
0.62189871 2.3859212 -0.057327218
0.61953443 2.3768508 7.0122434e-05
0.80938631 3.1052196 0.074793331
0.80570322 3.0910892 0.14889552
0.20837235 0.84276056 -0.293309
0.2250537 0.91022813 -0.29266092
0.24817303 1.0037341 -0.29650149
0.26800919 1.0839614 -0.29225612
0.29982907 1.2126567 -0.29607129
0.33428463 1.3520119 -0.29604039
0.37534881 1.5180959 -0.29454514
0.43497595 1.7592573 -0.29784304
0.50503528 2.0426118 -0.29570186
0.58844036 2.3799431 -0.28652775
0.58856493 2.3804469 -0.22888257
0.59073228 2.3892128 -0.17205819
0.58862686 2.3806973 -0.11417002
0.59028995 2.3874238 -0.057180192
0.58595598 2.3698952 6.9694019e-05
0.77937603 3.1521811 0.075682074
0.77086419 3.1177549 0.14970054
0.19678764 0.84122723 -0.29188979
0.21789192 0.93144375 -0.29857641
0.23028405 0.98441762 -0.28991583
0.25560585 1.0926632 -0.29371119
0.28134403 1.2026887 -0.2927494
0.31519374 1.3473893 -0.29413581
0.35467446 1.5161614 -0.29328004
0.41019869 1.7535162 -0.29597309
0.47902924 2.0477529 -0.29554948
0.55688775 2.3805821 -0.28573778
0.55907929 2.3899505 -0.22910126
0.55900353 2.3896267 -0.17156748
0.55821055 2.3862369 -0.11408954
0.55773216 2.3841918 -0.056930061
0.5568794 2.3805466 6.9795504e-05
0.75160795 3.2129714 0.076908283
0.74986702 3.2055295 0.15344952
0.18848997 0.85410565 -0.29551136
0.20334163 0.92140311 -0.29451373
0.22253396 1.0083693 -0.29612103
0.24358755 1.1037697 -0.2958487
0.26784602 1.2136922 -0.29458347
0.29765445 1.3487632 -0.29359424
0.33758375 1.5296952 -0.29505229
0.38655502 1.751599 -0.29480454
0.45508811 2.0621433 -0.29677582
0.54317993 2.4613144 -0.29458362
0.54951316 2.4900119 -0.238011
0.55329651 2.5071554 -0.17949122
0.55218136 2.5021024 -0.11928735
0.55017638 2.4930172 -0.059358481
0.55250973 2.5035903 7.3193252e-05
0.72065628 3.2655139 0.077942587
0.18105185 0.87246311 -0.30105019
0.1930465 0.93026364 -0.29654536
0.21083382 1.0159782 -0.29755223
0.22974665 1.1071165 -0.29594687
0.25305372 1.2194299 -0.29517931
0.28173271 1.3576299 -0.2947287
0.31793123 1.5320654 -0.29471391
0.36872774 1.7768465 -0.29824874
0.4234162 2.0403824 -0.2928535
0.51082063 2.4615719 -0.29382131
0.64009941 3.0845478 -0.2940467
0.69997525 3.373081 -0.24083409
0.7002424 3.3743684 -0.1604394
0.69874066 3.3671319 -0.07995522
0.6995542 3.3710523 9.8288452e-05
0.68734843 3.3122342 0.078844883
0.16925031 0.87054938 -0.29963067
0.18037538 0.92777187 -0.29500362
0.19270867 0.99120891 -0.28956434
0.21678069 1.1150248 -0.29730761
0.23887488 1.2286676 -0.29666379
0.26454905 1.3607243 -0.29465392
0.29947016 1.5403432 -0.29555741
0.34112325 1.7545885 -0.29376838
0.4021903 2.0686905 -0.29616618
0.47912887 2.4644287 -0.29341888
0.59994262 3.0858419 -0.29342663
0.65697831 3.3792083 -0.24066181
0.65569955 3.3726311 -0.15995154
0.65605962 3.3744829 -0.079927273
0.65514702 3.3697889 9.8003315e-05
0.65025419 3.3446224 0.079414651
0.15668619 0.86384851 -0.29662174
0.16854918 0.92925203 -0.29477605
0.18359467 1.0122014 -0.2949982
0.19997203 1.1024938 -0.29327169
0.22350095 1.2322143 -0.29681706
0.24684289 1.3609041 -0.29399645
0.27946487 1.5407567 -0.29493815
0.32157373 1.7729131 -0.29613498
0.37131789 2.0471647 -0.29239181
0.44891161 2.4749572 -0.29397607
0.56316578 3.1048679 -0.29453811
0.61691189 3.4011829 -0.24165441
0.618734 3.4112289 -0.16139978
0.62058467 3.421432 -0.0808478
0.6223284 3.4310455 9.9549034e-05
0.61524564 3.3919966 0.080349185
0.14458126 0.85853457 -0.29414859
0.15752594 0.93540102 -0.29607391
0.17085449 1.014547 -0.29503137
0.18747202 1.1132231 -0.29547438
0.20499133 1.217254 -0.29256845
0.2298113 1.3646369 -0.29415441
0.26033184 1.5458702 -0.29526606
0.29920831 1.7767216 -0.29611832
0.3492941 2.0741348 -0.29559228
0.41597351 2.4700823 -0.29275167
0.52391469 3.1110451 -0.29447493
0.81967735 4.8673067 -0.34506196
1.2329367 7.3212724 -0.34563863
2.4696417 14.66492 -0.34576705
0.58047456 3.4469023 0.081470177
0.13357078 0.85907114 -0.29373288
0.14463419 0.93022639 -0.29383627
0.15728536 1.0115933 -0.29357323
0.17322041 1.1140809 -0.29509974
0.19111477 1.2291698 -0.29483065
0.21272217 1.3681396 -0.29430869
0.23974125 1.5419151 -0.29391071
0.24789473 1.5943549 -0.26518279
0.24654873 1.5856978 -0.22552305
0.24644428 1.5850261 -0.18747303
0.24798197 1.5949159 -0.1506587
0.248033 1.5952441 -0.11286257
0.24840142 1.5976136 -0.075269997
0.24755444 1.5921662 -0.03746336
0.24765992 1.5928446 4.6019515e-05
0.24675936 1.5870526 0.037434794
0.24598399 1.5820657 0.074629091
0.24974948 1.6062838 0.1137369
0.25023842 1.6094284 0.15212339
0.12421537 0.87100613 -0.29725531
0.13302819 0.9328022 -0.29409745
0.14640616 1.0266093 -0.2973724
0.15713333 1.1018289 -0.29130721
0.17426682 1.22197 -0.29255411
0.19540642 1.3702023 -0.29419976
0.21942531 1.5386242 -0.29273352
0.25471592 1.7860843 -0.29651541
0.29689109 2.0818193 -0.29552791
0.35534155 2.4916775 -0.294157
0.4459205 3.1268229 -0.2948117
0.6961996 4.8817959 -0.34473661
1.0475348 7.3453808 -0.34542155
2.0955844 14.694372 -0.34510747
0.24629915 1.7270653 0.040660981
0.2454989 1.7214539 0.08105205
0.24356197 1.707872 0.12070338
0.25000122 1.7530245 0.16538544
0.11098573 0.85514349 -0.29134169
0.12117592 0.93365872 -0.29386315
0.13252544 1.0211067 -0.29527166
0.1464473 1.1283745 -0.29781428
0.15994948 1.2324084 -0.29454765
0.1791929 1.3806789 -0.29594126
0.20151781 1.5526919 -0.29490384
0.22988972 1.7712971 -0.29355666
0.2679238 2.0643492 -0.2925458
0.32228935 2.4832349 -0.29265797
0.40701494 3.1360443 -0.29517451
0.6378457 4.9145923 -0.34645793
0.9551056 7.3590751 -0.34547257
1.9142827 14.749521 -0.34580916
0.46043205 3.5476224 0.083379969
0.22209847 1.7112656 0.12073598
0.10170729 0.8692733 -0.29569587
0.11007678 0.94080573 -0.2956529
0.11993626 1.0250728 -0.29595837
0.13221294 1.1299993 -0.29778013
0.14430365 1.2333364 -0.29431182
0.16153002 1.380567 -0.2954579
0.18283108 1.5626231 -0.29632932
0.20940275 1.7897264 -0.29615048
0.24425636 2.0876136 -0.29538339
0.24639496 2.1058919 -0.24780147
0.24336152 2.0799656 -0.19546907
0.24520196 2.0956955 -0.14750829
0.24361531 2.0821347 -0.097594298
0.24646936 2.1065278 -0.049311817
0.24523082 2.0959423 6.024394e-05
0.24380019 2.083715 0.048897635
0.24755789 2.1158311 0.099295616
0.24511844 2.0949817 0.14757906
0.091327816 0.8759886 -0.29756537
0.098306045 0.94292164 -0.29590538
0.10641196 1.0206711 -0.29427731
0.11609209 1.11352 -0.29302898
0.1291807 1.239062 -0.29526651
0.14521196 1.3928289 -0.29766718
0.16273746 1.5609281 -0.29559585
0.18646249 1.7884915 -0.29553419
0.2187297 2.0979886 -0.29643819
0.26115623 2.504931 -0.29434633
0.3272396 3.1387827 -0.294563
0.51144302 4.9056058 -0.34480688
0.76860768 7.372251 -0.34507284
1.540935 14.78018 -0.34550837
0.37581572 3.6047101 0.084472425
0.080454633 0.87885857 -0.2981725
0.086953968 0.94985509 -0.29771397
0.09354341 1.0218358 -0.29425016
0.10337415 1.1292235 -0.29679534
0.11346745 1.2394792 -0.29500207
0.12665799 1.383568 -0.2953237
0.14298949 1.5619677 -0.29542834
0.1623861 1.7738496 -0.29275361
0.19216424 2.0991356 -0.29623488
0.23029046 2.5156131 -0.29523739
0.28814027 3.1475446 -0.29502136
0.45043471 4.920393 -0.34542018
0.67662811 7.3912511 -0.34553596
1.3548845 14.80029 -0.34555224
0.33254477 3.6326041 0.08502122
0.19135185 2.0902612 0.097838402
0.06917575 0.87718195 -0.29728457
0.0755587 0.95812088 -0.29998273
0.080495186 1.0207179 -0.29361311
0.088855177 1.1267266 -0.29582158
0.099653237 1.2636513 -0.30043265
0.10894127 1.381428 -0.29455078
0.12245917 1.5528414 -0.29338729
0.14147675 1.7939936 -0.29576069
0.16594131 2.1042161 -0.29663342
0.19928735 2.52706 -0.2962628
0.2470302 3.1324625 -0.29329291
0.38896066 4.9322095 -0.34587848
0.58402181 7.4056787 -0.34583923
1.1679219 14.809814 -0.34540385
0.289186 3.6670182 0.085734658
0.057271253 0.8650803 -0.29291558
0.061379876 0.92714089 -0.29001808
0.067638345 1.0216749 -0.29362008
0.074254349 1.1216093 -0.29420921
0.082663625 1.2486312 -0.29659069
0.09239953 1.3956918 -0.29732046
0.10384879 1.5686325 -0.29610023
0.11909799 1.7989711 -0.29631054
0.13942459 2.1060035 -0.29661441
0.16692972 2.5214677 -0.29533735
0.20853597 3.1499288 -0.29465905
0.32637003 4.9298077 -0.34539449
0.49011633 7.4031906 -0.34540743
0.98138732 14.823821 -0.34541494
0.13798831 2.0843086 0.048686523
0.13720709 2.0725083 0.096814975
0.046781402 0.87333268 -0.29548696
0.050683223 0.94617331 -0.2957485
0.054293416 1.0135698 -0.29107121
0.060235634 1.1245012 -0.29474548
0.066766255 1.2464173 -0.29584163
0.074621797 1.3930676 -0.29653776
0.084975317 1.586351 -0.29921913
0.095905185 1.7903938 -0.2946755
0.11241087 2.0985279 -0.29533875
0.13541661 2.528008 -0.29588023
0.16843897 3.1444817 -0.29392779
0.26399556 4.9283676 -0.34503332
0.39690733 7.4096141 -0.34544656
0.79484963 14.83855 -0.34549752
0.19860852 3.7076979 0.086541332
0.1108105 2.0686519 0.096561983
0.035524517 0.86757946 -0.29336578
0.038520817 0.94075501 -0.29387999
0.041866891 1.0224729 -0.29345328
0.045707885 1.1162775 -0.29241589
0.051329665 1.2535726 -0.29736298
0.056478031 1.379306 -0.2934337
0.064263873 1.5694517 -0.29585549
0.074102536 1.8097314 -0.29768103
0.086256467 2.1065547 -0.29629204
0.10355312 2.5289733 -0.29581714
0.1293539 3.1590796 -0.29511666
0.2021748 4.937511 -0.34546781
0.30258814 7.3898044 -0.34431806
0.60785687 14.845074 -0.34544381
0.15203923 3.7131009 0.08661589
0.086934187 2.1231058 0.099044874
0.086329997 2.1083503 0.14763814
0.024884017 0.87805647 -0.29677901
0.026860977 0.94781536 -0.29595643
0.029005943 1.0235026 -0.29362071
0.03216378 1.13493 -0.29717237
0.0351144 1.2390454 -0.29378876
0.038981259 1.3754913 -0.29249454
0.044258241 1.5616946 -0.29426482
0.050686181 1.7885107 -0.29406217
0.059544448 2.101083 -0.29539356
0.071804807 2.5337017 -0.29624099
0.089961782 3.1743882 -0.29641744
0.13982792 4.9339623 -0.34506899
0.051977977 1.834093 -0.085419841
0.051960047 1.8334602 -0.042645883
0.10603382 3.7415056 0.087240428
0.059805077 2.1102798 0.098403588
0.059680078 2.1058691 0.14740008
0.056800239 2.004251 0.18726808
0.013860789 0.88049424 -0.29752037
0.014855254 0.9436667 -0.29457924
0.016299928 1.0354383 -0.29696238
0.017839525 1.1332399 -0.29664749
0.019651718 1.2483579 -0.29591471
0.021968819 1.3955495 -0.29667756
0.024792949 1.5749499 -0.29668009
0.02809836 1.7849232 -0.2933909
0.03339066 2.1211119 -0.29812667
0.039815471 2.529242 -0.29563752
0.05004926 3.1793344 -0.29679692
0.077853523 4.9455757 -0.3457852
0.028369887 1.8021716 -0.083909869
0.028600588 1.8168268 -0.042247269
0.058806404 3.7356243 0.08707913
0.031418223 1.9958146 0.18642806
0.0027380781 0.86944562 -0.2937521
0.0029899459 0.94942337 -0.296341
0.0032244937 1.0239013 -0.29361868
0.0035634867 1.1315447 -0.29616851
0.0039084395 1.2410806 -0.2941547
0.0044292123 1.406446 -0.29895845
0.0049273418 1.5646214 -0.29469946
0.0056368392 1.7899143 -0.29417628
0.0065886118 2.092139 -0.29401949
0.0079319505 2.5187008 -0.29437035
0.0099562164 3.1614835 -0.29509541
0.01554415 4.9358683 -0.34506544
0.0056819255 1.8042309 -0.083995767
0.0057006483 1.8101761 -0.042087611
0.0058174036 1.8472503 5.2736279e-05
0.0058061867 1.8436887 0.042972125
0.0058276728 1.8505113 0.086256228
0.0057921815 1.8392415 0.12868649
0.0054117939 1.7184536 0.16050082
-0.0083300853 0.88218027 -0.29806647
-0.0087777534 0.92958963 -0.29016185
-0.0097144609 1.0287896 -0.29503214
-0.010612063 1.1238484 -0.29416576
-0.011868045 1.2568605 -0.29790655
-0.012989893 1.3756673 -0.29242763
-0.014753313 1.5624187 -0.29429623
-0.017002027 1.8005642 -0.29593834
-0.019846734 2.1018269 -0.29539272
-0.023866048 2.5274839 -0.29540858
-0.029846886 3.1608722 -0.29505005
-0.046712682 4.9470091 -0.34585798
-0.016883215 1.7879816 -0.08324258
-0.016999392 1.8002851 -0.041859299
-0.035873465 3.7991045 0.088551857
-0.01866235 1.9763972 0.18459965
-0.019315803 0.87649947 -0.29620576
-0.020922754 0.94941854 -0.29640999
-0.022648642 1.0277348 -0.29478803
-0.024888733 1.129384 -0.29567328
-0.027384657 1.2426424 -0.29459491
-0.030382549 1.3786787 -0.29312584
-0.034595955 1.5698718 -0.29575866
-0.039710157 1.8019404 -0.29622325
-0.046265274 2.0993941 -0.2951093
-0.05552756 2.5196919 -0.29455623
-0.069797792 3.167237 -0.29570276
-0.10909939 4.9506378 -0.34618032
-0.040299997 1.8287059 -0.085155442
-0.040255837 1.826702 -0.042481951
-0.083117254 3.7716384 0.087929085
-0.044075761 2.0000398 0.18684496
-0.030486116 0.88010299 -0.29752967
-0.032596443 0.94102597 -0.29389465
-0.03553433 1.0258397 -0.29434949
-0.03861801 1.1148624 -0.29197568
-0.042775162 1.2348751 -0.29285797
-0.047567703 1.3732309 -0.29207176
-0.054134578 1.5628098 -0.29453331
-0.061986845 1.7894968 -0.29428262
-0.073186927 2.1128316 -0.29710415
-0.087964781 2.5394533 -0.2969723
-0.10922425 3.1531923 -0.29449657
-0.17169578 4.9566813 -0.3467266
-0.2567791 7.4129496 -0.34531426
-0.51467305 14.858085 -0.34566429
-0.13159175 3.798919 0.088596694
-0.055226427 1.5943304 0.074359298
-0.055179965 1.5929891 0.1115232
-0.05500932 1.5880628 0.14841074
-0.041567076 0.87968779 -0.29754266
-0.044519302 0.94216597 -0.29440245
-0.048305869 1.0223014 -0.29348549
-0.053320754 1.1284319 -0.29568183
-0.058533184 1.2387431 -0.29392678
-0.065622993 1.3887852 -0.29553235
-0.074521922 1.5771141 -0.29738241
-0.084565416 1.7896655 -0.29446211
-0.098893456 2.0928912 -0.29445192
-0.11908489 2.5202043 -0.29487324
-0.1490103 3.1535182 -0.2946789
-0.18113658 3.8334098 -0.26829049
-0.18111111 3.8328705 -0.17863706
-0.18162738 3.8437963 -0.089469694
-0.18138885 3.8387487 0.00010971235
-0.17914984 3.791364 0.088466093
-0.075111702 1.5895957 0.074176706
-0.075417705 1.5960716 0.11179662
-0.074901693 1.5851512 0.14821504
-0.052145068 0.87082732 -0.29474446
-0.056993093 0.9517898 -0.29761028
-0.061697967 1.0303615 -0.29599902
-0.067408152 1.1257222 -0.29517084
-0.074149713 1.2383068 -0.29402152
-0.082876176 1.3840395 -0.29472116
-0.093757614 1.5657606 -0.29544079
-0.107306 1.79202 -0.29504845
-0.12577805 2.1005046 -0.29572245
-0.1521119 2.5402822 -0.29742298
-0.18843766 3.1469259 -0.29426128
-0.22892898 3.8231344 -0.26775187
-0.2277227 3.8029895 -0.17736399
-0.22794019 3.8066216 -0.088664182
-0.22834517 3.813385 0.00010906099
-0.22694652 3.7900271 0.088494569
-0.094723731 1.5818949 0.11087838
-0.062567346 0.86267883 -0.29222998
-0.067952275 0.93692619 -0.29320699
-0.074867673 1.0322758 -0.29679623
-0.081330977 1.1213918 -0.29428059
-0.089847721 1.2388207 -0.29438883
-0.10137411 1.3977467 -0.29788822
-0.11350267 1.5649754 -0.29553887
-0.13025008 1.7958887 -0.29593199
-0.15308055 2.1106753 -0.29740217
-0.18293771 2.522346 -0.29556921
-0.22934531 3.162214 -0.29593742
-0.27726287 3.8229015 -0.26795882
-0.27759171 3.8274357 -0.17865297
-0.27716029 3.8214874 -0.089084662
-0.27653304 3.8128386 0.00010913629
-0.11730212 1.6173621 0.037795801
-0.11561708 1.5941288 0.074500501
-0.11386878 1.5700232 0.11013804
-0.074684195 0.87660766 -0.29724336
-0.081563905 0.95735848 -0.2998988
-0.087088153 1.0221995 -0.29419109
-0.096099079 1.1279655 -0.29629976
-0.10643411 1.2492732 -0.29716766
-0.11808117 1.3859808 -0.29567412
-0.13315237 1.5628793 -0.29543626
-0.15318356 1.797996 -0.29657358
-0.17805754 2.0899549 -0.29477513
-0.21369776 2.5082829 -0.29421332
-0.26724547 3.1368008 -0.29385075
-0.4199048 4.9286432 -0.34580687
-0.63030696 7.3982444 -0.34567046
-1.2604524 14.794593 -0.34522703
-0.32264501 3.7870541 0.088586807
-0.13544635 1.5898051 0.11163655
-0.084544294 0.86363047 -0.29318073
-0.092115253 0.94096875 -0.29510459
-0.10024117 1.023976 -0.29504228
-0.10832263 1.1065291 -0.29100397
-0.12237333 1.2500588 -0.29769748
-0.13478813 1.3768774 -0.29407084
-0.15298037 1.5627135 -0.29574561
-0.17361504 1.7734991 -0.29287031
-0.20440412 2.0880134 -0.29484096
-0.24428909 2.4954433 -0.29304487
-0.30797926 3.1460464 -0.29505676
-0.48151535 4.9187393 -0.34550998
-0.72319591 7.387536 -0.34556821
-1.4480457 14.791967 -0.34556383
-0.37206322 3.8006721 0.089007899
-0.095169865 0.86031097 -0.29243749
-0.10308199 0.93183452 -0.29262382
-0.11321034 1.0233922 -0.29526141
-0.12464099 1.1267223 -0.29670379
-0.13755521 1.2434635 -0.29651582
-0.15330282 1.3858178 -0.29636911
-0.17356291 1.5689638 -0.29731855
-0.19625364 1.7740822 -0.29335141
-0.23132117 2.0910835 -0.29566234
-0.27682275 2.5024059 -0.29424849
-0.34757787 3.142014 -0.29506567
-0.54272419 4.9060864 -0.34507391
-0.81556898 7.3725324 -0.34531939
-1.6357198 14.786484 -0.34588951
-0.41821858 3.7805879 0.088653848
-0.10772147 0.87303942 -0.29720166
-0.11557606 0.93669772 -0.29458466
-0.12642218 1.0246012 -0.29604605
-0.13869672 1.1240815 -0.29644477
-0.15193792 1.2313961 -0.29407114
-0.16851763 1.3657681 -0.29251194
-0.19151114 1.5521212 -0.29456049
-0.21943514 1.778434 -0.29450455
-0.25817466 2.0924025 -0.296285
-0.30850413 2.5003028 -0.29443464
-0.38597023 3.1281345 -0.29419535
-0.60487419 4.9022636 -0.34531337
-0.90889412 7.3662233 -0.34553257
-1.8205767 14.755045 -0.34566295
-0.46686521 3.7837558 0.088858947
-0.23544413 1.9081806 0.08961837
-0.23511828 1.9055398 0.13433558
-0.11866505 0.87131649 -0.29710028
-0.12743239 0.93569207 -0.29474971
-0.13733317 1.0083901 -0.29183856
-0.15193965 1.1156403 -0.29469985
-0.16613065 1.2198399 -0.29178786
-0.1855118 1.3621491 -0.29221398
-0.20937565 1.5373731 -0.2922388
-0.24255367 1.7809877 -0.29540983
-0.28147277 2.0667574 -0.29313231
-0.33961856 2.4937017 -0.2941376
-0.42031604 3.0862355 -0.29072955
-0.42016399 3.085119 -0.2176699
-0.41994646 3.0835218 -0.14487746
-2.0062778 14.731405 -0.34567359
-0.51372749 3.7721236 0.088730656
-0.25802842 1.8946135 0.089126714
-0.2584253 1.8975278 0.13398954
-0.24076086 1.7678238 0.16663529
-0.13009948 0.87292635 -0.29818416
-0.13774799 0.92424542 -0.29166716
-0.15324381 1.0282174 -0.29811165
-0.16622135 1.1152925 -0.29513752
-0.18236752 1.2236284 -0.2932201
-0.20164733 1.3529897 -0.29077074
-0.23087582 1.5491036 -0.2949979
-0.23543331 1.5796829 -0.26249063
-0.23734587 1.5925157 -0.22627561
-0.23655081 1.587181 -0.18754797
-0.24020383 1.6116916 -0.15209745
-0.23794636 1.5965447 -0.11284632
-0.23620339 1.58485 -0.074597083
-0.23658878 1.5874358 -0.037316255
-0.2371555 1.5912384 4.5929042e-05
-0.23560919 1.5808631 0.037253056
-0.23772313 1.5950469 0.075169317
-0.23797117 1.5967112 0.11295072
-0.23620974 1.5848926 0.14966068
-0.14017577 0.86563289 -0.29627225
-0.15126441 0.93410897 -0.29535756
-0.16651607 1.0282931 -0.29871783
-0.17921615 1.1067203 -0.29344299
-0.19856857 1.2262281 -0.29441893
-0.22144444 1.3674945 -0.29446387
-0.24951321 1.5408285 -0.29399708
-0.28602314 1.7662897 -0.29407361
-0.33370265 2.0607269 -0.29337609
-0.40197602 2.482338 -0.29389828
-0.42094356 2.5994689 -0.24579602
-0.4195596 2.5909226 -0.18348941
-0.41997012 2.5934577 -0.12231032
-2.3770132 14.678861 -0.34573591
-0.60553843 3.7394049 0.088291802
-0.1512899 0.86509085 -0.29671523
-0.16294648 0.93174428 -0.29523522
-0.17980416 1.0281382 -0.29930681
-0.19348232 1.1063514 -0.29396784
-0.2138388 1.2227516 -0.29420742
-0.23936045 1.368687 -0.29534629
-0.26928896 1.5398213 -0.29442856
-0.31052855 1.7756333 -0.29625678
-0.36352384 2.0786657 -0.29655814
-0.42098665 2.407244 -0.28561246
-0.4180634 2.3905284 -0.22651921
-0.41875926 2.3945074 -0.16993925
-0.42053273 2.4046483 -0.11364659
-2.5608928 14.643441 -0.34563377
-0.65183061 3.7272329 0.088191211
-0.16135764 0.85879135 -0.29522806
-0.17354752 0.92366934 -0.29334575
-0.19004968 1.0114985 -0.29513603
-0.20846879 1.1095303 -0.2954866
-0.23169051 1.2331229 -0.29738125
-0.25901648 1.3785596 -0.29815683
-0.2879867 1.5327473 -0.29374605
-0.33260706 1.7702295 -0.29603049
-0.38839695 2.0671592 -0.29559085
-0.43066466 2.29212 -0.27257517
-0.42947623 2.285795 -0.21709022
-0.42892769 2.2828753 -0.1623871
-0.43121073 2.2950263 -0.10871372
-2.7467527 14.619 -0.34584585
-0.69947445 3.7228024 0.088287793
-0.17280132 0.85989243 -0.29633114
-0.18420899 0.91665924 -0.29183298
-0.20247534 1.0075561 -0.29470628
-0.2238131 1.1137369 -0.29733387
-0.2416672 1.2025822 -0.2907269
-0.27298701 1.3584358 -0.29452452
-0.30876353 1.5364666 -0.29518056
-0.35382527 1.7607024 -0.29515898
-0.41289064 2.0546229 -0.29451835
-0.4630821 2.3043852 -0.27470538
-0.46062261 2.2921464 -0.21822701
-0.46103877 2.2942173 -0.16359389
-0.45938817 2.2860036 -0.10855173
-2.9250295 14.555508 -0.34518778
-0.74016786 3.683217 0.087563105
-0.18257946 0.85281301 -0.29466039
-0.19662948 0.91843945 -0.29316476
-0.21658902 1.0116687 -0.29668343
-0.23588213 1.1017852 -0.29491273
-0.26326022 1.2296659 -0.29805219
-0.29114226 1.3599005 -0.29561353
-0.32796216 1.531883 -0.29506999
-0.37692985 1.760607 -0.29591519
-0.44075227 2.0587161 -0.29587716
-0.49000844 2.2887874 -0.27355984
-0.49038073 2.2905264 -0.21864334
-0.48917723 2.2849047 -0.16335613
-0.49211743 2.2986383 -0.10943729
-3.1101766 14.527369 -0.34542185
-0.78602648 3.6714623 0.087512016
-0.19365191 0.85198182 -0.29519236
-0.2090221 0.91960382 -0.29435325
-0.22858326 1.0056642 -0.2957432
-0.24913208 1.0960698 -0.29419926
-0.27304241 1.2012645 -0.29197836
-0.30949643 1.3616459 -0.29681662
-0.34497648 1.5177423 -0.29315972
-0.39565986 1.7407266 -0.29338792
-0.46641749 2.0520284 -0.2957367
-0.52295625 2.3007739 -0.27575767
-0.51930898 2.2847273 -0.21869665
-0.52257925 2.2991149 -0.16482945
-0.52048361 2.2898953 -0.1093244
-3.2894611 14.472158 -0.34506667
-0.82522428 3.6306179 0.086779274
-0.2046493 0.8506617 -0.29560438
-0.22530371 0.93651551 -0.30065072
-0.23926069 0.9945302 -0.29333168
-0.26574954 1.1046358 -0.29737315
-0.289415 1.2030056 -0.29326409
-0.32659012 1.3575307 -0.29679248
-0.36729923 1.5267454 -0.29576865
-0.42225364 1.7551733 -0.29669547
-0.49173683 2.0439928 -0.29544759
-0.55237782 2.2960582 -0.27600425
-0.55138171 2.2919176 -0.22003207
-0.54836738 2.279388 -0.16389723
-0.55360782 2.3011706 -0.11018679
-3.4728568 14.435555 -0.34520921
-0.86794782 3.6077816 0.086487815
-0.21598341 0.85053569 -0.29648221
-0.23421748 0.92234093 -0.2970235
-0.25269285 0.99509627 -0.29441381
-0.27519229 1.0836984 -0.29264638
-0.30924261 1.2177874 -0.29779321
-0.34051791 1.3409486 -0.29408133
-0.38149145 1.5023011 -0.29194063
-0.44102848 1.7367558 -0.29449758
-0.51953584 2.0459154 -0.29664758
-0.58147115 2.2898147 -0.27611202
-0.58246338 2.2937222 -0.22089194
-0.58254433 2.2940407 -0.16546516
-0.58375317 2.2988012 -0.11041655
-3.6566105 14.399614 -0.34542346
-0.91191113 3.5910766 0.086355783
-0.227639 0.85135198 -0.29774234
-0.24516213 0.9168871 -0.29623789
-0.27021381 1.0105784 -0.29997736
-0.28771698 1.076039 -0.29153323
-0.31869063 1.1918778 -0.29241556
-0.35580513 1.3306832 -0.2927894
-0.39360535 1.4720531 -0.28700298
