# .PCD v0.7 - Point Cloud Data file format
VERSION 0.7
FIELDS x y z
SIZE 4 4 4
TYPE F F F
COUNT 1 1 1
WIDTH 1390
HEIGHT 1
VIEWPOINT 0 0 0 1 0 0 0
POINTS 1390
DATA ascii
0.65082347 -1.1722761 -0.21006741
-0.18844001 -1.0775189 -0.21030793
0.25001204 -1.0687509 -0.21102536
-0.28218746 -1.0553589 -0.21003141
-0.29572704 -1.0526965 -0.21022597
-0.32242715 -1.0458455 -0.21041296
-0.37460893 -1.0281157 -0.21037798
0.39336225 -1.0193022 -0.21005769
-0.51800728 -0.97604519 -0.21244478
-0.49994147 -0.97134721 -0.21003534
-0.031935226 -0.92193735 -0.21062791
-0.12499944 -0.91782773 -0.21149787
-0.11299828 -0.91580588 -0.21068738
0.11891608 -0.91624671 -0.21095693
0.18829072 -0.90734613 -0.21158387
-0.21707277 -0.90230209 -0.21189645
0.23303363 -0.89403611 -0.21095151
-0.2942369 -0.87546647 -0.2108788
-0.34980682 -0.85784841 -0.21152698
0.73476559 -0.55679387 -0.21049316
0.83999956 -0.37695259 -0.21021965
0.84447283 -0.36625656 -0.21016827
0.86064309 -0.34779209 -0.21194519
1.0669559 -0.25313577 -0.21082719
0.90099418 -0.20181283 -0.21081725
0.9134919 -0.19256617 -0.21315724
-1.7217652 -0.17403108 -0.21019895
1.7240926 -0.16330315 -0.21035334
-1.3380048 -0.13524167 -0.21069421
-0.91694301 -0.081032492 -0.21017727
-0.92083073 -0.05805257 -0.2106664
0.9194538 -0.028952919 -0.21003866
-1.7309439 -4.5932152e-06 -0.21024825
-1.0937419 -2.9023424e-06 -0.21028285
0.92465127 0.0058214697 -0.21112549
0.92474228 0.017467976 -0.21117976
0.91918004 0.04053488 -0.21007608
0.92356408 0.07575836 -0.21158133
1.09075 0.089472339 -0.21041197
-1.0891896 0.096254349 -0.21022375
-0.92010838 0.1047214 -0.21144037
1.0891988 0.10316707 -0.21034665
-1.0880427 0.10997622 -0.21025299
1.0869848 0.1167842 -0.21018642
0.91171843 0.1446961 -0.21077378
-0.9080075 0.1617464 -0.21058474
1.0715843 0.22589242 -0.21055067
0.87304223 0.29036796 -0.21007375
0.85459834 0.34534937 -0.21045659
1.0417439 0.34647697 -0.21107283
0.85166627 0.35670397 -0.21082395
1.0320698 0.35775378 -0.21000884
-1.675965 0.43121892 -0.21020056
0.99508387 0.46168637 -0.21090375
0.79750288 0.4727942 -0.21168421
0.98136944 0.48571888 -0.21052331
0.23250203 0.89199656 -0.21047029
0.17617427 0.90616322 -0.21077399
-0.12436225 0.91314906 -0.21041976
0.1185793 0.91365182 -0.21035948
0.0029126571 0.92488116 -0.21117486
0.19495952 1.0748585 -0.21002419
0.15456532 1.0838219 -0.21048392
-0.12078407 1.0918568 -0.21120095
-0.14740473 1.3325006 -0.21003723
0.071913764 1.342513 -0.21063395
-0.23442908 -2.3947222 -0.20826019
-0.14331703 -2.3934071 -0.20752662
-0.11314752 -2.394551 -0.20748584
-0.082941294 -2.3944302 -0.20736842
-0.022604167 -2.393847 -0.2072029
0.097968608 -2.3925884 -0.20725824
-0.17325178 -2.3887963 -0.20729956
-0.052653179 -2.3892603 -0.20684686
0.0075219716 -2.3885167 -0.20673332
-0.29397175 -2.3825235 -0.20777735
-0.26371616 -2.3839259 -0.2075936
0.037487376 -2.3813519 -0.2061377
0.067553289 -2.3836827 -0.20639674
-0.20276392 -2.3799467 -0.20673677
-0.32300177 -2.3716905 -0.2071709
-0.35305795 -2.368907 -0.20729968
-0.41306692 -2.361958 -0.20753625
-0.38154343 -2.3561597 -0.20658824
0.45810348 -2.3562834 -0.207761
0.42693684 -2.3538051 -0.20705204
-0.50111473 -2.3406639 -0.20718135
0.51705104 -2.3429163 -0.20766486
0.54785353 -2.3419626 -0.20817529
-0.53166646 -2.3390946 -0.20761858
-0.46981773 -2.337903 -0.20639697
0.57809168 -2.338088 -0.20846142
-0.59290814 -2.3348532 -0.20850155
-0.43868107 -2.3347855 -0.20561777
0.48442438 -2.3343723 -0.20635052
-0.56011939 -2.3282371 -0.20726447
0.60634184 -2.3262372 -0.20806907
-0.62087846 -2.3220367 -0.20803872
0.69819528 -2.3163898 -0.20939893
-0.64937216 -2.3115635 -0.20781651
0.63304877 -2.3091707 -0.20723914
-0.70985597 -2.3025348 -0.20854615
-0.67859566 -2.3037796 -0.20786847
0.66129243 -2.2983012 -0.20699455
0.72320265 -2.2943969 -0.2082175
0.75221115 -2.2856455 -0.20826641
-0.76590329 -2.2788529 -0.20808254
-0.73282123 -2.2748814 -0.2068609
-0.82541239 -2.2653477 -0.2086816
-0.79394835 -2.2673502 -0.20792863
0.77607214 -2.2618334 -0.20697071
0.80543298 -2.2545223 -0.20721334
-0.85133314 -2.248075 -0.2080615
0.8346144 -2.2465119 -0.20742661
0.89743483 -2.2410576 -0.2089439
0.86300033 -2.2362547 -0.20746647
-0.94378608 -2.2336328 -0.20987615
-0.87759447 -2.2321486 -0.20759381
0.92589217 -2.230329 -0.20901409
-0.90734917 -2.2251368 -0.2079878
0.95137411 -2.2126167 -0.20846033
-0.99345922 -2.1953013 -0.20855957
-0.96068174 -2.1960754 -0.20746742
0.97887909 -2.1998351 -0.20840091
1.0399358 -2.1870534 -0.20960507
1.0045586 -2.183116 -0.2079989
-1.0152193 -2.1702142 -0.20737429
-1.047587 -2.1678598 -0.20839331
1.05604 -2.1506691 -0.20737606
1.0817916 -2.1347466 -0.20713781
-1.0617604 -2.1283593 -0.20586507
1.1113807 -2.1263051 -0.20766021
1.1322342 -2.101321 -0.20659623
-0.016194621 -1.7150574 -0.20832787
-0.10243635 -1.7106962 -0.20816106
0.20016551 -1.7107774 -0.20921622
-0.23236524 -1.7061777 -0.20915312
-0.037654933 -1.7086799 -0.20759435
0.0053728675 -1.7060931 -0.20723076
0.026867712 -1.7067473 -0.20733491
0.11318861 -1.70971 -0.20812367
0.048313089 -1.7047738 -0.20715263
-0.14466865 -1.698052 -0.20700024
-0.12306244 -1.6967854 -0.20664054
-0.080207162 -1.6974313 -0.2064077
-0.058801599 -1.697542 -0.20631476
0.069479041 -1.6968164 -0.20627567
-0.16560882 -1.6917148 -0.20646554
0.13358235 -1.6938888 -0.20638615
0.15508655 -1.6941118 -0.20663488
0.17666194 -1.6944876 -0.20693564
0.2630465 -1.6918045 -0.20796326
-0.3394255 -1.6890464 -0.20926072
-0.27339005 -1.6882761 -0.20773691
-0.20851851 -1.689959 -0.20682667
-0.18645364 -1.6854926 -0.20597638
0.28425491 -1.6879274 -0.20791017
-0.35893512 -1.676555 -0.20825659
-0.25026602 -1.6792058 -0.20621671
0.23921911 -1.6774198 -0.20580843
0.32588652 -1.6762173 -0.20741309
-0.37960804 -1.6701057 -0.20803274
-0.29275137 -1.6739817 -0.20641525
0.30365747 -1.6741364 -0.20666608
0.36844864 -1.6695534 -0.20767102
-0.31265056 -1.6640153 -0.20565549
0.34462193 -1.660684 -0.20601167
0.38918033 -1.663667 -0.20753193
-0.3982012 -1.655195 -0.20678362
-0.41942266 -1.651673 -0.20698702
0.43020228 -1.6504757 -0.20717245
0.40739003 -1.6476862 -0.20616204
0.45114762 -1.6456503 -0.2072634
-0.43949586 -1.64368 -0.20666251
0.49492446 -1.642002 -0.20830792
-0.4801445 -1.6300533 -0.20640433
0.46956947 -1.631974 -0.20626928
-0.52188456 -1.6200751 -0.20673981
-0.50075841 -1.6242924 -0.20645694
0.53356141 -1.6212631 -0.20731616
-0.54275107 -1.6148906 -0.20693396
0.50841665 -1.6129773 -0.2054217
0.55176306 -1.6080929 -0.20650412
-0.56178021 -1.6043267 -0.20647041
0.59497446 -1.6014788 -0.20751345
0.57078582 -1.5977113 -0.20607762
-0.62542796 -1.5907668 -0.20761901
-0.57989401 -1.5915215 -0.20574586
0.61477202 -1.5930316 -0.20740555
0.63853002 -1.5945253 -0.20863032
-0.64724022 -1.5872589 -0.2082084
-0.60080838 -1.5865263 -0.20606181
-0.66702449 -1.5786288 -0.20816162
0.65438104 -1.5763013 -0.20730758
-0.71249682 -1.5744433 -0.20990963
0.675376 -1.5707262 -0.20767635
-0.68625647 -1.5687517 -0.20798218
-0.73141247 -1.5635259 -0.20966537
0.69100314 -1.5528914 -0.20645238
0.71402413 -1.5517238 -0.20747606
0.73554009 -1.5468891 -0.20805153
0.7602495 -1.5482794 -0.20950949
-0.74509311 -1.5418839 -0.20800489
-0.76268536 -1.5288461 -0.20752521
-0.78415281 -1.5235476 -0.20812981
0.77040583 -1.5202754 -0.20701636
0.79426694 -1.5195998 -0.20826977
-0.80150181 -1.5102143 -0.20767064
0.81414485 -1.5109768 -0.2084765
0.83166724 -1.4980156 -0.20811662
0.85083812 -1.488081 -0.20820838
0.87352097 -1.4840688 -0.20916945
0.88531464 -1.4616868 -0.20756967
0.90549141 -1.4533813 -0.20799291
0.92675656 -1.4466056 -0.20867677
0.94420797 -1.4337747 -0.20852447
0.96088547 -1.4198503 -0.2082426
0.97534257 -1.4028291 -0.20753099
0.99586034 -1.3945426 -0.20814376
1.0156289 -1.3850138 -0.20861384
1.0340856 -1.3735747 -0.20883562
1.0473393 -1.3553219 -0.20804912
-0.079586186 -1.3290964 -0.20860341
-0.11263961 -1.3221104 -0.20788631
-0.045727242 -1.3200986 -0.20694478
-0.02917836 -1.3240359 -0.20748794
0.020840801 -1.3238933 -0.20744094
0.054148421 -1.3224123 -0.20735683
0.087703206 -1.3247539 -0.20800442
0.10419755 -1.3212754 -0.20764779
0.15462713 -1.3215693 -0.20846355
-0.14596495 -1.3194853 -0.20798568
-0.12880212 -1.3157296 -0.20712161
-0.095476076 -1.3164245 -0.20678683
-0.062261675 -1.3176494 -0.20666733
-0.012420882 -1.3154075 -0.20609495
0.0041514938 -1.3182597 -0.20653366
0.12073749 -1.3188945 -0.20749611
0.13720451 -1.3160239 -0.20729986
0.17127779 -1.319693 -0.20849125
0.18772149 -1.3163151 -0.20831454
-0.161992 -1.3128804 -0.20724966
0.070343807 -1.3132045 -0.20603558
-0.21151765 -1.3061931 -0.20730792
-0.17746729 -1.303081 -0.20603918
0.20221312 -1.3005499 -0.20620622
0.21896616 -1.3002378 -0.20657752
1.0882691 -1.3034143 -0.20624726
-0.32915094 -1.2961859 -0.20951959
-0.26042971 -1.2959481 -0.20709617
1.1108309 -1.2968894 -0.20741171
-0.31060266 -1.2910759 -0.20804492
-0.24328591 -1.2948369 -0.20641267
-0.22607777 -1.2927353 -0.20560755
0.26821193 -1.2924751 -0.20680702
0.28502387 -1.2915303 -0.20721371
-0.29239988 -1.2864287 -0.20668635
-0.27540737 -1.2864043 -0.20610888
0.25010017 -1.2864056 -0.20531566
0.30065113 -1.2852225 -0.2067927
0.35177207 -1.2831583 -0.20845082
1.1258227 -1.2813777 -0.20718175
-0.34154257 -1.2773424 -0.20715244
0.31568763 -1.2767966 -0.20606023
0.33260709 -1.2760508 -0.20659943
-0.40986165 -1.2723248 -0.20942344
0.38427383 -1.2748983 -0.20861521
0.40114698 -1.2726589 -0.20905876
-0.39084256 -1.2677623 -0.2078459
0.43465683 -1.2667911 -0.2098268
1.1423501 -1.2676361 -0.20726931
-0.44212091 -1.2626047 -0.20959008
-0.37226829 -1.263822 -0.20641498
-0.35527727 -1.2646768 -0.20580761
0.41576841 -1.2633411 -0.20837162
0.36217946 -1.2587434 -0.2052092
-0.42113921 -1.253049 -0.20710713
-0.47280705 -1.2485192 -0.20916247
-0.45500162 -1.2487538 -0.20822543
0.44509113 -1.2458738 -0.20727403
0.48112878 -1.2467278 -0.20936589
1.1541681 -1.2487674 -0.20654409
0.46223593 -1.2441896 -0.20794569
-0.50388491 -1.2357016 -0.20907514
0.49256617 -1.2300272 -0.20758645
0.5119341 -1.2331691 -0.20918804
-0.48231241 -1.2267545 -0.20651737
-0.51593113 -1.2210401 -0.20767723
0.52548814 -1.222131 -0.20842157
-0.56694329 -1.2119434 -0.20962462
-0.5290966 -1.2094911 -0.20682973
0.53672165 -1.2061746 -0.20683657
0.55488801 -1.2058878 -0.20796908
-0.54506737 -1.2044653 -0.20712757
0.56838363 -1.195348 -0.20736928
-0.57744473 -1.194955 -0.20792741
0.58581281 -1.1930319 -0.20823069
-0.60827553 -1.1818318 -0.20824388
-0.59087521 -1.184443 -0.20737651
0.59975165 -1.183516 -0.20787147
0.63314313 -1.1750544 -0.20912002
0.61369216 -1.1741222 -0.20756237
-0.62001556 -1.1682523 -0.20721038
0.65695232 -1.1489826 -0.20735927
0.67189318 -1.1415132 -0.20752169
0.68844742 -1.136652 -0.20819743
0.6975823 -1.1196717 -0.20667978
0.73591828 -1.1174879 -0.20963185
0.71162355 -1.1107972 -0.20667934
0.74615425 -1.1025534 -0.20857626
1.305068 -1.0966374 -0.2070539
-0.092645921 -1.0874338 -0.20982745
-0.051279675 -1.0852363 -0.20888036
-0.03769666 -1.088264 -0.20935515
-0.024008775 -1.0894539 -0.20950928
0.0856805 -1.0864701 -0.20953332
0.017064521 -1.0840083 -0.20843729
0.044329964 -1.082626 -0.20832013
0.77356184 -1.0832492 -0.2085443
-0.14702292 -1.0795385 -0.20946808
-0.078201711 -1.0782455 -0.20784801
-0.064667098 -1.0799464 -0.20800243
-0.010182004 -1.0783039 -0.20732398
0.0033898191 -1.0763986 -0.20694944
0.03059129 -1.0794431 -0.20761709
0.057762969 -1.0783406 -0.20761904
0.098725915 -1.0784477 -0.20820937
0.13960877 -1.0756837 -0.20854551
0.16758482 -1.0778352 -0.20971447
0.18123928 -1.0762125 -0.20982619
0.75034106 -1.0792108 -0.2059315
-0.16000013 -1.0735502 -0.20868053
-0.11862186 -1.0723109 -0.20742014
0.071136042 -1.0745075 -0.20703706
0.11205278 -1.0747761 -0.20775646
-0.17313606 -1.0691737 -0.2082371
-0.13177763 -1.068005 -0.2068918
-0.10441712 -1.0666338 -0.20605133
0.19340622 -1.0662949 -0.20835087
0.22127944 -1.0663141 -0.2093773
-0.19957943 -1.0622185 -0.20779566
0.15185103 -1.0647891 -0.20678766
0.20664895 -1.0629115 -0.20818172
0.77969891 -1.0632758 -0.20657286
1.3283033 -1.0602629 -0.20643775
-0.23981315 -1.0550706 -0.20802183
-0.21275602 -1.0587147 -0.20761786
0.23318551 -1.0566348 -0.20803678
-0.26731902 -1.0526937 -0.20881452
-0.25264278 -1.0501553 -0.20766348
-0.22514294 -1.0516233 -0.20676678
0.27468705 -1.0538398 -0.20938091
0.79347676 -1.0539743 -0.20669055
0.2588535 -1.0469313 -0.20734423
0.81019717 -1.0484453 -0.20759052
0.28572831 -1.0422506 -0.2077767
0.29941961 -1.0406234 -0.20818745
0.31416968 -1.042315 -0.20930073
-0.33424619 -1.0375932 -0.20958285
0.82348543 -1.0383515 -0.20762867
0.33937711 -1.0312207 -0.20872329
0.32372025 -1.0270188 -0.20703131
0.83428687 -1.0251881 -0.20708077
-0.35871437 -1.0244131 -0.20867948
-0.30149311 -1.0235457 -0.2051464
0.35137299 -1.0240635 -0.20815369
-0.38612896 -1.0196325 -0.20962039
0.36410698 -1.0191876 -0.20807806
-0.34014565 -1.0120624 -0.20527478
0.84453553 -1.0114958 -0.20644677
0.86778003 -1.0131288 -0.20899373
-0.39330113 -1.0003556 -0.20665915
0.37326851 -1.0047181 -0.20606722
0.41540578 -1.0006473 -0.20830353
0.39903793 -0.99647015 -0.20637159
-0.40546051 -0.9943307 -0.20645288
0.42683265 -0.99268734 -0.20774889
-0.43218699 -0.98796022 -0.2073247
0.43874913 -0.98600096 -0.20748934
0.86650562 -0.98623079 -0.2056796
0.89122587 -0.98897016 -0.20857483
-0.44336051 -0.97971803 -0.20675024
0.45049965 -0.97903001 -0.20719974
-0.4703694 -0.97337496 -0.207846
-0.45501313 -0.97267258 -0.2064562
0.46164486 -0.97086942 -0.20668654
0.47838086 -0.97424239 -0.20867047
0.49178237 -0.97045553 -0.20916918
0.90106153 -0.97491539 -0.20798713
-0.48157513 -0.96534479 -0.20740974
0.50419217 -0.96462572 -0.20926446
0.51420677 -0.95431966 -0.20841685
0.52555335 -0.94663715 -0.20816782
0.53802723 -0.94098753 -0.20839877
0.54690951 -0.9291721 -0.2072908
0.5622766 -0.92833924 -0.20866801
-0.043247987 -0.91526097 -0.20921044
-0.0086533837 -0.91641855 -0.2092509
0.57098109 -0.91646725 -0.20759913
0.58621818 -0.91504771 -0.20893314
-0.066229522 -0.9131729 -0.20904817
-0.054504354 -0.9102276 -0.20820029
0.014395678 -0.91447258 -0.20882313
0.025893075 -0.91366208 -0.20869596
0.037334621 -0.91178572 -0.20835824
-0.15835722 -0.90550244 -0.20988697
-0.089000009 -0.90914619 -0.20857339
0.048714161 -0.90941417 -0.20793998
0.060144573 -0.90848166 -0.20788346
0.083133757 -0.90812433 -0.20821482
0.59921539 -0.90990531 -0.20946524
-0.16917145 -0.90037864 -0.20917651
-0.019937711 -0.90471995 -0.20662065
0.0028373627 -0.90097231 -0.20571584
0.070986092 -0.90013796 -0.20616241
0.094020106 -0.9018122 -0.20702261
0.10547399 -0.90146655 -0.20723173
0.14054723 -0.90394074 -0.20887244
0.15158358 -0.90011483 -0.20841293
-0.099137254 -0.89617515 -0.20586769
-0.076468967 -0.89755648 -0.2056773
0.1279714 -0.89734352 -0.20695928
0.16281877 -0.89765888 -0.20830248
0.17400581 -0.89500958 -0.20817965
0.19754834 -0.89515191 -0.20930377
-0.13334343 -0.89469224 -0.20653723
0.2085136 -0.89135337 -0.20901296
0.62172592 -0.89422441 -0.20939407
-0.20169337 -0.88736069 -0.20777471
-0.18980142 -0.88654613 -0.20700796
-0.17855363 -0.88851702 -0.20692675
-0.14389175 -0.88858026 -0.20552829
0.21884392 -0.88511276 -0.2081793
0.60144073 -0.88871765 -0.20631482
0.64535904 -0.88007653 -0.20982106
-0.23448756 -0.87696505 -0.20726763
-0.22288927 -0.87773079 -0.20676886
0.25275823 -0.87845325 -0.20871072
-0.26946828 -0.87406474 -0.20883998
-0.24480189 -0.87141877 -0.20666894
0.2623848 -0.87050933 -0.20759185
0.27580214 -0.87499613 -0.20947342
0.62361556 -0.87327349 -0.2063106
-0.27886334 -0.86566949 -0.20765665
-0.25576612 -0.86830604 -0.20667817
0.23786207 -0.86764896 -0.20541582
0.29783386 -0.86802566 -0.20953421
0.28356609 -0.86163509 -0.20711321
0.30724949 -0.8600353 -0.2085228
0.64806443 -0.86082327 -0.20716
-0.2999064 -0.85646993 -0.20719624
0.317985 -0.8559128 -0.20847757
-0.32342139 -0.85404354 -0.20851389
0.659298 -0.85317242 -0.20730028
-0.35717446 -0.8453151 -0.20952894
-0.30879158 -0.8474797 -0.20594567
0.34024361 -0.84965008 -0.20897333
-0.33126447 -0.84256631 -0.20671378
0.32392421 -0.83937055 -0.20542555
0.34703562 -0.83595437 -0.20666325
0.66293418 -0.83590883 -0.20511769
0.68121958 -0.83709598 -0.20749745
-0.36364371 -0.83127326 -0.20716697
0.35852966 -0.83383459 -0.20723888
0.37073019 -0.83314198 -0.20821048
-0.38760471 -0.82857496 -0.2088614
0.38002709 -0.82587844 -0.20757471
0.39243686 -0.82532054 -0.20865996
-0.37318772 -0.82465339 -0.20667194
0.68699723 -0.82281309 -0.20608504
0.7000683 -0.81732619 -0.20690231
-0.41811207 -0.81235909 -0.20860803
-0.40592486 -0.81369948 -0.20762318
-0.39375821 -0.81483698 -0.20663188
0.39905697 -0.81269598 -0.20672224
-0.42738944 -0.8053003 -0.20816089
0.43403852 -0.80553496 -0.20892406
0.40785685 -0.8048417 -0.20601442
0.41834545 -0.80038285 -0.20620517
0.70462465 -0.8019827 -0.20524803
0.71974957 -0.79868734 -0.20670778
0.72577924 -0.7852664 -0.20558332
0.44847721 -0.78436822 -0.20629866
0.45931506 -0.78035349 -0.20674755
0.46617571 -0.76967317 -0.20545685
0.47600767 -0.76402783 -0.20553362
0.48469949 -0.75658375 -0.20515671
0.49737826 -0.75526619 -0.20648138
0.51338369 -0.75860035 -0.20914368
0.52829552 -0.73979306 -0.20756142
0.55251908 -0.73391044 -0.20974909
0.53276098 -0.72652644 -0.20570517
0.56908733 -0.71757519 -0.20911093
0.81224132 -0.71817917 -0.20845078
0.57276648 -0.70382667 -0.2071898
0.58642775 -0.70236152 -0.20891573
0.81736141 -0.70456928 -0.20747142
0.59277976 -0.69206738 -0.20805754
0.82304466 -0.69159734 -0.20668708
0.83838016 -0.68666095 -0.20835032
0.60155135 -0.68466777 -0.2080937
0.61063427 -0.67760491 -0.20826758
0.83992106 -0.67043203 -0.20661885
0.61583513 -0.66631091 -0.20716335
0.85318959 -0.6636095 -0.20781077
0.85806191 -0.65022582 -0.20698681
0.85995662 -0.63477576 -0.20549941
0.88580698 -0.62001717 -0.20787881
0.67500645 -0.6121524 -0.20805994
0.89768928 -0.61163938 -0.20884332
0.67673773 -0.59836763 -0.20625475
0.89801711 -0.59544599 -0.20715879
0.6998328 -0.58806348 -0.20871292
0.69902635 -0.57252556 -0.206306
0.71227801 -0.5685463 -0.20808756
0.71450853 -0.55574358 -0.20667838
0.92667145 -0.54937094 -0.20711754
1.2199709 -0.54746598 -0.20949674
0.72703767 -0.5366618 -0.20632699
0.92850304 -0.53477269 -0.2060055
1.2223487 -0.53014517 -0.20874214
0.74357957 -0.52046567 -0.20723529
0.93797231 -0.52461064 -0.20662439
1.6329691 -0.52037251 -0.20817526
0.95077485 -0.51616353 -0.20799634
0.75036687 -0.51126146 -0.20731623
1.2181704 -0.51020718 -0.20691507
0.76116937 -0.50470668 -0.20852838
1.6442063 -0.50123787 -0.20878662
0.94760215 -0.49909678 -0.20591107
0.96326435 -0.49195361 -0.20795183
1.2239127 -0.49459195 -0.20681617
0.75740457 -0.48859349 -0.20579515
0.96829027 -0.47924548 -0.20771757
1.2305235 -0.47932929 -0.20689692
1.6472009 -0.47956795 -0.20838353
0.77604365 -0.47337824 -0.20755398
0.78052574 -0.46272945 -0.20717792
1.6595923 -0.46058911 -0.20920084
0.79031301 -0.45518193 -0.20823787
0.9707132 -0.45037919 -0.20573848
-1.6546639 -0.4480257 -0.20822005
0.79955256 -0.44719207 -0.20917207
1.2453263 -0.44931909 -0.20741712
0.98076916 -0.44012341 -0.20667879
1.2472303 -0.43233645 -0.20681112
1.646853 -0.43479651 -0.20688841
-1.6605808 -0.42726061 -0.20827107
0.99059314 -0.42963043 -0.20759249
0.80642581 -0.42473999 -0.20810533
0.99314058 -0.41595778 -0.20701228
1.6664643 -0.41760144 -0.20867495
0.80994207 -0.41364962 -0.20765209
1.2471385 -0.41478989 -0.20591348
-1.6614405 -0.40524766 -0.20772243
0.81050956 -0.4011535 -0.20648615
1.0005776 -0.4043406 -0.20748471
1.2472893 -0.39746925 -0.20509575
1.6714039 -0.3965413 -0.20865169
0.81825292 -0.39223781 -0.20718412
1.0089877 -0.3930338 -0.20818588
-1.6720823 -0.38560379 -0.20842932
0.8200236 -0.38046414 -0.20640303
1.2621828 -0.38477767 -0.20673163
1.6702209 -0.37411121 -0.20789944
1.0128489 -0.36544025 -0.20701768
1.2688744 -0.36942154 -0.20704931
-1.671114 -0.36328247 -0.2077219
1.6880033 -0.35583496 -0.20953855
0.84432411 -0.35362884 -0.20900644
1.2788941 -0.35493335 -0.20793849
-1.281652 -0.34702697 -0.20802771
1.0090427 -0.3497718 -0.20532323
1.027833 -0.34185034 -0.20825429
-1.6579493 -0.33861646 -0.20553923
-1.2856205 -0.33078486 -0.20797926
-1.0189264 -0.3317813 -0.20602255
-0.8388176 -0.33284694 -0.20605044
0.85043091 -0.33127078 -0.20838651
1.6699346 -0.33012158 -0.20676319
-1.69007 -0.32306415 -0.20900039
-1.0355778 -0.32283938 -0.20855087
-0.84894562 -0.324554 -0.20751797
0.85885757 -0.3221581 -0.20944071
1.0177791 -0.32433206 -0.20537345
1.2793512 -0.32059428 -0.20663431
1.0340356 -0.31522673 -0.20783633
-1.2790954 -0.31198853 -0.20627178
-0.8443616 -0.31067353 -0.20542489
1.6907821 -0.31217504 -0.20884116
-1.0252151 -0.30549988 -0.20567298
0.85722834 -0.30929169 -0.20807716
1.2865398 -0.30523214 -0.20715816
-1.6901484 -0.30107176 -0.20852472
-0.8558439 -0.30271882 -0.20727459
-1.2937171 -0.29834789 -0.20800741
-1.041574 -0.29614761 -0.20819016
-0.85639644 -0.29083496 -0.20650508
0.85990405 -0.28599828 -0.2069124
1.0324 -0.28652349 -0.20599166
1.2776024 -0.28616896 -0.20512256
1.6854546 -0.2892952 -0.20771669
-1.7019264 -0.28110823 -0.20952451
-1.2875994 -0.2799105 -0.2064407
-0.85500973 -0.27840701 -0.20530906
0.86617738 -0.27602169 -0.20756911
1.30632 -0.27537522 -0.20915993
1.0332011 -0.27278224 -0.20544985
-1.0336486 -0.26595357 -0.20520197
1.6896632 -0.26816139 -0.20780273
-0.8762573 -0.26111248 -0.20876561
0.86391789 -0.26336619 -0.20621657
1.0489295 -0.26285258 -0.20790274
-1.6916074 -0.25756708 -0.20783837
1.2985156 -0.25669745 -0.20737635
-1.0402337 -0.25372696 -0.20585865
0.86813182 -0.25274891 -0.20644638
-1.295885 -0.247714 -0.20670319
-0.86575675 -0.246158 -0.20550911
1.698989 -0.24775231 -0.20854945
-1.0510023 -0.2423747 -0.20736928
0.88195562 -0.24477045 -0.20898423
-1.7019615 -0.23725724 -0.20872691
-0.88488001 -0.23959486 -0.20931575
1.0526886 -0.23579074 -0.20740488
1.2948405 -0.23907092 -0.2062923
-1.3112783 -0.23358238 -0.20867284
-0.88198519 -0.22693117 -0.20793854
1.697181 -0.22570296 -0.20796217
0.87956285 -0.22041079 -0.20703605
1.064027 -0.2242993 -0.20906574
1.3103118 -0.22490485 -0.20828946
-1.7002184 -0.21522695 -0.20816426
-1.3149626 -0.21719319 -0.20880735
-0.87235332 -0.21277869 -0.20501977
0.87475401 -0.20753577 -0.2052727
1.3066126 -0.20736858 -0.20726992
-1.0637026 -0.20333134 -0.20821032
-0.88713217 -0.20458414 -0.20787117
1.6791481 -0.20182267 -0.20542483
1.0635623 -0.19636922 -0.20793661
-1.6985867 -0.19332328 -0.20764998
-1.0706533 -0.19071904 -0.2090842
-0.89139414 -0.19377966 -0.20828153
1.303929 -0.19014332 -0.20644802
-1.3170753 -0.18360324 -0.20834239
-0.90093517 -0.18400532 -0.20995285
1.064707 -0.18274871 -0.20769407
1.7051146 -0.18319525 -0.20830281
-1.064665 -0.17585136 -0.20746586
0.89129734 -0.1761964 -0.20744412
-0.89667678 -0.17140363 -0.20844096
1.3059844 -0.1736789 -0.20641083
-1.3113296 -0.16599835 -0.20708641
0.90231913 -0.16659835 -0.2095045
-1.0756437 -0.16377936 -0.20918676
1.0777297 -0.15715818 -0.2093958
1.3082129 -0.15723866 -0.20643374
-1.7015858 -0.15037328 -0.20748776
0.89966381 -0.1544203 -0.20841998
-1.3136079 -0.14950722 -0.2071325
-1.072785 -0.14954865 -0.20824811
-0.90025729 -0.14869605 -0.20833655
0.90542114 -0.14369668 -0.20931797
1.0825526 -0.14396538 -0.20996398
1.3209289 -0.14191884 -0.2081418
-0.8907572 -0.13562824 -0.20572652
1.7032773 -0.13971689 -0.20758261
0.89451951 -0.13044186 -0.2064016
-1.7012014 -0.12877414 -0.20722674
-0.90148634 -0.12566921 -0.20782252
1.0756409 -0.12928504 -0.20829119
1.3217981 -0.12519848 -0.20801385
-1.0729271 -0.12211433 -0.20761274
-1.3290801 -0.11745404 -0.20903938
0.89900011 -0.1195553 -0.20707166
1.0802248 -0.11605791 -0.20887926
1.7042857 -0.11821678 -0.20750763
-0.90803468 -0.11494613 -0.20898189
-1.7040974 -0.10743259 -0.20739827
-1.0670531 -0.10785466 -0.20619698
0.91012061 -0.10939056 -0.20929924
1.3222566 -0.10846242 -0.2078546
-1.3217216 -0.10004903 -0.20766741
-0.89819103 -0.10222688 -0.20640376
1.0814875 -0.10243668 -0.20885746
-1.0762428 -0.095110193 -0.20772487
0.9070971 -0.097457305 -0.20830519
1.7091155 -0.096945576 -0.20793055
-0.90744966 -0.091722399 -0.20824946
1.316059 -0.091287658 -0.20668326
-1.6995591 -0.085677266 -0.20669824
0.91057813 -0.086248428 -0.20883861
1.0829408 -0.08883176 -0.20890552
-1.3348192 -0.084151931 -0.20954219
-1.0775144 -0.081563525 -0.20775561
1.7241908 -0.076035015 -0.20963152
0.90526724 -0.074257508 -0.20738968
1.0760579 -0.074640125 -0.20738003
1.3151076 -0.074596398 -0.20636997
-1.3244649 -0.066768214 -0.20776831
-1.0734975 -0.067677252 -0.20680042
-0.90911454 -0.068816327 -0.20816773
-1.7128164 -0.064736344 -0.20819493
0.91369808 -0.063378133 -0.2091217
1.0805703 -0.061292823 -0.20808442
1.3177876 -0.058113057 -0.20665932
-1.3307931 -0.050297678 -0.20864512
-1.0835981 -0.054625768 -0.20859715
0.91080487 -0.051663276 -0.20829412
1.7007412 -0.053555079 -0.20668207
-0.89823228 -0.045281205 -0.20534962
1.0732521 -0.047329292 -0.20654401
-1.7107571 -0.043095797 -0.20786218
-1.083993 -0.0409698 -0.20855732
0.91027772 -0.040142294 -0.20804147
1.3250877 -0.04172603 -0.20770527
-1.3256938 -0.033395641 -0.20776322
-0.91483802 -0.034576543 -0.20902984
1.0900958 -0.034326311 -0.20968573
1.6935322 -0.031990081 -0.20574075
-1.0733606 -0.027039098 -0.20642981
-1.7165062 -0.02161916 -0.20851111
-0.91336608 -0.023008665 -0.20861079
1.3154516 -0.024848305 -0.20612945
-1.3268883 -0.016711976 -0.20790097
0.90709281 -0.017134584 -0.20714924
-1.0801913 -0.013604861 -0.20769407
-0.90846676 -0.011442014 -0.20744243
1.7229424 -0.010847394 -0.20928048
0.90427351 -0.0056931749 -0.20647267
1.074088 -0.006762302 -0.20650828
1.33012 -0.0083742421 -0.20839491
-1.3257978 -3.5181235e-06 -0.20771362
-1.7147545 4.5502547e-06 -0.2082818
-1.3320364 3.5346782e-06 -0.20869103
-1.0755901 2.8541749e-06 -0.20679298
-0.90736407 2.4077719e-06 -0.20717421
1.0812603 0.0068074581 -0.20788726
1.3285331 0.0083642518 -0.20814629
-1.0687392 0.013460624 -0.20549212
-0.90974182 0.011458074 -0.20773359
1.7102528 0.010767504 -0.20773913
-1.3308308 0.016761633 -0.20851868
-1.7211982 0.021678254 -0.20908107
-0.91307646 0.023001369 -0.20854464
1.0783225 0.020369038 -0.20735529
1.3225821 0.024982994 -0.20724678
-1.0819545 0.027255587 -0.20808259
0.90387154 0.028462244 -0.20647907
-1.3372105 0.033685759 -0.20956813
-0.90630412 0.034254003 -0.20707995
1.0837492 0.034126461 -0.20846492
1.7139893 0.032376505 -0.208226
-1.7124985 0.043139666 -0.20807377
-1.0738997 0.040588323 -0.2066154
1.3195149 0.041550547 -0.20683174
-0.90028608 0.045384739 -0.20581916
1.0784141 0.047556933 -0.20753743
-1.337538 0.050552599 -0.20970258
-1.0791357 0.054400809 -0.20773812
0.91040659 0.051640686 -0.20820303
1.7202451 0.054169245 -0.20905229
-0.91451907 0.05765466 -0.20922244
1.338902 0.059044179 -0.20997053
-1.7082844 0.064565063 -0.20764406
0.90844405 0.063013688 -0.2079192
1.0728918 0.060857281 -0.20660579
-1.3213738 0.066612393 -0.20728341
-1.0724635 0.067612059 -0.2066012
-0.89807105 0.067980379 -0.205639
1.0774715 0.074738175 -0.20765245
-0.90020591 0.079553388 -0.20634086
1.3238139 0.075090252 -0.20773619
1.7158774 0.075668402 -0.20862076
-1.3365762 0.084262699 -0.20981801
-1.0827173 0.081957363 -0.20875877
0.89606112 0.084873401 -0.20550919
-1.7038019 0.085891142 -0.20721424
-0.90787947 0.091765843 -0.20834811
1.3157591 0.091266856 -0.20663618
0.91073805 0.097848482 -0.2091413
1.7108386 0.097043321 -0.20814019
-1.3279266 0.10051872 -0.20864233
-1.7054836 0.10751998 -0.20756698
0.89784652 0.1079153 -0.20647658
1.3189054 0.10818753 -0.2073278
-0.900958 0.11405031 -0.2073532
-1.330741 0.11760083 -0.20930061
1.6981485 0.11779108 -0.20676038
-1.0740601 0.12224329 -0.20783198
0.90472466 0.12031659 -0.20839022
1.3157899 0.1246294 -0.20706834
-0.90258527 0.12582241 -0.20807587
1.0784063 0.12961741 -0.20882669
-1.718143 0.13005655 -0.20929043
-1.3176086 0.1331801 -0.20748244
-1.0627189 0.13452727 -0.2059489
0.89725918 0.13084136 -0.20703375
-0.90615094 0.1379721 -0.20928179
1.0739889 0.14282653 -0.20830303
1.3214022 0.1419697 -0.20821638
1.7147373 0.14065693 -0.20897925
-1.3060173 0.1486433 -0.20593558
-1.056735 0.14731124 -0.2051325
-0.89530903 0.14787875 -0.20719142
-1.7112498 0.15122733 -0.20866618
0.88771123 0.15236874 -0.20565099
1.0778795 0.15718004 -0.20942491
1.3249564 0.15925112 -0.20907582
-1.0617489 0.16166373 -0.20648457
1.7157892 0.16251665 -0.20934026
-1.3274158 0.16803469 -0.20962678
0.9040581 0.16691941 -0.20990826
1.0652982 0.16907029 -0.20737764
-1.6888661 0.17070574 -0.20618252
-1.0557245 0.17437468 -0.20572369
0.88262707 0.17448242 -0.20542617
1.3192744 0.17544632 -0.20851132
-1.3138106 0.18314815 -0.20782596
1.068709 0.1834356 -0.20847473
1.6977431 0.18240325 -0.20740227
-1.0619725 0.1891727 -0.20738895
0.88619733 0.18681242 -0.20678823
-1.699809 0.19346239 -0.20779939
-0.89348477 0.19423413 -0.20877004
1.3120064 0.19132119 -0.2077269
-1.2997909 0.1979084 -0.20598611
1.0648375 0.19660467 -0.20818594
-1.0541935 0.20151363 -0.206349
0.89585161 0.20066096 -0.20961398
1.6990684 0.20421696 -0.20786187
-0.89232588 0.20578188 -0.20908813
1.0555563 0.20866799 -0.20686871
1.3057938 0.20723863 -0.20714003
0.88857472 0.21081473 -0.20851591
-1.7020866 0.21546344 -0.20839299
-1.3045015 0.21546534 -0.20714621
-1.0628372 0.21707189 -0.20855944
0.88235569 0.22111066 -0.20769344
1.3031431 0.2236744 -0.20714992
-1.0458709 0.22736128 -0.20577565
-0.87641639 0.22549835 -0.20662563
1.6943638 0.22532831 -0.20761697
-1.3085152 0.23309016 -0.20823312
0.87670648 0.23146507 -0.20703335
-1.6997681 0.23695149 -0.20845792
-0.86972487 0.23549137 -0.20573083
1.0568199 0.23671611 -0.20821884
1.2935352 0.23882994 -0.20608436
-1.0576626 0.24391067 -0.20868342
0.87504268 0.24285188 -0.20734616
-1.2998018 0.24846272 -0.20732795
-0.86786884 0.24675854 -0.20601046
1.0500605 0.2491273 -0.2074887
1.6890398 0.24630149 -0.2073282
-1.044681 0.25481173 -0.20673876
0.86917824 0.25305355 -0.20669521
-1.7008777 0.25897858 -0.20897737
-0.86611283 0.25808957 -0.20634873
1.296562 0.25631127 -0.20706436
-1.2971485 0.26492718 -0.20742039
0.86787367 0.26457214 -0.20716083
1.0443424 0.2617031 -0.20699358
-1.0442275 0.26867545 -0.20730211
-0.86176515 0.26865363 -0.20610255
1.6898206 0.26818639 -0.2078221
0.8595627 0.2739138 -0.205984
1.0352411 0.27332082 -0.20585549
1.2971375 0.27343953 -0.20768969
-1.699877 0.28076974 -0.20927221
-1.3053976 0.28377962 -0.20929429
-0.86539644 0.28178912 -0.20780317
1.0422213 0.28924921 -0.20795128
1.6797836 0.28832179 -0.20701778
-1.0354128 0.2943958 -0.20695867
-0.85530895 0.29046565 -0.20624284
0.84886044 0.29424661 -0.20513035
1.2973746 0.29059774 -0.20829704
-1.6823359 0.29968008 -0.20756084
-1.2888397 0.29722309 -0.20722321
-0.84706044 0.29961205 -0.20514734
1.0415074 0.30322567 -0.20855415
1.276306 0.30280414 -0.2055103
-1.0358944 0.30868211 -0.20781536
-0.84506297 0.31093159 -0.20559551
0.86116141 0.31071076 -0.20903185
1.6796554 0.31012067 -0.20746683
-1.2937926 0.31557339 -0.2086419
1.0364275 0.31595594 -0.2083171
-1.6894374 0.32294324 -0.20892216
-1.0395163 0.32406721 -0.20934404
-1.2702597 0.32683262 -0.20549431
-0.8551085 0.32691008 -0.20902443
0.84144485 0.32777041 -0.2061846
1.0284746 0.32774037 -0.20753165
-0.84317732 0.33457687 -0.20712137
1.6892381 0.33393756 -0.20915325
-1.0323567 0.33615449 -0.20873812
1.2824076 0.33857688 -0.20780009
-1.26958 0.34375831 -0.20606828
-1.6916651 0.3455025 -0.20971903
-1.0258458 0.34838051 -0.20829213
-0.84196961 0.34643093 -0.20787981
1.2742016 0.35363108 -0.20717555
1.6727113 0.35261133 -0.20764028
-1.2633554 0.35920602 -0.2057758
-1.0160344 0.35937944 -0.20720239
-0.83729279 0.35689911 -0.20781823
-1.6745039 0.36401945 -0.20814329
0.83693707 0.36298823 -0.2082928
-0.83050472 0.36643037 -0.20726223
0.81983191 0.36790228 -0.20517245
1.0143601 0.36598551 -0.20732655
1.2696968 0.369661 -0.20718351
-1.0218226 0.37596834 -0.20933166
-0.8272984 0.37753072 -0.20763201
1.6743509 0.37503627 -0.20841351
-1.2757833 0.38016567 -0.20856325
1.0196369 0.38246652 -0.20937283
-1.6771629 0.38677543 -0.20906262
-1.0080228 0.3853696 -0.20748231
-0.82295197 0.38814044 -0.20775135
0.83421606 0.38704896 -0.20997533
1.2665863 0.38612008 -0.20745288
-1.2622746 0.39351165 -0.20714852
-0.80979943 0.3944771 -0.20566872
0.81787646 0.39205733 -0.2070888
-1.0072311 0.39967421 -0.20833872
1.0162053 0.39584535 -0.20967512
1.2537011 0.39951247 -0.20615005
1.6736927 0.39708433 -0.20893742
-1.6740832 0.40833136 -0.20930308
-1.2581168 0.40966615 -0.20729633
-0.99142933 0.40792656 -0.20611639
-0.81078905 0.40766945 -0.2072074
0.82299012 0.40733063 -0.2096657
1.0047183 0.40601394 -0.20834337
-0.80091894 0.41542226 -0.20600548
0.8145529 0.41600442 -0.20883422
0.99557078 0.41697562 -0.20751885
1.2569686 0.41805932 -0.20753652
1.6641593 0.41702384 -0.20838633
-0.98899889 0.4215644 -0.20669834
0.80046982 0.42160299 -0.20656833
0.98128259 0.42559236 -0.20564134
-0.80550742 0.4307588 -0.20856434
0.79754418 0.43297657 -0.20720389
1.2476205 0.43247172 -0.20687582
-1.2417698 0.43922392 -0.20636031
-0.98781568 0.43583819 -0.20758161
0.97876561 0.4392243 -0.20625658
1.6493887 0.43546599 -0.20720696
-1.6533309 0.44766477 -0.20805231
0.80111057 0.44806349 -0.20957966
1.2538457 0.45239294 -0.20883608
1.6592363 0.46049032 -0.20915596
0.97041118 0.4651764 -0.20689957
1.2411585 0.46555945 -0.20768291
-1.6560208 0.47085139 -0.2091203
0.77712911 0.47404036 -0.20784429
0.76142287 0.47771713 -0.20523623
1.2261729 0.47763464 -0.20616543
1.643591 0.47851697 -0.20792685
0.76246482 0.4918578 -0.20717008
0.9657529 0.49322453 -0.20848906
1.2186347 0.49245912 -0.2059243
0.75816143 0.50271225 -0.20770434
0.95846498 0.5048182 -0.20827152
1.647112 0.50212371 -0.2091556
0.74797469 0.50963157 -0.20665531
1.2265205 0.51370448 -0.2083334
0.9578374 0.51999766 -0.20954138
1.6282239 0.51886034 -0.20757033
0.74601769 0.52217227 -0.2079148
1.221082 0.52959579 -0.20852582
0.94818819 0.5303244 -0.20887482
0.93032396 0.53582144 -0.2064095
1.6117369 0.53605282 -0.20631269
1.2048414 0.54067653 -0.20689866
0.92960316 0.55110896 -0.20777281
1.2028688 0.55809176 -0.20775025
0.92167914 0.56221431 -0.20756759
0.90601671 0.56843537 -0.20563601
1.6302907 0.56511945 -0.20958199
1.193278 0.57200986 -0.20732139
1.6119088 0.58158362 -0.20814385
0.91193151 0.58827716 -0.20864324
1.1856396 0.58682036 -0.2072617
0.90382606 0.5992977 -0.20849882
0.89367467 0.60890406 -0.20790935
1.1850318 0.60521358 -0.20847113
0.88279486 0.6179089 -0.20717195
1.1701541 0.6163137 -0.2072027
1.1775655 0.63928521 -0.20992383
1.1532823 0.64503413 -0.20702647
1.1539026 0.66459197 -0.20862356
1.1474906 0.68028206 -0.20899646
1.1408625 0.69591373 -0.20936871
1.1227899 0.70443898 -0.20766349
0.55242997 0.71487862 -0.20628159
1.1194 0.72211277 -0.20870174
0.54772764 0.72754598 -0.20793015
0.5375424 0.73304689 -0.20755132
1.1036634 0.73180342 -0.20746943
0.52678478 0.73767751 -0.20696788
1.0904509 0.7429772 -0.20672801
0.5044983 0.74547082 -0.20552392
0.52197093 0.7507475 -0.20877421
0.49774992 0.75583053 -0.20663567
0.48845935 0.76245266 -0.20674814
1.0889966 0.76223904 -0.20825545
0.48060408 0.77140546 -0.20751829
0.45787528 0.77790737 -0.20609947
0.47049388 0.77680266 -0.20736
0.44723195 0.78219032 -0.20572583
0.43711698 0.7873438 -0.20561726
0.42949384 0.79710048 -0.20673648
-0.41423029 0.80481708 -0.2066713
-0.428579 0.80754167 -0.20874026
0.39621437 0.80690688 -0.2052497
0.40958637 0.80825466 -0.20688803
0.42132375 0.806081 -0.20767319
-0.40639067 0.81463325 -0.20786144
-0.39507148 0.81755465 -0.20732105
-0.38333806 0.81945419 -0.20656231
-0.37104717 0.81992328 -0.20548649
0.37778682 0.82100981 -0.20635104
0.36754775 0.82599002 -0.20642315
0.36076626 0.83903629 -0.20853169
-0.35586178 0.84220839 -0.20875888
-0.34328088 0.84184456 -0.20758076
0.35000005 0.84309524 -0.20842861
-0.30914229 0.84844232 -0.2061796
0.30338213 0.84921002 -0.20589812
0.3140806 0.84540337 -0.20591776
-0.33427268 0.85021764 -0.20859095
-0.32282454 0.85246748 -0.20812911
-0.28640547 0.85216498 -0.20526604
0.2926335 0.85286951 -0.20587562
0.34163067 0.85311377 -0.20982523
0.33111325 0.85799915 -0.20998466
-0.27781239 0.86240709 -0.20687407
-0.24431215 0.86967546 -0.2062555
0.28565902 0.86799461 -0.20864186
0.62045938 0.86885375 -0.20526643
-0.23308082 0.87170392 -0.20602417
-0.21038076 0.87448555 -0.20536403
0.25073421 0.87141883 -0.2070394
0.27468756 0.87146008 -0.2086269
0.64003617 0.8728177 -0.20809045
-0.25833371 0.87702286 -0.20875297
0.19382143 0.87826413 -0.20535509
0.21724688 0.87865353 -0.20666008
0.26460719 0.87788248 -0.20935014
-0.22395188 0.88191527 -0.20775461
-0.16688459 0.88820732 -0.20634887
-0.14371166 0.8874681 -0.20527105
0.20776416 0.88814962 -0.20826171
0.61583358 0.88574958 -0.20740958
-0.20271729 0.89186543 -0.20882949
0.18542024 0.8935138 -0.2083583
-0.19179855 0.89587456 -0.20918614
-0.18017012 0.89656109 -0.20880014
-0.15708834 0.89824688 -0.20820519
-0.13390891 0.89848638 -0.20741311
-0.07667385 0.89996129 -0.20622838
0.60585922 0.89524662 -0.2078305
-0.11110283 0.90044403 -0.20715329
-0.042591311 0.90136373 -0.20603381
0.037023541 0.90418857 -0.20662217
0.082431324 0.90045124 -0.20645553
0.10531104 0.90007383 -0.20691156
0.12854633 0.90137506 -0.20788908
-0.10058764 0.9092862 -0.20887955
-0.088897981 0.90810394 -0.20833428
-0.054301348 0.9068374 -0.20742483
-0.031471953 0.90856302 -0.20757239
-0.02003227 0.90901071 -0.20760058
0.071601368 0.90793997 -0.20794934
0.094760723 0.908916 -0.20865338
0.1526596 0.90650427 -0.20989235
-0.066257499 0.91355872 -0.20913649
-0.0086104721 0.91187406 -0.20821324
0.014359536 0.91217661 -0.20829885
0.048920125 0.91325921 -0.20881917
0.060280308 0.910532 -0.20835263
0.56704146 0.91014385 -0.20616676
0.58334053 0.91055584 -0.20790751
0.59928387 0.91000932 -0.20948917
0.025936052 0.91517854 -0.20904236
0.53064102 0.92806941 -0.20553781
0.56177139 0.92750514 -0.20848052
0.54835856 0.93163395 -0.20784003
0.52456546 0.94485778 -0.20777653
0.49877337 0.95425838 -0.2070154
0.51275247 0.9516207 -0.2078274
0.44818121 0.97399157 -0.20613341
0.4764846 0.97038054 -0.2078433
0.49198988 0.97086501 -0.20925744
0.46523196 0.97841334 -0.20829254
0.43751109 0.98321867 -0.20690386
0.40959582 0.98665208 -0.20539014
0.39689839 0.99112731 -0.20526509
-0.42078102 0.99585098 -0.20785218
-0.40627971 0.99633968 -0.20687
0.4280574 0.99553573 -0.208345
-0.36703756 1.0073361 -0.20612594
-0.35257304 1.0068748 -0.20510681
0.37351775 1.005389 -0.20620482
-0.39746818 1.0109545 -0.20884873
-0.38360974 1.01298 -0.20825276
-0.34265107 1.0195171 -0.20678678
0.36270261 1.0152565 -0.20727548
0.32354406 1.0264598 -0.20691863
0.35247999 1.0272899 -0.20880948
-0.33200434 1.0306339 -0.20817715
-0.31898174 1.0346698 -0.20816451
0.29722202 1.0329858 -0.20665945
0.31119198 1.032436 -0.20731699
-0.30613512 1.039305 -0.20830499
-0.29296467 1.0428632 -0.20826226
-0.27900431 1.0434542 -0.20766219
0.28538829 1.0410103 -0.20752943
-0.26593268 1.0472343 -0.20773159
-0.25148445 1.0453405 -0.20671138
0.21686493 1.0450412 -0.20520024
0.2314183 1.048627 -0.20646016
-0.22498538 1.0508873 -0.20662208
0.20503485 1.0546093 -0.20655566
0.2466007 1.054168 -0.20814596
-0.24018492 1.0567063 -0.20834433
-0.13064632 1.0588362 -0.20511565
-0.21341603 1.0619991 -0.20826194
-0.19967288 1.062716 -0.20789297
-0.18613394 1.0643325 -0.20773423
-0.17218776 1.0633177 -0.20709655
0.11074562 1.0622383 -0.20533289
0.16514225 1.0621256 -0.20665787
0.77841473 1.0615246 -0.20623264
0.057308212 1.069851 -0.20598449
0.12499638 1.0683208 -0.2067965
0.7625128 1.0677768 -0.20556559
-0.1600841 1.0741136 -0.20879005
-0.077666782 1.0708699 -0.20642626
-0.010129753 1.0727702 -0.20626004
0.0033761717 1.072065 -0.20611626
0.084667481 1.0736246 -0.20705597
0.18068907 1.0729454 -0.20918919
-0.14686112 1.0783505 -0.20923756
-0.10568278 1.0795628 -0.20854893
-0.091773666 1.0771959 -0.20785196
-0.050910991 1.0774338 -0.20737858
-0.037390459 1.0794243 -0.20765461
0.044172391 1.0787777 -0.20757963
-0.064786479 1.0819401 -0.20838641
0.071692489 1.0829126 -0.20865655
0.09893176 1.0806963 -0.2086435
0.14052097 1.0827122 -0.20990814
0.017107084 1.0867122 -0.2089572
0.030786378 1.086327 -0.20894112
0.73934448 1.0924908 -0.20667268
0.75848001 1.090917 -0.20816526
0.72712237 1.1041313 -0.20712626
0.69485962 1.1153016 -0.20587309
0.68441558 1.1299952 -0.20697813
0.72212595 1.1271907 -0.20972958
0.65156269 1.1395564 -0.20565808
0.6754536 1.1475621 -0.20862135
0.63169819 1.1723728 -0.20864278
0.64999402 1.1707822 -0.20979971
0.60293365 1.1897951 -0.20897432
0.58860052 1.1987092 -0.2092216
0.5722847 1.2035522 -0.20879257
0.53746587 1.207847 -0.20712335
0.55507731 1.2062993 -0.20804004
0.52299237 1.2163266 -0.20743169
0.45680261 1.2295649 -0.20550142
0.4729546 1.2255465 -0.20580886
0.49264368 1.2302207 -0.20761913
0.42658997 1.2432805 -0.20593257
0.39452249 1.2516425 -0.2056064
-0.42285255 1.2581469 -0.20794971
-0.40447497 1.2556031 -0.20667106
-0.38767731 1.2574952 -0.20616263
0.41329277 1.2558185 -0.20713089
0.44931507 1.2576972 -0.20924108
-0.35533276 1.2648743 -0.20583977
0.34654471 1.2640905 -0.20535323
0.3638984 1.2647175 -0.20618312
-0.33839634 1.2655756 -0.20524418
0.38153306 1.2658054 -0.2071273
-0.37514195 1.2735777 -0.20800836
0.31514567 1.2746046 -0.20570648
0.33312255 1.2780284 -0.20691961
-0.2917417 1.283533 -0.2062211
-0.32641909 1.2854278 -0.20778063
-0.3093453 1.2858495 -0.2072027
0.2501384 1.2866023 -0.20534705
0.30159247 1.2892467 -0.20744018
-0.25937861 1.2907177 -0.20626034
-0.2256211 1.2901241 -0.20519222
0.26800597 1.2914826 -0.20664822
0.2851643 1.2921666 -0.20731579
-0.24381921 1.2976753 -0.20686515
0.21942423 1.3029578 -0.20700967
-0.2802963 1.30924 -0.20976764
0.18637905 1.3069018 -0.20682482
-0.12859635 1.3136277 -0.20679072
-0.062125724 1.3147722 -0.20621608
0.13679864 1.3121308 -0.20668663
-0.2133145 1.3172892 -0.20906901
-0.11239854 1.3192806 -0.20744136
0.12074939 1.3190246 -0.20751657
0.17076629 1.3157519 -0.20786862
0.20475586 1.3169037 -0.20879917
-0.19682634 1.3206424 -0.20919125
-0.079305723 1.3244127 -0.20786829
-0.012506717 1.3244977 -0.20751919
0.020785298 1.3203675 -0.20688847
0.054173041 1.3230135 -0.20745111
-0.18046728 1.3251089 -0.20952217
-0.16373584 1.3270135 -0.2094807
-0.029297207 1.3294288 -0.20833306
0.0041838759 1.3285422 -0.20814462
0.037573114 1.3258034 -0.2077979
0.10449869 1.325094 -0.2082479
0.15540358 1.3282055 -0.20951034
-0.096642263 1.3325039 -0.20931262
-0.046324406 1.3373382 -0.20964733
0.088403806 1.3353364 -0.20966601
1.016896 1.3867418 -0.20887411
0.99393171 1.3918418 -0.20774066
0.97919357 1.4083679 -0.20835039
0.95955276 1.4178811 -0.20795377
0.93895298 1.4257951 -0.20736392
0.92007452 1.4361753 -0.20717219
0.91200727 1.4638397 -0.20948961
0.89198774 1.4727045 -0.20913424
0.87234807 1.482076 -0.20888859
0.85105526 1.4884608 -0.20826152
0.78821158 1.5080147 -0.20668197
0.81195033 1.506904 -0.20791455
0.83765328 1.5087978 -0.20961457
0.7687338 1.5169759 -0.20656708
0.75162274 1.5307107 -0.20713213
0.59420073 1.5993961 -0.20724359
0.55061841 1.604757 -0.20607574
0.57496303 1.609404 -0.20758577
0.53591943 1.6284281 -0.20823239
0.49196669 1.632189 -0.20706303
0.51408911 1.6309735 -0.2077136
-0.50444686 1.6362565 -0.20797765
-0.48242545 1.637797 -0.20738487
-0.46134251 1.6422361 -0.20719495
-0.416832 1.641471 -0.20570852
0.38573703 1.6489476 -0.20569579
0.42911991 1.6463233 -0.20665121
0.45125473 1.6460409 -0.2073126
0.47430223 1.6484225 -0.20834824
0.40829557 1.6513487 -0.20662029
0.36622211 1.6594644 -0.20641606
-0.44534388 1.6655512 -0.20941241
-0.37897989 1.6673421 -0.20768851
-0.35744581 1.6695987 -0.2073925
-0.33589426 1.6714741 -0.20708364
0.23885657 1.6748774 -0.2054965
0.28142872 1.6711451 -0.20584302
0.32509279 1.6721349 -0.20690793
-0.40300426 1.6751598 -0.20927782
-0.27170572 1.6778749 -0.20645708
0.34798285 1.6768798 -0.20802079
-0.29435152 1.6831316 -0.20754351
-0.25112936 1.6849984 -0.20692809
0.21846618 1.6832788 -0.20617343
0.26153982 1.6821144 -0.2067721
0.3055011 1.6843009 -0.20792085
-0.3169238 1.6867588 -0.20846634
-0.22982146 1.6874995 -0.20686345
0.17568688 1.685135 -0.20579349
0.11217992 1.6944739 -0.20626897
-0.16665691 1.7024211 -0.2077722
0.048229013 1.7018071 -0.20679215
0.19934559 1.7037696 -0.20835923
-0.21062553 1.7070357 -0.2089166
-0.18898784 1.7084012 -0.20877592
-0.10233436 1.708993 -0.2079538
-0.059165101 1.7080359 -0.20759016
-0.016102521 1.7053038 -0.20714311
0.026853783 1.7058625 -0.20722741
0.069924049 1.7076845 -0.20759685
0.13466983 1.7076784 -0.2080663
0.15625997 1.7069298 -0.20819832
-0.14592591 1.7128092 -0.2087992
-0.12434337 1.7144469 -0.20879142
0.09173388 1.7125223 -0.20830888
-0.03782481 1.7163886 -0.2085309
0.0054142461 1.7192323 -0.20882674
-0.081309915 1.7207689 -0.20924555
1.3725629 1.9741485 -0.20810796
1.3188224 2.0026245 -0.20754215
1.3535789 2.000113 -0.20903172
1.2989107 2.0275135 -0.20840992
1.2665665 2.0329337 -0.20731124
1.2428927 2.0520616 -0.20764935
1.2183563 2.0699267 -0.20788823
1.1960769 2.0918894 -0.2085648
1.1655542 2.0994194 -0.20783578
1.1481205 2.1308043 -0.20949495
0.090263754 -1.6850774 -0.20497054
0.2171787 -1.6733589 -0.20495841
-0.45592886 -1.6229652 -0.20476362
0.037018158 -1.3062212 -0.20472871
-0.19202577 -1.2884321 -0.20408911
0.23295295 -1.2843255 -0.20449927
1.3030921 -1.0672753 -0.204592
0.12377397 -1.0578731 -0.20477413
-0.41489545 -0.98192179 -0.20494492
0.43578672 -0.78494775 -0.20499153
0.51214355 -0.73661286 -0.20484354
0.78617549 -0.71296978 -0.2040492
0.54774457 -0.70881534 -0.20453201
0.86164904 -0.61941749 -0.20402378
0.67899621 -0.58529782 -0.20468058
0.89521563 -0.57749391 -0.20481877
0.88757223 -0.55686325 -0.20144971
0.90455163 -0.55176669 -0.20371038
0.72831655 -0.52356815 -0.20480269
0.75666958 -0.47473487 -0.20395499
0.95996058 -0.46016678 -0.20467141
1.2186862 -0.45713007 -0.20392263
0.78601158 -0.42671564 -0.20420769
0.99099022 -0.37172115 -0.20349053
1.2625542 -0.33333525 -0.20458306
1.0160447 -0.29581243 -0.20345545
0.8440274 -0.29257131 -0.20396245
-1.0200067 -0.27618247 -0.20316805
-1.2736747 -0.26013294 -0.20366684
-0.84853142 -0.26452804 -0.20293753
0.86804777 -0.22917901 -0.2049886
-1.0321969 -0.22438867 -0.20308526
-1.0423691 -0.21289152 -0.20454301
1.0447829 -0.20653825 -0.20475732
-1.2890571 -0.19627407 -0.20428509
1.0445982 -0.16578504 -0.20334804
-0.87351555 -0.15560223 -0.20258538
-1.0569403 -0.13379577 -0.20482904
1.0646199 -0.020110203 -0.20472036
-0.89035511 -2.3626371e-06 -0.20329064
-0.88100469 0.16840784 -0.20479783
-0.87542236 0.17879464 -0.20400737
-0.86397821 0.21073589 -0.20305146
-1.0224218 0.27683643 -0.2036491
0.83374363 0.31273785 -0.20331644
1.2690433 0.31801119 -0.20496944
-1.2388498 0.4207173 -0.20497838
-0.78293943 0.43145448 -0.2041115
-0.96690905 0.44124088 -0.20433962
-0.77911788 0.44222805 -0.20455076
0.77580804 0.4468278 -0.20441601
0.72880638 0.5239203 -0.20494044
0.72166258 0.53269416 -0.20480159
-0.42231753 0.77210629 -0.2009393
0.38507739 0.80984306 -0.2047469
-0.35940328 0.82157987 -0.20475121
-0.2954191 0.84365505 -0.20409608
-0.26375014 0.85551697 -0.20440838
0.23725785 0.86544496 -0.20489402
0.16022405 0.88335359 -0.20498294
0.13789816 0.88690305 -0.20493557
-0.42554387 0.97277433 -0.20413791
0.38382524 0.99458945 -0.20496488
0.332553 1.0104853 -0.20452635
0.25429079 1.0284774 -0.20368946
0.26879805 1.0312467 -0.20489201
-0.023261523 1.0555456 -0.20298849
0.60545659 1.1583658 -0.20477696
0.50002253 1.2044759 -0.2043207
-0.42443156 1.2120876 -0.20120433
0.23273312 1.2831135 -0.20430629
0.67067558 1.5072092 -0.20037907
0.69615203 1.5128841 -0.20228292
0.71995068 1.5141035 -0.20364198
0.65415466 1.5213715 -0.20115083
0.63598555 1.5319895 -0.2014799
0.62277478 1.5551817 -0.20348254
0.60691047 1.5726603 -0.20475331
-0.98302782 -0.33383939 -0.19959818
-1.1947889 0.43960941 -0.19945702
-0.42526734 0.93973655 -0.19831294
