# .PCD v0.7 - Point Cloud Data file format
VERSION 0.7
FIELDS x y z
SIZE 4 4 4
TYPE F F F
COUNT 1 1 1
WIDTH 1401
HEIGHT 1
VIEWPOINT 0 0 0 1 0 0 0
POINTS 1401
DATA ascii
-2.9390302 -0.4097074 -0.25684044
-4.9275765 -0.68691522 -0.25795963
-14.809546 -2.0644839 -0.25822204
-1.3957984 -0.19457744 0.17117937
-1.3927654 -0.19415462 0.22031547
-0.90476876 -0.13776167 -0.20896257
-1.0778881 -0.16412112 -0.20962328
-1.3231363 -0.20146303 -0.20968583
-1.6859697 -0.25670865 -0.20714571
-2.9609547 -0.45084009 -0.25923198
-4.9166179 -0.74861276 -0.25785899
-14.782865 -2.2508645 -0.25823054
-1.4095283 -0.21461721 0.17318088
-1.3931918 -0.21212979 0.22078796
-0.9021126 -0.14900249 -0.20876591
-1.0768229 -0.17785951 -0.20983502
-1.2969713 -0.21422155 -0.20595045
-1.6929275 -0.2796219 -0.20841666
-2.9344232 -0.4846805 -0.25742307
-4.9050536 -0.81017077 -0.25776711
-14.747134 -2.4357934 -0.25812173
-1.4193852 -0.23444073 0.17474081
-1.3930693 -0.23009412 0.22121018
-0.89628667 -0.15965852 -0.20786645
-1.0715979 -0.1908873 -0.20926867
-1.2920841 -0.23016323 -0.20561832
-1.6827788 -0.299759 -0.20761549
-2.9295382 -0.52184838 -0.2575506
-4.9029312 -0.87337548 -0.25821304
-14.693224 -2.6173527 -0.25773457
-1.3990178 -0.24921168 0.17260602
-1.3907156 -0.24773279 0.22131424
-0.89482224 -0.17104912 -0.20800985
-1.0418569 -0.19915542 -0.20393421
-1.2867156 -0.24596123 -0.20524061
-1.6829166 -0.32169676 -0.20811577
-2.938097 -0.56162989 -0.25890428
-4.8926497 -0.93525106 -0.25827131
-14.690801 -2.8082099 -0.25829187
-1.4144191 -0.2703723 0.17491235
-1.3963135 -0.26691136 0.22272228
-0.88356805 -0.18045829 -0.20590563
-1.0520887 -0.21487665 -0.20645028
-1.298226 -0.26514724 -0.2075927
-1.6870127 -0.34455231 -0.20914227
-2.9217527 -0.59673333 -0.2581057
-4.8853054 -0.9977656 -0.25852636
-14.63601 -2.9892313 -0.25796989
-1.4014256 -0.28622454 0.17373747
-1.3996052 -0.28585276 0.22380373
-0.8823024 -0.19180322 -0.20615718
-1.0439811 -0.22695045 -0.20540382
-1.2850654 -0.27935964 -0.20603444
-1.6774189 -0.36465314 -0.20850563
-2.9086583 -0.63231152 -0.2576319
-4.8606095 -1.0566452 -0.25790316
-14.600806 -3.1740608 -0.25803339
-1.6015409 -0.34815803 0.14185509
-1.4063529 -0.30572623 0.17481172
-1.3895191 -0.30206674 0.22278148
-0.88256031 -0.2035298 -0.20679988
-1.049351 -0.24199389 -0.20704347
-1.287243 -0.29685488 -0.20696649
-1.6745601 -0.38617516 -0.20873818
-2.9021871 -0.66928178 -0.25778475
-4.8530822 -1.1191834 -0.25823104
-14.575573 -3.3613153 -0.258315
-1.5971321 -0.36831927 0.14186415
-1.3974144 -0.32226181 0.17419127
-1.4017521 -0.32326213 0.22537756
-0.8779422 -0.21414189 -0.20633326
-1.0561773 -0.25761583 -0.20901383
-1.283553 -0.31307584 -0.20699064
-1.664006 -0.40587342 -0.20804317
-2.8815358 -0.70284528 -0.25671619
-4.8478007 -1.1824437 -0.2587218
-14.522431 -3.5422161 -0.25814325
-1.6064972 -0.39184624 0.14312293
-1.4100405 -0.3439278 0.176291
-1.3975271 -0.34087563 0.22537053
-0.88187987 -0.22690408 -0.20791371
-1.0330194 -0.26579165 -0.20507705
-1.2835099 -0.33024183 -0.20763782
-1.6461972 -0.42355978 -0.20646708
-2.8867915 -0.74275959 -0.25799721
-4.8091435 -1.2373729 -0.25746983
-14.464176 -3.7215731 -0.2579203
-1.5964913 -0.41077065 0.14268102
-1.4033723 -0.36108193 0.17601183
-1.4005488 -0.36035547 0.22657162
-0.87919366 -0.2380552 -0.20797065
-1.0391474 -0.28136513 -0.20698056
-1.2783288 -0.34612715 -0.2074883
-1.6587217 -0.4491244 -0.20873067
-2.8770475 -0.77900481 -0.25798261
-4.8081632 -1.3018841 -0.25827456
-14.420525 -3.9045787 -0.2579982
-1.5767244 -0.42692235 0.14138365
-1.401372 -0.37944299 0.17634623
-1.3967979 -0.37820449 0.22671729
-0.8798942 -0.25017768 -0.208865
-1.0309396 -0.29312396 -0.20606455
-1.1788003 -0.33516479 -0.19200344
-1.1732318 -0.33358151 -0.14815432
-1.1616712 -0.33029449 -0.10453082
-1.1843374 -0.33673906 -0.063840389
-1.1699477 -0.33264774 -0.021004859
-1.5740937 -0.44755733 0.14164189
-1.3992363 -0.39784065 0.17669389
-1.3909675 -0.3954896 0.22656131
-0.85555267 -0.25494277 -0.20383281
-1.030816 -0.30716881 -0.20679657
-1.1190184 -0.33345193 -0.18293555
-1.1361543 -0.33855817 -0.14399914
-1.1320386 -0.33733174 -0.1022385
-1.1212083 -0.33410448 -0.060659461
-1.1243639 -0.33504477 -0.0202606
-1.5679933 -0.46724018 0.14161114
-1.407138 -0.41930756 0.17834432
-1.4047735 -0.41860294 0.22965038
-0.87468624 -0.27268174 -0.20919278
-1.0441996 -0.32552722 -0.2102872
-1.0757139 -0.33535171 -0.17653254
-1.0660251 -0.33233127 -0.13563043
-1.0670905 -0.33266342 -0.096743457
-1.0554053 -0.32902056 -0.057318997
-1.0871488 -0.33891654 -0.019665344
-1.5801338 -0.49260366 0.14325646
-1.4067372 -0.43854761 0.17897923
-1.3836117 -0.43133828 0.22706082
-0.87787932 -0.28585377 -0.21080063
-1.0363705 -0.33746144 -0.2095497
-1.0157957 -0.33076191 -0.16736977
-1.029972 -0.33537793 -0.13157025
-1.0350267 -0.33702385 -0.094213806
-1.0393883 -0.33844408 -0.056676082
-1.017783 -0.33140904 -0.018484615
-1.4750935 -0.48031774 0.026790123
-1.4802935 -0.48201099 0.080717891
-1.4671897 -0.47774416 0.13355166
-1.4071662 -0.45819938 0.17975365
-1.3978539 -0.45516708 0.23032039
-0.87645 -0.29764521 -0.21134064
-0.97091341 -0.3297253 -0.19713841
-0.98413455 -0.33421522 -0.16283356
-0.97688907 -0.33175465 -0.12531307
-0.9806639 -0.33303657 -0.089640029
-0.97605383 -0.331471 -0.05344592
-0.98852473 -0.33570614 -0.01802858
-1.4512123 -0.49283633 0.026467012
-1.4694067 -0.49901521 0.080460511
-1.453951 -0.4937664 0.13290201
-1.3947515 -0.47366208 0.1789155
-1.3941661 -0.47346327 0.23067683
-0.85992306 -0.30416167 -0.2082625
-0.94599801 -0.33460706 -0.1929197
-0.95467162 -0.33767498 -0.15864964
-0.94763958 -0.33518767 -0.12209276
-0.95000833 -0.33602554 -0.087217741
-0.95043838 -0.33617765 -0.052270945
-0.94776434 -0.33523181 -0.017360808
-1.4303852 -0.50593865 0.026201285
-1.4496155 -0.51274055 0.079724021
-1.4535233 -0.51412278 0.1334441
-1.4059027 -0.49727905 0.18113485
-1.3983002 -0.49458995 0.23237289
-0.85342294 -0.31400758 -0.20762941
-0.90607864 -0.33338165 -0.18562023
-0.89977926 -0.33106387 -0.15020835
-0.91156161 -0.33539906 -0.11797931
-0.91323835 -0.336016 -0.084223762
-0.90860552 -0.33431137 -0.050197817
-0.90898442 -0.33445081 -0.01672627
-1.4232913 -0.52368432 0.026190057
-1.4209489 -0.52282244 0.078503303
-1.43226 -0.52698427 0.13209073
-1.4096106 -0.51865071 0.18243955
-1.3868575 -0.51027894 0.23152079
-0.8339842 -0.31883422 -0.20386076
-0.88528639 -0.33844718 -0.18221936
-0.87838662 -0.33580935 -0.14733133
-0.8638764 -0.33026206 -0.11233696
-0.87459666 -0.33436045 -0.081041895
-0.88013095 -0.33647624 -0.048854891
-0.86568671 -0.33095416 -0.016004963
-1.4181114 -0.54214746 0.026218286
-1.4227277 -0.54391229 0.078973711
-1.4263365 -0.54529196 0.13216722
-1.4033478 -0.53650331 0.18248889
-1.3895704 -0.53123617 0.23307191
-0.84130645 -0.33383453 -0.20666182
-0.84278941 -0.33442298 -0.17432512
-0.85185778 -0.33802134 -0.14358421
-0.83805615 -0.33254477 -0.10951519
-0.84910738 -0.33692995 -0.079066873
-0.84790033 -0.33645099 -0.047297232
-0.84534997 -0.33543903 -0.015705822
-1.4083549 -0.55884212 0.026165934
-1.409651 -0.55935645 0.078632586
-1.4151062 -0.56152105 0.13177134
-1.4070573 -0.5583272 0.18387091
-1.3883442 -0.55090177 0.23401125
-0.82669544 -0.3401463 -0.20410867
-1.4219762 -0.58507639 0.02655378
-1.4213533 -0.58482009 0.079689823
-1.4157239 -0.58250386 0.13250138
-1.4073734 -0.57906801 0.18485044
-1.4039023 -0.57763982 0.23784079
-1.4256846 -0.60770327 0.026763804
-1.4255491 -0.60764557 0.080347694
-1.4243397 -0.60712999 0.13401264
-1.4118537 -0.60180777 0.18641946
-1.3806232 -0.58849573 0.2351338
-1.4349201 -0.63310695 0.027084691
-1.4368144 -0.63394272 0.081426106
-1.4480243 -0.63888872 0.13698715
-1.411478 -0.62276399 0.18739045
-1.389486 -0.61306077 0.23793909
-1.4927417 -0.68120021 0.14201777
-1.4088372 -0.64291108 0.18809973
-1.3931932 -0.63577211 0.23992585
-1.4604871 -0.68883014 0.13976325
-1.4080036 -0.66407657 0.18908991
-1.4004149 -0.66049743 0.2425826
-1.475732 -0.71887243 0.14207713
-1.403695 -0.68378103 0.18965258
-1.4291929 -0.71860653 0.13845676
-1.3956059 -0.70171881 0.18973848
-1.407105 -0.7298401 0.13719638
-1.3935603 -0.72281468 0.19068269
-1.405251 -0.75148189 0.13792734
-1.3914326 -0.74409223 0.19165844
-1.3919075 -0.76703852 0.13755475
-1.3968825 -0.7697801 0.19372892
-1.4022883 -0.79594016 0.13956006
-1.3878261 -0.78773141 0.19383322
-1.5670834 -0.91575629 0.094107568
-1.4049431 -0.82100642 0.14084201
-1.3959131 -0.81572956 0.19638178
-1.5421761 -0.92744529 0.093305759
-1.40031 -0.84212881 0.14142939
-1.3877438 -0.83457166 0.19669536
-1.5217954 -0.94148093 0.092782587
-1.4011154 -0.86682051 0.14260185
-1.3907288 -0.86039472 0.19863832
-1.4747908 -0.9382813 0.090629928
-1.4077128 -0.89560539 0.14440967
-1.4033974 -0.89285994 0.20203762
-1.4311413 -0.93603098 0.088664845
-1.4211103 -0.92947024 0.14697304
-1.4057224 -0.91940582 0.20402285
-1.4076978 -0.94621682 0.087943628
-1.4020816 -0.94244176 0.14622083
-1.5835226 -1.093598 0.03323368
-1.3949583 -0.96337342 0.087898649
-1.3811803 -0.95385814 0.14528218
-1.5408006 -1.0930008 0.032623328
-1.4190485 -1.0066334 0.09020818
-1.3992928 -0.99261922 0.14849037
-1.5135682 -1.102591 0.032338142
-1.4104437 -1.0274678 0.090476468
-1.3817682 -1.0065786 0.14796402
-1.4534533 -1.0870731 0.031343736
-1.4000949 -1.047165 0.090651289
-1.3926705 -1.0416121 0.15052405
-1.4380058 -1.1040249 0.031307932
-1.4056931 -1.079217 0.091886356
-1.4059176 -1.1078027 0.030910572
-1.3966855 -1.1005282 0.092196107
-1.4183785 -1.1468612 0.031499553
-1.3978739 -1.1302818 0.093206681
-1.4006854 -1.1620243 0.03142909
-1.3934778 -1.1560447 0.093876749
-1.3987638 -1.19048 0.031719826
-1.4010111 -1.1923926 0.095388226
-1.4101338 -1.2311076 0.032326646
-1.3818607 -1.2374284 0.032033172
-1.3988957 -1.2847855 0.032800496
-1.5670962 -2.0017557 0.22003458
-1.5457619 -2.0265653 0.22060464
-1.5058088 -2.0266037 0.21852741
-1.4830911 -2.0494366 0.21895836
-1.3427638 -2.0113087 0.041762833
-1.347953 -2.0190816 0.12587279
-1.3421894 -2.0104485 0.20922421
-1.158474 -1.833625 0.037455626
-1.1559457 -1.8296233 0.1122109
-1.1562766 -1.8301471 0.18737014
-1.1527573 -1.8245767 0.26214758
-1.1392974 -1.8545823 0.037587691
-1.1280817 -1.8363249 0.11174186
-1.1334125 -1.8450025 0.18741499
-1.1178712 -1.8197041 0.25940445
-1.0941956 -1.8325052 0.25924462
-1.0620111 -1.830582 0.25706029
-1.0260857 -1.8211056 0.25389501
-1.0011675 -1.8303946 0.25341237
-0.42416531 -0.79922527 -0.20659056
-0.50371134 -0.9491083 -0.20658174
-0.62626296 -1.1800239 -0.20929827
-0.79603213 -1.4999082 -0.20625344
-1.1276968 -2.124841 -0.20820618
-1.8880459 -3.557514 -0.20882034
-7.0044656 -13.19803 -0.25802895
-0.97417468 -1.8355699 0.2524105
-0.41747615 -0.81112349 -0.20829076
-0.49630293 -0.96427786 -0.20850672
-0.6043725 -1.1742486 -0.20690767
-0.78341383 -1.5221119 -0.20793366
-1.0913488 -2.1204054 -0.20640862
-1.8370438 -3.5692325 -0.20813386
-6.8315163 -13.273103 -0.25779444
-0.95952988 -1.8642915 0.25467837
-0.40453187 -0.81090713 -0.2069107
-0.48533803 -0.97288775 -0.20903037
-0.59054857 -1.1837882 -0.20726186
-0.76944232 -1.5423909 -0.20936376
-1.0635165 -2.1318793 -0.20620555
-1.798499 -3.6051936 -0.20889369
-6.6717267 -13.373857 -0.25809914
-0.9312287 -1.8667009 0.25338551
-0.39866865 -0.82499862 -0.20920874
-0.46782818 -0.96811622 -0.20672309
-0.58011401 -1.2004787 -0.20888855
-0.74822384 -1.5483625 -0.20887887
-1.044596 -2.1616702 -0.2077983
-1.7466486 -3.6144869 -0.20814127
-6.504642 -13.460603 -0.25817204
-0.38791999 -0.82924891 -0.20903127
-0.46193403 -0.98746723 -0.20959647
-0.56226468 -1.2019421 -0.20789473
-0.72350961 -1.5466322 -0.20739996
-1.0213641 -2.1833498 -0.20862946
-1.698806 -3.6315043 -0.20787288
-6.3337374 -13.539506 -0.25813523
-0.37130937 -0.8205027 -0.2056317
-0.44506651 -0.9834879 -0.2075458
-0.54799289 -1.21093 -0.20823929
-0.70908797 -1.5669106 -0.20890534
-0.98823357 -2.183754 -0.20746253
-1.6563355 -3.6600952 -0.20829909
-6.1625123 -13.617641 -0.25812501
-0.3661693 -0.83704668 -0.20860581
-0.42830417 -0.97908419 -0.20546205
-0.53258312 -1.2174612 -0.20819265
-0.69032085 -1.5780427 -0.20921399
-0.9690482 -2.2152009 -0.20927423
-1.6041636 -3.6670465 -0.20752864
-5.9919972 -13.697439 -0.25818688
-0.35093522 -0.83054888 -0.20586881
-0.42084813 -0.99600983 -0.20788535
-0.51774317 -1.2253287 -0.20840664
-0.66726238 -1.5791917 -0.20823584
-0.93808967 -2.2201512 -0.2086094
-1.5597247 -3.6913579 -0.2077765
-5.8171034 -13.76718 -0.2581003
-0.34533277 -0.8468765 -0.20882154
-0.40621707 -0.99618602 -0.2068381
-0.5035491 -1.2348781 -0.2089358
-0.64342368 -1.5778995 -0.20698066
-0.90517938 -2.2198157 -0.20749043
-1.5159298 -3.7175889 -0.20816202
-5.64714 -13.848758 -0.25827605
-0.33434722 -0.85040724 -0.20863746
-0.39205289 -0.99718076 -0.20600326
-0.48629618 -1.2368872 -0.20822315
-0.62539327 -1.5906787 -0.20760751
-0.87945521 -2.2368815 -0.20803396
-1.4695052 -3.7376649 -0.20823352
-5.4684482 -13.908917 -0.25809333
-0.32182577 -0.84983003 -0.20748517
-0.38403141 -1.0140935 -0.20848167
-0.46897817 -1.2384084 -0.20746863
-0.6042757 -1.5956821 -0.207251
-0.84866542 -2.2410307 -0.20740953
-1.4214869 -3.753653 -0.20811053
-5.2932734 -13.977695 -0.25811228
-0.30516487 -0.83752626 -0.20352688
-0.36966503 -1.0145472 -0.2076015
-0.45579806 -1.2509397 -0.20858991
-0.58243179 -1.5984864 -0.20664628
-0.81920028 -2.2482986 -0.20711106
-1.3728883 -3.7678978 -0.20792532
-5.1169024 -14.043359 -0.25811455
-0.30489707 -0.87072217 -0.21064413
-0.35811687 -1.0227067 -0.2083319
-0.43814987 -1.2512643 -0.20770758
-0.56349546 -1.609225 -0.20710079
-0.79452926 -2.2690094 -0.20808077
-1.323579 -3.7798643 -0.20764948
-4.9387684 -14.104089 -0.25806725
-0.29170051 -0.8679198 -0.209061
-0.3472603 -1.0332313 -0.20956841
-0.42615521 -1.2679735 -0.20957388
-0.54303133 -1.6157243 -0.2070408
-0.77044642 -2.2923706 -0.20931683
-1.277535 -3.8011513 -0.20791867
-4.7608042 -14.165199 -0.25806803
-0.27840152 -0.86423594 -0.20731278
-0.33203697 -1.0307353 -0.20819761
-0.40719822 -1.2640567 -0.20806253
-0.5200367 -1.6143389 -0.20600781
-0.73797882 -2.2908919 -0.20831679
-1.2332324 -3.8282969 -0.20853755
-4.5898485 -14.248168 -0.25850615
-0.26977128 -0.87504762 -0.20907483
-0.31623062 -1.0257461 -0.20636918
-0.3901588 -1.2655443 -0.20748226
-0.50251663 -1.6299955 -0.20718184
-0.70623481 -2.2907889 -0.20748231
-1.1837326 -3.8396318 -0.20832652
-4.4015517 -14.277158 -0.25800607
-0.25907108 -0.87952614 -0.20934883
-0.30595633 -1.038698 -0.20818332
-0.37054214 -1.2579618 -0.20545787
-0.48441365 -1.6445466 -0.20823956
-0.67537469 -2.2928445 -0.20688181
-1.1335717 -3.8483882 -0.20801064
-4.2262082 -14.347649 -0.25829774
-0.24547945 -0.87383068 -0.20724097
-0.29366434 -1.0453539 -0.20875964
-0.3549059 -1.2633548 -0.20559248
-0.46363473 -1.6503958 -0.20822442
-0.65005463 -2.3139927 -0.20803492
-1.0829878 -3.8551004 -0.20761988
-4.0400343 -14.381269 -0.2579667
-0.23292868 -0.87113494 -0.2058897
-0.28201371 -1.0547092 -0.20990209
-0.34389308 -1.2861331 -0.20857807
-0.4400976 -1.6459305 -0.20694546
-0.61897653 -2.3149235 -0.20740142
-1.0371182 -3.8787405 -0.2081732
-3.8661954 -14.459268 -0.25847203
-0.2223514 -0.87561268 -0.20626989
-0.26577359 -1.0466079 -0.20760733
-0.32589763 -1.2833743 -0.20744871
-0.4199352 -1.6536912 -0.20723994
-0.59038931 -2.324934 -0.20761578
-0.98418981 -3.8757079 -0.20732886
-3.6806374 -14.494231 -0.25824806
-0.21201585 -0.88128209 -0.20696013
-0.25295734 -1.0514629 -0.20792204
-0.30846816 -1.2822036 -0.20661519
-0.39845493 -1.6562498 -0.20691541
-0.56332749 -2.3415723 -0.2084516
-0.93740726 -3.8965023 -0.20779333
-3.4964855 -14.533772 -0.25814766
-0.20206429 -0.88899255 -0.20815681
-0.24106736 -1.0605886 -0.20910978
-0.29181835 -1.2838702 -0.20627528
-0.37730908 -1.6599913 -0.20677288
-0.53230619 -2.3419094 -0.20786841
-0.88415265 -3.8898764 -0.20682985
-3.3145967 -14.582744 -0.25825566
-0.19069108 -0.89070171 -0.20797826
-0.22634023 -1.0572158 -0.20786637
-0.27371532 -1.2785008 -0.2048426
-0.35762763 -1.6704479 -0.20749798
-0.50133532 -2.3416941 -0.20727254
-0.83405942 -3.8958201 -0.20657106
-3.127063 -14.606243 -0.25795403
-0.18014249 -0.89642358 -0.2087681
-0.21199925 -1.0549489 -0.20687938
-0.26169297 -1.3022344 -0.20810074
-0.33546397 -1.669333 -0.20681837
-0.47274181 -2.3524537 -0.20768155
-0.78861046 -3.9242768 -0.20753695
-2.946018 -14.65995 -0.2582269
-0.16867054 -0.89771259 -0.20855713
-0.19660734 -1.0464003 -0.20470123
-0.24462448 -1.3019612 -0.20754836
-0.31707549 -1.687566 -0.20856613
-0.44355527 -2.3607273 -0.20790239
-0.73510069 -3.9124153 -0.20640375
-2.7601128 -14.690106 -0.25812542
-0.34809181 -1.8526438 0.29533383
-0.15700074 -0.89774597 -0.2080891
-0.18696269 -1.0690714 -0.20865916
-0.22596946 -1.292116 -0.20550904
-0.29393381 -1.680743 -0.20724899
-0.41002423 -2.3445597 -0.20600751
-0.68651569 -3.9255655 -0.20662506
-2.5764213 -14.732235 -0.25827515
-0.31908566 -1.8245637 0.29019403
-0.14368238 -0.88728732 -0.20522924
-0.17550565 -1.0838068 -0.21108711
-0.21184172 -1.3081943 -0.20762554
-0.27429783 -1.6938819 -0.20842668
-0.3803567 -2.3488314 -0.20594569
-0.63916469 -3.9470584 -0.20731628
-2.3861589 -14.735339 -0.25778234
-0.29869214 -1.844525 0.29274741
-0.1350991 -0.90647215 -0.20925659
-0.15981372 -1.0722994 -0.2084374
-0.19581215 -1.3138375 -0.20811336
-0.25178403 -1.689391 -0.20746753
-0.35359788 -2.3725297 -0.2076167
-0.58897567 -3.9518404 -0.20716149
-2.205672 -14.799361 -0.258396
-0.27242684 -1.8278979 0.28954107
-0.12260782 -0.90026689 -0.20745127
-0.14599763 -1.0720102 -0.20800732
-0.17822596 -1.3086517 -0.20692001
-0.23147771 -1.6996609 -0.20835425
-0.3246071 -2.3834777 -0.20820054
-0.54258955 -3.9840477 -0.20847514
-2.0159523 -14.802442 -0.2579861
-0.25009474 -1.8363594 0.29035953
-0.112147 -0.90890652 -0.20910016
-0.13178805 -1.0680894 -0.20690815
-0.15991566 -1.2960523 -0.20459323
-0.20805119 -1.6861717 -0.20636316
-0.29360887 -2.3795826 -0.20752089
-0.48909962 -3.9639568 -0.20708515
-1.8302827 -14.83371 -0.25810891
-0.22408341 -1.8161064 0.2866883
-0.098897114 -0.89400429 -0.20536901
-0.11934894 -1.0788836 -0.20869151
-0.1458393 -1.3183496 -0.20780666
-0.18607032 -1.6820276 -0.20555292
-0.2613273 -2.3623312 -0.20571314
-0.43837339 -3.9627819 -0.206719
-1.6435649 -14.857403 -0.25814059
-0.20166624 -1.8230106 0.28735453
-0.089187719 -0.91106361 -0.20901328
-0.10555001 -1.0782065 -0.20828693
-0.12851471 -1.3127936 -0.20665944
-0.16683768 -1.7042676 -0.20799756
-0.23160921 -2.365917 -0.2057551
-0.38975656 -3.9814117 -0.20741835
-1.4567814 -14.881204 -0.25821492
-0.17878562 -1.8263173 0.28749812
-0.076391436 -0.89664644 -0.20546877
-0.091276892 -1.0713649 -0.20672685
-0.11202488 -1.3148949 -0.20675175
-0.14502701 -1.7022583 -0.207513
-0.20209976 -2.3721511 -0.2060596
-0.33997226 -3.9904332 -0.20764886
-1.2687631 -14.892139 -0.25810701
-0.15634686 -1.8351253 0.28855187
-0.065679796 -0.90559328 -0.20731302
-0.079448558 -1.095437 -0.21116194
-0.095607273 -1.3182335 -0.20707099
-0.1233307 -1.7004842 -0.20709099
-0.17281799 -2.3828151 -0.20678052
-0.28813776 -3.9728446 -0.20652844
-1.0817139 -14.914677 -0.25824106
-0.13302667 -1.8341724 0.2881158
-0.054400057 -0.90848583 -0.20780189
-0.065291025 -1.090366 -0.21000929
-0.078885138 -1.3173889 -0.20676588
-0.10216389 -1.7061461 -0.20760739
-0.14371948 -2.4001284 -0.20810941
-0.23802774 -3.9750848 -0.20647269
-0.89372116 -14.925224 -0.25820836
-0.10916194 -1.8230143 0.28612444
-0.042844273 -0.90671724 -0.20725751
-0.050651826 -1.0719491 -0.20632292
-0.061900645 -1.3100089 -0.20546897
-0.080371767 -1.7009149 -0.20683129
-0.11311113 -2.3937809 -0.2074191
-0.18829185 -3.9848371 -0.2068397
-0.70580482 -14.937011 -0.25823805
-0.089416832 -1.8923364 0.16396935
-0.087288529 -1.8472949 0.28973985
-0.031607531 -0.91247708 -0.20846659
-0.037473347 -1.0818172 -0.20811495
-0.045271359 -1.3069378 -0.20488162
-0.058924016 -1.701076 -0.20674427
-0.082818657 -2.3908899 -0.20706181
-0.13781601 -3.9786074 -0.20640989
-0.51760143 -14.942623 -0.25820193
-0.064938821 -1.8747172 0.097260207
-0.064115368 -1.850945 0.16030015
-0.063810475 -1.8421432 0.28878289
-0.019831335 -0.89989287 -0.20551823
-0.02371751 -1.0762371 -0.20696759
-0.02897403 -1.3147639 -0.20603494
-0.037442364 -1.6990341 -0.20642243
-0.052496087 -2.3821318 -0.20622973
-0.071413577 -3.2405567 -0.1680599
-0.071586244 -3.2483919 -0.056110751
-0.04028191 -1.8278852 0.03157378
-0.039275054 -1.7821968 0.092427261
-0.038519412 -1.7479076 0.15132266
-0.0403101 -1.8291644 0.28664598
-0.008694334 -0.92075527 -0.21024114
-0.010233406 -1.0837475 -0.20837061
-0.012427897 -1.3161504 -0.20621136
-0.016109893 -1.7060845 -0.20723794
-0.022655187 -2.3992503 -0.20767057
-0.029528087 -3.1271105 -0.16214427
-0.029344989 -3.1077199 -0.053670228
-0.017172016 -1.8185666 0.031406589
-0.016578387 -1.7556995 0.091035038
-0.016576547 -1.7555046 0.15195024
-0.017284593 -1.8304887 0.22234932
-0.017306345 -1.8327922 0.28715757
0.002838986 -0.90148777 -0.20583352
0.0033872719 -1.0755898 -0.20679395
0.0041620331 -1.3216063 -0.20705797
0.0053866361 -1.7104651 -0.20776182
0.0075601148 -2.4006286 -0.20778164
0.0095977047 -3.0476422 -0.15801749
0.0096415002 -3.0615489 -0.052870765
0.0056737103 -1.8016224 0.031112731
0.0056982357 -1.8094101 0.093816273
0.0057919053 -1.8391538 0.15918429
0.0057450584 -1.8242781 0.22158612
0.0057734051 -1.8332793 0.2872225
0.014550196 -0.92428815 -0.21106456
0.017081968 -1.0851167 -0.20865041
0.020803219 -1.3215059 -0.20706686
0.026901908 -1.7089196 -0.20759879
0.037432007 -2.3778348 -0.20583324
0.04809821 -3.0553958 -0.15843835
0.048018493 -3.0503316 -0.052683316
0.02893574 -1.838117 0.031746745
0.028500913 -1.8104949 0.093883686
0.028770061 -1.8275924 0.2863656
0.025971571 -0.9164319 -0.20932864
0.030810697 -1.0871851 -0.20910616
0.03748972 -1.3228608 -0.20733669
0.048421163 -1.7085874 -0.20761603
0.067674085 -2.3879452 -0.20676582
0.086847655 -3.064503 -0.15895472
0.08670412 -3.0594382 -0.052855264
0.051968243 -1.8337494 0.28741008
0.037456281 -0.91475695 -0.20903721
0.044754297 -1.092989 -0.21031418
0.05434953 -1.3273238 -0.20812695
0.06981568 -1.7050378 -0.20727512
0.097286195 -2.3759227 -0.20581457
0.12476227 -3.0469432 -0.15811284
0.12517613 -3.0570502 -0.052837051
0.074845836 -1.8278843 0.28661582
0.04856104 -0.90655559 -0.20728637
0.057817079 -1.0793508 -0.20781353
0.070283726 -1.3120829 -0.2058596
0.09082476 -1.6955506 -0.20624445
0.12856539 -2.4001067 -0.20803326
0.16315204 -3.045783 -0.15814672
0.16345182 -3.0513797 -0.052770432
0.098167151 -1.832621 0.28752959
0.060473714 -0.91345334 -0.20902111
0.071774811 -1.084156 -0.20889616
0.088709675 -1.3399565 -0.21039143
0.11292983 -1.7058011 -0.20764785
0.15746178 -2.3784549 -0.20631206
0.20143652 -3.0426917 -0.15810537
0.20267074 -3.0613346 -0.052982528
0.12190353 -1.8413486 0.28911683
0.071982726 -0.91277581 -0.2090569
0.085255787 -1.0810846 -0.20849468
0.10300488 -1.3061517 -0.20527099
0.13356835 -1.6937113 -0.20636453
0.1439261 -1.8250525 -0.15845343
0.23977064 -3.0404077 -0.15813103
0.24081933 -3.0537057 -0.052898783
0.14334276 -1.8176556 0.28565747
0.085319497 -0.93200064 -0.21368918
0.099300995 -1.0847297 -0.2094222
0.12052146 -1.3165346 -0.20712483
0.15414982 -1.6838791 -0.20538679
0.16655847 -1.8194271 -0.15813459
0.27874321 -3.0448945 -0.15853438
0.27947515 -3.0528898 -0.052941415
0.16731779 -1.8277216 0.28754771
0.093575157 -0.89754444 -0.20604289
0.11154975 -1.0699512 -0.20682381
0.13741526 -1.3180454 -0.20761828
0.17630334 -1.691048 -0.2065156
0.19008392 -1.823227 -0.15866032
0.31793773 -3.0495617 -0.15897323
0.31894791 -3.0592511 -0.053117167
0.19085082 -1.830583 0.28835312
0.10583728 -0.90457147 -0.2079455
0.12657657 -1.0818263 -0.20941079
0.15427034 -1.3185198 -0.20798253
0.19908306 -1.7015258 -0.20808484
0.21174653 -1.8097582 -0.15770778
0.35651308 -3.047051 -0.15906377
0.3565321 -3.0472136 -0.052981909
0.21457504 -1.8339329 0.28928348
0.11624549 -0.89566982 -0.20621932
0.13757005 -1.0599754 -0.2055001
0.17119393 -1.3190469 -0.20838918
0.22190417 -1.7097685 -0.20941797
0.2362034 -1.8199439 -0.15884198
0.51281291 -3.9512162 -0.20658419
1.921609 -14.80597 -0.25783172
0.23988388 -1.848302 0.29200339
0.12920068 -0.90596348 -0.20894733
0.15275986 -1.0711619 -0.20802529
0.18560429 -1.3014692 -0.20596509
0.24065906 -1.6875167 -0.20704725
0.25559923 -1.7922782 -0.15669584
0.56434345 -3.957212 -0.20725279
2.1081262 -14.782315 -0.25786164
0.26055992 -1.8270628 0.28914332
0.14044325 -0.90327197 -0.20871791
0.16563629 -1.0653031 -0.20727611
0.20353958 -1.3090811 -0.20755886
0.26109183 -1.6792331 -0.20641792
0.36800686 -2.3668654 -0.20731975
0.61531258 -3.957432 -0.20765366
2.2971051 -14.774014 -0.25820094
0.28467512 -1.8309108 0.29029658
0.15136573 -0.89882118 -0.2081134
0.17955142 -1.06619 -0.20787211
0.21902962 -1.3006146 -0.2066374
0.28267419 -1.6785409 -0.206754
0.39550737 -2.3485527 -0.20613559
0.66229957 -3.9327853 -0.2067816
2.4845083 -14.753199 -0.25836343
0.30962661 -1.8385863 0.2921086
0.16152853 -0.89054549 -0.20665181
0.19136676 -1.0550508 -0.20615381
0.23616515 -1.3020351 -0.20731911
0.30455711 -1.6790965 -0.20727837
0.42614904 -2.3494618 -0.20667
0.71496183 -3.9417558 -0.20771016
2.6693473 -14.716752 -0.25829333
0.33009166 -1.8198744 0.28977311
0.17462139 -0.89817584 -0.20891613
0.20759672 -1.0677866 -0.20913653
0.25270662 -1.299812 -0.20745538
0.32682657 -1.6810527 -0.2080114
0.45711967 -2.3512232 -0.20731482
0.76362926 -3.927774 -0.20746364
2.8540943 -14.680209 -0.25826228
0.18420219 -0.88764417 -0.20698956
0.22110349 -1.0654663 -0.20921081
0.27402532 -1.320489 -0.2112895
0.34642887 -1.6693914 -0.20709184
0.48323157 -2.328624 -0.20584241
0.81131375 -3.9096055 -0.2070272
3.0384231 -14.641728 -0.2582379
0.1936018 -0.87726897 -0.2051224
0.2344484 -1.0623574 -0.20916347
0.28640154 -1.2977729 -0.20821527
0.36448875 -1.65161 -0.20543908
0.51963145 -2.354609 -0.20870124
0.86255938 -3.9085202 -0.20752843
3.2228398 -14.603672 -0.25826198
0.20688158 -0.88437682 -0.20737703
0.24616389 -1.0523007 -0.20777728
0.29981568 -1.2816513 -0.20621808
0.38850018 -1.6607594 -0.20716925
0.54584676 -2.333384 -0.20741276
0.90838927 -3.8831797 -0.20677389
3.4021401 -14.543459 -0.2579343
0.21843374 -0.88345379 -0.20778911
0.25999817 -1.0515609 -0.20826112
0.3122246 -1.2627903 -0.20379978
0.4078384 -1.6494997 -0.20638894
0.57493311 -2.3253131 -0.20732242
0.95762575 -3.8731108 -0.20686345
3.5870311 -14.507723 -0.25808114
0.23173158 -0.88904071 -0.20977284
0.27125582 -1.040676 -0.20676546
0.33077109 -1.269007 -0.205459
0.43029526 -1.6508325 -0.20721723
0.60464704 -2.3197351 -0.20748749
1.0116996 -3.8813965 -0.20796992
3.7727156 -14.474065 -0.25830701
0.23888358 -0.87137514 -0.20629799
0.28480294 -1.0388752 -0.2071038
0.34923002 -1.2738856 -0.20694447
0.45239353 -1.650195 -0.20783579
0.63628614 -2.3209796 -0.20829895
1.0596737 -3.8653693 -0.20780966
3.9516318 -14.414359 -0.25810906
0.24934973 -0.86660713 -0.2058962
0.29830793 -1.0367599 -0.20741449
0.36752293 -1.2773144 -0.20823678
0.47590235 -1.6539837 -0.20905113
0.66660482 -2.3167641 -0.2086574
1.1091911 -3.8549588 -0.20798437
4.1348495 -14.37054 -0.25823626
0.2660152 -0.88255382 -0.21046412
0.31214541 -1.0355992 -0.20795217
0.38283053 -1.2701099 -0.20783167
0.49120557 -1.6296638 -0.20674269
0.69214779 -2.2963264 -0.2075852
1.1550608 -3.8321242 -0.20752068
4.3133545 -14.310338 -0.25811002
0.27450195 -0.87087125 -0.20848593
0.32653299 -1.0359423 -0.20883016
0.40080369 -1.2715698 -0.20887987
0.51474041 -1.6330398 -0.20797677
0.72178245 -2.289891 -0.20780861
1.2013674 -3.8113983 -0.20720109
4.4952531 -14.261416 -0.25822812
0.28036147 -0.85189772 -0.20477261
0.33257306 -1.0105462 -0.20453869
0.4165048 -1.2655786 -0.20874068
0.53676105 -1.6309855 -0.20855941
0.74823135 -2.2735524 -0.2071645
1.2524338 -3.8056066 -0.20772712
4.6728058 -14.198643 -0.25813645
0.28958505 -0.84398484 -0.20373096
0.35248888 -1.0273157 -0.20881476
0.42685691 -1.2440586 -0.20606145
0.55273765 -1.6109332 -0.20686887
0.78311205 -2.282351 -0.20884819
1.3029522 -3.7974057 -0.20815855
4.8530345 -14.143989 -0.25823337
0.30433252 -0.85187036 -0.20654315
0.36840752 -1.0312254 -0.21053571
0.44757709 -1.2528324 -0.20843172
0.56995636 -1.5953896 -0.20577815
0.80835551 -2.2627029 -0.20796522
1.3536743 -3.7891285 -0.20862266
5.0268903 -14.070987 -0.25803578
0.31979492 -0.86078447 -0.20966418
0.37487248 -1.0090355 -0.20695271
0.46377757 -1.2483392 -0.20863923
0.59373981 -1.5981555 -0.20708282
0.83925456 -2.2590017 -0.20857982
1.4007995 -3.7704992 -0.20855163
5.2048907 -14.009882 -0.25809667
0.33192888 -0.86011267 -0.21050192
0.39485678 -1.023175 -0.21085578
0.47969791 -1.2430201 -0.20874324
0.61295062 -1.5883119 -0.20679106
0.86661798 -2.2456291 -0.20833616
1.4462177 -3.7475202 -0.20827138
5.3816838 -13.945319 -0.25813523
0.34434074 -0.85988134 -0.21148972
0.40247834 -1.0050615 -0.20815088
0.49405554 -1.2337463 -0.20821413
0.63024443 -1.5738348 -0.20592314
0.89856118 -2.2438705 -0.20920615
1.4970405 -3.7383819 -0.20879464
5.5550528 -13.871976 -0.25805196
0.34994212 -0.84295571 -0.20839411
0.41466901 -0.99887258 -0.20793407
0.51235986 -1.2341945 -0.209362
0.65231937 -1.5713351 -0.20665444
0.92476541 -2.2276149 -0.20875973
1.5374956 -3.7035859 -0.20791605
5.7296391 -13.801803 -0.25806826
0.35992172 -0.83707213 -0.20804355
0.42801744 -0.99544281 -0.20832554
0.52989626 -1.232383 -0.21016993
0.67758715 -1.5758686 -0.20835628
0.95529151 -2.2217274 -0.2093187
1.5850803 -3.6864309 -0.208057
5.9107146 -13.746586 -0.258407
0.37340742 -0.83915854 -0.20971408
0.43916222 -0.9869293 -0.2076847
0.536713 -1.2061552 -0.20683323
0.69361335 -1.5587573 -0.20723225
0.97965652 -2.2015822 -0.20856643
1.6368724 -3.6785433 -0.20875859
6.0838189 -13.672167 -0.25842768
0.37842277 -0.82239187 -0.2066984
0.44943026 -0.97670603 -0.20670789
0.55295891 -1.2016954 -0.20724607
0.72034508 -1.5654607 -0.20931277
1.0085462 -2.191782 -0.20882456
1.6714579 -3.6324277 -0.20731953
6.2506609 -13.583994 -0.25822833
0.38978872 -0.81975126 -0.20725194
0.46709406 -0.98232949 -0.20912625
0.56748831 -1.1934652 -0.20704265
0.7364651 -1.5488344 -0.20831318
1.0332308 -2.1729522 -0.20825362
1.7234813 -3.6245942 -0.2080946
6.4187379 -13.499027 -0.25812918
0.40126732 -0.81719744 -0.20786726
0.47284463 -0.96296757 -0.20625556
0.58924669 -1.2000252 -0.20945129
0.75555301 -1.5387148 -0.20821522
1.0524904 -2.14344 -0.206679
1.772719 -3.6102154 -0.20853412
6.588304 -13.417353 -0.25813329
0.40740144 -0.80394298 -0.2057844
0.48161709 -0.95039594 -0.20484559
0.60089266 -1.1857677 -0.20826694
0.77752399 -1.5343219 -0.20892909
1.0885837 -2.1481497 -0.20843835
1.8161361 -3.5838606 -0.20831627
6.7619357 -13.343622 -0.25833249
0.94307834 -1.8610175 0.25341532
0.41935244 -0.80230945 -0.20670152
0.50801313 -0.97193605 -0.21085036
0.61295676 -1.1727153 -0.20731366
0.79287606 -1.5169387 -0.20790505
1.1069365 -2.1178024 -0.2068298
1.8620417 -3.5624776 -0.20841973
6.9273944 -13.253563 -0.25825727
0.95933616 -1.835412 0.25155362
0.42658582 -0.79170346 -0.2053367
0.52147025 -0.96780008 -0.21136087
0.62701142 -1.1636746 -0.20709479
0.81043941 -1.5040998 -0.20752765
1.1379101 -2.111855 -0.20763189
1.9049702 -3.5354466 -0.20822518
7.0908375 -13.159931 -0.25815219
0.98770547 -1.833089 0.25291982
0.44125593 -0.79479897 -0.2075642
0.52491641 -0.94548994 -0.20791554
0.64162189 -1.1557021 -0.2070974
0.82835084 -1.4920421 -0.20728673
1.1589855 -2.0875878 -0.20666449
1.9500703 -3.5125055 -0.20830375
7.261622 -13.079779 -0.25835308
1.0178151 -1.8333089 0.25469834
0.44835055 -0.78414673 -0.20624039
0.53530192 -0.93622112 -0.20734316
0.65983641 -1.1540269 -0.2082696
0.84975195 -1.4861814 -0.20794259
1.187546 -2.0769691 -0.20707723
1.9960299 -3.4909744 -0.20850092
7.4173646 -12.972667 -0.25806183
1.0446659 -1.827078 0.25563994
0.45473582 -0.77257359 -0.20468633
0.55209309 -0.93797874 -0.20925549
0.66567177 -1.1309433 -0.20560013
0.87180054 -1.4811459 -0.20875749
1.1262654 -1.913469 -0.19217475
2.5257909 -4.2911935 -0.2581737
7.5820909 -12.881596 -0.25812897
1.0762579 -1.8285089 0.25771594
0.46612811 -0.76959461 -0.20543589
0.55407226 -0.91479361 -0.20562328
0.69149667 -1.1416863 -0.20911956
0.88165528 -1.4556452 -0.20671171
1.1383559 -1.8794672 -0.19018443
1.1281942 -1.86269 -0.11291192
1.116861 -1.8439784 -0.03722959
1.1208217 -1.8505176 0.037361614
1.1276921 -1.861861 0.11286166
1.1305027 -1.8665013 0.1888724
1.1147032 -1.8404158 0.26135179
0.48988336 -0.78629935 -0.21152496
0.57663333 -0.92553949 -0.2096542
0.68887782 -1.1057003 -0.2041008
0.90464783 -1.4520273 -0.20779914
1.1420066 -1.8330058 -0.18692331
1.1363229 -1.8238829 -0.11141805
1.146243 -1.8398056 -0.037433784
1.1380906 -1.8267204 0.037167545
1.1438863 -1.836023 0.11215968
1.1439129 -1.8360655 0.18723533
1.1377587 -1.8261876 0.26134509
0.49310553 -0.769705 -0.20871471
0.57900888 -0.90379447 -0.20636369
0.71485656 -1.1158437 -0.20761831
0.9186905 -1.4340149 -0.20686054
1.1188446 -1.7464423 -0.17951837
2.6803112 -4.1837883 -0.25762221
8.0585146 -12.578807 -0.25798014
0.4988037 -0.75743073 -0.20707314
0.59670562 -0.90609419 -0.20858788
0.72637779 -1.1030008 -0.20691417
0.94689214 -1.4378505 -0.20911725
1.1586561 -1.759413 -0.1823369
2.742029 -4.1637559 -0.25849435
8.2237911 -12.487782 -0.25821668
0.50011337 -0.7389915 -0.20373759
0.60533816 -0.89447671 -0.20765176
0.74143946 -1.0955865 -0.20725831
0.95623672 -1.4129813 -0.20723513
1.342272 -1.9834055 -0.20728561
2.7964206 -4.1321249 -0.25869623
8.374712 -12.374876 -0.25804216
0.51834041 -0.74552572 -0.20732211
0.61016035 -0.8775897 -0.20549884
0.75294203 -1.0829518 -0.20664535
0.9824422 -1.4130403 -0.20904163
1.376121 -1.9792662 -0.20864746
2.8306751 -4.071342 -0.25710201
8.5259399 -12.262805 -0.25792348
0.53120476 -0.74386698 -0.20870443
0.62393683 -0.87372333 -0.20641688
0.77645969 -1.0873071 -0.20932552
1.0011716 -1.4019802 -0.20925386
1.3930317 -1.9507173 -0.20747064
2.8962421 -4.0557222 -0.25839821
8.6879959 -12.166143 -0.25817096
0.53714347 -0.73250288 -0.2073973
0.63366747 -0.86413276 -0.20601986
0.78019828 -1.0639569 -0.20670517
1.0146401 -1.3836653 -0.20841072
1.4176099 -1.9331955 -0.20748918
2.9429712 -4.0133319 -0.25803804
8.8359146 -12.049542 -0.25803724
0.54496014 -0.72386992 -0.20687954
0.64711159 -0.85955757 -0.20685542
0.78756875 -1.0461266 -0.20515157
1.0197692 -1.3545582 -0.20594439
1.4349719 -1.9060717 -0.20650101
2.99628 -3.9799554 -0.25829747
8.9888964 -11.939941 -0.25809366
0.56180471 -0.72701007 -0.20978218
0.66025025 -0.85440469 -0.20759968
0.80539405 -1.0422298 -0.20635985
1.0423527 -1.3488688 -0.20705855
1.2003636 -1.5533448 -0.16991119
1.1977016 -1.5498999 -0.10155861
1.2073474 -1.5623822 -0.034098368
0.56225133 -0.70895553 -0.20659906
0.66146231 -0.83405286 -0.20466228
0.82135677 -1.0356674 -0.20709196
0.87062478 -1.0977906 -0.1701861
0.87065554 -1.0978293 -0.12127467
0.86543876 -1.0912515 -0.072213612
0.86298394 -1.0881561 -0.023983836
0.86621672 -1.0922325 0.024073681
0.87296033 -1.1007357 0.072841227
0.86904079 -1.0957934 0.12104975
0.8610093 -1.0856663 0.16830651
0.86822462 -1.0947642 0.21890894
0.86693788 -1.0931417 0.26823822
0.56020194 -0.68838716 -0.20264478
0.67854077 -0.83380419 -0.2066815
0.83125818 -1.0214664 -0.206329
0.88892233 -1.0923252 -0.17106055
0.8892746 -1.0927581 -0.1219418
0.89505762 -1.0998644 -0.073523588
0.89042252 -1.0941687 -0.024361556
0.88640684 -1.0892341 0.024251688
0.88687617 -1.0898108 0.072851531
0.88793564 -1.0911127 0.12175819
0.88551921 -1.0881433 0.17040566
0.87511849 -1.0753628 0.2172157
0.88078171 -1.0823219 0.26828349
0.58212125 -0.69720364 -0.20738152
0.68996757 -0.8263706 -0.20697607
0.85092527 -1.0191488 -0.20800875
1.0930635 -1.3091564 -0.20715585
1.2061477 -1.4445969 -0.16288573
1.196479 -1.4330167 -0.096793585
1.1974045 -1.4341252 -0.032263804
0.90453321 -1.0833547 0.27134135
0.59493852 -0.69458765 -0.20881522
0.69816691 -0.81510633 -0.20634037
0.86504728 -1.0099382 -0.20833558
1.1055716 -1.2907492 -0.20642971
1.1974621 -1.3980309 -0.15932272
1.199417 -1.4003133 -0.0955972
1.2008125 -1.4019425 -0.031877432
0.9167611 -1.0703139 0.32177049
0.59679699 -0.6792565 -0.20644905
0.70696568 -0.80464721 -0.20592993
0.86579728 -0.98542458 -0.20551147
1.1323736 -1.2888337 -0.2083873
1.2017314 -1.3677748 -0.15758672
1.2051016 -1.3716105 -0.094666176
1.1951193 -1.3602489 -0.031269114
0.97414553 -1.1087433 0.23122972
0.92460936 -1.0523628 0.26932672
0.92217767 -1.0495951 0.31900749
0.60536629 -0.67175919 -0.20647085
0.72774553 -0.80756027 -0.20900418
0.8851971 -0.98228014 -0.2071639
1.1397432 -1.2647433 -0.2067963
1.2046647 -1.3367851 -0.15575165
1.2022563 -1.3341125 -0.093115613
1.1963789 -1.3275906 -0.030862238
0.99147451 -1.1002134 0.17989427
0.97418344 -1.081026 0.22798949
0.93778074 -1.0406308 0.26932502
0.94496769 -1.048606 0.3222979
0.61943507 -0.67020595 -0.20837434
0.71972609 -0.77871716 -0.20386872
0.89684856 -0.97035712 -0.20701468
1.1600412 -1.2551219 -0.20759512
1.2097 -1.3088509 -0.15425955
1.1947086 -1.2926308 -0.09126313
1.1860639 -1.2832775 -0.0301769
0.99499428 -1.0765471 0.17805915
0.98042476 -1.0607835 0.22630613
0.96613562 -1.0453231 0.27366635
0.97833759 -1.0585252 0.32910705
0.6697042 -0.60734385 -0.20642559
0.80168021 -0.72703075 -0.20807339
0.88186449 -0.79974854 -0.18651593
1.147734 -1.0408612 -0.18819888
1.2551564 -1.138281 -0.14665751
1.4172845 -1.2853123 -0.099202462
1.4056028 -1.2747183 -0.032768853
0.6781711 -0.599635 -0.20669159
0.81319219 -0.71901989 -0.2086948
0.88918746 -0.78621447 -0.18595611
1.164548 -1.0296867 -0.18881486
1.2815037 -1.1330982 -0.14805713
1.447053 -1.2794759 -0.10015044
1.4546503 -1.2861935 -0.033532061
0.68481898 -0.59031707 -0.20643581
0.81012326 -0.69832999 -0.20563416
0.8757301 -0.75488335 -0.18113948
1.1939918 -1.0292264 -0.19147228
1.487238 -1.282006 -0.16994785
1.4914047 -1.2855977 -0.10209153
1.4896748 -1.2841065 -0.033964001
0.69301659 -0.58233589 -0.2066801
0.81909764 -0.6882807 -0.20569588
0.88379884 -0.74264854 -0.18085979
1.3114951 -1.102038 -0.20807359
1.8468093 -1.5518579 -0.20878679
3.8121209 -3.2032924 -0.25817049
11.445427 -9.6174936 -0.25816962
0.69389874 -0.56832588 -0.20479266
0.84512889 -0.69218832 -0.21002747
0.87015933 -0.7126891 -0.17621815
1.3160686 -1.0779035 -0.20662938
1.8612977 -1.524464 -0.20823804
3.85376 -3.1563563 -0.25827828
11.567415 -9.4740934 -0.25820979
0.71158856 -0.56799597 -0.20788614
0.83803159 -0.66892385 -0.20615405
0.88955623 -0.71005124 -0.17832144
1.3242655 -1.0570399 -0.20581019
1.8801591 -1.5007588 -0.20821744
3.890239 -3.1052215 -0.25808203
11.686374 -9.3281622 -0.25822273
0.70495629 -0.54831386 -0.20391531
0.85070407 -0.66167629 -0.20720537
0.90177095 -0.70139599 -0.17898533
1.3558322 -1.0545641 -0.20863579
1.903579 -1.4806006 -0.20872979
3.9207859 -3.0495811 -0.25754058
11.779291 -9.1619129 -0.2577062
0.72569144 -0.54991758 -0.20789364
0.8640154 -0.65473729 -0.20842296
0.88588059 -0.67130637 -0.17413975
1.3565553 -1.0279764 -0.20673878
1.9162846 -1.4521303 -0.20810145
3.9761744 -3.0130825 -0.2586661
11.919452 -9.0323734 -0.25826383
0.72911322 -0.53819382 -0.20691602
0.86727053 -0.64017445 -0.20724717
0.886217 -0.65415978 -0.17257299
0.89219373 -0.65857148 -0.13469565
1.9323877 -1.4263891 -0.20788316
4.0035267 -2.9551976 -0.25800422
12.021008 -8.8732901 -0.25802284
0.73249692 -0.52657336 -0.20597821
0.87814838 -0.63127846 -0.20793054
0.88218606 -0.63418102 -0.17021947
0.88364881 -0.63523257 -0.13218752
1.9458396 -1.3988144 -0.20741896
4.0324335 -2.8988135 -0.2574943
12.12976 -8.7197742 -0.25797987
0.74052149 -0.51832515 -0.206383
0.88505054 -0.61948776 -0.20770131
0.88536185 -0.61970568 -0.16931313
0.88508701 -0.61951327 -0.13122527
1.9548111 -1.3682625 -0.20652232
4.0818243 -2.8570573 -0.25833037
12.242781 -8.5692873 -0.25806817
0.74281543 -0.50611627 -0.20522988
0.90349251 -0.61559337 -0.2101934
0.89544243 -0.61010849 -0.16975825
0.87169808 -0.5939303 -0.1281212
1.9979998 -1.3613344 -0.2092575
4.1120973 -2.8017719 -0.25799301
12.359568 -8.421174 -0.2582742
0.74653935 -0.495006 -0.20452037
0.90561759 -0.60048562 -0.2089121
0.87363952 -0.57928199 -0.16422895
0.88797218 -0.58878553 -0.12941317
2.4849684 -1.647702 -0.25806594
4.1485987 -2.7508013 -0.25808942
12.456641 -8.259594 -0.25810888
0.76171583 -0.49137464 -0.20696658
0.90293998 -0.58247679 -0.20658603
0.89213008 -0.57550347 -0.16632938
0.89763856 -0.57905692 -0.12974899
2.510628 -1.619579 -0.25859225
4.1813183 -2.6973228 -0.25799146
12.546838 -8.0938292 -0.25784552
0.75936556 -0.47642636 -0.20468168
0.89534372 -0.56173909 -0.20321359
0.89070171 -0.55882674 -0.16473806
0.88607997 -0.55592704 -0.12705632
2.5147445 -1.577752 -0.25694954
4.225719 -2.6512182 -0.25865066
12.653391 -7.9387441 -0.25796044
0.77101749 -0.47031233 -0.20620973
0.88131458 -0.53759235 -0.19847725
0.88959706 -0.54264456 -0.163257
0.87790352 -0.53551161 -0.12490705
2.5337596 -1.545566 -0.25688353
4.244945 -2.5893705 -0.25781125
12.756481 -7.7813153 -0.25804409
0.7857945 -0.46585301 -0.20857643
0.92648172 -0.54925847 -0.20707513
0.88790452 -0.52638823 -0.16171715
0.87984115 -0.52160788 -0.12423836
2.5671601 -1.5219235 -0.25830635
4.2772121 -2.5357163 -0.25781128
12.861924 -7.6251054 -0.25821429
0.79399967 -0.45730528 -0.20920926
0.93628412 -0.53925419 -0.20773187
0.88649911 -0.51058048 -0.16027746
0.89004385 -0.51262206 -0.12475767
0.8846494 -0.50951511 -0.088360406
4.3186855 -2.4873533 -0.25840273
12.952456 -7.4599857 -0.25812542
0.78728211 -0.44032916 -0.20596197
0.94628853 -0.52926195 -0.20845635
0.88667703 -0.49592105 -0.15916798
0.88593292 -0.49550486 -0.12329707
0.88232428 -0.49348655 -0.087500557
4.3555479 -2.4360707 -0.25875241
13.04315 -7.2950716 -0.25808173
0.79569215 -0.4319711 -0.20672272
0.9425559 -0.51170152 -0.20619832
0.90746009 -0.49264851 -0.16177234
0.88087124 -0.47821373 -0.12174492
0.87673861 -0.47597018 -0.086345397
4.3692822 -2.3720276 -0.25777346
13.138435 -7.1326885 -0.25816947
0.80261469 -0.42273271 -0.20712183
0.95536429 -0.50318509 -0.20759776
0.89389527 -0.4708097 -0.15828472
0.88767964 -0.46753594 -0.12186255
0.8919214 -0.46977007 -0.087251179
4.4111705 -2.323339 -0.25849819
13.222605 -6.9642725 -0.25807971
0.81024349 -0.41380355 -0.20772938
0.96329343 -0.49196845 -0.2079581
0.9018994 -0.46061361 -0.15866241
0.89051825 -0.45480108 -0.12145641
0.8760888 -0.44743174 -0.085144468
4.414813 -2.2547116 -0.25702751
13.298289 -6.7916369 -0.25786728
0.8159771 -0.40385959 -0.20787905
0.96402508 -0.47713447 -0.20680261
0.89349627 -0.44222695 -0.15619211
0.89593703 -0.44343498 -0.12142427
0.88839775 -0.43970346 -0.085795827
4.4443955 -2.1997085 -0.25711676
13.393248 -6.6288524 -0.25806955
0.81067181 -0.38860375 -0.20526457
0.96074629 -0.46054345 -0.20483895
0.89692914 -0.42995206 -0.15583342
0.90073532 -0.43177658 -0.12132809
0.88205266 -0.42282087 -0.084662162
4.4969883 -2.1556768 -0.25856847
13.462671 -6.4534674 -0.25782099
0.81619358 -0.37868714 -0.20543902
0.9727689 -0.45133296 -0.20617418
0.88670278 -0.41140109 -0.15314449
0.88865471 -0.41230673 -0.11899208
0.89774531 -0.41652447 -0.08565817
0.87919098 -0.40791586 -0.050252523
13.554914 -6.2890372 -0.25805044
0.83354008 -0.37405387 -0.20860308
0.98495257 -0.44200072 -0.20756036
1.1964902 -0.53692895 -0.20546457
0.90354562 -0.40546909 -0.12029278
0.89471108 -0.40150458 -0.084879532
0.88344145 -0.39644727 -0.050206151
13.632909 -6.1178131 -0.25804824
0.82262814 -0.35678229 -0.20473167
0.98941332 -0.42911875 -0.20734525
1.2131857 -0.52617109 -0.20717736
0.87837219 -0.38095906 -0.11629346
0.87708962 -0.3804028 -0.082746826
0.88130611 -0.38223153 -0.049807318
13.704702 -5.9438705 -0.25797001
0.82061797 -0.34369999 -0.20313816
0.9920584 -0.41550452 -0.20678671
1.20991 -0.50674748 -0.20551199
0.88646382 -0.37127826 -0.11673652
0.87414652 -0.36611938 -0.082027718
0.87874192 -0.36804411 -0.049396567
13.776776 -5.7701368 -0.25793853
0.84025151 -0.33955169 -0.20692348
1.0051758 -0.4061988 -0.20843823
1.214543 -0.4908056 -0.20523289
0.89393985 -0.36124757 -0.11711271
0.89359885 -0.36110976 -0.083419777
0.88013846 -0.3556703 -0.049219411
13.851322 -5.5974193 -0.25799412
0.8522743 -0.33198881 -0.20883821
1.012876 -0.39454848 -0.20898819
1.2287182 -0.47862604 -0.20659336
0.90381324 -0.35206494 -0.11781606
0.88959843 -0.34652779 -0.082632422
0.88526839 -0.34484112 -0.049259551
13.923966 -5.423842 -0.25805461
0.86206722 -0.32336205 -0.21022341
1.0121175 -0.37964603 -0.20782882
1.2347487 -0.46315515 -0.20661037
0.89797193 -0.33682993 -0.1164925
0.89246649 -0.33476484 -0.082500726
0.89382201 -0.3352733 -0.049496662
13.996943 -5.2502632 -0.25816137
0.85953748 -0.31012484 -0.20863767
1.0120074 -0.36513662 -0.20684566
1.2558221 -0.45310605 -0.20916528
0.8990463 -0.32437977 -0.11609277
0.8952018 -0.32299268 -0.082371078
0.9041416 -0.32621819 -0.049836695
0.88591814 -0.31964308 -0.016264457
0.852265 -0.29542676 -0.20595308
1.0339634 -0.35841021 -0.21039417
1.2492366 -0.43303192 -0.20714378
0.89223951 -0.30928344 -0.11470183
0.88723242 -0.30754781 -0.081275001
0.89289081 -0.30950919 -0.048997838
0.89232421 -0.30931279 -0.016309265
0.8613382 -0.2864753 -0.20725749
1.0100386 -0.33593205 -0.20464888
1.2558349 -0.41768226 -0.20734935
0.90070498 -0.29956841 -0.11529603
0.89633995 -0.29811662 -0.081758931
0.8952027 -0.2977384 -0.048915088
0.89137655 -0.29646584 -0.016222427
0.87254679 -0.27805138 -0.20909546
1.02951 -0.32807031 -0.20774058
1.2666633 -0.40364313 -0.20828149
1.6330469 -0.52039725 -0.20818517
0.89628047 -0.28561452 -0.081418999
0.89017349 -0.28366843 -0.048441265
0.89425594 -0.28496939 -0.016208239
0.8689633 -0.26490432 -0.20742092
1.0302685 -0.31407839 -0.20707919
1.2686174 -0.38673925 -0.20778556
1.6301322 -0.49694738 -0.20699945
0.89495015 -0.27282643 -0.080979645
0.8795312 -0.26812595 -0.047674626
0.8866024 -0.27028161 -0.016006565
0.86554575 -0.25199598 -0.20583139
1.0529394 -0.30655399 -0.21084332
1.2760891 -0.37152201 -0.20822656
1.6467366 -0.47943279 -0.2083248
0.89729875 -0.2612406 -0.080888093
0.88778055 -0.25846946 -0.047941558
0.88781047 -0.25847813 -0.015968347
0.88082695 -0.2444572 -0.20871678
1.0376997 -0.28799433 -0.20704907
1.2708359 -0.35269696 -0.20662829
1.6279515 -0.4518078 -0.20521234
0.88737547 -0.24627462 -0.079707667
0.90052181 -0.24992315 -0.048455816
0.89860737 -0.24939182 -0.01610478
0.88169342 -0.23278169 -0.208211
1.036968 -0.27377677 -0.20619889
1.2808337 -0.33816135 -0.20754506
1.6677929 -0.44032502 -0.20951903
0.89734852 -0.2369149 -0.08032915
0.88432795 -0.23347725 -0.047422487
0.87625659 -0.21958227 -0.20625781
1.0448225 -0.26182342 -0.20708872
1.2858691 -0.3222276 -0.20768704
1.6560577 -0.41499364 -0.20737185
0.90125138 -0.22584574 -0.080417566
0.89951313 -0.22541016 -0.04808078
0.8749519 -0.21925531 -0.015576911
0.87481421 -0.21922082 0.01557446
0.89050043 -0.21127161 -0.2089678
1.0506102 -0.24925773 -0.20759732
1.2907538 -0.30623192 -0.2078367
1.6671615 -0.39553478 -0.20812209
0.89112341 -0.21141942 -0.079270028
0.87727565 -0.20813403 -0.046748344
0.89567757 -0.21249989 -0.015896995
0.88182378 -0.20921308 0.015651111
0.88998008 -0.1993458 -0.20824014
1.0412018 -0.23321781 -0.20514169
1.2841762 -0.28764141 -0.20617801
1.6828948 -0.37695003 -0.20947702
2.8996344 -0.64948636 -0.25718954
0.89485389 -0.20043749 -0.047546789
0.89764434 -0.18922548 -0.20945932
1.0535911 -0.22209939 -0.20701525
1.2811652 -0.27007255 -0.20513232
1.6689208 -0.3518123 -0.20716976
2.9269881 -0.61701572 -0.25890607
0.89072984 -0.18776788 -0.047198292
0.89774758 -0.18924724 0.015844105
0.88968539 -0.17587774 -0.20706894
1.0602978 -0.20960532 -0.20779796
1.2984767 -0.25668979 -0.20737015
1.6839641 -0.33289498 -0.20850027
2.9145949 -0.57617259 -0.2571477
0.892685 -0.17647071 -0.047180403
0.88359082 -0.17467293 -0.015554205
0.88664371 -0.17527644 0.015607946
0.88300169 -0.1630317 -0.20501928
1.0541848 -0.19463782 -0.20610324
1.3078842 -0.24147925 -0.20837042
1.6779244 -0.30980107 -0.20725301
2.9226315 -0.53961569 -0.25723687
0.89472848 -0.16519685 -0.015712401
0.89080095 -0.1644717 0.015643429
0.90187353 -0.1547996 -0.20893189
1.0591047 -0.18178709 -0.2066012
1.3024893 -0.22356217 -0.20704597
1.6906775 -0.29019168 -0.20836036
2.9423831 -0.50503719 -0.25839505
0.89858752 -0.15423557 -0.047272041
0.89593846 -0.14219171 -0.20712572
