# .PCD v0.7 - Point Cloud Data file format
VERSION 0.7
FIELDS x y z
SIZE 4 4 4
TYPE F F F
COUNT 1 1 1
WIDTH 1234
HEIGHT 1
VIEWPOINT 0 0 0 1 0 0 0
POINTS 1234
DATA ascii
-1.3930656 -3.6966246e-06 -0.049734239
-0.89282811 -2.3691996e-06 0.16102038
-1.3998477 -0.01763089 -0.049980331
-0.88631505 -0.011163017 0.15985844
-1.3970057 -0.035192061 -0.049890727
-0.89856112 -0.022635713 0.16210574
-1.3959185 -0.052759111 -0.049871676
-0.89862877 -0.033963911 0.096643955
-0.90926737 -0.034366 0.16410227
-1.4024822 -0.070701182 -0.050134007
-0.89643317 -0.045190509 0.16187584
-1.4001484 -0.088270523 -0.050086342
-0.89985794 -0.056730367 0.1626104
-1.4018446 -0.10611402 -0.05019084
-0.89668792 -0.067875683 0.16217914
-1.4013388 -0.12383972 -0.05022458
-0.90700346 -0.080154106 0.097854912
-0.90189022 -0.079702236 0.16328864
-1.391592 -0.14065811 -0.049934771
-0.90404642 -0.091378413 0.097652286
-1.4064485 -0.1600738 -0.050536193
-0.89762115 -0.10216203 0.032253124
-0.90449798 -0.1029447 0.09783332
-0.88868588 -0.10114507 0.16130807
-1.3830782 -0.17508085 -0.04977173
-0.8947053 -0.1132588 0.032197043
-0.89118069 -0.11281262 0.096538886
-0.893264 -0.11307634 0.16238463
-1.3844826 -0.19299999 -0.04990577
-0.89261431 -0.12443244 0.096856244
-0.90186691 -0.12572227 0.16422331
-1.3868304 -0.2111612 -0.050082278
-0.89039135 -0.13557254 0.096792601
-0.91195893 -0.13885644 0.16636619
-1.3771871 -0.22747086 -0.049833521
-0.9094066 -0.15020725 0.032906882
-0.88841391 -0.14673987 0.09677083
-0.89832419 -0.14837676 0.16420667
-1.3895888 -0.24753207 -0.050391067
-0.90223646 -0.16071838 0.032718066
-0.88534063 -0.15770867 0.096644729
-0.89610499 -0.15962617 0.16415542
-1.3591167 -0.259801 -0.049400762
-0.89870214 -0.17179078 0.032665756
-0.89526135 -0.17113307 0.097955152
-0.89692968 -0.17145197 0.16468893
-1.3650535 -0.27879599 -0.049740218
-0.90083522 -0.18398489 0.032824896
-0.89012259 -0.18179697 0.097635634
-0.88993829 -0.18175934 0.16381249
-1.3820697 -0.30044734 -0.050494112
-0.90239453 -0.19617103 0.03296911
-0.89986753 -0.19562168 0.098966882
-0.89671087 -0.19493546 0.16549784
-1.3637315 -0.3144941 -0.049964845
-0.8912667 -0.2055376 0.032654524
-0.89526737 -0.20646021 0.09873905
-0.89829534 -0.20715851 0.16625853
-1.3582081 -0.33128518 -0.049911361
-0.88781756 -0.21655063 0.032625474
-0.88857907 -0.21673638 0.098294608
-0.88456023 -0.21575612 0.16420622
-1.3583136 -0.34948853 -0.05007299
-0.895868 -0.23050317 0.033025358
-0.89541107 -0.23038559 0.099363402
-0.8863498 -0.22805417 0.16505843
-1.3498031 -0.36547992 -0.049924955
-0.89616752 -0.24265113 0.033146411
-0.89313507 -0.24183005 0.099440873
-0.88689303 -0.24013992 0.16570958
-1.3386639 -0.38061827 -0.049686287
-0.89390308 -0.25416079 0.033178397
-0.88817906 -0.25253329 0.099235259
-0.88171846 -0.25069636 0.16531947
-1.3433254 -0.40029228 -0.050042424
-0.89173573 -0.26572484 0.033219513
-0.89130646 -0.26559693 0.099950433
-0.89221913 -0.2658689 0.16790272
-1.332039 -0.41526058 -0.049812824
-0.88425583 -0.27566504 0.033067558
-0.88846576 -0.27697748 0.10001507
-0.89569932 -0.27923253 0.1692059
-1.3391581 -0.43605465 -0.050280396
-0.8917287 -0.29036337 0.033481091
-0.90445364 -0.29450685 0.10222419
-0.88825804 -0.28923327 0.16847485
-1.3295482 -0.45151883 -0.050129082
-0.89370185 -0.30350402 0.033696
-0.90014482 -0.30569205 0.10216416
-0.888587 -0.30176699 0.16924456
-1.3164744 -0.46564752 -0.049853276
-0.97904581 -0.34629631 0.037075266
-0.98211992 -0.34738365 0.11195572
-0.98586869 -0.34870961 0.18859468
-1.3196844 -0.48556334 -0.050202396
-1.0832102 -0.39855528 0.041206632
-1.0992638 -0.40446198 0.12588002
-1.3051826 -0.49897447 -0.049885791
-1.2229159 -0.46752372 0.046741452
-1.2190517 -0.46604648 0.14025821
-1.3034793 -0.51722699 -0.050065659
-1.3893239 -0.55129051 0.053362887
-1.3796302 -0.54744399 0.15951407
-1.3091004 -0.53863329 -0.050538067
-1.6190294 -0.6661545 0.062502936
-1.6126577 -0.66353279 0.1874081
-1.2791725 -0.54525203 -0.049643826
-1.9017535 -0.81062943 0.22217278
-1.2718508 -0.56115848 -0.049629971
-1.8908428 -0.83426648 0.2221078
-1.2853374 -0.58655304 -0.050440464
-1.8791287 -0.85752469 0.2219826
-1.2661046 -0.5971508 -0.049976833
-1.8921727 -0.89243209 0.22483319
-1.2587514 -0.6131748 -0.049987394
-1.8944501 -0.92284232 0.22646664
-1.2502104 -0.62861305 -0.049958602
-1.8856728 -0.94812727 0.22682662
-1.2409503 -0.64365864 -0.049908489
-1.8820442 -0.97618252 0.22785071
-1.2403308 -0.663288 -0.050215505
-2.0510097 -1.0968122 0.083036296
-1.2257532 -0.67547584 -0.049965717
-1.9991034 -1.1016461 0.08149001
-1.2184926 -0.69161761 -0.050020799
-1.9426626 -1.1026572 0.079748973
-1.2196387 -0.7127201 -0.050432269
-1.9009093 -1.1108341 0.078602925
-1.1985689 -0.72080421 -0.049932387
-1.8816376 -1.1315931 0.078389034
-1.1905178 -0.7365312 -0.049979392
-1.8918147 -1.1703988 0.079420701
-1.1967757 -0.76140445 -0.050640602
-1.904465 -1.2116456 0.080585897
-2.4775698 -1.5762625 0.31558222
-1.1791017 -0.7711857 -0.050299659
-1.895254 -1.2395816 0.080850221
-1.1635455 -0.78210419 -0.050052203
-1.8939885 -1.2730883 0.081473649
-1.1496029 -0.79392833 -0.049878534
-1.8997481 -1.3119867 0.08242555
-1.14151 -0.80975533 -0.049965851
-1.8883101 -1.3395144 0.082654566
-1.1393712 -0.82999927 -0.050325718
-1.8820617 -1.3710281 0.083130158
-1.1266203 -0.84262669 -0.050227199
-2.1174905 -1.5837227 0.47688314
-1.1063151 -0.8493703 -0.049794827
-2.041168 -1.567101 0.46410179
-1.091903 -0.86037266 -0.049629845
-2.0003195 -1.5761659 0.45929033
-1.0920695 -0.88301682 -0.050138831
-1.9684161 -1.5916063 0.45653063
-1.0894196 -0.90379459 -0.050535671
-1.9504614 -1.6181244 0.4570559
-1.0607179 -0.90277106 -0.049727656
-1.6606025 -1.4133295 0.077850923
-1.6597815 -1.4126307 0.23423377
-1.6598054 -1.4126511 0.39308307
-1.0531303 -0.91942811 -0.049910754
-1.6280687 -1.4213742 0.077158675
-1.6390271 -1.4309413 0.23382917
-1.6225128 -1.4165237 0.38844478
-1.0453326 -0.93607426 -0.05009586
-1.0261533 -0.9424482 -0.04974151
-1.0219454 -0.96258438 -0.050121114
-0.99524081 -0.96136588 -0.049401201
-0.99563938 -0.98628497 -0.050033495
-0.99438733 -1.0101669 -0.050605785
-0.96099061 -1.001148 -0.049543824
-1.3395597 -1.3955364 0.49352992
-0.96037179 -1.0260568 -0.05017405
-1.307754 -1.3971982 0.48825517
-0.94250852 -1.0327337 -0.049916241
-1.285746 -1.408829 0.48662323
-0.94208014 -1.0587353 -0.050595608
-1.2609172 -1.4170531 0.48394123
-0.91217983 -1.0514991 -0.049696945
-1.216071 -1.4018043 0.47346646
-0.89899373 -1.06305 -0.049703903
-1.1816596 -1.3972993 0.46688214
-0.89089751 -1.0807878 -0.050004758
-1.1525781 -1.3982444 0.46231186
-0.87925982 -1.0944606 -0.050121129
-1.1358733 -1.4138808 0.46271601
-0.8691799 -1.110261 -0.05033949
-1.1164817 -1.4261558 0.46209556
-0.8479358 -1.111683 -0.049915895
-0.83681083 -1.1262279 -0.05009187
-0.82578599 -1.1411276 -0.050288085
-0.80716562 -1.1454931 -0.050028589
-0.78478444 -1.1440575 -0.049530368
-0.77556878 -1.1617146 -0.04986804
-0.7639035 -1.1760427 -0.050066207
-0.74534148 -1.1797217 -0.04981932
-0.73521256 -1.1968008 -0.050145634
-0.72062731 -1.2068714 -0.050183393
-0.70102113 -1.2083458 -0.049873695
-0.68854511 -1.2220356 -0.050076906
-0.67544246 -1.2348845 -0.050250906
-0.65779036 -1.2394288 -0.050094798
-0.63536441 -1.2344635 -0.049566813
-0.6318441 -1.2665675 -0.050532401
-0.60985887 -1.2620323 -0.050041102
-0.59124923 -1.2639018 -0.049816072
-0.57680708 -1.2746023 -0.04994759
-0.56201822 -1.2847486 -0.050063893
-0.54665816 -1.293761 -0.050142877
-0.52585775 -1.2895868 -0.049720511
-0.51702809 -1.3150533 -0.050447367
-0.5462442 -1.389364 0.26924044
-0.51989448 -1.3223441 0.36251056
-0.49662042 -1.3114021 -0.050063431
-0.52000093 -1.3731419 0.2648069
-0.50443476 -1.332037 0.36339766
-0.53130841 -1.403001 0.49911892
-0.47779229 -1.3113029 -0.049826019
-0.50436431 -1.3842299 0.26569933
-0.48392364 -1.3281305 0.36064088
-0.50789613 -1.3939229 0.49357507
-0.4568873 -1.3047745 -0.049355436
-0.48370224 -1.3813524 0.26395693
-0.47408959 -1.3539007 0.36598843
-0.49059114 -1.4010255 0.49386343
-0.45025554 -1.3396811 -0.050457377
-0.47185013 -1.4039332 0.26711529
-0.47879481 -1.4245963 0.38343883
-0.47216278 -1.4048635 0.49308139
-0.43173376 -1.3402219 -0.050268997
-0.45601955 -1.4156117 0.26822346
-0.4533042 -1.4071826 0.49185291
-0.40981576 -1.3293049 -0.049662028
-0.43888569 -1.4235981 0.26866823
-0.43044999 -1.3962355 0.48609346
-0.3972041 -1.348477 -0.05018745
-0.41188625 -1.3983219 0.4849757
-0.37551963 -1.3367333 -0.049570452
-0.40067127 -1.4262654 0.49287835
-0.36570179 -1.367696 -0.050543875
-0.37889522 -1.4170383 0.48800227
-0.34414288 -1.3552235 -0.049918845
-0.36125973 -1.4226292 0.48832235
-0.32806888 -1.3636775 -0.050074104
-0.32351443 -1.344746 0.049378943
-0.34014747 -1.4138843 0.48381203
-0.30900812 -1.3594977 -0.049773794
-0.30914059 -1.3600804 0.049795128
-0.32178092 -1.4156922 0.48300588
-0.2948055 -1.3770112 -0.050275099
-0.28875032 -1.3487279 0.049242467
-0.30061921 -1.4041666 0.47774416
-0.27556992 -1.3712887 -0.04993552
-0.2724342 -1.3556848 0.049367301
-0.27929583 -1.3898296 0.47163227
-0.25667691 -1.3661077 -0.049625222
-0.25485474 -1.3564095 0.049272925
-0.26541382 -1.412608 0.47818998
-0.24143811 -1.3805673 -0.050036073
-0.23582084 -1.3484473 0.048871942
-0.24557258 -1.4042087 0.47426227
-0.22345062 -1.3798832 -0.049905345
-0.22166231 -1.3688399 0.049505945
-0.22676851 -1.4003723 0.47196472
-0.20608985 -1.3827976 -0.049912937
-0.39103425 -2.6237159 0.09470465
-0.20882708 -1.4011636 0.47130781
-0.18698306 -1.372952 -0.04946864
-0.35599235 -2.613929 0.094182104
-0.19125135 -1.4042926 0.47151285
-0.17108998 -1.3866159 -0.049879383
-0.32344928 -2.6214271 0.09429805
-0.17280613 -1.4005246 0.4694798
-0.15345199 -1.3871664 -0.049825728
-0.28973797 -2.6191561 0.094077654
-0.15370527 -1.3894558 0.46508372
-0.13646041 -1.39396 -0.050004061
-0.25681666 -2.6234143 0.09410698
-0.1379347 -1.4090201 0.47101358
-0.11770712 -1.3815904 -0.049503244
-0.2229694 -2.6171091 0.09377265
-0.11904134 -1.3972508 0.46654123
-0.10131974 -1.396997 -0.050005596
-0.19027266 -2.6234801 0.093907639
-0.1008758 -1.3908759 0.46395177
-0.082241356 -1.373438 -0.049121339
-0.15622447 -2.6089628 0.093310177
-0.084651977 -1.4136956 0.47117075
-0.066590123 -1.4092528 -0.050368275
-0.12395139 -2.6231945 0.093755916
-0.066569626 -1.408819 0.4692288
-0.048687696 -1.405564 -0.050210539
-0.048123207 -1.3892677 0.46247849
-0.030764332 -1.3960029 -0.049851205
-0.030997004 -1.406561 0.46806827
-0.013209152 -1.3988876 -0.049944319
-0.013138426 -1.3913976 0.4629305
0.0044233333 -1.4045793 -0.05014554
0.0044038747 -1.3984004 0.46524197
0.022008991 -1.3981014 -0.049920209
0.022130212 -1.4058019 0.46776006
0.039300837 -1.3867679 -0.049529281
0.039542098 -1.395281 0.46438822
0.057602417 -1.4067657 -0.050265435
0.057296343 -1.3992908 0.46592599
0.075402237 -1.4076371 -0.050326508
0.075586468 -1.4110764 0.47012994
0.092213713 -1.392885 -0.049836647
0.092640966 -1.3993386 0.46657091
0.11063547 -1.4029113 -0.050241247
0.11086947 -1.4058785 0.46917978
0.12823465 -1.4007909 -0.050219156
0.12764935 -1.3943974 0.4658477
0.14723888 -1.4122705 -0.050693162
0.14643925 -1.4046007 0.46983528
0.1620886 -1.385341 -0.049795847
0.1650961 -1.4110457 0.47264904
0.1819797 -1.402151 -0.050478444
0.18168297 -1.3998648 0.46963292
0.19697809 -1.381223 -0.049810365
0.19941427 -1.3983055 0.469915
0.21487953 -1.3820149 -0.049932543
0.21567175 -1.3871101 0.46702829
0.23205562 -1.3779639 -0.049887802
0.23771468 -1.4115678 0.47623309
0.25032008 -1.3800746 -0.050074365
0.24994174 -1.3779887 0.46592909
0.26695299 -1.3730892 -0.049938917
0.27470836 -1.4129794 0.47889191
0.28368652 -1.3670449 -0.049845058
0.28746131 -1.3852351 0.47067824
0.300989 -1.3638731 -0.049863651
0.3135041 -1.4205829 0.48399177
0.3207252 -1.3710351 -0.050269164
0.32959312 -1.4089437 0.48140213
0.33655155 -1.3611804 -0.050059259
0.34950331 -1.4135638 0.48444605
0.35743693 -1.3713107 -0.050593328
0.36931008 -1.4168622 0.4871316
0.37121558 -1.3540823 -0.050126184
0.38591844 -1.4077139 0.48561856
0.38724503 -1.3458579 -0.04999828
0.39939153 -1.3880727 0.4805398
0.40436324 -1.3415487 -0.050023384
0.42236868 -1.4012849 0.48691636
0.41853958 -1.3278378 -0.049704719
0.43990555 -1.3956225 0.48683503
0.43375623 -1.3179983 -0.049536925
0.45850939 -1.3932124 0.48796967
0.45190293 -1.3170543 -0.049711376
0.4845548 -1.4122169 0.49672365
0.47604582 -1.3325205 -0.050517395
0.50129664 -1.4032011 0.4957335
0.48970911 -1.3181385 -0.050201956
0.52326077 -1.4084487 0.49987558
0.50531226 -1.3093934 -0.050107259
0.53859758 -1.3956442 0.49769872
0.51751763 -1.2923355 -0.049699932
0.53761554 -1.2950315 -0.050059997
0.55100566 -1.2814772 -0.049800307
0.56579578 -1.2715129 -0.049686007
0.63728625 -1.4321735 0.05596403
0.63835388 -1.4345727 0.16874716
0.63291532 -1.4223505 0.28076896
0.63579553 -1.4288232 0.39900005
0.58467221 -1.2706151 -0.049934663
0.64737177 -1.4068744 0.055289596
0.64457732 -1.4008014 0.16571629
0.64848232 -1.4092879 0.27978015
0.64495748 -1.4016277 0.39364234
0.60140133 -1.2647865 -0.049999248
0.67259175 -1.4145046 0.055917874
0.66403884 -1.3965172 0.16618548
0.66308492 -1.3945112 0.27848217
0.66361463 -1.3956251 0.39427215
0.61740959 -1.2573801 -0.050009839
0.63532364 -1.2537118 -0.050178152
0.64413112 -1.2323583 -0.049644206
0.66301769 -1.2304989 -0.049901668
0.67096055 -1.2085475 -0.049350176
0.6993345 -1.2231073 -0.050300322
0.71544039 -1.2154977 -0.050353877
0.72801733 -1.2019832 -0.050169814
0.40588886 -0.67013735 0.46463701
0.74092579 -1.1892412 -0.050023425
0.69825137 -1.1207455 0.047142275
0.70664161 -1.1342126 0.14361456
0.41803932 -0.67098427 0.46883684
0.75505912 -1.1785972 -0.049971677
0.70287675 -1.097144 0.046518121
0.70357084 -1.0982275 0.14016879
0.76968753 -1.1687664 -0.049961831
0.69753844 -1.0592084 0.045278501
0.70837981 -1.0756708 0.13841736
0.78248054 -1.1562308 -0.049843211
0.70988667 -1.0489626 0.045219056
0.71259141 -1.0529592 0.13663866
0.80166531 -1.15303 -0.050136428
0.71326798 -1.0258888 0.04460803
0.70567602 -1.0149693 0.13285142
0.47908413 -0.68906367 0.41990745
0.81600428 -1.142683 -0.050129332
0.7008999 -0.98149782 0.043058164
0.70799166 -0.99142867 0.13092668
0.47335485 -0.66285747 0.40753773
0.82598072 -1.1263905 -0.049866915
0.70474958 -0.96106744 0.042547829
0.70082694 -0.9557181 0.12736611
0.47760603 -0.65131164 0.40410468
0.84404075 -1.1211385 -0.05010096
0.70321864 -0.93408453 0.041741975
0.70769382 -0.94002885 0.12645282
0.85565948 -1.1072763 -0.04995903
0.70183969 -0.90822399 0.040978014
0.7103976 -0.91929847 0.12485761
0.50939572 -0.65918958 0.34492323
0.49462506 -0.64007545 0.40473488
0.47747856 -0.61788684 0.46309787
0.87080771 -1.0980213 -0.050032232
0.71814841 -0.90552968 0.041261196
0.71094751 -0.89644998 0.12296052
0.54234445 -0.68385446 0.36137402
0.50678927 -0.63902217 0.40807176
0.48164058 -0.60731161 0.45968103
0.88042551 -1.0818841 -0.049798146
0.70249921 -0.86324483 0.039734378
0.70929998 -0.87160176 0.12076776
0.55069697 -0.67670727 0.361233
0.52281004 -0.64243925 0.41442502
0.50356591 -0.6187917 0.47313249
0.89711833 -1.0744741 -0.049973082
0.71174324 -0.85245121 0.039646946
0.71006954 -0.85044658 0.119066
0.70564526 -0.84514773 0.19856463
0.56011683 -0.67084908 0.36184216
0.54745573 -0.65568489 0.42738265
0.51516372 -0.61700892 0.47669163
0.9196887 -1.0737319 -0.050473183
0.73348218 -0.85633671 0.040254034
0.7307083 -0.85309827 0.12071588
0.58415693 -0.68200028 0.371795
0.57439226 -0.6706 0.44178391
0.52448565 -0.61233431 0.47814471
0.92509365 -1.0529139 -0.050038207
0.74500549 -0.84794295 0.040297259
0.75063658 -0.85435212 0.12222113
0.58382535 -0.66449255 0.44256848
0.54314506 -0.61819148 0.48802015
0.93154866 -1.0337152 -0.049679346
0.63998371 -0.71017325 0.034130231
0.76606876 -0.85008651 0.12298115
0.55670857 -0.61776495 0.49317846
0.95322508 -1.0313544 -0.050138772
0.61476493 -0.66515303 0.032336079
0.62067252 -0.67154485 0.098274596
0.61720598 -0.66779417 0.16399759
0.62095922 -0.67185503 0.23341157
0.60826743 -0.65812302 0.29814953
0.61875117 -0.66946602 0.37744045
0.61695057 -0.66751784 0.45478916
0.57752752 -0.62486356 0.50461113
0.97050118 -1.0238762 -0.050365336
0.62569058 -0.66010195 0.097745284
0.61455548 -0.64835441 0.16111124
0.61080736 -0.64440018 0.22652751
0.61576796 -0.64963359 0.2977927
0.62020099 -0.65431041 0.37326929
0.61319977 -0.6469242 0.44598389
0.98059154 -1.0087724 -0.050225783
0.63414145 -0.65236586 0.032480653
0.83572769 -0.85974538 0.12885578
0.99090707 -0.99402994 -0.050109051
0.85365683 -0.85634714 0.12994725
1.0054977 -0.98358059 -0.050216582
0.87376094 -0.85471541 0.13135882
1.0146307 -0.96781683 -0.050060093
0.90173727 -0.86013216 0.13392578
1.0200801 -0.9487738 -0.049735561
0.91366881 -0.84980088 0.13409793
1.028658 -0.93287325 -0.049577124
0.92895383 -0.84245312 0.13477364
1.0533606 -0.93137544 -0.050198462
0.95791078 -0.84697926 0.13741651
1.0571587 -0.91127563 -0.049828667
0.99221462 -0.85529357 0.14078137
1.0683777 -0.89774865 -0.04982068
1.0865611 -0.88992929 -0.050142068
1.0918951 -0.87155992 -0.049877804
1.1037233 -0.8584742 -0.04992035
1.1175858 -0.8468889 -0.050061036
1.1210481 -0.82750005 -0.049745429
1.1474116 -0.8248449 -0.050450388
1.1412401 -0.79880661 -0.049732819
1.1518487 -0.78481054 -0.049760517
1.1794773 -0.78207314 -0.050524645
1.1765248 -0.75896341 -0.049984816
1.1854699 -0.74376446 -0.049962986
1.2069818 -0.73624581 -0.050474893
1.2013693 -0.71222365 -0.049861178
1.2148025 -0.69966727 -0.050049074
1.228263 -0.68697107 -0.050243262
1.2318515 -0.66875643 -0.050041612
1.2353704 -0.65066272 -0.04984777
1.2463146 -0.63651168 -0.049962007
1.258976 -0.62311739 -0.050151046
1.260257 -0.60411698 -0.049895093
1.2740221 -0.59110463 -0.050141405
1.2854009 -0.57682788 -0.050299376
1.2836148 -0.55671692 -0.049951203
1.2858205 -0.53854108 -0.049769197
1.2873546 -0.52022928 -0.049571086
1.3077203 -0.50940001 -0.050104327
1.3223972 -0.49603215 -0.050423346
1.3147053 -0.47435132 -0.049898338
1.3201013 -0.45759624 -0.049880486
1.3224953 -0.43985304 -0.049757719
1.332219 -0.42453352 -0.049918473
1.3350804 -0.40700054 -0.049829703
1.3552778 -0.39457715 -0.050394103
1.3628219 -0.37822598 -0.050493523
1.3672646 -0.36098054 -0.050485704
1.3556172 -0.33970582 -0.049893722
1.3740569 -0.32599562 -0.050417323
1.3659494 -0.3059577 -0.049974509
1.3750278 -0.28985897 -0.050169136
1.3627713 -0.26939988 -0.049594242
1.3768011 -0.25420362 -0.049984369
1.3895783 -0.23851034 -0.050335214
1.3749343 -0.21821171 -0.049701281
1.3947033 -0.20338033 -0.050319329
1.3694837 -0.18212348 -0.04932278
1.3815482 -0.16605309 -0.049678046
1.4042742 -0.15087336 -0.050422926
1.3917317 -0.13182248 -0.049909003
1.4121504 -0.11583625 -0.050584916
1.3913064 -0.096507154 -0.049790785
1.3835838 -0.078480557 -0.049475126
1.4030844 -0.061874554 -0.050140608
1.397918 -0.044019405 -0.049932212
1.3994555 -0.0264351 -0.049971279
1.3983002 -0.0088034943 -0.049922109
1.3899753 0.0087510832 -0.049624894
1.3957433 0.026364977 -0.049838725
1.4067829 0.044298552 -0.050248858
1.4172089 0.06249743 -0.050645359
1.4216458 0.080639534 -0.050836172
1.388343 0.0963016 -0.049684733
1.3976351 0.11464559 -0.050064962
1.3845612 0.1311433 -0.049651857
1.377274 0.14797248 -0.049453434
1.3825333 0.16617149 -0.04971347
1.3841153 0.18406931 -0.049849752
1.3971189 0.20373259 -0.050406482
1.3792678 0.21889946 -0.049857929
1.3816239 0.23714501 -0.050047074
1.3653542 0.25209013 -0.049568787
1.3597333 0.2687993 -0.049483687
1.3665781 0.28807777 -0.049860843
1.3598932 0.30460119 -0.049752936
1.3610259 0.32290399 -0.049939182
1.352765 0.33899111 -0.049788747
1.3636316 0.36002138 -0.05035156
1.3674233 0.37950301 -0.050664004
1.3406729 0.39032501 -0.049851034
1.3469505 0.41061917 -0.050272737
1.3351831 0.4254781 -0.050029542
1.3313072 0.44278383 -0.050089259
1.3178885 0.45682922 -0.049796876
1.3111315 0.47306192 -0.0497627
1.3116453 0.49199909 -0.050013371
1.2942927 0.50416952 -0.049589857
1.292526 0.52231908 -0.049770217
1.30109 0.54493642 -0.050360221
1.2762184 0.55350906 -0.049663376
1.2814051 0.5750348 -0.050143018
1.2754897 0.59178549 -0.050199162
1.2715325 0.60952199 -0.050341502
1.2420655 0.61474782 -0.049477424
1.2487029 0.63773137 -0.050057743
1.2374928 0.65178061 -0.049933415
1.2439923 0.67534757 -0.050534811
1.2178344 0.68113834 -0.049816668
1.2083012 0.69592285 -0.049781226
1.194177 0.70795983 -0.049562674
1.1825271 0.72132874 -0.049452223
1.1810377 0.74098366 -0.049776185
1.1743882 0.75758505 -0.049894039
1.1702657 0.77596521 -0.050130051
1.1665469 0.7948252 -0.050395492
1.1483223 0.80376381 -0.050041445
1.139641 0.81925881 -0.050108723
1.1242439 0.82985896 -0.049887236
1.1166477 0.84617811 -0.050019018
1.1081296 0.86190146 -0.050119646
1.1030899 0.88049561 -0.050389178
1.0818651 0.88608313 -0.049925357
1.0734485 0.90200955 -0.050057143
1.0581771 0.91215348 -0.049876664
1.0536277 0.93161166 -0.050211191
1.0366745 0.94014323 -0.049963485
1.0202082 0.94889289 -0.049741808
1.0034093 0.95711315 -0.049506448
1.0175698 0.99538958 -0.050819486
0.98820168 0.99131602 -0.049972244
0.97890103 1.0070333 -0.050139196
0.94965786 0.97694975 0.048641365
0.93811703 0.96507722 0.14464256
0.93737411 0.96431297 0.24253847
0.935076 0.96194881 0.3422682
0.96610904 1.0192425 -0.050137401
0.91155279 0.96168578 0.047306135
0.91865838 0.96918219 0.14351265
0.90891832 0.95890647 0.2382811
0.91703415 0.96746862 0.34009653
0.94325387 1.020566 -0.049614295
0.89216787 0.96529281 0.046927221
0.89509863 0.96846378 0.14172603
0.89506096 0.96842301 0.23782633
0.88761848 0.96037054 0.33364579
0.94201475 1.0453292 -0.050237499
0.86121333 0.95566601 0.045928374
0.86644286 0.96146905 0.13909476
0.87046844 0.96593618 0.23450518
0.86304247 0.95769572 0.32891488
0.92732584 1.0554546 -0.050158948
0.83854795 0.9544102 0.045356959
0.85177809 0.96946836 0.13868932
0.83897704 0.9548986 0.22924255
0.85490125 0.97302306 0.33045554
0.90630847 1.0581106 -0.049738865
0.81978154 0.95709074 0.044990204
0.8190878 0.95628089 0.13531652
0.82381243 0.96179682 0.2283901
0.82783043 0.96648782 0.32467008
0.90223765 1.0806054 -0.050258245
0.80531508 0.96452177 0.044859271
0.80122697 0.95962542 0.13435149
0.80900294 0.96893865 0.22764891
0.80340654 0.96223587 0.31981793
0.8814134 1.0830981 -0.049854025
0.77252001 0.94928771 0.043694854
0.78483176 0.96441668 0.13362806
0.77996337 0.95843434 0.22285576
0.779037 0.95729595 0.31489062
0.56302547 0.6918568 0.29676312
0.87452352 1.1027067 -0.050245725
0.75981396 0.95806676 0.04365509
0.765993 0.9658581 0.1324808
0.76574606 0.96554673 0.22224985
0.76405847 0.96341872 0.31371498
0.58094674 0.73252898 0.31104642
0.8583138 1.1107112 -0.050114006
0.74942786 0.96980602 0.043756526
0.74379939 0.96252239 0.13072821
0.75033194 0.97097594 0.22130719
0.74561936 0.96487761 0.31110805
0.5783515 0.74842262 0.31467786
0.84723401 1.12538 -0.050290506
0.7482807 0.99394041 0.044416789
0.75014174 0.99641246 0.13403754
0.73901361 0.98163092 0.22159712
0.72543335 0.96359223 0.30772385
0.58031791 0.77083558 0.32100356
0.82589179 1.1262691 -0.049861543
0.73902881 1.007814 0.044617366
0.74646014 1.0179482 0.13565935
0.74698037 1.0186576 0.22781423
0.70258242 0.95811206 0.3031244
0.57859987 0.78903699 0.32552338
0.81434864 1.1403645 -0.05002762
0.73602313 1.0306822 0.045215875
0.73985511 1.0360483 0.13681908
0.74366295 1.0413805 0.23078348
0.68281335 0.9561705 0.29976612
0.58743829 0.822613 0.33629704
0.80204082 1.1535702 -0.050159916
0.74003798 1.064392 0.046282236
0.74698269 1.0743805 0.14062786
0.74285942 1.06845 0.23469079
0.66525751 0.95683563 0.29732481
0.58510011 0.84154576 0.34099796
0.79076922 1.1684785 -0.050371192
0.74797499 1.1052437 0.047645241
0.74366039 1.0988683 0.1425961
0.7408163 1.0946656 0.23838125
0.64822954 0.95785505 0.29508173
0.57995725 0.85697263 0.34426251
0.77135491 1.1712983 -0.050070062
0.74003416 1.1237378 0.048036974
0.74564391 1.1322562 0.14569876
0.74176359 1.126364 0.24323075
0.64333707 0.9769038 0.29843071
0.56515956 0.85819173 0.34186628
0.75535417 1.1790577 -0.049991202
0.61051381 0.95297158 0.28874835
0.56343949 0.87949169 0.34749737
0.73861778 1.1855366 -0.049867604
0.59270513 0.95133597 0.28596869
0.55293757 0.88750601 0.34788531
0.72508395 1.1971402 -0.049967669
0.57969648 0.95710015 0.28548449
0.53612483 0.8851617 0.34429282
0.70438433 1.196714 -0.049575735
0.56712335 0.96351445 0.28524503
0.5154978 0.8758052 0.33810189
0.68476266 1.1976218 -0.049252231
0.55215651 0.96569908 0.28381088
0.51357275 0.89821768 0.34423029
0.67945516 1.2238482 -0.049974971
0.53889561 0.97066957 0.28325489
0.50193363 0.90409285 0.34403235
0.67364842 1.2502285 -0.050701786
0.51884335 0.96292484 0.27906623
0.4982492 0.92470402 0.3494603
0.3890138 0.7219733 0.41033301
0.6500383 1.2436601 -0.050099485
0.50574362 0.96759391 0.27855167
0.48222208 0.92259234 0.34634003
0.39828828 0.76200926 0.3559967
0.63529778 1.2536607 -0.050176106
0.48630697 0.9596507 0.27448031
0.46892425 0.92534864 0.34513071
0.40360308 0.79644752 0.36968195
0.61674196 1.2560204 -0.049955759
0.47239542 0.96205276 0.27344427
0.46732387 0.95172435 0.35274538
0.40280175 0.82032239 0.37837949
0.60620588 1.2748908 -0.050398689
0.45619914 0.95941675 0.27104077
0.44799134 0.94215518 0.34708035
0.3996726 0.84053767 0.38535199
0.57989848 1.2602407 -0.049526952
0.4416326 0.95976007 0.26954535
0.43905935 0.9541679 0.34944126
0.39197582 0.8518455 0.38824251
0.57331443 1.2884096 -0.05034627
0.42854586 0.96307117 0.26893839
0.42389187 0.95261216 0.3468892
0.39469919 0.88700747 0.40197107
0.55746639 1.2965031 -0.050384235
0.4134956 0.96166927 0.26707172
0.40614292 0.94456905 0.34207091
0.39065224 0.90854234 0.40946841
0.53860527 1.2974157 -0.050152157
0.40714878 0.98075753 0.27092755
0.3942548 0.94969803 0.3421033
0.38293338 0.92242646 0.41351983
0.52005613 1.2986746 -0.049943719
0.39560446 0.9878962 0.27150193
0.38363728 0.95801193 0.3433308
0.39297619 0.9813329 0.43767428
0.50302535 1.3034674 -0.049880486
0.38497534 0.99756962 0.27280656
0.36656535 0.94986463 0.33872989
0.38906607 1.0081698 0.44742301
0.48718053 1.3113325 -0.049942743
0.36385256 0.9793734 0.26655629
0.35740462 0.96201766 0.34143177
0.47084638 1.3179665 -0.049965635
0.35608393 0.99672997 0.27003846
0.34465945 0.96475118 0.34083459
0.45581046 1.3284426 -0.050141227
0.34200904 0.99677259 0.26886192
0.3277716 0.9552781 0.33600307
0.43662161 1.3267049 -0.049864162
0.33241621 1.0100696 0.27129799
0.31573623 0.95938635 0.336023
0.41943282 1.3306718 -0.049810801
0.32132292 1.0194131 0.27269921
0.30434343 0.96554488 0.33681104
0.40352565 1.3387698 -0.049919765
0.30283967 1.0047257 0.26772887
0.28848824 0.95711219 0.33257592
0.38980356 1.35475 -0.05032862
0.29307097 1.018559 0.27041021
0.27555543 0.95768422 0.3315427
0.37211582 1.3573662 -0.050247751
0.28021535 1.022141 0.27040297
0.26260862 0.95791692 0.33045226
0.35210237 1.3508446 -0.049838249
0.25238222 0.9682672 0.035723384
0.25394252 0.9742533 0.10820062
0.2534425 0.97233486 0.18121842
0.2489651 0.95515734 0.25183341
0.25097477 0.9628675 0.3310436
0.33641541 1.3606299 -0.050039008
0.23811433 0.9630518 0.035417534
0.23876774 0.96569455 0.1069077
0.23932411 0.96794474 0.17982429
0.23806497 0.96285218 0.25305179
0.23678631 0.95768058 0.32820916
0.31915236 1.3643116 -0.050022643
0.22375123 0.95649111 0.035069861
0.22522627 0.96279663 0.10626449
0.22504255 0.96201122 0.17818138
0.22517747 0.96258801 0.25221714
0.22603495 0.96625358 0.3301456
0.30073184 1.3627079 -0.049821049
0.21099953 0.95610332 0.034955453
0.20886524 0.94643223 0.1041598
0.21399051 0.96965641 0.17908412
0.21215135 0.96132261 0.25116569
0.20885067 0.94636619 0.32242641
0.28339958 1.3656622 -0.049794644
0.19729657 0.95074415 0.034665938
0.20072934 0.96728611 0.10616829
0.19911143 0.9594897 0.17672937
0.19776256 0.95298964 0.24831821
0.19988316 0.9632085 0.32728112
0.26652589 1.3708924 -0.049859021
0.18807179 0.96735883 0.035182603
0.18703511 0.9620266 0.10532416
0.18732667 0.96352625 0.17702435
0.18626878 0.95808488 0.24901494
0.18503614 0.95174474 0.32256866
0.24771291 1.3657006 -0.049552821
0.1767188 0.97429311 0.035351068
0.17300314 0.95380777 0.10417758
0.17566571 0.96848714 0.17751533
0.17448008 0.96195054 0.24942885
0.1748755 0.96413052 0.32599431
0.23206705 1.3780317 -0.049890257
0.16374488 0.9723295 0.035202216
0.16152632 0.95915562 0.10453124
0.16118431 0.95712465 0.17504679
0.16046165 0.95283347 0.24652137
0.16325258 0.96940619 0.32705712
0.21375507 1.3747828 -0.049671248
0.14957981 0.96203452 0.034758549
0.1485264 0.95525944 0.10389457
0.14813134 0.95271856 0.17388603
0.14895838 0.95803779 0.24736296
0.15031548 0.966766 0.32550198
0.19806109 1.3888171 -0.050084226
0.13884135 0.97356433 0.035109174
0.13611998 0.95448196 0.10361537
0.13636827 0.95622301 0.17419842
0.13789526 0.96693039 0.24919091
0.13564993 0.95118594 0.31965584
0.17947043 1.3828173 -0.049782414
0.12477324 0.96137607 0.034610227
0.12474941 0.96119243 0.10416505
0.12460574 0.96008545 0.17460237
0.12522385 0.96484798 0.24822821
0.125191 0.96459496 0.32360664
0.16163772 1.3814876 -0.049657334
0.11431657 0.97704238 0.035119619
0.11075769 0.94662535 0.10242714
0.1142059 0.97609663 0.1772386
0.11269132 0.96315175 0.24740712
0.11308046 0.96647763 0.32373488
0.14451528 1.3861465 -0.049755443
0.099166237 0.95117235 0.034142133
0.1003475 0.96250278 0.10400014
0.10030289 0.96207482 0.17444937
0.10054196 0.96436793 0.24737468
0.10010048 0.96013337 0.3211621
0.1282419 1.4008702 -0.050221998
0.087849841 0.95964128 0.034403689
0.087878577 0.9599551 0.10359709
0.08811596 0.96254826 0.17432019
0.087611444 0.95703709 0.2451918
0.087568559 0.9565686 0.31957552
0.11116207 1.4095887 -0.050480377
0.075254776 0.95426691 0.034174334
0.075469106 0.95698476 0.1031658
0.076335579 0.9679721 0.1751145
0.076291971 0.96741909 0.24758589
0.075689137 0.95977485 0.32030287
0.092251129 1.3934501 -0.049856868
0.064172141 0.96931803 0.034681659
0.062670231 0.94663167 0.10195654
0.063838623 0.96428019 0.17428736
0.064426541 0.97316068 0.24882795
0.063854784 0.96452433 0.32159406
0.074535243 1.3914517 -0.04974784
0.051911946 0.96911162 0.034648135
0.05069042 0.94630772 0.10184483
0.051279169 0.9572987 0.17289507
0.05206633 0.97199368 0.24834223
0.051415231 0.95983875 0.31979057
0.056795143 1.3870505 -0.049560986
0.082978249 2.026494 0.36578178
0.039852586 1.4062368 -0.050224625
0.05778385 2.0389588 0.36787117
0.022156829 1.4074928 -0.050255533
0.032402452 2.0583367 0.37126434
0.0044367383 1.4088358 -0.050297506
0.0065560904 2.0818121 0.37545395
-0.013043845 1.3813812 -0.04931929
-0.019895287 2.1069689 0.38000602
-0.030875545 1.4010495 -0.05003142
-0.047115948 2.1379955 0.38567832
-0.048572499 1.4022382 -0.05009174
-0.074996069 2.1650596 0.39069986
-0.065713987 1.3907109 -0.049705572
-0.10259241 2.1711724 0.392005
-0.083836891 1.4000837 -0.050074324
-0.13091317 2.1862617 0.39499566
-0.10180411 1.4036756 -0.050244655
-0.16025987 2.2096636 0.3995567
-0.1188129 1.3945695 -0.049968299
-0.18925641 2.2214022 0.40207833
-0.13605487 1.3898175 -0.049855459
-0.21762151 2.2230306 0.40283716
-0.15442052 1.3959216 -0.050140206
-0.24892507 2.2502184 0.40829948
-0.17241356 1.3973429 -0.050265256
-0.27968901 2.2667675 0.41190872
-0.18891928 1.387169 -0.049980894
-0.31064114 2.2809308 0.4151603
-0.20533779 1.3777516 -0.049730796
-0.34022561 2.2828062 0.41624841
-0.22464693 1.3872708 -0.050172526
-0.37241399 2.2997825 0.42016569
-0.24129146 1.3797288 -0.050005682
-0.40081567 2.2919042 0.41961518
-0.25874177 1.3770974 -0.050024427
-0.43426314 2.3112721 0.42412871
-0.27860221 1.386378 -0.050484996
-0.46859723 2.3318295 0.42894989
-0.29608783 1.3830009 -0.050493784
-0.49921942 2.3318112 0.43006879
-0.30945021 1.3614426 -0.049845003
-0.53563064 2.3565354 0.43583825
-0.32712066 1.359736 -0.049929373
-0.56277603 2.3392801 0.43392316
-0.34462914 1.3571384 -0.049989376
-0.59682196 2.3502657 0.43732029
-0.36214697 1.3544012 -0.050052561
-0.65468758 2.4484801 0.090484776
-0.65252376 2.4403875 0.27148026
-0.62784421 2.348088 0.43835142
-0.38158017 1.358307 -0.050370473
-0.67844552 2.4150553 0.089558169
-0.67786235 2.4129796 0.2693595
-0.66432196 2.3647799 0.44299412
-0.39595392 1.3442328 -0.050029486
-0.70558524 2.395407 0.089151956
-0.7082957 2.4046087 0.26939932
-0.69761473 2.3683479 0.44527277
-0.41374069 1.3420361 -0.050137658
-0.73621505 2.3880348 0.089215539
-0.73452586 2.3825557 0.26794362
-0.7284714 2.3629169 0.445941
-0.43122426 1.3386402 -0.050209671
-0.77015179 2.3907657 0.089672759
-0.76820815 2.384732 0.26925489
-0.7628262 2.3680251 0.44868225
-0.44378674 1.320434 -0.049732454
-0.81533325 2.425926 0.09136939
-0.81894314 2.4366667 0.27626118
-0.79583591 2.367914 0.4505243
-0.46272397 1.3214427 -0.049985941
-0.47949308 1.3159708 -0.050003383
-0.49352378 1.3032249 -0.049751267
-0.51057518 1.2986405 -0.049817745
-0.53053671 1.3010613 -0.050162911
-0.54631799 1.292956 -0.050111674
-0.56118655 1.2828474 -0.049989812
-0.57523221 1.2711222 -0.049811214
-0.59234238 1.2662387 -0.04990818
-0.60119236 1.2440979 -0.049329985
-0.6190539 1.2409288 -0.049509488
-0.63503492 1.2338232 -0.049541105
-0.65614569 1.2363299 -0.04996955
-0.92251134 1.7382241 0.070254937
-0.66696876 1.2193924 -0.049620491
-0.9194541 1.6810012 0.068404645
-0.68912947 1.2230728 -0.050119404
-0.92506796 1.6418185 0.067278877
-0.7041744 1.213781 -0.050098032
-0.91987467 1.5855823 0.065443888
-0.91788834 1.5821586 0.19657615
-0.39586341 0.6823473 0.46783391
-0.71672887 1.2003424 -0.049911913
-0.91819257 1.5377439 0.063941538
-0.9206928 1.5419312 0.19300322
-0.39925426 0.66865146 0.46185404
-0.73597383 1.1980401 -0.050197557
-0.9190585 1.4960707 0.062684961
-0.92166859 1.5003196 0.18923241
-0.41220039 0.67099208 0.46701896
-0.74305767 1.1761068 -0.049666665
-0.93061888 1.4729775 0.062203433
-0.9177177 1.4525577 0.1846512
-0.43739498 0.69230592 0.40973002
-0.42442605 0.6717788 0.47124895
-0.76469517 1.1772615 -0.050118092
-0.92312002 1.4211594 0.060501251
-0.91913909 1.4150307 0.18133764
-0.4480795 0.68982619 0.41156909
-0.43625054 0.6716153 0.47495019
-0.77734858 1.1643806 -0.049982481
-0.92459863 1.3849444 0.059450459
-0.91829568 1.3755034 0.17773995
-0.44485879 0.66634834 0.47514924
-0.79511231 1.1591135 -0.050182197
-0.91990989 1.3410432 0.05805859
-0.92608285 1.3500421 0.17594281
-0.45250636 0.65966308 0.47440773
-0.80198014 1.1381341 -0.049707189
-0.92265362 1.3093885 0.0571866
-0.92188752 1.3083012 0.17200221
-0.460758 0.65388703 0.47438872
-0.82197642 1.1358633 -0.050056092
-0.92161882 1.2735559 0.056124039
-0.92091608 1.2725848 0.16881777
-0.46501905 0.64259511 0.47040749
-0.83512396 1.1239576 -0.049990892
-0.91343731 1.2293562 0.054678764
-0.91861767 1.2363281 0.16552944
-0.47572803 0.64026201 0.47304732
-0.84728378 1.1108283 -0.049877517
-0.92866254 1.2175195 0.054668084
-0.92018604 1.2064065 0.16306175
-0.4852398 0.63617182 0.47450218
-0.8695721 1.1107619 -0.050362203
-0.92108446 1.1765621 0.053345598
-0.92161477 1.1772394 0.16067529
-0.48837274 0.6238308 0.46984699
-0.86531967 1.0771085 -0.049326483
-0.92421442 1.1504179 0.052683707
-0.92390019 1.1500268 0.15853646
-0.49654078 0.61807024 0.47018027
-0.88911146 1.078621 -0.04990451
-0.92570931 1.1230196 0.051958695
-0.92465997 1.1217465 0.15623063
-0.90935802 1.0753057 -0.050276928
-0.9216665 1.0898603 0.050957445
-0.91874236 1.0864025 0.15290725
-0.58387715 0.6904282 0.45241481
-0.9168883 1.0569267 -0.049953472
-0.92834663 1.0701351 0.050577737
-0.92078561 1.0614194 0.1510109
-0.58624423 0.67578262 0.4476198
-0.93347061 1.0490596 -0.050133225
-0.92626613 1.0409631 0.049746301
-0.9136523 1.0267873 0.14770883
-0.59680176 0.6707021 0.44919673
-0.53306592 0.59907401 0.4755671
-0.94712055 1.0377873 -0.050160497
-0.92192537 1.0101802 0.048826136
-0.91997689 1.0080452 0.14666755
-0.61348236 0.67221028 0.45534456
-0.53641701 0.5877676 0.47191635
-0.96450257 1.03047 -0.05038986
-0.92254215 0.98563969 0.048197664
-0.92252308 0.98561931 0.14508332
-0.63197148 0.67519534 0.46272045
-0.54617846 0.58353448 0.47400203
-0.96057945 1.0007197 -0.049522627
-0.91943675 0.95785767 0.047401518
-0.9207868 0.9592641 0.14289926
-0.6480127 0.67509151 0.46820429
-0.56032509 0.58373964 0.47986194
-0.98392695 0.99954051 -0.050073441
-0.91989917 0.9344967 0.046814978
-0.92347336 0.93812764 0.14147167
-1.7456934 1.7733952 0.44878843
-0.98940492 0.98010904 -0.049720194
-0.82061088 0.8129009 0.04123785
-0.92063135 0.91198164 0.13926597
-1.7580559 1.7415383 0.44629344
-1.0074127 0.97312337 -0.05000538
-0.81169075 0.78406328 0.040290248
-0.91991305 0.88860208 0.13745376
-1.7804878 1.7198853 0.44645473
-1.0252713 0.9657172 -0.050284237
-0.82313049 0.77531791 0.040370278
-0.92371017 0.87005532 0.13637328
-1.7968379 1.6924664 0.44517529
-1.0328686 0.94861579 -0.050067026
-0.7280032 0.66861874 0.035289053
-0.73401845 0.67414331 0.1071061
-0.73154116 0.67186809 0.17913257
-0.73365515 0.67380971 0.25414395
-0.73026741 0.67069829 0.32987541
-1.039307 0.93067843 -0.04980709
-0.74738878 0.66927153 0.035817388
-0.74879098 0.67052722 0.10802107
-0.74442762 0.66661996 0.18021831
-0.74855119 0.67031252 0.25635979
-0.74158591 0.6640752 0.33118457
-1.0599823 0.92541033 -0.050235495
-0.85177457 0.74363595 0.04036795
-1.0057837 0.87809253 0.14348851
-1.8267521 1.5948334 0.43734154
-1.077951 0.91743797 -0.050535556
-0.88195825 0.75062972 0.041347202
-1.0155177 0.86430144 0.14331317
-1.8320173 1.5592196 0.43386713
-1.0777783 0.89413685 -0.049995661
-1.0442059 0.86628485 0.048438318
-1.0460114 0.86778271 0.14606288
-1.846628 1.531983 0.43272439
-1.0812027 0.87423033 -0.049639922
-1.0800017 0.87325919 0.049584776
-1.0723895 0.86710411 0.14820981
-1.8551886 1.5000536 0.43027002
-1.095273 0.86302811 -0.049783017
-1.1162795 0.85702038 -0.050243318
-1.1203136 0.83790982 -0.049946036
-1.1231699 0.81819713 -0.049610116
-1.1511014 0.81655914 -0.05038568
-1.1531129 0.79635233 -0.050030824
-1.1546822 0.77614647 -0.049670931
-1.1608608 0.75925535 -0.049521517
-1.3347375 0.87297857 0.056938976
-1.3262867 0.86745131 0.17031454
-1.8820883 1.2309706 0.40558591
-0.74079245 0.4845117 0.366492
-0.75493002 0.49375832 0.45133811
-1.1806811 0.75116485 -0.04995957
-1.3561506 0.86280084 0.05738442
-1.3695028 0.87129569 0.17444138
-1.8881981 1.2012964 0.40361077
-0.73596412 0.46823004 0.36115769
-1.1904011 0.73645902 -0.049974494
-1.406478 0.87013817 0.059045669
-1.4006724 0.86654645 0.17700772
-1.8888477 1.1685632 0.40057251
-1.2131969 0.72960132 -0.050541792
-1.4457358 0.86944723 0.060229361
-1.4466674 0.87000757 0.18142141
-1.8945615 1.1393654 0.39871001
-1.2034116 0.70323741 -0.049761277
-1.4864535 0.86863863 0.061465107
-1.4810163 0.86546129 0.18434767
-1.8853468 1.1017399 0.3938199
-1.2329257 0.69980979 -0.050613292
-1.540861 0.87459421 0.063254461
-1.5257708 0.86602896 0.18854608
-1.8908567 1.0732521 0.39211679
-1.2233844 0.67417049 -0.049869161
-1.5842488 0.87303209 0.064579174
-1.5686619 0.86444259 0.19248591
-1.9070538 1.0509202 0.39270023
-1.2296652 0.65758431 -0.049783699
-1.6261623 0.86961794 0.065836117
-1.6371113 0.87547308 0.19951659
-1.890334 1.0108882 0.38660541
-1.2486523 0.64765352 -0.050218251
-1.6777447 0.87021601 0.067475468
-1.9209594 0.9963671 0.23256199
-1.8976464 0.98427516 0.38553554
-1.2657869 0.63644505 -0.050581042
-1.9087484 0.95972979 0.076273881
-1.9176238 0.96419239 0.23066998
-1.9023116 0.95649332 0.3840059
-1.267429 0.6174019 -0.050331999
-1.901822 0.92643332 0.075524941
-1.9119754 0.93137938 0.22856164
-1.8959396 0.92356789 0.38034186
-1.2591097 0.59385169 -0.049700722
-1.9128201 0.9021703 0.075504571
-1.9315598 0.91100878 0.22951327
-1.9123534 0.90195018 0.38132596
-1.2877424 0.58765048 -0.050534837
-1.9458162 0.88795692 0.076359607
-1.9339525 0.88254309 0.22845897
-1.9018763 0.86790538 0.37702769
-1.2863507 0.56755608 -0.050195787
-1.980866 0.87398595 0.077297054
-1.9834588 0.87512994 0.23298693
-1.8912603 0.83445066 0.3728106
-1.2743061 0.5431776 -0.049454957
-1.8962657 0.80829024 0.37176147
-1.2825173 0.5276956 -0.049511824
-1.8949169 0.77966923 0.36954296
-1.3032342 0.51712972 -0.050056245
-1.8972732 0.75284725 0.36812451
-0.73657799 0.29227775 0.4699595
-1.2992561 0.49670881 -0.049659278
-1.8964132 0.72500342 0.36615729
-0.74626458 0.28529879 0.47381011
-1.3046881 0.48004559 -0.049631916
-1.8989518 0.6986984 0.36491975
-0.73885769 0.27185452 0.46689692
-1.3257015 0.4689112 -0.050202694
-1.9117805 0.67621201 0.36571974
-1.318668 0.44782385 -0.049718857
-1.8939054 0.64317632 0.36072233
-1.3172414 0.42891818 -0.049457505
-1.904434 0.62011898 0.36121175
-1.339119 0.41746774 -0.050077584
-1.8906395 0.58940321 0.35715935
-1.3366729 0.39830992 -0.049794599
-1.911299 0.5695405 0.35967878
-1.3560567 0.38556352 -0.050331842
-1.8984922 0.5397926 0.35596138
-1.3492342 0.3653259 -0.049903918
-1.9003223 0.51454145 0.35506153
-1.3523375 0.34795088 -0.049852684
-1.3631955 0.33250171 -0.050094642
-1.3617308 0.3140327 -0.049891546
-1.3697799 0.29777569 -0.050045103
-1.8882841 0.41049299 0.34850356
-1.3715392 0.28012061 -0.049976546
-1.9137475 0.39086023 0.35226682
-1.3849459 0.26473838 -0.050339598
-1.9107462 0.36524737 0.35083994
-1.3781557 0.24549545 -0.049976464
-1.9194642 0.34192055 0.35162228
-1.3753536 0.22716799 -0.04976717
-1.9136857 0.31608465 0.34980685
-1.3860368 0.21104035 -0.050053615
-1.9187037 0.29214513 0.3500239
-1.3771794 0.1919819 -0.049642514
-1.9263836 0.2685422 0.35078022
-1.3947517 0.17655858 -0.050191812
-1.930565 0.24438603 0.35095346
-1.3833456 0.15744436 -0.049706064
-1.9308468 0.21975777 0.35047385
-1.3903774 0.14053534 -0.049891189
-0.88738328 0.08969415 0.16085386
-1.3960031 0.1233682 -0.050033346
-0.90917718 0.080346204 0.16460794
-1.3950834 0.10560223 -0.049948767
-0.90725756 0.068675764 0.097781271
-0.89463371 0.06772019 0.1618076
-1.4015234 0.088357203 -0.050135527
-0.89437699 0.056384828 0.096308887
-0.8905831 0.056145649 0.16093436
-1.4002355 0.070587926 -0.050053693
-0.89206499 0.044970304 0.16108705
-1.3991871 0.052882645 -0.049988449
-0.89793158 0.033937559 0.096568979
-0.90916294 0.034362055 0.16408342
-1.3987666 0.035236422 -0.049953613
-0.90900403 0.022898782 0.16398969
-1.3982272 0.017610479 -0.049922474
-0.91178161 0.011483764 0.16445166
-1.3977073 3.7089419e-06 -0.049899954
-0.91035753 2.4157155e-06 0.16418178
