# .PCD v0.7 - Point Cloud Data file format
VERSION 0.7
FIELDS x y z intensity
SIZE 4 4 4 4
TYPE F F F F
COUNT 1 1 1 1
WIDTH 1357
HEIGHT 1
VIEWPOINT 0 0 0 1 0 0 0
POINTS 1357
DATA ascii
1.2018697 -0.35889813 -0.29728928 0
1.3252082 -0.39572901 -0.29398009 0
1.506511 -0.44986901 -0.29613405 0
1.7300313 -0.51661581 -0.29673955 0
2.3519859 -0.70234174 -0.34495813 0
2.8329527 -0.8459664 -0.34554359 0
3.55041 -1.0602109 -0.34585664 0
4.7399769 -1.4154352 -0.34582803 0
7.1151338 -2.1246963 -0.34569603 0
14.234443 -4.250639 -0.3453981 0
0.84028262 -0.22799598 -0.29416251 0
0.91689825 -0.24878429 -0.29653528 0
1.0022815 -0.27195156 -0.2978096 0
1.0838116 -0.29407331 -0.29393032 0
1.1837763 -0.32119694 -0.29071593 0
1.3307921 -0.36108714 -0.29310375 0
1.5076528 -0.4090752 -0.29423532 0
1.7535608 -0.47579801 -0.29862052 0
2.3635871 -0.64131796 -0.34417605 0
2.8671632 -0.77795458 -0.34721085 0
3.5679123 -0.96809053 -0.34507152 0
4.7616639 -1.2919942 -0.34492135 0
7.1519871 -1.9405664 -0.34499705 0
14.348584 -3.8932371 -0.34567335 0
0.85030317 -0.20783082 -0.29574001 0
0.92094201 -0.22509633 -0.29591149 0
0.99967533 -0.2443403 -0.29510885 0
1.0854586 -0.26530743 -0.29246786 0
1.2125132 -0.29636207 -0.29584211 0
1.3493003 -0.32979551 -0.29525283 0
1.5215098 -0.37188688 -0.2950139 0
1.7597533 -0.43011832 -0.29773161 0
2.3870947 -0.58345288 -0.34534484 0
2.8672371 -0.70080912 -0.34496799 0
3.59814 -0.87945616 -0.34573817 0
4.7965956 -1.1723822 -0.34519833 0
7.2163105 -1.7638081 -0.34584236 0
14.457811 -3.5337732 -0.34604588 0
0.85934204 -0.18719634 -0.29714587 0
0.92583299 -0.20168053 -0.2957533 0
0.99816424 -0.21743692 -0.29294944 0
1.0954497 -0.23862928 -0.29344362 0
1.2261764 -0.26710638 -0.29743624 0
1.3565872 -0.29551464 -0.29512131 0
1.5127542 -0.32953358 -0.29161072 0
1.7523534 -0.38172713 -0.29475573 0
2.4074936 -0.52444077 -0.34627077 0
2.8921876 -0.63002497 -0.34594658 0
3.608243 -0.78600818 -0.34469295 0
4.8296123 -1.0520675 -0.34555349 0
7.246201 -1.5784894 -0.34525561 0
14.513229 -3.161516 -0.3453525 0
0.85014623 -0.16284101 -0.29245183 0
0.94050997 -0.1801497 -0.29889417 0
1.0184772 -0.19508392 -0.29737127 0
1.1112456 -0.21285322 -0.29614159 0
1.2199589 -0.23367666 -0.29440361 0
1.350957 -0.25876868 -0.29238257 0
1.5426997 -0.29549596 -0.29585138 0
1.7555523 -0.33626673 -0.29377264 0
2.4203205 -0.46359956 -0.34632245 0
2.8977489 -0.55504847 -0.34482631 0
3.6422563 -0.6976549 -0.34614989 0
4.8571119 -0.93035406 -0.34573087 0
7.2822213 -1.3948709 -0.3451845 0
14.591913 -2.7950037 -0.34543622 0
0.85983264 -0.14230709 -0.29445466 0
0.92775249 -0.15354821 -0.29351476 0
1.0185775 -0.16858025 -0.29606399 0
1.0995677 -0.18198457 -0.29171252 0
1.2283167 -0.20329326 -0.29508838 0
1.3598412 -0.2250613 -0.29298267 0
1.5547154 -0.25731406 -0.29681572 0
1.7580016 -0.29095906 -0.29286039 0
2.4109666 -0.39902842 -0.34343359 0
2.9147453 -0.48240662 -0.34529004 0
3.6465728 -0.60352814 -0.34500262 0
4.8559074 -0.80367976 -0.34409177 0
7.3052506 -1.2090597 -0.34471989 0
14.653002 -2.4251535 -0.34532338 0
0.86514634 -0.12084631 -0.29513589 0
0.93817383 -0.13104701 -0.29567119 0
1.0062431 -0.14055513 -0.29135492 0
1.125527 -0.15721709 -0.29745206 0
1.2198831 -0.17039703 -0.29193616 0
1.3686026 -0.19117063 -0.29373726 0
1.5468293 -0.21606588 -0.29417539 0
1.7827051 -0.24901374 -0.29583448 0
2.4355347 -0.34020299 -0.34560007 0
2.920886 -0.40799835 -0.34468785 0
3.656168 -0.51070482 -0.34458119 0
4.8891964 -0.68293798 -0.3451193 0
7.3499594 -1.026665 -0.34549683 0
14.724292 -2.0567346 -0.34567004 0
0.87561625 -0.09985704 -0.29775298 0
0.93449056 -0.10657119 -0.29356921 0
1.0189006 -0.11619748 -0.29407707 0
1.1246592 -0.12825839 -0.29627284 0
1.2191389 -0.13903305 -0.29082566 0
1.373912 -0.1566837 -0.29393443 0
1.5525172 -0.17705218 -0.29431352 0
1.7819014 -0.20321162 -0.29475614 0
2.4396427 -0.27822179 -0.34507668 0
2.943568 -0.33569044 -0.34625441 0
3.6806004 -0.41974309 -0.34577531 0
4.901166 -0.5589388 -0.34485859 0
7.3652434 -0.83994722 -0.34510887 0
14.750751 -1.6822054 -0.34518453 0
0.86562914 -0.076649845 -0.29360554 0
0.93551731 -0.082838319 -0.29314163 0
1.0254183 -0.090798885 -0.29520276 0
1.1224617 -0.099391893 -0.29493919 0
1.2380013 -0.10962272 -0.29457152 0
1.3812646 -0.1223084 -0.29475313 0
1.5632352 -0.13842157 -0.29558894 0
1.7881615 -0.15833837 -0.29503664 0
2.4414313 -0.2161842 -0.34444821 0
2.9314098 -0.25957087 -0.34394407 0
3.6665344 -0.3246648 -0.34357464 0
4.9157033 -0.43527639 -0.34499866 0
7.3997307 -0.65523237 -0.34583983 0
14.800577 -1.3105634 -0.34546646 0
0.87387592 -0.055200953 -0.29583591 0
0.93140608 -0.058835015 -0.29129532 0
1.0285573 -0.064971857 -0.29554024 0
1.1239114 -0.070995182 -0.29475543 0
1.1459247 -0.072385713 -0.27214128 0
1.3924528 -0.087958395 -0.29657248 0
1.5537293 -0.098145902 -0.29322973 0
1.7953479 -0.11340845 -0.29565597 0
2.4401586 -0.15413982 -0.34361035 0
2.9528222 -0.18652374 -0.3457939 0
3.6935413 -0.23331344 -0.34544355 0
4.9433227 -0.31225955 -0.34627363 0
7.4128785 -0.46825635 -0.34579182 0
14.821819 -0.93626398 -0.34530076 0
0.87357366 -0.033080984 -0.2953569 0
0.94383305 -0.035741605 -0.29480579 0
1.0251147 -0.038819626 -0.29417586 0
1.1264837 -0.042658325 -0.29505372 0
1.1365497 -0.043039512 -0.26957107 0
1.3746008 -0.052054163 -0.29239732 0
1.5613358 -0.05912555 -0.29428992 0
1.8040345 -0.068316206 -0.29670802 0
2.4514995 -0.092834771 -0.34476757 0
2.952908 -0.1118224 -0.34536347 0
3.693013 -0.13984911 -0.34495416 0
4.9305215 -0.18671179 -0.344937 0
7.406569 -0.28047615 -0.3450574 0
14.839259 -0.5619415 -0.3452667 0
0.88631403 -0.011183064 -0.29947364 0
0.95338672 -0.012029354 -0.2976003 0
1.0200741 -0.012870781 -0.29254296 0
1.1237844 -0.014179346 -0.29415929 0
1.1404511 -0.014389638 -0.27032417 0
1.1301099 -0.014259159 -0.24023753 0
1.1244758 -0.01418807 -0.21181299 0
1.1262697 -0.014210705 -0.18511868 0
1.1130793 -0.014044274 -0.15643868 0
1.1377642 -0.014355737 -0.13298485 0
1.1269615 -0.014219433 -0.10519934 0
1.1219313 -0.014155964 -0.078439817 0
1.1265922 -0.014214773 -0.052452285 0
1.1434156 -0.014427043 -0.026587039 0
1.133214 -0.014298324 3.2354004e-05 0
1.1379393 -0.014357946 0.026524717 0
1.1300585 -0.01425851 0.052678339 0
1.1436268 -0.014429707 0.080022275 0
1.1373014 -0.014349897 0.10623007 0
1.1259592 -0.014206787 0.13167022 0
1.1201683 -0.014133721 0.15750024 0
0.99515676 -0.012556387 0.16362673 0
0.8715145 0.010996331 -0.29447308 0
0.95112574 0.012000826 -0.29689452 0
1.0301243 0.012997591 -0.29542527 0
1.1280636 0.014233338 -0.29527938 0
1.1246847 0.014190705 -0.26658699 0
1.1197847 0.01412888 -0.23804262 0
1.1188548 0.014117147 -0.21075417 0
1.139385 0.014376187 -0.18727438 0
1.1380347 0.014359148 -0.15994605 0
1.1320583 0.014283742 -0.13231793 0
1.1273602 0.014224463 -0.10523656 0
1.1363307 0.01433765 -0.079446562 0
1.1372757 0.014349572 -0.052949689 0
1.1332185 0.014298381 -0.026349934 0
1.1369854 0.01434591 3.2461685e-05 0
1.1219462 0.014156152 0.026151925 0
1.1334244 0.014300979 0.052835241 0
1.1227272 0.014166007 0.07855989 0
1.1214643 0.014150071 0.10475078 0
1.1385223 0.014365301 0.13313934 0
1.1312991 0.014274163 0.15906528 0
1.0070595 0.012706569 0.16558382 0
0.87757486 0.033232503 -0.29670969 0
0.95232213 0.036063075 -0.29745737 0
1.0210696 0.038666442 -0.29301503 0
1.1335481 0.042925846 -0.29690409 0
1.1297985 0.042783853 -0.26796976 0
1.3790516 0.05222271 -0.29334405 0
1.5700229 0.059454519 -0.29592732 0
1.7861464 0.067638807 -0.29376599 0
2.4443402 0.092563666 -0.34376076 0
2.9733717 0.11259733 -0.34775686 0
3.6925595 0.13983195 -0.34491181 0
4.9417162 0.18713571 -0.34572017 0
7.4172487 0.2808806 -0.34555495 0
14.858421 0.56266713 -0.34571254 0
0.87881303 0.055512819 -0.29750729 0
0.95545185 0.060353938 -0.29881558 0
1.0147873 0.064102039 -0.29158366 0
1.1194155 0.070711188 -0.29357633 0
1.1331738 0.071580276 -0.26911315 0
1.3818488 0.087288558 -0.29431397 0
1.5729563 0.099360429 -0.29685834 0
1.7781119 0.11231969 -0.29281756 0
2.4571383 0.1552124 -0.34600136 0
2.9320755 0.18521321 -0.34336436 0
3.6994274 0.23368526 -0.34599406 0
4.9215493 0.31088421 -0.34474847 0
7.4139776 0.46832579 -0.34584311 0
14.821029 0.93621403 -0.34528235 0
0.8747077 0.07745374 -0.2966848 0
0.93511301 0.082802519 -0.29301494 0
1.0290941 0.091124363 -0.29626095 0
1.1282436 0.099903859 -0.29645845 0
1.1210752 0.099269122 -0.26674995 0
1.3719966 0.12148774 -0.29277542 0
1.5660995 0.1386752 -0.29613054 0
1.7899952 0.15850075 -0.2953392 0
2.4560065 0.2174748 -0.34650454 0
2.9533048 0.26150963 -0.346513 0
3.6893997 0.32668948 -0.34571725 0
4.9279604 0.4363617 -0.34585887 0
7.4038062 0.65559322 -0.34603027 0
14.802522 1.3107357 -0.34551185 0
0.87076712 0.099304043 -0.29610404 0
0.93984216 0.1071815 -0.29525042 0
1.028644 0.11730863 -0.29688922 0
1.1291176 0.12876685 -0.29744735 0
1.2405838 0.14147869 -0.29594138 0
1.3786918 0.15722878 -0.29495701 0
1.5458161 0.17628798 -0.29304317 0
1.7944298 0.2046404 -0.29682857 0
2.435385 0.27773622 -0.34447443 0
2.9298384 0.33412468 -0.34463936 0
3.6794193 0.41960838 -0.34566435 0
4.9107399 0.56003064 -0.34553224 0
7.3791556 0.84153378 -0.34576076 0
14.75819 1.6830537 -0.34535861 0
0.87860775 0.12272664 -0.2997281 0
0.95319664 0.13314545 -0.30040574 0
1.0099636 0.14107484 -0.29243219 0
1.1167787 0.1559951 -0.29514009 0
1.2437019 0.17372413 -0.29763639 0
1.3780975 0.19249691 -0.29577509 0
1.5491747 0.21639349 -0.29462141 0
1.7774551 0.24828041 -0.2949633 0
2.4263313 0.33891743 -0.34429413 0
2.9360483 0.41011629 -0.34647712 0
3.6862073 0.5149008 -0.34741229 0
4.9009762 0.68458343 -0.34595084 0
7.3538895 1.0272139 -0.34568158 0
14.72745 2.0571756 -0.34574419 0
0.84963071 0.14061862 -0.29096097 0
0.92755878 0.15351616 -0.29345345 0
1.014109 0.1678407 -0.29476517 0
1.0998006 0.18202312 -0.29177433 0
1.2302718 0.20361684 -0.29555807 0
1.368995 0.2265763 -0.29495487 0
1.5413276 0.25509831 -0.29425982 0
1.7754614 0.29384878 -0.29576898 0
2.4199417 0.40051383 -0.34471205 0
2.9167266 0.4827345 -0.34552473 0
3.6545768 0.6048528 -0.34575987 0
4.8906093 0.80942309 -0.34655073 0
7.2953167 1.2074156 -0.34425113 0
14.661986 2.4266405 -0.34553513 0
0.86623436 0.1659226 -0.29798618 0
0.92490292 0.17716026 -0.29393423 0
1.0205191 0.19547504 -0.29796749 0
1.1039394 0.21145375 -0.29419452 0
1.2159171 0.2329025 -0.29342827 0
1.3669144 0.2618252 -0.29583615 0
1.401613 0.26847154 -0.26879448 0
1.3975909 0.26770112 -0.23387168 0
1.4032148 0.26877838 -0.20078532 0
1.4008783 0.26833084 -0.16670172 0
1.3956422 0.26732787 -0.13263795 0
1.3970062 0.26758912 -0.099439375 0
7.2824798 1.3949205 -0.34519675 0
14.585713 2.7938161 -0.34528944 0
0.84105539 0.18321283 -0.29082265 0
0.91497767 0.19931583 -0.29228559 0
1.017554 0.22166075 -0.2986401 0
1.0910096 0.23766209 -0.29225427 0
1.2160176 0.26489344 -0.29497197 0
1.2409844 0.2703321 -0.26997229 0
1.222482 0.2663016 -0.23565552 0
1.2341284 0.26883861 -0.20758735 0
1.2193911 0.26562828 -0.17538552 0
1.2294314 0.26781544 -0.14705738 0
1.2283698 0.26758417 -0.11734532 0
1.3187269 0.2872673 -0.094353467 0
7.2469735 1.5786577 -0.34529242 0
14.506277 3.1600015 -0.34518707 0
0.85318071 0.20853414 -0.29674083 0
0.9194203 0.22472438 -0.29542252 0
0.99942976 0.24428028 -0.29503638 0
1.0919502 0.2668941 -0.29421696 0
1.217898 0.2976782 -0.29715595 0
1.2049783 0.29452041 -0.26367244 0
1.1900867 0.29088059 -0.23075247 0
1.1959572 0.29231545 -0.20234329 0
1.2055941 0.29467088 -0.17441525 0
1.2124463 0.29634574 -0.14587395 0
1.2091261 0.29553419 -0.11618254 0
1.3099004 0.3201654 -0.09427008 0
7.2150993 1.763512 -0.34578431 0
14.444263 3.5304618 -0.34572163 0
0.8393448 0.22774151 -0.29383421 0
0.90557104 0.24571085 -0.29287195 0
0.97951519 0.26577431 -0.29104501 0
1.0868952 0.29491001 -0.2947666 0
1.1932957 0.32377991 -0.29305375 0
1.2107619 0.32851905 -0.2666674 0
1.2149887 0.32966593 -0.23711865 0
1.1989535 0.32531506 -0.20417435 0
1.2036726 0.32659549 -0.17527395 0
1.1919134 0.32340482 -0.14433962 0
1.1842923 0.32133698 -0.11453912 0
1.3097135 0.35536784 -0.094871901 0
7.1505637 1.9401803 -0.34492841 0
14.33252 3.8888786 -0.34528637 0
0.83192158 0.2484255 -0.29333711 0
0.90312129 0.26968691 -0.29418731 0
0.98735934 0.29484177 -0.29549277 0
1.0949916 0.32698253 -0.29910523 0
1.1936455 0.35644218 -0.29525495 0
1.1978043 0.35768411 -0.26571721 0
1.2060544 0.36014771 -0.23707348 0
1.2147491 0.36274409 -0.20835699 0
1.2089463 0.3610113 -0.17731223 0
1.2075408 0.36059156 -0.14728731 0
1.2033587 0.35934272 -0.11722295 0
1.2816871 0.3827329 -0.093511708 0
7.1180816 2.1255765 -0.34583923 0
14.22709 4.2484436 -0.3452197 0
0.83957046 0.27396432 -0.29837719 0
0.88863307 0.28997418 -0.29175895 0
0.9821732 0.32049769 -0.29626715 0
1.0612431 0.34629938 -0.29218099 0
1.1690444 0.38147655 -0.29145849 0
1.2063779 0.393659 -0.2697373 0
1.2198648 0.39806002 -0.24168609 0
1.1940794 0.38964584 -0.20643273 0
1.1985573 0.39110705 -0.17717984 0
1.1980772 0.39095038 -0.14728963 0
1.2160208 0.39680564 -0.11939399 0
1.2937425 0.42216739 -0.095138356 0
7.0490484 2.3002093 -0.34519592 0
14.135503 4.6126246 -0.34571213 0
0.824763 0.29235643 -0.29564291 0
0.88920838 0.3152006 -0.29446602 0
0.96458369 0.34191912 -0.29347104 0
1.0685185 0.37876126 -0.29672152 0
1.1615865 0.41175136 -0.29209703 0
1.201777 0.42599782 -0.27102631 0
1.2055385 0.42733118 -0.24090783 0
1.2159479 0.431021 -0.21202651 0
1.2029169 0.42640188 -0.17935811 0
1.2021924 0.42614505 -0.14907034 0
1.207086 0.42787969 -0.11953897 0
1.2653127 0.44851953 -0.093850277 0
6.9822474 2.4750199 -0.34487385 0
14.017846 4.9689517 -0.34579167 0
0.80386496 0.30799285 -0.29084569 0
0.88209957 0.33796766 -0.29484272 0
0.95424312 0.36560875 -0.29303911 0
1.0692327 0.40966591 -0.29969564 0
1.1579496 0.44365686 -0.29390463 0
1.2037606 0.46120891 -0.27401155 0
1.2295922 0.47110602 -0.24801168 0
1.2126886 0.46462956 -0.21343502 0
1.2115103 0.46417812 -0.18232815 0
1.1918924 0.4566617 -0.14917481 0
1.2118067 0.46429166 -0.12112837 0
1.2745986 0.4883498 -0.095422842 0
6.9159126 2.6497631 -0.34479085 0
13.872657 5.3151703 -0.34540933 0
0.80625981 0.33247471 -0.2946544 0
0.88310891 0.36416471 -0.29815733 0
0.95089006 0.39211538 -0.29495463 0
1.0384201 0.42820984 -0.29399478 0
1.1434314 0.471513 -0.29314688 0
1.2019652 0.49565044 -0.27636245 0
1.2104695 0.49915728 -0.24661714 0
1.2081157 0.49818665 -0.21477479 0
1.2026395 0.49592847 -0.18281864 0
1.2113897 0.49953675 -0.15314426 0
1.2127832 0.5001114 -0.12244868 0
1.2424625 0.51235014 -0.093955152 0
6.8640056 2.8304873 -0.34565452 0
13.734074 5.6634746 -0.34540784 0
0.81192452 0.3590396 -0.29994082 0
0.86693472 0.38336554 -0.29586908 0
0.93997771 0.41566572 -0.29473007 0
1.0344148 0.45742655 -0.29603511 0
1.1366925 0.50265461 -0.2945779 0
1.2064147 0.53348631 -0.28039208 0
1.2052042 0.53295106 -0.24820587 0
1.202792 0.53188437 -0.21614607 0
1.2077997 0.5340988 -0.18559313 0
1.2177395 0.53849423 -0.15561563 0
1.2164657 0.53793097 -0.12415172 0
1.2339756 0.54567403 -0.09432479 0
6.7867398 3.0011513 -0.34546798 0
13.579021 6.0047531 -0.34520993 0
0.79286033 0.37480339 -0.29629835 0
0.85886049 0.40600318 -0.29651621 0
0.93162799 0.44040206 -0.29550311 0
1.017539 0.48101419 -0.29458606 0
1.1257809 0.53218263 -0.29513702 0
1.259729 0.59550303 -0.29618219 0
1.4265651 0.67437029 -0.29720467 0
1.6216173 0.76657599 -0.29479343 0
1.9004325 0.89837831 -0.29541466 0
2.6632187 1.258965 -0.34428516 0
3.3269942 1.5727471 -0.34349278 0
4.4613552 2.1089857 -0.34498379 0
6.7005568 3.1675079 -0.34504056 0
13.419958 6.343924 -0.34512672 0
0.77570736 0.39093718 -0.29348201 0
0.85626101 0.4315342 -0.29928368 0
0.91878051 0.46304247 -0.29504099 0
1.0135405 0.51079917 -0.29706624 0
1.1015838 0.55517083 -0.29237378 0
1.2471434 0.62852919 -0.29685831 0
1.3868852 0.69895554 -0.29252002 0
1.5999099 0.80631471 -0.29445302 0
1.8703043 0.94258678 -0.29433569 0
2.6260221 1.3234497 -0.34368524 0
3.3071339 1.6667131 -0.34567532 0
4.428411 2.2318089 -0.34668165 0
6.6210976 3.336868 -0.34517574 0
13.278865 6.6922169 -0.34573188 0
0.76956642 0.41251248 -0.29500377 0
0.83926243 0.44987178 -0.29721624 0
0.90197837 0.48348954 -0.29347059 0
0.99518615 0.53345197 -0.29553872 0
1.094857 0.58687878 -0.29442596 0
1.2183353 0.65306711 -0.29383093 0
1.394052 0.74725693 -0.29791468 0
1.5744158 0.84393775 -0.29358763 0
1.8466762 0.98987812 -0.29445523 0
2.6114452 1.399819 -0.34629107 0
3.2554336 1.7450176 -0.3447651 0
4.3616104 2.3379643 -0.34596142 0
6.538538 3.5048678 -0.34537333 0
13.093605 7.0185957 -0.34541056 0
0.77135831 0.43887886 -0.29984134 0
0.8298856 0.47217909 -0.29802102 0
0.90277296 0.5136497 -0.29785228 0
0.99409425 0.56560868 -0.29935846 0
1.0894135 0.61984241 -0.29707453 0
1.2003106 0.68293935 -0.29354739 0
1.2222633 0.6954298 -0.26486933 0
1.2378645 0.70430636 -0.23406978 0
1.8322833 1.0425122 -0.2962614 0
2.5867124 1.4717587 -0.3478263 0
3.214931 1.8291956 -0.34525505 0
4.3107858 2.452703 -0.34672982 0
6.4476094 3.668489 -0.34535107 0
12.916306 7.3489761 -0.34551635 0
0.75385827 0.45447487 -0.29740286 0
0.80461842 0.48507643 -0.29325047 0
0.88321108 0.53245717 -0.29573786 0
0.96030581 0.57893491 -0.2934902 0
1.0573317 0.6374284 -0.29261994 0
1.1212467 0.67596054 -0.27829528 0
1.157685 0.69792801 -0.2546111 0
1.2208042 0.73598033 -0.23428169 0
1.8037956 1.0874455 -0.29599872 0
2.5312884 1.5260255 -0.34544265 0
3.180388 1.917345 -0.34663188 0
4.2430353 2.5579782 -0.34636295 0
6.3532 3.8301229 -0.3453621 0
12.72806 7.6733036 -0.34555131 0
0.75205272 0.47966594 -0.30137062 0
0.7890625 0.5032711 -0.2921173 0
0.8722015 0.5562979 -0.29665828 0
0.95081836 0.60644042 -0.29517448 0
1.0459212 0.66709787 -0.2940281 0
1.1064411 0.70569801 -0.27895245 0
1.1393315 0.72667575 -0.25452718 0
1.1916947 0.76007348 -0.23230284 0
1.7697397 1.1287558 -0.29499123 0
2.4884493 1.5871552 -0.34495333 0
3.1176271 1.9884503 -0.34515148 0
4.1695123 2.6593518 -0.3457301 0
6.2598386 3.9925807 -0.34565467 0
12.5189 7.9846659 -0.3452341 0
0.73294568 0.49392924 -0.29861438 0
0.77650321 0.52328247 -0.29226407 0
0.85280234 0.57470012 -0.29489967 0
0.93458253 0.62981147 -0.29497498 0
1.0348282 0.69736665 -0.29576337 0
1.1119074 0.74930996 -0.28500777 0
1.1000021 0.74128705 -0.24984109 0
1.1166236 0.75248826 -0.2213006 0
1.1256672 0.75858265 -0.1907638 0
1.1194445 0.75438923 -0.15776853 0
1.1183937 0.75368112 -0.12588286 0
1.1063685 0.74557739 -0.093269162 0
1.1104352 0.74831796 -0.062338859 0
1.1086233 0.7470969 -0.031082632 0
1.1085145 0.74702364 3.8161506e-05 0
1.1193291 0.7543115 0.031459905 0
1.1182594 0.75359064 0.062855266 0
1.0496608 0.70736229 0.088561207 0
1.0802062 0.7279467 0.12165961 0
1.0796871 0.72759688 0.15224069 0
0.70174456 0.49910322 -0.29094204 0
0.77139771 0.54864275 -0.29546022 0
0.84622502 0.60186237 -0.29778326 0
0.9318378 0.66275287 -0.29929283 0
1.0143508 0.72143883 -0.29502094 0
1.1140368 0.79233867 -0.29058698 0
1.1398511 0.81069863 -0.26345533 0
1.454798 1.034699 -0.29340464 0
1.7160602 1.2205169 -0.29594225 0
2.4085784 1.7130581 -0.34543559 0
3.0077929 2.1392386 -0.34451514 0
4.0369163 2.8711843 -0.34631914 0
6.0483007 4.3017454 -0.34553137 0
12.103995 8.6087494 -0.34534332 0
1.0384568 0.7385838 0.089160293 0
1.0334612 0.73503071 0.11844657 0
1.0370924 0.73761338 0.14881229 0
1.0517904 0.74806702 0.18146111 0
1.08518 0.77181482 0.21893793 0
0.69372463 0.52024698 -0.29296756 0
0.76141912 0.57101327 -0.29706365 0
0.83546156 0.62654012 -0.29946488 0
0.87453228 0.65584058 -0.28611255 0
0.99915671 0.74930054 -0.29600787 0
1.1190248 0.83919352 -0.2973181 0
1.2472727 0.93537086 -0.29364684 0
1.4331224 1.0747457 -0.29441002 0
1.6866055 1.264841 -0.29627362 0
2.3616862 1.7711064 -0.3450115 0
2.9581645 2.218425 -0.34513399 0
3.9589713 2.9689629 -0.34595063 0
5.9236889 4.4423695 -0.344708 0
11.886003 8.9137058 -0.34543249 0
0.99871147 0.74896663 0.058187895 0
0.99791121 0.74836653 0.087273017 0
0.97492212 0.73112619 0.11381598 0
0.96918172 0.7268213 0.14165489 0
1.00851 0.75631487 0.17723097 0
1.0411929 0.78082484 0.21397126 0
1.0273911 0.77047437 0.24195579 0
0.68373203 0.54023522 -0.29441202 0
0.74165499 0.58600169 -0.29502907 0
0.80456477 0.63570845 -0.29404762 0
0.87200415 0.68899417 -0.29088199 0
0.9939692 0.78536206 -0.30024779 0
1.0974516 0.86712629 -0.29730639 0
1.2139789 0.9591977 -0.29141524 0
1.4111162 1.1149613 -0.2955761 0
1.6500868 1.3037784 -0.29554492 0
1.9695194 1.5561707 -0.29336533 0
2.8962164 2.2883792 -0.34453523 0
3.8682292 3.0563927 -0.3446523 0
5.8327913 4.6086469 -0.34607705 0
11.655742 9.2095184 -0.34538579 0
0.96383351 0.76155102 0.11472882 0
0.96633786 0.76352978 0.14400998 0
0.94487816 0.74657387 0.16930602 0
0.98597294 0.77904397 0.20659815 0
0.96722066 0.76422733 0.23225389 0
0.67175335 0.55886996 -0.29523376 0
0.73434746 0.61094558 -0.29816115 0
0.78549528 0.65349835 -0.29301289 0
0.8699069 0.7237252 -0.29618123 0
0.88453758 0.7358973 -0.27271542 0
1.0566969 0.87912643 -0.29218358 0
1.1912985 0.99110925 -0.29188263 0
1.3660878 1.1365263 -0.29205972 0
1.6153454 1.3438981 -0.29530352 0
1.9416047 1.6153318 -0.2951861 0
2.8433006 2.365504 -0.3452327 0
3.7957745 3.1579213 -0.34518817 0
5.7006526 4.7426982 -0.34522912 0
11.423208 9.5036182 -0.3454929 0
0.91106087 0.75796354 0.1666213 0
0.93548 0.77827919 0.20007023 0
0.92742795 0.77158022 0.22730245 0
0.65850908 0.57657826 -0.29571441 0
0.71159512 0.62305939 -0.29521403 0
0.76999331 0.67419177 -0.29348418 0
0.85145164 0.74551517 -0.29620975 0
0.88373232 0.77377951 -0.27839968 0
0.87940037 0.76998651 -0.24845436 0
0.87616289 0.76715189 -0.21934468 0
0.88023674 0.77071887 -0.19228578 0
0.87195575 0.76346821 -0.16287419 0
0.88250655 0.77270627 -0.13709058 0
0.86863256 0.76055843 -0.10776553 0
0.86536986 0.75770169 -0.080410339 0
0.86963385 0.76143515 -0.053811349 0
0.86939168 0.76122308 -0.02686712 0
0.880427 0.77088547 3.3407909e-05 0
0.87312734 0.764494 0.027048863 0
0.87701231 0.76789564 0.054334618 0
0.86947793 0.76129866 0.080858365 0
0.8737635 0.76505101 0.10846897 0
0.86522079 0.75757116 0.13447194 0
0.87123221 0.76283467 0.16280647 0
0.63775891 0.58748901 -0.29296154 0
0.69806272 0.64303946 -0.29623869 0
0.76034212 0.70040989 -0.2964491 0
0.83144933 0.76591223 -0.29588196 0
0.88766754 0.81769913 -0.28604978 0
1.0145949 0.93462175 -0.29322159 0
1.1555133 1.0644325 -0.29591057 0
1.314353 1.2107521 -0.29369932 0
1.5365095 1.4153976 -0.2935867 0
1.8519087 1.7059362 -0.29427445 0
2.7218492 2.5073056 -0.34542289 0
3.6327541 3.3464103 -0.3452943 0
5.4618864 5.0313659 -0.34571916 0
10.935511 10.073544 -0.34569094 0
0.62385112 0.60447669 -0.29348758 0
0.68513077 0.66385323 -0.29776627 0
0.73837274 0.7154417 -0.29482982 0
0.80140424 0.77651566 -0.29207137 0
0.87157911 0.84451121 -0.28764233 0
0.9988215 0.96780193 -0.29562819 0
1.0961895 1.0621461 -0.2874921 0
1.0926156 1.0586832 -0.25004205 0
1.4981143 1.4515887 -0.29315734 0
1.8197366 1.7632226 -0.29613939 0
2.666477 2.5836663 -0.3465609 0
3.5538888 3.4435186 -0.34594887 0
5.3346844 5.1690097 -0.3458153 0
10.673842 10.342354 -0.34556076 0
0.61364663 0.6253705 -0.29601803 0
0.65470099 0.66720921 -0.29176694 0
0.72661304 0.7404952 -0.29750207 0
0.78227687 0.79722244 -0.29234046 0
0.86805511 0.8846395 -0.29375437 0
0.97429955 0.99291378 -0.29569331 0
1.0837994 1.1045057 -0.29146084 0
1.1020484 1.1231034 -0.25860527 0
1.4723461 1.5004756 -0.29543146 0
1.7761359 1.8100696 -0.29638413 0
2.5876431 2.6370807 -0.34485552 0
3.4484811 3.5143652 -0.3442128 0
5.1955566 5.2948189 -0.34534928 0
10.411554 10.61047 -0.34562907 0
0.59441864 0.63716638 -0.29440641 0
0.65750659 0.70479131 -0.30084875 0
0.70016873 0.75052148 -0.29433677 0
0.7699517 0.82532299 -0.29542479 0
0.85518217 0.91668278 -0.29713288 0
0.94309717 1.0109202 -0.29387355 0
1.0375105 1.1121234 -0.28646979 0
1.1082423 1.1879417 -0.26700932 0
1.1035535 1.1829158 -0.22735018 0
1.7332113 1.8578556 -0.29695132 0
2.5271487 2.7088892 -0.34579492 0
3.3725681 3.6151071 -0.34563276 0
5.0721073 5.4368691 -0.34615448 0
10.134377 10.863193 -0.34541944 0
0.58129704 0.65550667 -0.29600736 0
0.6226626 0.70215303 -0.29292098 0
0.67875683 0.7654084 -0.29336321 0
0.74857223 0.84413654 -0.29530224 0
0.82625973 0.93174183 -0.2951605 0
0.92370605 1.0416284 -0.29592893 0
1.010878 1.1399287 -0.28696877 0
1.0738569 1.2109478 -0.26600373 0
1.1067293 1.2480166 -0.23441903 0
1.6814225 1.8960763 -0.29618302 0
2.454499 2.7678456 -0.34530294 0
3.2752295 3.6933522 -0.34510043 0
4.9230995 5.5515928 -0.34543771 0
9.8596754 11.118382 -0.34551105 0
0.56363779 0.66885495 -0.29551709 0
0.60366517 0.71635449 -0.29239634 0
0.66961795 0.79461902 -0.29798651 0
0.73873597 0.8766396 -0.30005464 0
0.79467982 0.94302678 -0.29228863 0
0.88609749 1.05151 -0.29228953 0
0.88510603 1.0503334 -0.25870764 0
1.0360019 1.2293978 -0.26422867 0
1.1001208 1.305486 -0.23992191 0
1.1043134 1.3104612 -0.20028745 0
2.3909862 2.8373241 -0.34633195 0
3.1865571 3.7814081 -0.3457033 0
4.7814579 5.6740375 -0.34543756 0
9.5716286 11.358415 -0.34535301 0
0.54999173 0.68712246 -0.29736033 0
0.59506071 0.74342859 -0.29722235 0
0.63766563 0.79665625 -0.29262194 0
0.7058112 0.88179272 -0.29562697 0
0.77353024 0.96639633 -0.29338738 0
0.86799681 1.0844165 -0.29525295 0
0.89625317 1.1197181 -0.27014011 0
0.98539895 1.2310908 -0.25916472 0
1.0546148 1.3175644 -0.23717439 0
1.0972604 1.3708428 -0.205218 0
1.0909163 1.3629169 -0.16294885 0
3.0849583 3.8541381 -0.34512427 0
4.6336675 5.7889905 -0.34520608 0
9.2802219 11.594082 -0.34528694 0
0.53548717 0.70473832 -0.29903975 0
0.56970036 0.74976528 -0.29391354 0
0.63612098 0.83717942 -0.30151334 0
0.67751855 0.89166152 -0.29310933 0
0.74761593 0.98391449 -0.29288399 0
0.84565496 1.1129408 -0.29711342 0
0.89627349 1.1795583 -0.27903065 0
0.89039612 1.1718231 -0.24188001 0
1.0024818 1.3193357 -0.23286456 0
1.0662957 1.4033192 -0.2059854 0
1.0919944 1.4371406 -0.16847414 0
2.986254 3.9301178 -0.34506899 0
4.4903197 5.9095731 -0.34552845 0
8.9868059 11.827261 -0.34536639 0
0.51847887 0.71933377 -0.29958487 0
0.55278963 0.76693624 -0.2950815 0
0.60270578 0.83618951 -0.29558417 0
0.65945733 0.91492617 -0.29519168 0
0.72377121 1.0041548 -0.29337788 0
0.81310451 1.1280951 -0.29558638 0
0.8851167 1.2280043 -0.28511551 0
0.8987307 1.2468922 -0.25261274 0
0.89333957 1.2394127 -0.21471009 0
1.0213625 1.4170308 -0.20414917 0
1.0815527 1.5005382 -0.17265116 0
1.0904068 1.5128223 -0.13036971 0
4.3345461 6.0137167 -0.34511125 0
8.6877966 12.053385 -0.34545648 0
0.48877829 0.71551853 -0.29276493 0
0.53018939 0.77613991 -0.29338065 0
0.58435261 0.85542899 -0.29707709 0
0.62347704 0.91270298 -0.28930521 0
0.7028777 1.0289369 -0.29534128 0
0.7761305 1.1361711 -0.29247659 0
0.88004488 1.2882905 -0.29386202 0
0.89696145 1.3130546 -0.26134717 0
0.89604104 1.3117071 -0.2232452 0
0.89810628 1.3147304 -0.18608604 0
1.0240619 1.4991158 -0.16945967 0
1.0877124 1.5922933 -0.13480952 0
1.1017731 1.6128768 -0.090933949 0
8.380619 12.268319 -0.34544438 0
0.47740346 0.73819029 -0.29701671 0
0.5227567 0.80831814 -0.30046105 0
0.55955219 0.86521357 -0.29547647 0
0.61451942 0.95020729 -0.2961826 0
0.67219919 1.0393953 -0.29338005 0
0.75242919 1.1634518 -0.29451686 0
0.85313237 1.3191652 -0.29589882 0
0.9741928 1.5063562 -0.29483372 0
0.89656371 1.3863213 -0.23201899 0
0.89263231 1.3802423 -0.19210862 0
0.96946144 1.4990402 -0.16663218 0
1.0311209 1.5943819 -0.13274077 0
1.1046461 1.7080709 -0.094698958 0
1.1017588 1.7036066 -0.047171183 0
0.45595697 0.74563557 -0.29528806 0
0.49027053 0.80174917 -0.29332635 0
0.53784269 0.87954491 -0.29564074 0
0.59207404 0.96823043 -0.297048 0
0.65867919 1.0771513 -0.29924935 0
0.71635687 1.1714727 -0.29187754 0
0.81414574 1.3313888 -0.29393795 0
0.93182003 1.5238239 -0.29355597 0
1.0930599 1.7875026 -0.294451 0
0.89935291 1.4707298 -0.2014796 0
0.8863427 1.4494539 -0.15858302 0
0.97219318 1.5898468 -0.13027886 0
1.0477426 1.7133944 -0.093498215 0
1.1005614 1.79977 -0.049049117 0
0.43769601 0.75811017 -0.29575923 0
0.47677588 0.82579839 -0.29762769 0
0.51369488 0.8897438 -0.29461712 0
0.56800032 0.98380333 -0.29733285 0
0.62050313 1.0747408 -0.29413515 0
0.68437612 1.1853718 -0.29094428 0
0.78275919 1.3557758 -0.29486647 0
0.89388674 1.5482541 -0.29382256 0
1.0490539 1.817011 -0.29485643 0
1.2586882 2.1801074 -0.29421365 0
0.89839685 1.5560658 -0.16771309 0
0.89292324 1.5465852 -0.12484732 0
0.98980576 1.7143903 -0.092159986 0
1.0508579 1.8201357 -0.048865758 0
1.0988189 1.9032062 6.2738916e-05 0
0.42098328 0.77360648 -0.2975648 0
0.44728908 0.8219465 -0.29207766 0
0.49283543 0.90564328 -0.29566893 0
0.54498237 1.0014695 -0.29841992 0
0.59190381 1.0876931 -0.29349798 0
0.66531849 1.2226013 -0.29586634 0
0.73774034 1.355685 -0.29070452 0
0.86214739 1.5842977 -0.29643887 0
1.014038 1.8634145 -0.29813847 0
1.2098527 2.2232473 -0.29582044 0
1.2962437 2.3820009 -0.25312579 0
0.90134943 1.6563359 -0.13182849 0
0.88576257 1.6276933 -0.086270198 0
0.99413466 1.8268398 -0.048356719 0
1.0704592 1.9670951 6.3934021e-05 0
1.1008631 2.0229659 0.053679783 0
0.39724275 0.77599692 -0.29453403 0
0.42851964 0.83709496 -0.29352394 0
0.46983209 0.91779715 -0.29567131 0
0.51657057 1.0090988 -0.29671383 0
0.56829578 1.1101418 -0.29559097 0
0.63082236 1.2322848 -0.29426309 0
0.7151041 1.3969256 -0.29558355 0
0.81510532 1.5922738 -0.29398835 0
0.95109081 1.8579156 -0.29332465 0
1.1491555 2.2448268 -0.29473877 0
1.244915 2.4318888 -0.25500706 0
1.2475164 2.4369705 -0.19139259 0
0.90183282 1.7616923 -0.092136614 0
0.88762534 1.7339387 -0.045290187 0
1.0067282 1.9666009 6.3072039e-05 0
1.0844635 2.1184537 0.055469614 0
1.0972195 2.1433721 0.11223626 0
0.37559789 0.78173655 -0.29302114 0
0.41633686 0.86652708 -0.30006406 0
0.44349533 0.92305237 -0.29366478 0
0.48291555 1.0050982 -0.29186073 0
0.53846693 1.1207179 -0.29469454 0
0.60254163 1.2540774 -0.29574141 0
0.67868656 1.4125588 -0.29517296 0
0.77672774 1.6166131 -0.29476881 0
0.9054727 1.8845717 -0.29383144 0
1.0988841 2.2871213 -0.29655597 0
1.3692927 2.849926 -0.29512441 0
1.8294278 3.807611 -0.29531837 0
3.2149897 6.6913981 -0.34560668 0
0.89945298 1.8720427 -0.048289109 0
0.89073271 1.853893 5.8717615e-05 0
1.0187275 2.1202903 0.054827008 0
1.0992022 2.2877831 0.11830785 0
0.35938841 0.79904419 -0.2960144 0
0.39344263 0.87475848 -0.29938048 0
0.42510211 0.94514841 -0.29718646 0
0.45986059 1.0224284 -0.29342934 0
0.50928062 1.1323062 -0.29426807 0
0.56423235 1.2544827 -0.29238558 0
0.63861454 1.41986 -0.29323721 0
0.74177521 1.6492217 -0.29720625 0
0.86103231 1.9143714 -0.29499543 0
1.0307688 2.2917538 -0.29368985 0
1.2918242 2.87217 -0.29395792 0
1.7297585 3.8458488 -0.29480416 0
3.0449028 6.7698674 -0.34558025 0
6.0909019 13.542172 -0.3452433 0
0.89225447 1.983789 6.2098727e-05 0
0.89499086 1.9898729 0.050854344 0
1.097205 2.4394646 0.12467998 0
0.33311832 0.79357582 -0.29078132 0
0.37004361 0.88154161 -0.29841053 0
0.39750528 0.94696259 -0.29450855 0
0.43878832 1.0453097 -0.29672328 0
0.48840114 1.1635005 -0.29907623 0
0.5382241 1.282192 -0.29558361 0
0.60416514 1.439281 -0.29400527 0
0.69803125 1.6628947 -0.29640102 0
0.81430864 1.9398984 -0.29566786 0
0.97838062 2.3307612 -0.29543009 0
1.2200789 2.9065504 -0.29423133 0
1.6311842 3.8859117 -0.29462549 0
2.8727794 6.843719 -0.34553888 0
5.7463741 13.689381 -0.34518886 0
0.99980617 2.3818023 7.3744384e-05 0
0.89823157 2.1398249 0.054089997 0
0.88376725 2.1053669 0.10643048 0
0.32276222 0.82676089 -0.29986054 0
0.3429071 0.87836236 -0.29431093 0
0.37914267 0.97118032 -0.29896906 0
0.41120315 1.0533038 -0.29595226 0
0.45170766 1.1570568 -0.2943956 0
0.50376284 1.2903969 -0.29445025 0
0.54665875 1.4002756 -0.28312904 0
0.54668599 1.4003454 -0.24706511 0
0.76594621 1.9619842 -0.29599333 0
0.91810781 2.3517487 -0.29505923 0
1.1550169 2.9585953 -0.29645443 0
1.5368159 3.9365799 -0.29543218 0
2.7008233 6.9182048 -0.34574786 0
5.4069219 13.849922 -0.34568584 0
0.93249094 2.3885913 7.3202587e-05 0
0.89644957 2.2962706 0.057454381 0
0.89244831 2.2860215 0.11438784 0
0.29715347 0.82179248 -0.29524437 0
0.31585488 0.87351215 -0.28992233 0
0.3558141 0.98402131 -0.30006197 0
0.3818832 1.0561167 -0.29394087 0
0.42367584 1.1716963 -0.29530564 0
0.46895736 1.2969246 -0.2931456 0
0.49836525 1.3782536 -0.27604511 0
0.50037479 1.3838111 -0.24184278 0
0.71220595 1.9696406 -0.29434285 0
0.85609215 2.3675649 -0.29423901 0
1.0777215 2.9804916 -0.29582873 0
1.4373004 3.974925 -0.29549336 0
2.5247843 6.9824147 -0.34566212 0
5.0545888 13.978714 -0.34560621 0
0.86502457 2.3922679 7.2623043e-05 0
0.89491981 2.4749448 0.061340261 0
0.89158726 2.4657283 0.12221509 0
0.27207685 0.81628531 -0.29070616 0
0.30238226 0.90720773 -0.29847795 0
0.32775676 0.98333633 -0.29723594 0
0.35872588 1.0762498 -0.29692993 0
0.39315954 1.1795578 -0.29469225 0
0.43224394 1.2968189 -0.29056332 0
0.45818394 1.374644 -0.27291912 0
0.46174335 1.385323 -0.23999389 0
0.66437298 1.9932526 -0.29527158 0
0.79415214 2.3826163 -0.2935251 0
1.0033408 3.0102246 -0.29617208 0
1.560322 4.6812806 -0.34496596 0
2.3455157 7.0370197 -0.34532475 0
4.7025042 14.108459 -0.34576949 0
0.79280716 2.378581 7.1577306e-05 0
0.89558154 2.6869249 0.066012844 0
0.88491124 2.6549118 0.13044351 0
0.25742343 0.84262455 -0.29767779 0
0.27806419 0.91018802 -0.29705489 0
0.30257294 0.99041253 -0.29697195 0
0.33163688 1.0855476 -0.29709122 0
0.36126843 1.1825405 -0.29306611 0
0.40391168 1.3221247 -0.29385561 0
0.45109969 1.4765854 -0.29080534 0
0.52527052 1.7193689 -0.29547334 0
0.61306417 2.0067441 -0.29488412 0
0.7325716 2.3979278 -0.29304028 0
0.72976494 2.3887408 -0.23313867 0
0.72945309 2.3877201 -0.17454004 0
0.72851545 2.3846509 -0.11608171 0
0.72939533 2.387531 -0.058043852 0
0.73276818 2.3985713 7.1599519e-05 0
0.87803811 2.8740835 0.070044234 0
0.87090999 2.8507512 0.13894144 0
0.23458686 0.8434782 -0.2957935 0
0.25459552 0.91542107 -0.2965712 0
0.27725738 0.99690384 -0.29672563 0
0.29955015 1.0770595 -0.29260591 0
0.32938552 1.1843352 -0.29135782 0
0.37142813 1.3355032 -0.29465172 0
0.41852003 1.5048264 -0.29419324 0
0.48363715 1.738961 -0.29664806 0
0.5619939 2.0206995 -0.29475665 0
0.66225177 2.3811858 -0.28885972 0
0.66389644 2.3870995 -0.23126946 0
0.65999478 2.3730707 -0.1721967 0
0.66262305 2.3825207 -0.11512726 0
0.66227114 2.3812554 -0.057466622 0
0.66496402 2.390938 7.0848109e-05 0
0.84144747 3.0255001 0.07319352 0
0.83126628 2.9888928 0.14460565 0
0.21220189 0.84503275 -0.29436675 0
0.23065317 0.91850966 -0.29559168 0
0.25237456 1.0050088 -0.29714748 0
0.27517 1.095785 -0.29571217 0
0.29776096 1.185747 -0.28976405 0
0.3364118 1.3396629 -0.29360265 0
0.3797639 1.5123001 -0.29368696 0
0.43370059 1.7270874 -0.29266202 0
0.51067048 2.0335977 -0.29466417 0
0.60049146 2.3912838 -0.28815439 0
0.59879357 2.3845224 -0.22948253 0
0.59766465 2.3800268 -0.17155226 0
0.59697413 2.3772771 -0.11410948 0
0.59568936 2.3721609 -0.056866206 0
0.59904742 2.3855333 7.0217582e-05 0
0.78534698 3.1274176 0.075155675 0
0.7837013 3.1208642 0.14998583 0
0.19286193 0.85924476 -0.2975271 0
0.20604669 0.91798598 -0.29365605 0
0.22455283 1.0004351 -0.29402587 0
0.24585579 1.0953448 -0.29382524 0
0.2691144 1.1989673 -0.29124215 0
0.30354756 1.352375 -0.29461578 0
0.34164485 1.5221074 -0.29382342 0
0.39445323 1.7573808 -0.29601413 0
0.4612233 2.0548573 -0.29596364 0
0.54932481 2.4473698 -0.29314885 0
0.5500229 2.45048 -0.23441954 0
0.54834479 2.4430037 -0.17503831 0
0.55027294 2.4515941 -0.1169728 0
0.55175471 2.4581957 -0.05857617 0
0.54694855 2.4367831 7.1297072e-05 0
0.72843814 3.2453613 0.0775235 0
0.72300637 3.2211616 0.15388006 0
0.17008722 0.85861892 -0.29572976 0
0.18407929 0.92925239 -0.29567975 0
0.20092556 1.0142943 -0.29651421 0
0.21743415 1.0976315 -0.29287326 0
0.24170554 1.2201561 -0.29481339 0
0.26932243 1.3595691 -0.29460838 0
0.30587542 1.5440927 -0.29648274 0
0.34657609 1.7495542 -0.29312906 0
0.40866363 2.0629787 -0.29555371 0
0.48730618 2.459975 -0.29309216 0
0.61145836 3.0867088 -0.29371306 0
0.66913849 3.3778846 -0.24073473 0
0.66813982 3.372843 -0.16007274 0
0.66745073 3.3693643 -0.079861499 0
0.66885108 3.3764336 9.8264798e-05 0
0.66314656 3.3476367 0.07954146 0
0.14941187 0.86869884 -0.29780787 0
0.16102466 0.93621701 -0.29650822 0
0.17647061 1.0260216 -0.29854542 0
0.1912093 1.1117141 -0.29524916 0
0.21257511 1.2359376 -0.29723552 0
0.23466304 1.3643595 -0.29426932 0
0.26514664 1.5415949 -0.29462439 0
0.30267558 1.7597927 -0.29347107 0
0.35269022 2.0505838 -0.29240954 0
0.42479774 2.4698257 -0.29289514 0
0.53531885 3.1124089 -0.29477903 0
0.83757871 4.8697848 -0.34544274 0
1.2562531 7.3040094 -0.34502849 0
2.5186234 14.643583 -0.34546909 0
0.58875346 3.4230845 0.080955289 0
0.1270209 0.86928159 -0.29681408 0
0.13715267 0.93861949 -0.2960785 0
0.14992753 1.0260457 -0.29735669 0
0.13800962 0.94448417 -0.24983157 0
0.13723662 0.93919408 -0.22496586 0
0.13744254 0.94060326 -0.20205972 0
0.13702089 0.93771762 -0.17849563 0
0.13763231 0.94190192 -0.15644677 0
0.13937926 0.95385736 -0.13547356 0
0.13937339 0.95381725 -0.11265958 0
0.14090246 0.96428156 -0.090962186 0
0.7134226 4.8823867 -0.34494951 0
1.0743241 7.3522563 -0.34591657 0
2.1490016 14.706931 -0.34557393 0
0.51024276 3.4919031 0.082252078 0
0.25221872 1.7260867 0.081310533 0
0.25084901 1.716713 0.12138844 0
0.24653444 1.6871858 0.15925308 0
0.10606714 0.88067466 -0.29969472 0
0.10967099 0.91059732 -0.28627488 0
0.10726137 0.89059031 -0.25723413 0
0.10931635 0.9076528 -0.23928306 0
0.14798026 1.2286789 -0.29331836 0
0.1106695 0.91888803 -0.19673218 0
0.11135139 0.92454976 -0.17539829 0
0.11284898 0.93698424 -0.15510748 0
0.11440393 0.94989496 -0.13445787 0
0.11473907 0.95267755 -0.1121472 0
0.11709424 0.97223258 -0.091404326 0
0.25330564 2.103195 -0.1480957 0
0.25327501 2.1029406 -0.098609164 0
0.25385299 2.1077392 -0.049360026 0
0.25079849 2.0823779 5.9878144e-05 0
0.25246617 2.0962245 0.049210988 0
0.25168169 2.0897112 0.098109268 0
0.20813981 1.7281832 0.12178926 0
0.082635216 0.87066013 -0.2954829 0
0.086355969 0.9098627 -0.28526789 0
0.087998092 0.92716444 -0.26707146 0
0.0849142 0.89467192 -0.23522103 0
0.10219044 1.0766977 -0.25633904 0
0.086091265 0.90707374 -0.19367589 0
0.089392014 0.94185102 -0.17819579 0
0.08966276 0.9447037 -0.15596108 0
0.088966966 0.93737262 -0.13232535 0
0.091213793 0.96104568 -0.11282534 0
0.093611188 0.98630506 -0.092475772 0
0.46696952 4.9200788 -0.34550563 0
0.70148844 7.3910136 -0.3456324 0
1.4041395 14.794277 -0.34551936 0
0.34398034 3.6242414 0.084851891 0
0.19724877 2.0782499 0.097306468 0
0.06094119 0.87678248 -0.29694414 0
0.062574372 0.9002797 -0.28167847 0
0.062346529 0.89700162 -0.25784764 0
0.061588988 0.88610262 -0.23248532 0
0.073423825 1.0563747 -0.25097942 0
0.063474461 0.91322964 -0.19458623 0
0.064918481 0.9340052 -0.17634523 0
0.065231889 0.93851435 -0.15461823 0
0.066260822 0.95331794 -0.13429745 0
0.071464941 1.0281914 -0.12045804 0
0.21862601 3.1454499 -0.29430571 0
0.34260887 4.9292355 -0.34543142 0
0.51449281 7.4021902 -0.34543779 0
1.0302899 14.823145 -0.34547624 0
0.25581017 3.6804316 0.085988894 0
0.14327782 2.061389 0.096317016 0
0.038507123 0.87141973 -0.29470491 0
0.042229138 0.95564932 -0.29857388 0
0.045401108 1.0274312 -0.29491696 0
0.050124917 1.1343315 -0.29718617 0
0.04033576 0.91280192 -0.21655779 0
0.040592268 0.9186067 -0.19545142 0
0.041436214 0.93770528 -0.17679006 0
0.041215885 0.93271923 -0.15344326 0
0.042486954 0.96148366 -0.13525364 0
0.041808859 0.94613832 -0.11068622 0
0.13976312 3.162852 -0.29550979 0
0.21847422 4.9440913 -0.34597591 0
0.32770473 7.4159884 -0.34558567 0
0.65580791 14.840993 -0.34539643 0
0.16472986 3.7278519 0.086971968 0
0.09231963 2.0892017 0.097476631 0
0.016693734 0.88192117 -0.29801899 0
0.018086696 0.95551062 -0.29829293 0
0.019628754 1.0369767 -0.29742002 0
0.017291544 0.91350317 -0.23914035 0
0.017583406 0.928922 -0.22020678 0
0.017347464 0.91645741 -0.19483891 0
0.017834945 0.94221073 -0.1774981 0
0.018327147 0.9682135 -0.15915571 0
0.018586632 0.98192197 -0.1380188 0
0.018458087 0.97513098 -0.11398719 0
0.059955932 3.1674402 -0.2957029 0
0.093570955 4.9433041 -0.34564549 0
0.14038311 7.4163651 -0.34532818 0
0.28134185 14.863142 -0.34563658 0
0.071126841 3.7575936 0.087596081 0
0.037713114 1.9923639 0.18611601 0
-0.0055894535 0.88620621 -0.29941931 0
-0.005950978 0.94352579 -0.29450461 0
-0.0064581498 1.0239377 -0.29363349 0
-0.0059503857 0.94343191 -0.24693589 0
-0.0059419386 0.94209254 -0.22329338 0
-0.0059310747 0.94037014 -0.19989093 0
-0.0059349975 0.94099212 -0.17724031 0
-0.0060703554 0.96245307 -0.1581836 0
-0.005995932 0.9506532 -0.13360238 0
-0.0064821285 1.0277395 -0.12011771 0
-0.019902933 3.1556044 -0.29455104 0
-0.031223975 4.950552 -0.34609714 0
-0.046799034 7.4199729 -0.34544116 0
-0.093752883 14.864491 -0.34561294 0
-0.023819922 3.7766416 0.088026099 0
-0.012623525 2.001456 0.18693559 0
-0.027416321 0.86894685 -0.29372823 0
-0.030036071 0.95197856 -0.29728496 0
-0.0287602 0.91154051 -0.26152635 0
-0.028574346 0.9056499 -0.23715998 0
-0.028791079 0.91251916 -0.21638726 0
-0.029151145 0.9239313 -0.19649041 0
-0.029790064 0.9441815 -0.177926 0
-0.030165125 0.95606887 -0.1572094 0
-0.030138418 0.95522243 -0.13430867 0
-0.079790622 2.5289247 -0.29571086 0
-0.099306718 3.1474779 -0.29393286 0
-0.15599284 4.9441166 -0.34581238 0
-0.2345503 7.4339571 -0.34625751 0
-0.46908388 14.867384 -0.34584531 0
-0.11971501 3.7943087 0.088480137 0
-0.050081827 1.587319 0.074024737 0
-0.050079953 1.5872595 0.11111074 0
-0.04991474 1.5820233 0.14783123 0
-0.04932721 0.86789471 -0.29369986 0
-0.052999079 0.93249995 -0.29152703 0
-0.051417939 0.90468037 -0.2598477 0
-0.050741557 0.89277971 -0.23405053 0
-0.051645618 0.90868628 -0.21571878 0
-0.05219214 0.91830212 -0.19551115 0
-0.052153185 0.91761678 -0.17311294 0
-0.054456867 0.95814919 -0.15772726 0
-0.1192 2.0972817 -0.29521644 0
-0.14410225 2.5354278 -0.29680204 0
-0.1794548 3.1574435 -0.29519248 0
-0.21652983 3.8097656 -0.26676837 0
-0.21669704 3.8127074 -0.17778572 0
-0.21666025 3.8120601 -0.088775136 0
-0.21680704 3.8146427 0.00010907764 0
-0.21640173 3.8075113 0.088887073 0
-0.090422772 1.5909566 0.11149379 0
-0.071829259 0.87391615 -0.29625669 0
-0.073264249 0.89137506 -0.27915937 0
-0.076105274 0.92594069 -0.26642108 0
-0.074634671 0.90804839 -0.23847125 0
-0.075264603 0.91571259 -0.2177684 0
-0.075189792 0.91480237 -0.19510794 0
-0.076011479 0.92479944 -0.17477426 0
-0.082524762 1.0040438 -0.16557242 0
-0.17203408 2.093066 -0.29514021 0
-0.20717472 2.520607 -0.29558507 0
-0.25828445 3.1424375 -0.29430526 0
-0.3162353 3.8475013 -0.26988363 0
-0.31606466 3.8454249 -0.17962611 0
-0.3169601 3.8563192 -0.089963488 0
-0.31729317 3.8603716 0.00011057901 0
-0.31175026 3.7929335 0.088702187 0
-0.13126439 1.5970383 0.11211646 0
-0.094591685 0.878658 -0.29857844 0
-0.096730828 0.8985284 -0.28207439 0
-0.096847273 0.89961004 -0.25946563 0
-0.096169002 0.89330965 -0.23516311 0
-0.11478423 1.0662256 -0.25417039 0
-0.096333861 0.89484096 -0.19130823 0
-0.10193419 0.94686216 -0.17937289 0
-0.19223806 1.7856908 -0.29517645 0
-0.22469543 2.0871859 -0.2950168 0
-0.27007589 2.508723 -0.2948969 0
-0.33849248 3.1442416 -0.29518035 0
-0.5298779 4.9220128 -0.34608328 0
-0.79470176 7.3819494 -0.34564981 0
-1.5914994 14.783368 -0.34570593 0
-0.40664798 3.7773352 0.088549227 0
-0.1158857 0.8696484 -0.29641637 0
-0.12364234 0.92785704 -0.29216811 0
-0.13540359 1.0161177 -0.29396084 0
-0.14995737 1.1253346 -0.29714522 0
-0.12136579 0.91077292 -0.2177739 0
-0.12752515 0.95699507 -0.20521893 0
-0.20575394 1.5440522 -0.29339451 0
-0.23906417 1.7940243 -0.29745665 0
-0.27488807 2.06286 -0.29246596 0
-0.33076784 2.4822021 -0.29266754 0
-0.41638204 3.1246822 -0.29423702 0
-0.41926566 3.146322 -0.22190188 0
-0.42049232 3.1555271 -0.14820303 0
-1.9641398 14.739619 -0.34573203 0
-0.50255471 3.7713532 0.088678099 0
-0.25314838 1.8997173 0.089332119 0
-0.25246882 1.8946179 0.13373213 0
-0.23996013 1.8007481 0.16967283 0
-0.13771807 0.86598974 -0.2962597 0
-0.15125817 0.9511317 -0.30060333 0
-0.16419958 1.0325091 -0.29980627 0
-0.17687005 1.1121826 -0.29475731 0
-0.19653465 1.2358363 -0.29659104 0
-0.21584405 1.3572564 -0.29212654 0
-0.24473935 1.538954 -0.293506 0
-0.25282714 1.5898111 -0.26457101 0
-0.25244743 1.5874233 -0.2258914 0
-0.25345063 1.5937318 -0.18860534 0
-0.25419617 1.5984197 -0.15107189 0
-0.25345871 1.5937825 -0.11282057 0
-0.25371873 1.5954175 -0.075207457 0
-0.24985421 1.5711168 -0.036988202 0
-0.2536124 1.594749 4.609962e-05 0
-0.25232357 1.5866446 0.037445549 0
-0.25350612 1.5940806 0.075236797 0
-0.25480437 1.6022441 0.11351263 0
-0.25296402 1.5906718 0.15043238 0
-0.15808409 0.85445654 -0.2935856 0
-0.17172353 0.92817873 -0.29462507 0
-0.18717417 1.0116906 -0.29503906 0
-0.20420326 1.1037341 -0.29379061 0
-0.2257798 1.2203569 -0.29415005 0
-0.25463632 1.3763286 -0.29751998 0
-0.28182569 1.5232893 -0.29178211 0
-0.33103544 1.7892717 -0.29905975 0
-0.38323471 2.0714126 -0.29604551 0
-0.40354156 2.1811728 -0.25924703 0
-0.42228737 2.2824953 -0.21666446 0
-0.42324737 2.2876842 -0.16264482 0
-0.42439607 2.2938929 -0.10860371 0
-2.7018313 14.603603 -0.34530249 0
-0.68755931 3.7163103 0.08808814 0
-0.18039618 0.85400039 -0.29489934 0
-0.19665895 0.93098879 -0.29699796 0
-0.21305758 1.0086203 -0.2956177 0
-0.23347442 1.1052742 -0.29567486 0
-0.25620481 1.2128805 -0.29381299 0
-0.28795081 1.3631668 -0.29615155 0
-0.32185715 1.5236803 -0.29331961 0
-0.3715944 1.7591379 -0.29549661 0
-0.43236485 2.0468268 -0.2939977 0
-0.48106551 2.2773769 -0.27203801 0
-0.48363265 2.28953 -0.21842134 0
-0.48479974 2.2950549 -0.16398655 0
-0.48415378 2.291997 -0.10905775 0
-3.0717485 14.54174 -0.34556285 0
-0.77737784 3.6801274 0.087667637 0
-0.20422052 0.85899639 -0.29830942 0
-0.21589649 0.90810806 -0.29134423 0
-0.24009448 1.0098901 -0.29767117 0
-0.25852221 1.0874012 -0.29254591 0
-0.28485098 1.1981459 -0.29189223 0
-0.321044 1.3503815 -0.29504031 0
-0.3634212 1.5286294 -0.29594386 0
-0.4166466 1.7525071 -0.29605493 0
-0.48847577 2.0546362 -0.29679576 0
-0.54245609 2.2816894 -0.27410129 0
-0.54297924 2.28389 -0.21912089 0
-0.54187918 2.2792628 -0.16378322 0
-0.54628789 2.2978067 -0.10995522 0
-3.4346979 14.447093 -0.34526375 0
-0.85853654 3.6111932 0.08651413 0
-0.22305071 0.84306973 -0.29463968 0
-0.23870596 0.90224224 -0.29130247 0
-0.26383421 0.99722004 -0.29580513 0
-0.28659657 1.0832554 -0.29328319 0
-0.31922764 1.2065917 -0.29581848 0
-0.35350573 1.3361535 -0.29378748 0
-0.39364555 1.4878708 -0.28988412 0
-0.39222291 1.4824936 -0.25203303 0
-0.39782 1.503649 -0.21858545 0
-0.39224294 1.4825693 -0.17923452 0
-0.39570209 1.495644 -0.14440723 0
-0.39481732 1.4922998 -0.10791533 0
-0.60398984 2.2829137 -0.109937 0
-3.8008869 14.366296 -0.3455154 0
-0.94347066 3.566057 0.085975885 0
-0.24769513 0.84897774 -0.29879409 0
-0.26415277 0.90538651 -0.2943764 0
-0.28988773 0.99359328 -0.29680508 0
-0.31321508 1.0735481 -0.29270208 0
-0.34840396 1.1941583 -0.29483217 0
-0.38577226 1.3222386 -0.29277551 0
-0.39264542 1.3457963 -0.26405025 0
-0.39224505 1.3444241 -0.2301701 0
-0.3947033 1.3528498 -0.19804886 0
-0.39152226 1.3419468 -0.16337663 0
-0.39614546 1.3577929 -0.13202076 0
-0.39153069 1.3419756 -0.097728148 0
-0.66951978 2.2947865 -0.11128706 0
-4.1625023 14.267021 -0.34554443 0
-1.020553 3.4979565 0.084927976 0
-0.26686859 0.83566839 -0.29638606 0
-0.28789899 0.90152264 -0.29538861 0
-0.30945161 0.96901214 -0.29170242 0
-0.34127364 1.0686592 -0.29362407 0
-0.3785854 1.1854967 -0.29495883 0
-0.39310169 1.2309527 -0.274672 0
-0.393197 1.2312512 -0.24344562 0
-0.39525717 1.2377024 -0.21353887 0
-0.39366749 1.2327245 -0.1818599 0
-0.39373973 1.2329507 -0.15126848 0
-0.3903611 1.222371 -0.11977325 0
-0.41112816 1.2874006 -0.094479345 0
-0.73117697 2.2895966 -0.11189469 0
-4.5214872 14.158518 -0.34557036 0
-1.0913452 3.4174221 0.083614789 0
-0.28546828 0.82175994 -0.29391494 0
-0.3076978 0.88575077 -0.29267222 0
-0.33640581 0.9683907 -0.29397765 0
-0.37718678 1.0857843 -0.30084923 0
-0.39764461 1.144675 -0.28720775 0
-0.3939237 1.1339639 -0.25516739 0
-0.39448452 1.1355783 -0.22642547 0
-0.39399561 1.134171 -0.19732954 0
-0.39612988 1.1403147 -0.1696479 0
-0.39410865 1.1344963 -0.14036496 0
-0.39457661 1.1358434 -0.11223496 0
