# .PCD v0.7 - Point Cloud Data file format
VERSION 0.7
FIELDS x y z
SIZE 4 4 4
TYPE F F F
COUNT 1 1 1
WIDTH 1131
HEIGHT 1
VIEWPOINT 0 0 0 1 0 0 0
POINTS 1131
DATA ascii
-1.3954773 -3.7030243e-06 -0.049820337
-1.0628557 -2.8203831e-06 0.3536059
-1.020636 -2.708349e-06 0.42257994
-1.4024198 -0.017663285 -0.050072167
-1.0424756 -0.013129837 0.34685308
-1.0197186 -0.012843217 0.42223367
-1.402836 -0.035338935 -0.050098941
-1.0454057 -0.026334886 0.34791073
-1.0294764 -0.025933608 0.42637545
-1.3885039 -0.052478872 -0.049606774
-1.0600129 -0.040063467 0.35291192
-1.019447 -0.038530268 0.42238909
-1.4105088 -0.071105808 -0.050420925
-1.0494844 -0.052906048 0.34960073
-1.0291938 -0.051883161 0.42666429
-1.4007959 -0.088311352 -0.050109509
-1.053178 -0.066396229 0.35108176
-1.0463028 -0.065962791 0.43406698
-1.3931935 -0.10545916 -0.049881101
-1.0532128 -0.079723991 0.3514002
-1.0225521 -0.077403098 0.42458454
-1.4006703 -0.12378065 -0.050200619
-1.051051 -0.092883937 0.35104132
-1.0209302 -0.090222083 0.42434913
-1.3941048 -0.1409121 -0.050024942
-1.0456434 -0.10569064 0.34965205
-1.0161009 -0.10270455 0.42284587
-1.3840382 -0.1575232 -0.049730953
-1.0494988 -0.11944786 0.35141632
-1.0115398 -0.11512759 0.4215177
-1.3958439 -0.17669684 -0.050231118
-1.0496274 -0.13287005 0.35199171
-1.0112956 -0.12801771 0.4220542
-1.3883553 -0.19353984 -0.050045364
-1.0390193 -0.14484163 0.34901828
-1.0147135 -0.14145334 0.4241904
-1.3918477 -0.21192515 -0.050263464
-1.0359112 -0.15772963 0.34861374
-1.022311 -0.15565884 0.42815191
-1.382135 -0.22828811 -0.050012562
-1.0333948 -0.17068647 0.34846258
-1.0048585 -0.1659731 0.4216845
-1.3735269 -0.24467091 -0.04980861
-1.0396587 -0.18519786 0.35133329
-1.0313658 -0.1837206 0.43374461
-1.3812455 -0.26403102 -0.050205097
-1.0397975 -0.19876178 0.35219809
-1.0213997 -0.19524497 0.4305532
-1.3763894 -0.28111118 -0.050153274
-1.0384281 -0.21208662 0.35261089
-1.0252384 -0.20939279 0.43324846
-1.3800504 -0.30000836 -0.050420336
-1.0310711 -0.22414394 0.35104328
-1.0125914 -0.22012664 0.42904133
-1.3663852 -0.31510609 -0.050062075
-1.0318733 -0.23796333 0.35230872
-1.0201954 -0.23527023 0.43348411
-1.3666995 -0.33335635 -0.050223399
-1.0295508 -0.25112125 0.3525674
-1.0215418 -0.24916777 0.43535486
-1.3503342 -0.34743544 -0.049778838
-1.0294405 -0.26487082 0.35364377
-1.0178005 -0.2618759 0.43513125
-1.3343731 -0.36130202 -0.049354251
-1.0243198 -0.27735034 0.35305643
-1.0308635 -0.27912214 0.44218355
-1.3423749 -0.38167343 -0.049824025
-1.0466046 -0.29757795 0.36200032
-1.014284 -0.28838834 0.43659496
-1.337052 -0.39842287 -0.049808722
-1.0384603 -0.30944669 0.36050248
-1.0222723 -0.30462292 0.44164962
-1.3303326 -0.41472864 -0.049749013
-1.0378842 -0.32355839 0.36168823
-1.0213009 -0.31838861 0.44292691
-1.3214103 -0.43027568 -0.049614035
-1.0408251 -0.33891192 0.36417145
-1.0313987 -0.33584252 0.44910467
-1.3248628 -0.44992766 -0.049952425
-1.0296129 -0.3496598 0.36176029
-1.0251671 -0.34815001 0.44826463
-1.3171455 -0.46588486 -0.049878687
-1.0287578 -0.36387986 0.36304104
-1.0265285 -0.36309132 0.45082337
-1.3316755 -0.48997533 -0.05065855
-1.0246794 -0.37701952 0.36324838
-1.3094958 -0.50062346 -0.05005065
-1.0435715 -0.3989599 0.37169701
-1.3093333 -0.51954985 -0.050290506
-1.0231258 -0.4059813 0.36620656
-1.2880362 -0.52996635 -0.049724881
-1.0358491 -0.42620322 0.37265202
-1.2967616 -0.5527494 -0.050326444
-1.0369 -0.44198248 0.37500262
-1.2794341 -0.56450433 -0.049925886
-1.0348321 -0.45658252 0.37630418
-1.2775476 -0.58299816 -0.050134763
-1.0260061 -0.46820936 0.37520891
-1.2721589 -0.60000622 -0.050215811
-1.0323625 -0.48690766 0.37974548
-1.2526518 -0.61020356 -0.049745172
-1.0444093 -0.50876248 0.38650271
-1.2435557 -0.62526703 -0.049692679
-1.2403893 -0.62367499 0.35421443
-1.0360043 -0.52090901 0.38578913
-1.2531958 -0.65001017 -0.05040098
-1.2209738 -0.6332972 0.35091946
-1.0334729 -0.53604382 0.38732934
-1.2459583 -0.66629744 -0.05044334
-1.2089227 -0.646492 0.34976786
-1.0262794 -0.54882038 0.38719276
-1.2207395 -0.67271292 -0.04976134
-1.2018324 -0.66229379 0.35010156
-1.0295806 -0.56737101 0.39110261
-1.2253299 -0.69549835 -0.050301474
-1.192009 -0.67658538 0.34969407
-1.0335753 -0.5866583 0.39539495
-1.2002689 -0.701401 -0.049631327
-1.1826515 -0.6911059 0.34947425
-1.0393187 -0.60734648 0.40048599
-1.2037474 -0.7239185 -0.050148122
-1.1759328 -0.70719111 0.35009253
-1.030462 -0.61970681 0.40004843
-1.1944867 -0.73898673 -0.050146017
-1.161546 -0.71860737 0.34847575
-1.0195925 -0.63078582 0.39888072
-1.1784345 -0.74973553 -0.049864508
-1.1535412 -0.73389804 0.34881908
-1.0270176 -0.65340209 0.40497223
-1.1758074 -0.76903105 -0.050159127
-1.1485635 -0.75121236 0.35014656
-1.0334035 -0.67589247 0.41081378
-1.16179 -0.78092414 -0.049976688
-1.1339439 -0.76220679 0.34858802
-1.0270431 -0.69035095 0.41170847
-1.1552472 -0.79782629 -0.050123427
-1.1261395 -0.77772427 0.34917176
-1.0286963 -0.71042889 0.41592434
-1.148051 -0.81439531 -0.050252158
-1.1322776 -0.80320603 0.35418284
-1.0236546 -0.72615194 0.41754979
-1.1370751 -0.82832664 -0.0502243
-1.194598 -0.87023044 0.052765075
-1.1893981 -0.86644244 0.15814392
-1.1845576 -0.86291623 0.26430783
-1.1091003 -0.80794781 0.35008755
-1.0332303 -0.75267869 0.42528808
-1.1253999 -0.84171396 -0.050172791
-1.1334981 -0.84777075 0.050533824
-1.1369098 -0.85032254 0.1525766
-1.1266569 -0.84265411 0.25373605
-1.1003861 -0.8230055 0.35058033
-1.0189598 -0.76210481 0.42333063
-1.1223164 -0.86165524 -0.050515041
-1.1113935 -0.85326922 0.050023403
-1.0995657 -0.84418857 0.14897971
-1.1075208 -0.85029602 0.25181779
-1.0901735 -0.8369776 0.35065663
-1.0140501 -0.77853417 0.4253301
-1.0887825 -0.85791385 -0.049488008
-1.0903059 -0.85911429 0.049557254
-1.1007664 -0.86735672 0.15061025
-1.0909711 -0.85963845 0.25049624
-1.0925488 -0.86088157 0.35487938
-1.0270609 -0.80927986 0.43502709
-1.0886149 -0.88022357 -0.049980223
-1.080678 -0.873806 0.049615826
-1.0804787 -0.87364489 0.1493278
-1.0722047 -0.86695474 0.2486742
-1.0762461 -0.87022257 0.35311535
-1.0252153 -0.82896042 0.43863198
-1.0792986 -0.89539814 -0.050066188
-1.0570922 -0.87697542 0.049036078
-1.0613772 -0.8805303 0.14820851
-1.0739839 -0.89098901 0.25166902
-1.0686334 -0.88655019 0.35425231
-1.0235831 -0.84917593 0.4424735
-1.0631112 -0.90480793 -0.049839854
-0.84182686 -0.71647412 0.039465796
-0.83087927 -0.70715672 0.1172564
-0.81950408 -0.69747531 0.19407888
-1.050222 -0.89383805 0.35185218
-1.0272151 -0.87425703 0.44876686
-1.0517527 -0.91822547 -0.049845468
-0.8080169 -0.70543361 0.038294155
-0.79706568 -0.69587272 0.11371209
-0.80237114 -0.7005046 0.19209516
-1.0309548 -0.9000681 0.34916663
-1.0360835 -0.92779189 -0.049652614
-0.79355663 -0.71061397 0.038029909
-0.7911613 -0.70846897 0.11413343
-0.79140669 -0.70868874 0.19159146
-1.0415425 -0.93268031 0.35670188
-1.0301973 -0.94616228 -0.049937535
-0.76490778 -0.70251298 0.03707796
-0.75764567 -0.69584322 0.11055372
-0.76264238 -0.70043236 0.18674834
-1.026908 -0.94314134 0.35572904
-1.0163937 -0.9573552 -0.049848832
-0.74301547 -0.69985652 0.036441054
-0.73852128 -0.6956234 0.10903265
-0.7458033 -0.7024824 0.18477638
-1.0337545 -0.97370762 0.36231935
-1.0076559 -0.97335833 -0.050017454
-0.71969372 -0.69519758 0.035723753
-0.72761506 -0.70284927 0.10872053
-0.73203087 -0.70711482 0.18355568
-1.0326822 -0.99753278 0.36631697
-0.98492205 -0.97566831 -0.049494918
-0.71811515 -0.71136814 0.03608717
-0.70489842 -0.69827557 0.10663156
-0.70225257 -0.69565463 0.17827119
-1.0424532 -1.0326588 0.37436596
-0.98323697 -0.99883962 -0.05003833
-0.69065678 -0.70161659 0.035148505
-0.68295085 -0.69378835 0.10462478
-0.70203835 -0.71317875 0.18048227
-1.0342053 -1.0506167 0.37612519
-0.96554893 -1.0058967 -0.049778827
-0.67299497 -0.70111769 0.034696221
-0.66999674 -0.69799417 0.10397851
-0.66890621 -0.69685811 0.17420663
-1.027486 -1.0704219 0.37855354
-0.94892174 -1.0138235 -0.049575847
-0.6495859 -0.69401455 0.033937227
-0.66238099 -0.70768476 0.10417131
-0.6596387 -0.70475489 0.17409046
-1.0375471 -1.1085104 0.38737234
-0.93265921 -1.0219415 -0.049394611
-0.6371628 -0.69815767 0.033744812
-0.64844626 -0.71052128 0.10337871
-0.63003999 -0.69035298 0.16855973
-1.0441715 -1.1441288 0.39519322
-0.93098259 -1.0462636 -0.049999602
-0.63051116 -0.70858556 0.033862401
-0.62513369 -0.70254225 0.10106445
-0.6180402 -0.69457042 0.16767597
-1.0287611 -1.1561497 0.39483953
-0.91456962 -1.0542539 -0.049827144
-0.60388637 -0.69611931 0.032900646
-0.61922699 -0.71380293 0.10155461
-0.61428851 -0.70811015 0.16906382
-1.0313756 -1.1889 0.40155694
-0.90472621 -1.0698286 -0.050020844
-0.59422433 -0.7026636 0.032853696
-0.59772819 -0.70680696 0.099480532
-0.59336114 -0.70164293 0.1657227
-1.0253932 -1.2125161 0.40514022
-0.8876071 -1.0767961 -0.049820077
-0.58771038 -0.71297789 0.032987315
-0.58384031 -0.70828295 0.098645709
-0.57969242 -0.70325094 0.16436538
-1.0185481 -1.2356465 0.40855095
-0.87758219 -1.0923723 -0.050025493
-0.56691414 -0.70566761 0.097279511
-0.56109673 -0.69842637 0.1615736
-0.8554492 -1.0927218 -0.049544264
-0.55248296 -0.70572299 0.16163936
-0.84638792 -1.1096537 -0.049824778
-0.8322562 -1.120098 -0.049819227
-0.816383 -1.1281339 -0.049715471
-0.80626214 -1.1442109 -0.04997259
-0.79644865 -1.1610615 -0.050266534
-0.77131331 -1.1553404 -0.049594421
-0.76501262 -1.1777502 -0.050138898
-0.74749994 -1.183138 -0.04996359
-0.73363662 -1.1942356 -0.050038148
-0.7153011 -1.1979512 -0.049812485
-0.70407599 -1.2136114 -0.050091028
-0.68949652 -1.2237242 -0.050146099
-0.6691125 -1.2233117 -0.049779978
-0.65453619 -1.2332972 -0.049846973
-0.63728142 -1.238188 -0.049716368
-0.62813085 -1.259124 -0.050235428
-0.60161537 -1.2449733 -0.049364693
-0.58984542 -1.2609009 -0.04969779
-0.57866985 -1.2787186 -0.050108895
-0.55533004 -1.2694597 -0.049468122
-0.54241836 -1.2837267 -0.049753971
-0.52148592 -1.2788656 -0.049307149
-0.50973302 -1.2964985 -0.049735576
-0.49511507 -1.3074269 -0.049911682
-0.47841772 -1.3130194 -0.049891241
-0.46300259 -1.3222384 -0.050016042
-0.44794661 -1.3328112 -0.050198629
-0.43567243 -1.3524486 -0.050727595
-0.41390011 -1.3425531 -0.050156973
-0.39795426 -1.3510238 -0.050282232
-0.38008377 -1.3529803 -0.050172944
-0.35888696 -1.3422091 -0.049601991
-0.34383425 -1.3540082 -0.049874078
-0.32517505 -1.3516487 -0.049632408
-0.31025407 -1.3649791 -0.049974483
-0.29497865 -1.37782 -0.050304629
-0.27588582 -1.3728607 -0.049992763
-0.258214 -1.3742884 -0.049922395
-0.24147497 -1.3807781 -0.050043713
-0.22336093 -1.3793293 -0.049885314
-0.20414868 -1.369773 -0.049442805
-0.18876415 -1.38603 -0.049939852
-0.1706167 -1.3827801 -0.049741402
-0.15329006 -1.3857025 -0.049773145
-0.1363024 -1.3923459 -0.049946163
-0.11962894 -1.4041479 -0.050311491
-0.1007354 -1.3889401 -0.049717199
-0.084107369 -1.4046006 -0.050235875
-0.066074893 -1.3983488 -0.049978562
-0.048524234 -1.4008449 -0.050041966
-0.031194009 -1.4155005 -0.050547466
-0.013232661 -1.4013773 -0.050033208
0.0043553584 -1.3829947 -0.049374934
0.022291979 -1.4160781 -0.050562076
0.039499667 -1.3937837 -0.049779851
0.056979328 -1.3915486 -0.04972171
0.075200289 -1.4038671 -0.050191719
0.09303309 -1.4052616 -0.050279476
0.11053671 -1.4016589 -0.050196398
0.28785029 -3.6500807 0.13071717
0.12788543 -1.3969761 -0.050082393
0.32323471 -3.5309038 0.12658493
0.14622182 -1.4025152 -0.050342992
0.35813111 -3.4350848 0.12330166
0.16248825 -1.3887569 -0.049918629
0.39965591 -3.4157846 0.12277979
0.17829812 -1.3737844 -0.049457226
0.44389045 -3.4201698 0.12312857
0.19750808 -1.3849392 -0.049944382
0.48652753 -3.411562 0.12302949
0.21612088 -1.3899987 -0.050221004
0.53086126 -3.4142764 0.12335866
0.34290725 -2.2054353 0.23986441
0.23273136 -1.3819765 -0.050033074
0.57364839 -3.4063678 0.12332413
0.36646885 -2.1761198 0.23715913
0.37215006 -2.2098553 0.40415639
0.25017279 -1.3792626 -0.050044902
0.26460049 -1.360989 -0.049498834
0.28588286 -1.3776288 -0.050230969
0.30264115 -1.3713596 -0.05013736
0.7562561 -3.4268277 0.12528595
0.32052168 -1.3701651 -0.050237268
0.33265921 -1.345438 -0.049480308
0.35191694 -1.3501332 -0.049812004
0.37145397 -1.354952 -0.050158378
0.38517043 -1.3386477 -0.04973042
0.40396404 -1.3402241 -0.049973998
0.42228889 -1.3397328 -0.050149981
0.43909016 -1.3342057 -0.050146084
0.45730534 -1.3327994 -0.050305668
0.47720802 -1.3357737 -0.050640725
0.49194816 -1.3241653 -0.05043149
0.50207525 -1.3010055 -0.049786273
0.51864171 -1.2951424 -0.049807884
0.53418005 -1.2867559 -0.049740098
0.55720973 -1.2959062 -0.050361037
0.57330239 -1.2883825 -0.050345216
0.57809287 -1.2563168 -0.049372744
0.60335416 -1.2688934 -0.050161604
0.61733717 -1.2572327 -0.050003976
0.63382757 -1.2507596 -0.050059993
0.6470564 -1.2379551 -0.049869664
0.66060698 -1.2260247 -0.049720228
0.67376965 -1.2136073 -0.049556788
0.6969673 -1.2189673 -0.050130062
1.2659335 -2.2140658 0.45996606
0.71002382 -1.2062953 -0.04997265
1.2915341 -2.1942523 0.45919213
0.7320534 -1.208647 -0.050447952
1.3300886 -2.1960249 0.46303138
0.73860478 -1.1855158 -0.049866725
1.366582 -2.1934662 0.46608326
0.75095725 -1.1721945 -0.049700204
1.4020411 -2.1884933 0.46874085
0.7740652 -1.1754137 -0.050245993
1.4461042 -2.1959014 0.47419021
0.78288841 -1.1568334 -0.049869195
1.5065999 -2.2262242 0.095968872
1.5140193 -2.2371874 0.2903116
1.4955342 -2.209873 0.48123577
0.79727685 -1.1467183 -0.049861975
1.5219169 -2.1889632 0.095181212
1.5239668 -2.1919117 0.28690383
1.5207002 -2.1872134 0.4804332
0.81841296 -1.1460559 -0.050277304
0.83402187 -1.1373562 -0.05035238
0.84220797 -1.1187038 -0.049992166
0.85055131 -1.100666 -0.04966078
0.86726904 -1.0935593 -0.049828917
0.49244311 -0.62093276 0.46999103
0.88707328 -1.0900531 -0.050174154
1.5818076 -1.9437563 0.089469343
0.49799991 -0.61195207 0.4679029
0.90089893 -1.079002 -0.050183676
1.5887201 -1.9028019 0.088498063
0.50860929 -0.60915875 0.47062671
0.91623294 -1.0696973 -0.050283529
1.2473814 -1.4563116 0.068457201
1.2376415 -1.4449401 0.20446323
1.2448399 -1.4533443 0.3451139
0.92194974 -1.0493356 -0.049868155
1.5876002 -1.806959 0.085873112
0.93059796 -1.0326602 -0.049628641
1.577481 -1.7504896 0.084126815
1.2960398 -1.4381816 0.4939349
0.95461422 -1.0328574 -0.050211843
1.5793577 -1.708807 0.083072782
1.3696542 -1.4819155 0.36393034
1.3112463 -1.4187202 0.4928827
0.97116697 -1.0245786 -0.050399888
1.5773758 -1.6641272 0.081859827
1.3891068 -1.4655041 0.36416683
1.3425434 -1.4163797 0.49790335
0.96929622 -0.99715245 -0.049647238
1.6051445 -1.6512741 0.082215309
1.4371159 -1.4784167 0.37184289
1.3802265 -1.4198924 0.50520778
0.99399465 -0.99712723 -0.050265186
0.62604344 -0.62801641 0.22623967
0.61462057 -0.61655754 0.28963539
0.61352497 -0.61545855 0.35980701
0.61728024 -0.61922562 0.43746886
0.99900746 -0.97723186 -0.049892448
0.63025516 -0.61651736 0.29332143
0.61889374 -0.60540354 0.35845637
0.6271773 -0.61350656 0.4389731
1.016892 -0.96997374 -0.050171662
0.8256402 -0.7875461 0.040735632
1.0255889 -0.95389748 -0.050004154
0.82408148 -0.76647598 0.040179349
1.0340629 -0.93777478 -0.049837615
0.83606327 -0.75821215 0.040294841
1.0395404 -0.91915572 -0.049539853
0.85832196 -0.75892341 0.040903792
1.0705475 -0.92281681 -0.050459739
0.86467946 -0.74535769 0.040756248
1.0813545 -0.90865284 -0.050425813
1.2581081 -1.0571774 0.058668204
1.0929228 -0.89513969 -0.05043564
1.2527318 -1.0260285 0.057810429
0.6074605 -0.4975301 0.46566328
1.0938007 -0.87308085 -0.049964845
1.2635207 -1.0085528 0.057717662
0.61655611 -0.49214026 0.46784809
1.104129 -0.85878968 -0.049938694
1.2641578 -0.98325992 0.05717665
0.61686152 -0.47979391 0.46345863
1.1242677 -0.85195237 -0.050360344
1.2476127 -0.94542134 0.055885453
1.1247737 -0.83025002 -0.049910747
1.250928 -0.92337066 0.055508725
1.1274971 -0.81052887 -0.04957477
1.2580876 -0.90440702 0.055316687
1.1393213 -0.7974636 -0.049649205
1.2743345 -0.89196557 0.055532791
1.1692401 -0.79666018 -0.050511837
1.2719202 -0.86662114 0.054947674
1.1687437 -0.77495599 -0.050064854
1.2665596 -0.8398146 0.054254942
1.176119 -0.75870156 -0.049967572
1.2698094 -0.81914026 0.053948022
1.1769961 -0.73844796 -0.04960585
1.2633431 -0.79262209 0.053245042
1.2011172 -0.73266846 -0.050229639
1.260132 -0.76866686 0.052697588
1.2504607 -0.76276749 0.15741469
1.2019805 -0.71258605 -0.049886543
1.3106053 -0.7769835 0.054394867
1.2559476 -0.74458009 0.15691268
1.2078404 -0.69565743 -0.049762242
1.3412008 -0.7724666 0.055256605
1.2529576 -0.72164273 0.1553915
1.223496 -0.68430483 -0.050048258
1.3693075 -0.7658577 0.056012824
1.2659788 -0.70806563 0.15588826
1.2288921 -0.66714978 -0.04992139
1.4067637 -0.76371402 0.057147086
1.256091 -0.68191576 0.15360118
1.2360198 -0.65100479 -0.049873978
1.4526538 -0.76510471 0.05861526
1.255123 -0.66106635 0.1524528
1.2452509 -0.63596839 -0.049919363
1.2690682 -0.64813226 0.15314318
1.2575315 -0.62240249 -0.050093509
1.2618139 -0.62452197 0.15130676
1.2541549 -0.60119182 -0.0496535
1.2712221 -0.60937315 0.15150279
1.2719318 -0.59013474 -0.050059132
1.2650813 -0.58695638 0.1498782
1.2804493 -0.57460588 -0.050105616
1.2751625 -0.57223332 0.15020695
1.2901614 -0.55955631 -0.050205965
1.2540842 -0.54390925 0.14690565
1.2978208 -0.54356718 -0.050233681
1.2708166 -0.53225696 0.14806883
1.2608638 -0.52808845 0.24653442
1.3041853 -0.52703071 -0.050219174
1.2685074 -0.512613 0.14703603
1.256577 -0.50779188 0.24442661
1.2982924 -0.50572753 -0.049743101
1.3051211 -0.50838751 0.15052605
1.2495663 -0.48674712 0.24185148
1.3112121 -0.49183658 -0.049996853
1.3361524 -0.50119174 0.15336499
1.2430166 -0.46625644 0.23942845
1.3113533 -0.47314194 -0.049771115
1.366215 -0.49293628 0.15609078
1.2498941 -0.45096719 0.23964037
1.3327259 -0.46197242 -0.050357513
1.4043374 -0.4867956 0.15973328
1.2490143 -0.43295485 0.23840749
1.3296083 -0.44221878 -0.05002534
1.4247363 -0.4738577 0.16136202
1.2478075 -0.41501239 0.23716085
1.3389962 -0.42669317 -0.050172415
1.4525336 -0.46287373 0.16383715
1.2715552 -0.405202 0.24068554
1.3384593 -0.4080306 -0.049955815
1.2648176 -0.38558087 0.23847227
1.3531651 -0.39396206 -0.050315544
1.2689323 -0.36943844 0.23835208
1.3593429 -0.37726048 -0.050364625
1.2687076 -0.3521063 0.23745821
1.3544878 -0.35760725 -0.05001393
1.2713326 -0.33565292 0.23713964
1.3620292 -0.34131265 -0.050129723
1.2693473 -0.31808737 0.23600349
1.3638813 -0.32358146 -0.050043955
1.2677268 -0.30076873 0.23497941
1.2625834 -0.29954845 0.3310672
1.3745269 -0.30787897 -0.050288323
1.2720355 -0.28492203 0.23509438
1.2568251 -0.28151506 0.32860172
1.3826346 -0.29146254 -0.050446678
1.2807237 -0.26997945 0.23605308
1.2543583 -0.26442158 0.32706028
1.3795089 -0.27270865 -0.050203361
1.3835183 -0.25544384 -0.050228234
1.3810135 -0.23704024 -0.050024964
1.3853807 -0.21986963 -0.050078899
1.3839941 -0.21964957 0.25272545
1.2593755 -0.19987172 0.32532838
1.3811346 -0.2014017 -0.049829785
1.4044557 -0.20480247 0.25597063
1.2571133 -0.18331651 0.32412198
1.3967322 -0.18574719 -0.050304156
1.4637429 -0.19465873 0.26630825
1.2643132 -0.16813718 0.32540664
1.4020792 -0.16852079 -0.050416306
1.2753831 -0.15329273 0.32773301
1.3901871 -0.14935985 -0.049917102
1.273618 -0.13683583 0.32681078
1.3855298 -0.13123505 -0.049686592
1.2530024 -0.11868227 0.32111183
1.3957704 -0.11449263 -0.049998168
1.27126 -0.10427926 0.32542849
1.4079093 -0.097658806 -0.050384954
1.2682509 -0.087971486 0.32434893
1.3931935 -0.079025641 -0.049818758
1.2610371 -0.071529381 0.32224813
1.4030378 -0.061872497 -0.050138939
1.2725464 -0.056117967 0.32498288
1.3953443 -0.043938357 -0.049840283
1.2764833 -0.040195514 0.32583317
1.2626977 -0.039761417 0.42030039
1.3966719 -0.026382517 -0.049871881
1.2794299 -0.024167869 0.32648176
1.2494452 -0.023601471 0.41575727
1.3919935 -0.0087637892 -0.049696948
1.2814385 -0.0080677504 0.32694244
1.264562 -0.0079614986 0.42072073
1.3935964 0.008773881 -0.049754176
1.2924377 0.0081369998 0.32974875
1.2692683 0.0079911286 0.42228654
1.3973665 0.026395641 -0.049896687
1.314136 0.024823451 0.33533797
1.2538828 0.023685295 0.41723391
1.4088174 0.04436262 -0.050321531
1.3300669 0.041882824 0.33951086
1.2462159 0.039242417 0.41481429
1.3906566 0.061326504 -0.049696486
1.3350694 0.058875166 0.34095001
1.2605662 0.055589654 0.41979063
1.3881731 0.078740872 -0.049639232
1.3428862 0.076172076 0.343164
1.2549609 0.071184717 0.41818929
1.397696 0.09695036 -0.050019447
1.3384323 0.092839569 0.34229743
1.2501241 0.086714126 0.41690835
1.3872524 0.11379392 -0.049693044
1.3643318 0.11191378 0.34925383
1.2526979 0.10275664 0.41816509
1.4019387 0.13278927 -0.050275035
1.7269298 0.16357188 0.061929565
1.7358938 0.16442093 0.18739027
1.7353072 0.16436538 0.31436113
1.3650589 0.12929608 0.34982902
1.2501067 0.11840799 0.41776469
1.4044923 0.15089677 -0.050430752
1.6020051 0.17211729 0.0575228
1.6026838 0.1721902 0.17323054
1.5173208 0.16301891 0.27522165
1.3573196 0.1458286 0.3482886
1.2447082 0.13372979 0.41649035
1.3901931 0.16709216 -0.049988903
1.6160567 0.19423948 0.058110557
1.6106453 0.19358908 0.17434074
1.4792198 0.17779258 0.26869541
1.3699743 0.16466197 0.35203993
1.2628913 0.1517913 0.42318058
1.3882054 0.18461323 -0.049997058
1.633188 0.21719272 0.058820255
1.606853 0.21369052 0.17420772
1.4789169 0.19667667 0.26906896
1.2258563 0.16302292 0.31550869
1.2478499 0.16594778 0.41880739
1.3762407 0.20068808 -0.049653221
1.6274841 0.23732521 0.058717798
1.6083837 0.23453993 0.17467999
1.4885205 0.21706109 0.27129197
1.1096871 0.16181831 0.28611103
1.2733045 0.18567756 0.42810133
1.3649491 0.21662697 -0.049340334
1.0259155 0.16281998 0.037084911
1.0440158 0.16569261 0.1136039
1.0394641 0.16497023 0.18981226
1.0327559 0.16390559 0.26678681
1.0180024 0.16156411 0.3429223
1.3679714 0.23480168 -0.049552538
0.95938569 0.16467111 0.034752183
0.93597764 0.16065329 0.10205983
0.9610824 0.16496232 0.17586465
0.9378742 0.16097882 0.24278089
0.96029818 0.16482773 0.32415763
1.3771762 0.25427288 -0.049997982
0.92507434 0.17079972 0.033584557
0.90762037 0.16757713 0.099189967
0.92027146 0.16991295 0.16877496
0.92324466 0.17046189 0.2395305
0.91890943 0.16966146 0.31088299
1.3587186 0.26859874 -0.049446758
0.93007755 0.18386269 0.033847567
0.90577286 0.179058 0.099226601
0.90970111 0.17983454 0.16723843
0.91705471 0.18128826 0.23849791
0.93120515 0.18408559 0.31580204
1.3682246 0.28842485 -0.049920917
0.93534058 0.19717193 0.034126751
0.90735096 0.19127165 0.099655434
0.93074977 0.19620417 0.1715486
0.90467626 0.19070782 0.2358845
0.91752964 0.19341734 0.3119655
1.36306 0.30531052 -0.049868796
0.92123628 0.20634685 0.033704273
0.91321158 0.2045494 0.10057403
0.91654646 0.20529637 0.16939379
0.91638839 0.20526098 0.23959325
0.92462564 0.20710602 0.31523988
1.3641461 0.32364428 -0.050053671
0.92555124 0.21958743 0.033960611
0.92339963 0.21907696 0.1019918
0.91623145 0.21737631 0.16982801
0.9286781 0.22032928 0.24351253
0.91312021 0.21663816 0.31222254
1.3616011 0.34120539 -0.050113965
0.91020525 0.22808951 0.033500262
0.92402828 0.23155344 0.10237517
0.92082894 0.23075171 0.17120518
0.91634429 0.22962789 0.24101751
0.91972309 0.23047459 0.31544763
1.3597863 0.35900614 -0.050209574
0.91828042 0.24244128 0.033907145
0.91592693 0.24181992 0.1018069
0.91381234 0.24126162 0.17045195
0.91785288 0.24232839 0.24219769
0.90894955 0.23997776 0.31276414
1.3566211 0.37650508 -0.050263781
0.90839523 0.25210828 0.03365669
0.9180336 0.25478321 0.10238955
0.9062798 0.25152117 0.16962425
0.91557181 0.25409999 0.24242088
0.92082506 0.25555792 0.31793252
1.3443904 0.39140734 -0.049989268
0.90135431 0.26242134 0.033515595
0.93622339 0.27257314 0.10479279
0.92151874 0.26829201 0.17309505
0.91890758 0.26753181 0.24417672
0.91276735 0.26574412 0.31628075
1.3443013 0.40981159 -0.050173864
0.91995513 0.28044921 0.034335829
0.91153538 0.27788246 0.10241296
0.91609055 0.2792711 0.17272229
0.92521381 0.28205234 0.24677666
0.91728848 0.27963629 0.31904221
1.3269064 0.4228406 -0.049719416
0.92833841 0.29583031 0.034784999
0.9293884 0.29616493 0.10482948
0.92124176 0.29356885 0.17437668
0.92324084 0.2942059 0.24721895
0.92770648 0.29562894 0.32393476
1.3229935 0.44001874 -0.049776465
0.92244649 0.3067995 0.034706235
0.92416555 0.30737126 0.10466865
0.9145577 0.30417573 0.17382272
0.92638725 0.30811018 0.24908061
0.92359835 0.30718261 0.3238253
1.3114049 0.45458177 -0.049551889
0.92611885 0.32102725 0.034993723
0.92101109 0.31925672 0.10475838
0.92700487 0.32133439 0.17694347
0.92243379 0.31974989 0.24908046
0.90997326 0.31543061 0.32041538
1.3197614 0.47617561 -0.050090235
0.92387778 0.3333391 0.035064865
0.93072212 0.33580855 0.10633548
0.9218204 0.33259678 0.17673928
0.90686297 0.32720008 0.24596901
0.92136109 0.33243105 0.32587335
1.314864 0.49320647 -0.050136104
0.92360252 0.34644398 0.035217199
0.9190492 0.34473604 0.10548945
0.91510355 0.343256 0.17626621
0.91596496 0.34357914 0.24959143
0.92183101 0.34577948 0.32755357
1.3057101 0.50861692 -0.050027303
0.90611041 0.35295975 0.034716941
0.91756004 0.35741979 0.10582673
0.91598547 0.35680643 0.17728746
0.92114508 0.35881627 0.25221413
0.90852082 0.35389867 0.32438183
1.3128564 0.53053474 -0.050553065
1.2708263 0.5135501 0.34970155
1.2572266 0.50805432 0.45113352
1.2852455 0.53830028 -0.049746942
1.2701236 0.53196675 0.3513236
1.2898399 0.55941683 -0.050193448
1.2517194 0.54288357 0.34809619
1.2681665 0.56909394 -0.049624976
1.2404112 0.55663866 0.34687319
1.2668922 0.58779657 -0.049860794
1.2606909 0.58491933 0.35457587
1.2659395 0.60684091 -0.050120071
1.2501968 0.59929448 0.35371882
1.2456179 0.61650592 -0.04961893
1.2482489 0.61780816 0.3553406
1.2632972 0.64518487 -0.050642796
1.2461815 0.63644367 0.35700518
1.233337 0.6495918 -0.049765728
1.2486131 0.6576376 0.36004558
1.2348508 0.67038471 -0.050163452
1.2399039 0.67312801 0.35994986
1.2109779 0.67730349 -0.049536198
1.2304617 0.68820083 0.359696
1.2215924 0.70357794 -0.050328817
1.2377067 0.71285897 0.36440906
1.1946312 0.70822906 -0.04958152
1.2293487 0.72881109 0.36462137
1.2041728 0.73453242 -0.050357427
1.2166777 0.74216014 0.36360618
1.1866757 0.7445209 -0.050013803
1.2036614 0.7551778 0.36252943
1.1806905 0.76165068 -0.050161798
1.2133096 0.78269291 0.36837465
1.1757747 0.77961802 -0.050366037
1.215413 0.80590087 0.3720648
1.160887 0.79096884 -0.050150979
1.2027442 0.81948817 0.37131611
1.1499958 0.80493516 -0.050114375
1.196879 0.83775091 0.37273258
1.1250187 0.80874717 -0.049465798
1.1874166 0.85360342 0.37310359
1.1228472 0.82882804 -0.049825262
1.1899279 0.87834358 0.37733811
1.1255733 0.85294175 -0.050418828
1.1715336 0.8877697 0.37502027
1.1093216 0.86282855 -0.050173555
1.1557903 0.89897186 0.37357476
1.0811988 0.86302197 -0.049389195
1.1496351 0.91764838 0.37529036
1.0872517 0.89049494 -0.050173938
1.1441574 0.93710256 0.37732443
1.0749449 0.90326691 -0.050126918
1.1267068 0.94676208 0.37547135
1.0498732 0.90499556 -0.04948527
1.1303705 0.97438455 0.38075089
1.0517422 0.9299444 -0.050121333
1.1097797 0.98126096 0.37794724
1.0326804 0.93652105 -0.049770985
1.111282 1.0078036 0.38275036
1.0232662 0.95173717 -0.049890906
1.0934517 1.0170165 0.38098985
1.0179719 0.97100383 -0.050224941
1.07868 1.028911 0.38032717
1.0086923 0.98670548 -0.050376125
1.0807624 1.0572047 0.3857246
0.98492962 0.98803365 -0.049806777
1.0616795 1.0650254 0.38366991
0.97983289 1.007992 -0.050186928
1.0568285 1.0872003 0.38683355
0.96272916 1.0156767 -0.049961999
1.0863682 1.1461155 0.056378394
1.0881598 1.1480057 0.16999215
1.0864764 1.1462297 0.28482956
1.0435365 1.1009283 0.38701195
0.94184089 1.0190371 -0.049539976
1.0616214 1.1486353 0.055840321
1.0641119 1.15133 0.16848688
1.0629237 1.1500443 0.2824291
1.0386134 1.1237415 0.39040309
0.92944115 1.0313766 -0.049566951
1.0404195 1.1545265 0.055485409
1.0389204 1.1528629 0.16678351
1.0394626 1.1534646 0.2800324
1.0217184 1.1337743 0.389388
0.9181484 1.045009 -0.049662542
1.0154371 1.1557401 0.054924875
1.0183702 1.1590785 0.1658144
1.0210438 1.1621215 0.27899057
1.0055197 1.1444525 0.38867599
0.91908467 1.0730267 -0.050440036
1.0126482 1.1822617 0.055574872
1.0074661 1.1762116 0.16643736
0.99762911 1.164727 0.27657828
1.0048929 1.1732074 0.39411294
0.89349067 1.0701292 -0.049771003
0.99388874 1.1903754 0.055363581
0.99834311 1.1957104 0.16740435
0.99206042 1.1881857 0.27916026
0.98761612 1.1828628 0.39314759
0.88820165 1.0914397 -0.05023798
0.98967022 1.2161262 0.055977188
0.98470479 1.2100246 0.1676591
0.98717064 1.2130547 0.28206027
0.97276294 1.1953502 0.3931956
0.86936289 1.0961995 -0.049949218
0.97991496 1.2355971 0.056300987
0.98223037 1.2385167 0.1698797
0.97854918 1.233875 0.28401375
0.96279246 1.2140069 0.39531323
0.8571856 1.1092513 -0.050048135
0.9826659 1.2716305 0.057374496
0.98739976 1.2777563 0.17354278
0.99500692 1.2876005 0.29347304
0.95202577 1.2319803 0.39723068
0.84391028 1.120965 -0.050093211
0.93862945 1.2467804 0.39816019
0.82502908 1.1250926 -0.04980946
0.92525798 1.2617749 0.39919627
0.81131262 1.136113 -0.04984111
0.89574081 1.2543412 0.39324471
0.80214739 1.1537235 -0.050166577
0.8963089 1.2891554 0.40058905
0.78549558 1.1606859 -0.050035264
0.87272131 1.2895749 0.39727306
0.76432979 1.1606306 -0.049614049
0.86009568 1.3060507 0.39898053
0.76517445 1.1943866 -0.050641134
0.84187454 1.3141104 0.39817262
0.74880576 1.2018892 -0.050555442
0.8337509 1.3382324 0.40226856
0.72551155 1.1978462 -0.049997132
0.80343604 1.3265023 0.39567003
0.70784134 1.2025872 -0.049819041
0.79144835 1.3446314 0.39807332
0.69415057 1.2140409 -0.049927462
0.77730936 1.3594822 0.39954045
0.6811012 1.2268131 -0.050096035
0.762532 1.3734878 0.40080291
0.6592468 1.2235005 -0.049617853
0.73731548 1.3683887 0.39657411
0.64876789 1.2412294 -0.050001569
0.73322159 1.4028072 0.40384117
0.63353992 1.2501919 -0.050037272
0.70567399 1.3925372 0.39829499
0.61413008 1.2507013 -0.049744204
0.68769819 1.4005257 0.39807144
0.59956908 1.2609332 -0.049846921
0.67408389 1.4176426 0.40049222
0.5835225 1.2681166 -0.049836472
0.65510356 1.4236771 0.39983487
0.57402289 1.2900016 -0.050408486
0.64568877 1.4510565 0.40520865
0.55311114 1.286374 -0.049990602
0.62067872 1.4435164 0.40088877
0.54287106 1.3076912 -0.050549362
0.60532784 1.4581399 0.40280116
0.52102566 1.3010957 -0.050036829
0.58168936 1.4525839 0.39921129
0.49473867 1.2819945 -0.049058773
0.56906956 1.4746048 0.40326193
0.48788887 1.313239 -0.050015356
0.55094081 1.4829544 0.40361607
0.47376737 1.3261428 -0.050275605
0.52891213 1.4805008 0.40110379
0.4520267 1.317415 -0.049724996
0.51500273 1.5009563 0.40485662
0.43677542 1.3271723 -0.04988173
0.49478868 1.5034496 0.40381655
0.41831851 1.3271365 -0.049678463
0.47658077 1.5119764 0.40446287
0.4040893 1.3406397 -0.049989495
0.45792705 1.5192564 0.40483567
0.38463014 1.3367699 -0.049660664
0.43417162 1.5089498 0.4006007
0.37017357 1.3502814 -0.04998548
0.42138228 1.5370753 0.40662661
0.35285512 1.3537326 -0.049944796
0.40083098 1.5377924 0.40544894
0.33881572 1.370338 -0.050396036
0.38189578 1.544575 0.40593711
0.3172445 1.3561559 -0.049723618
0.36216956 1.5482014 0.40565947
0.3012028 1.3648419 -0.049899068
0.34317881 1.5550481 0.40628892
0.2873944 1.3849127 -0.050496556
0.32354558 1.5591201 0.40625617
0.26470649 1.3615341 -0.049518663
0.30174735 1.5520561 0.40339348
0.25441453 1.4026483 -0.050893426
0.28427142 1.5672565 0.40638158
0.23093468 1.3713077 -0.049646821
0.26233369 1.5577574 0.40303001
0.21407139 1.3768173 -0.049744755
0.24304536 1.5631657 0.40360546
0.19681576 1.3800846 -0.049769316
0.2227332 1.5618193 0.40250176
0.18011153 1.3877567 -0.049960241
0.21491848 1.6559439 0.059615165
0.212485 1.6371939 0.17742378
0.21387792 1.6479263 0.299694
0.20387058 1.5708199 0.40412769
0.16166456 1.381717 -0.049665578
0.18943799 1.6190913 0.058197957
0.18785925 1.6055981 0.17372958
0.18842229 1.6104102 0.2924166
0.18312831 1.5651636 0.40204737
0.14507651 1.3915298 -0.049948674
0.16527618 1.5852789 0.056903258
0.16683505 1.6002311 0.17290783
0.16620339 1.5941724 0.28906521
0.16205138 1.5543475 0.3987132
0.12801814 1.3984258 -0.050134368
0.14643733 1.5996307 0.057347678
0.14483896 1.5821706 0.17074576
0.14675675 1.60312 0.29032955
0.14329048 1.5652555 0.40101665
0.11122333 1.4103657 -0.050508205
0.12559363 1.5925879 0.057033975
0.12513825 1.5868136 0.1710632
0.12550294 1.5914379 0.28790486
0.12487407 1.5834635 0.40524656
0.092752151 1.401018 -0.05012764
0.10605586 1.60197 0.057317592
0.10524423 1.5897106 0.17121907
0.10519715 1.5889993 0.28720126
0.10418997 1.5737859 0.40240213
0.075334541 1.4063733 -0.050281323
0.085606962 1.5981427 0.057137553
0.085319243 1.5927714 0.17141944
0.086081751 1.6070062 0.29023698
0.083750688 1.5634891 0.399468
0.057192478 1.3967541 -0.049907714
0.066496864 1.6239859 0.058026973
0.066358417 1.6206048 0.17431121
0.066380516 1.6211443 0.29261625
0.064191647 1.5676877 0.4003025
0.039746769 1.4025029 -0.050091267
0.045998283 1.6230937 0.057969801
0.046497077 1.640694 0.17639503
0.046585247 1.6438053 0.29657716
0.044166084 1.5584428 0.39776829
0.021716882 1.3795455 -0.049257655
0.024521198 1.5576872 0.39746508
0.0044255615 1.4052868 -0.050170802
0.0049277893 1.5647635 0.39922324
-0.013186825 1.3965231 -0.0498599
-0.014749425 1.5620071 0.39853579
-0.031214986 1.4164524 -0.050581455
-0.034328863 1.5577518 0.39752886
-0.048970103 1.4137168 -0.050501782
-0.054476108 1.5726695 0.40147898
-0.06579829 1.3924952 -0.049769342
-0.073809735 1.562042 0.39897159
-0.083954133 1.4020416 -0.050144352
-0.093041152 1.5537957 0.39713308
-0.10165347 1.4015985 -0.050170306
-0.11890005 1.3955923 -0.050004944
-0.136473 1.3940886 -0.050008677
-0.15301189 1.3831879 -0.049682822
-0.1728621 1.4009782 -0.050396025
-0.18975815 1.3933285 -0.050202828
-0.20513815 1.376412 -0.049682442
-0.22308765 1.3776418 -0.049824279
-0.24222803 1.3850842 -0.050199777
-0.25719208 1.3688495 -0.049724817
-0.27634266 1.3751341 -0.050075546
-0.29171151 1.3625594 -0.04974746
-0.30853158 1.357401 -0.049697034
-0.32980305 1.3708857 -0.050338794
-0.34606352 1.362787 -0.050197437
-0.36057347 1.3485165 -0.049835086
-0.3785145 1.3473941 -0.049965791
-0.39174002 1.329927 -0.049497053
-0.41186622 1.335956 -0.049910508
-0.43042496 1.336159 -0.050116606
-0.44424844 1.3218077 -0.049784195
-0.46683508 1.3331833 -0.050430048
-0.47571823 1.3056107 -0.049609724
-0.49477181 1.3065205 -0.049877077
-0.51572508 1.3117392 -0.050320234
-0.52841145 1.2958493 -0.049961962
-0.54672492 1.293919 -0.050148997
-0.56272298 1.2863597 -0.050126676
-0.58063203 1.2830545 -0.050278801
-0.59601516 1.2740898 -0.050217628
-0.61133474 1.2650864 -0.0501622
-0.6255421 1.2539347 -0.050028391
-0.6409716 1.2453578 -0.050004251
-0.65248114 1.229425 -0.049690466
-0.67704254 1.2378099 -0.050369952
-0.68789512 1.2208822 -0.050029635
-0.70514691 1.2154573 -0.050167218
-0.71938986 1.2047988 -0.050097216
-0.7305209 1.1891637 -0.049825639
-0.75283653 1.1915848 -0.050320294
-0.76439959 1.1768064 -0.050098721
-0.77134234 1.1553839 -0.049596287
-0.79516405 1.159189 -0.050185461
-0.80356032 1.1403767 -0.049805131
-0.83517766 1.1541057 -0.050860014
-0.83826447 1.1281843 -0.050178885
-0.8499319 1.1143 -0.050033402
-0.86096376 1.0997659 -0.049863644
-0.87897801 1.0941099 -0.050105061
-0.89760876 1.0889295 -0.050381452
-0.92353386 1.0920684 -0.051060688
-0.91758084 1.0577251 -0.049991202
-0.93080109 1.0460596 -0.049989857
-0.93883401 1.0287075 -0.04972164
-0.96147662 1.0272371 -0.05023177
-0.97474736 1.0154796 -0.050253052
-0.98247814 0.99806875 -0.04999971
-0.99536532 0.98601347 -0.050019719
-1.0036609 0.96949941 -0.049819157
-1.0225058 0.96311224 -0.050148599
-1.0316612 0.94750679 -0.050008494
-1.0385239 0.92997724 -0.049769565
-1.0545057 0.92062896 -0.049975939
-1.0664617 0.90765947 -0.049996927
-1.0685221 0.88645786 -0.049566288
-1.0911177 0.88224733 -0.050095137
-1.0967138 0.8641634 -0.049848504
-1.1084104 0.85097891 -0.049889132
-1.1130687 0.8324911 -0.049623035
-1.1333863 0.82563943 -0.050061367
-1.138577 0.80767465 -0.049837463
-1.1506993 0.79468548 -0.049926106
-1.1530678 0.77506137 -0.049601484
-1.1792604 0.77128947 -0.050306428
-1.1671879 0.74258029 -0.049388617
-1.1850924 0.7331748 -0.049751632
-1.1942714 0.71821982 -0.049753357
-1.2099472 0.70705664 -0.050031524
-1.2246605 0.69511843 -0.050273996
-1.2267257 0.6760118 -0.050005365
-1.2369466 0.66147822 -0.050078493
-1.2444128 0.64545459 -0.050047744
-1.2549073 0.63097465 -0.050146285
-1.2684512 0.61789984 -0.050372593
-1.275274 0.60147548 -0.050338775
-1.2799499 0.58409446 -0.050229039
-1.2757734 0.56288916 -0.04978304
-1.2817395 0.54634613 -0.049743444
-1.3064458 0.53754103 -0.050435591
-1.2963257 0.51438838 -0.049790893
-1.3121401 0.50163442 -0.050151721
-1.3182937 0.48505163 -0.050149489
-1.31959 0.46674949 -0.049971256
-1.336961 0.45403624 -0.050408576
-1.3366023 0.43522245 -0.050184436
-1.3397738 0.41767189 -0.05010207
-1.3435142 0.40034854 -0.050049458
-1.3453451 0.38251793 -0.049934268
-1.3556454 0.36706182 -0.050141044
-1.3691839 0.35228539 -0.050473716
-1.3724912 0.33476904 -0.050436236
-1.3640372 0.31456459 -0.049976047
-1.3623294 0.29615599 -0.049772896
-1.3812771 0.28210944 -0.050331373
-1.3745233 0.26274604 -0.049960759
-1.3783537 0.24553074 -0.049983647
-1.385111 0.22877964 -0.050120246
-1.3731654 0.20908053 -0.049588792
-1.3845183 0.19300495 -0.049907055
-1.0139807 0.14135119 0.42388406
-1.3807217 0.17478256 -0.049686927
-1.0205197 0.12918536 0.4259038
-1.3785827 0.15690228 -0.049534928
-1.0494099 0.11943774 0.35138655
-1.0262543 0.11680231 0.42764938
-1.3981656 0.14132255 -0.050170653
-1.0481822 0.10594724 0.35050097
-1.0170279 0.10279825 0.42323166
-1.4050708 0.12416953 -0.050358336
-1.0845875 0.095847636 0.27779141
-1.0414908 0.092039078 0.3478483
-1.0123223 0.089461386 0.4207713
-1.3879503 0.10506228 -0.049693376
-1.0897545 0.082490049 0.039016943
-1.0864025 0.08223632 0.11708894
-1.091562 0.082626872 0.19742496
-1.0875039 0.082319692 0.27825084
-1.0563698 0.079962961 0.35245353
-1.030166 0.077979445 0.427746
-1.3991636 0.088208444 -0.050051115
-1.050302 0.066214919 0.35012308
-1.0248183 0.064608328 0.425154
-1.3897935 0.070061527 -0.04968043
-1.0630143 0.053588107 0.35410774
-1.0135056 0.051092301 0.42016059
-1.4113644 0.05334289 -0.050423507
-1.0424285 0.03939886 0.34705749
-1.0183839 0.038490087 0.42194858
-1.3983372 0.035225607 -0.049938284
-1.0386703 0.026165212 0.34566918
-1.0346817 0.026064735 0.42853132
-1.4038488 0.017681282 -0.050123189
-1.0439943 0.013148964 0.34735838
-1.0101813 0.012723095 0.41828457
-1.4077468 3.7355826e-06 -0.050258376
-1.0446517 2.7720773e-06 0.34754956
-1.0218493 2.7115689e-06 0.42308232
