# .PCD v0.7 - Point Cloud Data file format
VERSION 0.7
FIELDS x y z
SIZE 4 4 4
TYPE F F F
COUNT 1 1 1
WIDTH 1405
HEIGHT 1
VIEWPOINT 0 0 0 1 0 0 0
POINTS 1405
DATA ascii
-0.78788447 0.38468942 -0.29622954
-0.86515254 0.39570412 -0.29694152
0.9588064 0.39537981 -0.29741019
1.0546263 0.4040696 -0.29560161
0.86158526 0.40729123 -0.29745692
-0.85219419 0.41608903 -0.29600406
0.77708155 0.41654083 -0.29788461
0.95489216 0.42226103 -0.2994065
1.042127 0.42973849 -0.29504427
0.76258904 0.43388945 -0.29643258
0.85831034 0.43256703 -0.29999998
-0.75956458 0.44494936 -0.297416
-1.7446347 0.44982812 -0.2961106
-1.3197808 0.44916967 -0.29633725
0.942298 0.44544604 -0.29888755
-0.93148309 0.4548023 -0.29725406
0.75053608 0.45247203 -0.29609221
-0.83737016 0.46255431 -0.29858962
-1.5010968 0.46896365 -0.2962096
-0.81684554 0.4785043 -0.29548326
-1.7331258 0.49381661 -0.29617828
0.73260188 0.49369755 -0.29847431
0.81783384 0.49304354 -0.29806694
-0.72231477 0.50013429 -0.29683104
-1.4878612 0.50637352 -0.29602548
1.0085292 0.5082736 -0.29559746
0.71838349 0.51093739 -0.29784051
0.80217779 0.51163614 -0.29697269
-1.3026657 0.51804817 -0.29798976
-0.79288244 0.51989853 -0.29593691
-0.88800097 0.52018678 -0.29512098
0.70554864 0.52911419 -0.29796097
-1.7252785 0.53900111 -0.29706743
-0.69550425 0.53542632 -0.29654914
-0.87820631 0.54466707 -0.29634011
0.69373 0.54813492 -0.29871711
-0.77321279 0.56476098 -0.29886156
0.87857538 0.56036317 -0.29882619
0.99150872 0.56413758 -0.29857987
1.1159637 0.56241786 -0.29619032
-0.66557795 0.5680967 -0.29564708
0.68201768 0.5674094 -0.29974487
0.76197052 0.57142681 -0.29727876
-1.2636563 0.57797205 -0.29536778
0.65855616 0.57661951 -0.2957356
-0.84600496 0.585778 -0.295082
1.0972849 0.58818018 -0.29507884
0.74678409 0.59005439 -0.29706946
1.2551203 0.59332436 -0.2950986
0.64664435 0.59567404 -0.29704314
0.83871442 0.5965206 -0.2951403
0.72709441 0.60491133 -0.29521626
-0.83248377 0.60805303 -0.29562458
-1.4456748 0.61760688 -0.29610151
-0.6215297 0.61762363 -0.29603878
1.0872991 0.61863935 -0.29649794
-0.94883001 0.62215447 -0.29697102
0.71294373 0.62424028 -0.29577354
0.83260405 0.62439722 -0.29844064
-1.7046535 0.62857902 -0.29860225
-0.81951284 0.63089299 -0.2965785
0.61970329 0.63154292 -0.2989397
-0.60795069 0.63541031 -0.29711497
-1.2344716 0.64180416 -0.29574645
-0.92883426 0.64312941 -0.29569885
0.69919997 0.64408714 -0.29672134
-0.59060824 0.64931929 -0.29655415
0.81684792 0.6454137 -0.29853678
1.0722152 0.64640117 -0.29673901
-1.4339942 0.65588135 -0.29700506
-0.7868551 0.67161143 -0.29665828
1.059857 0.67598623 -0.29794571
-0.55861676 0.68013215 -0.29736117
-1.045128 0.68529773 -0.29621276
-0.89454222 0.68865359 -0.29547882
0.54876494 0.68558973 -0.29669705
-0.7731089 0.69434899 -0.29798794
0.64547294 0.69189227 -0.29534265
-0.54469919 0.69839591 -0.29924035
0.53018725 0.69776332 -0.29608005
0.75696486 0.69729882 -0.29513234
-1.2034107 0.70495236 -0.29645771
-0.63883674 0.70234215 -0.29633826
-0.52093214 0.70384729 -0.29584846
1.0404242 0.70113778 -0.29736277
-1.6589135 0.70870459 -0.29648256
-0.75041741 0.70898002 -0.29604447
0.628986 0.70928365 -0.2958957
-0.8767702 0.71091378 -0.29544112
-1.3924752 0.72395056 -0.29560256
0.49273375 0.72130895 -0.29513416
1.0170537 0.72336113 -0.29580706
0.87358779 0.72678757 -0.29743448
-0.85944045 0.73356587 -0.29574615
0.47479376 0.734155 -0.29539308
-1.0117517 0.73899174 -0.29695383
0.59148216 0.73895776 -0.29543492
-0.58305711 0.74757719 -0.29591554
-0.47120461 0.74917126 -0.2990185
1.0018104 0.75129062 -0.29679406
-0.56318438 0.76093566 -0.29548272
-0.42785889 0.76315302 -0.29559648
-0.69767129 0.76702529 -0.2973325
0.44344127 0.76806122 -0.2996414
0.55309552 0.76736057 -0.29524478
0.68383396 0.7711336 -0.29555756
-0.38857695 0.78328276 -0.2954146
0.53332424 0.780729 -0.29511532
-0.67886031 0.78526771 -0.29766747
-1.626904 0.7943458 -0.29755321
-0.52829486 0.7947157 -0.29785839
-0.65682596 0.79970467 -0.29676151
-0.5049367 0.80280209 -0.29601842
-0.35019699 0.80563325 -0.29679447
-0.77985168 0.8150757 -0.29525471
0.34248418 0.81588775 -0.29895681
-0.30862814 0.82099104 -0.29633158
0.32046488 0.82087624 -0.29772621
-0.28762046 0.82795531 -0.29613081
0.30000782 0.82968634 -0.29808038
0.47857043 0.82890666 -0.29874793
0.77202159 0.82754171 -0.29621899
-0.928213 0.83365202 -0.29570311
-0.46637294 0.8318488 -0.29766333
-0.44274759 0.83863735 -0.29599965
0.45543617 0.83691776 -0.29739767
-0.24642494 0.84462416 -0.29726186
0.23415314 0.84191865 -0.2952466
0.60693944 0.84206325 -0.29766047
-0.59841776 0.85272282 -0.29873514
0.1915381 0.85334677 -0.29548484
-0.39950272 0.85909724 -0.2957218
-0.16027106 0.86627728 -0.29764715
-0.1383388 0.86989301 -0.29759505
0.14892557 0.86587149 -0.29683858
0.56065112 0.86691284 -0.29605678
-1.911926 0.87447816 -0.295463
0.016547959 0.87421995 -0.29541662
0.083036043 0.87488329 -0.29691619
0.36584416 0.87153739 -0.29502401
-0.55172527 0.8771916 -0.29716551
0.060913116 0.8763786 -0.29680738
-0.35838556 0.88489592 -0.29799125
-0.072613202 0.88345408 -0.29949006
0.038979843 0.88211739 -0.29832277
0.34539849 0.88474411 -0.29644924
-0.0055881105 0.88599324 -0.29934737
0.32139471 0.88883281 -0.29500735
-0.33515865 0.89156568 -0.29729399
0.8761186 0.89285707 -0.2964831
-0.69877744 0.89595014 -0.29739311
-0.53435642 0.89914393 -0.29993793
0.517371 0.89611107 -0.29672548
-0.28872237 0.90410095 -0.29623339
0.30085203 0.90261668 -0.29696748
0.68517756 0.90174133 -0.29642281
0.27726883 0.90758455 -0.29620519
0.49458811 0.90886402 -0.29672042
-0.67599487 0.91335738 -0.2974132
-0.48134077 0.91173923 -0.29565233
-0.2193892 0.92279917 -0.29605752
0.47280705 0.9236086 -0.2975435
-0.65213656 0.92927021 -0.29714063
-0.24580584 0.9290778 -0.29996672
-0.19556874 0.92582762 -0.29535151
0.20769951 0.92534959 -0.29601163
0.23296748 0.92772573 -0.29855758
0.1845866 0.93181342 -0.29649463
0.44899416 0.93449712 -0.29730588
-0.14926238 0.93858194 -0.296637
0.13730024 0.93962938 -0.29639706
0.42268836 0.93978184 -0.29549903
0.83151662 0.93766975 -0.29703841
-0.17481457 0.94488603 -0.29992834
1.0207992 0.940337 -0.29501465
-0.029946489 0.9491393 -0.29639828
0.01794875 0.94822299 -0.29601789
0.61320323 0.94817209 -0.29554823
-0.41377023 0.95188445 -0.29763889
-0.054217041 0.95392954 -0.29822657
0.80281961 0.95268613 -0.29528251
0.37467188 0.9597283 -0.29544368
-0.38905528 0.96062309 -0.29720631
-0.3644141 0.96938896 -0.29697821
-0.34042701 0.97996634 -0.2974917
0.32624528 0.97880155 -0.29586521
0.35437536 0.98004246 -0.29884869
0.78499806 0.98072344 -0.29773694
-0.28859046 0.98914689 -0.29547688
0.27628118 0.9933939 -0.29568088
0.30291855 0.99154383 -0.29731119
0.75578618 0.99466711 -0.29608473
0.97385669 0.99246252 -0.29555893
-0.26463702 1.0002544 -0.29670522
-0.23874097 1.0041969 -0.29599306
0.54452682 1.0006324 -0.29817048
0.22664306 1.0097475 -0.29676279
-0.21431097 1.0145539 -0.29735681
0.51728928 1.0105028 -0.29712665
-0.16172691 1.0169606 -0.29529151
0.20172359 1.0183228 -0.29769194
-0.18963 1.0249646 -0.29891014
0.14965767 1.0241988 -0.29682145
0.95706224 1.0258896 -0.29822513
0.43873936 1.0451931 -0.2966902
0.4103007 1.0509923 -0.29530275
-0.39920098 1.0619266 -0.29693586
0.89459896 1.0615984 -0.2950938
1.1522337 1.0614115 -0.29507074
-0.37321243 1.0743436 -0.29767922
-0.34481931 1.0797621 -0.29667467
0.35858026 1.0758131 -0.29680941
-0.31630623 1.0841429 -0.29559079
0.30354303 1.0914162 -0.29650623
0.59738159 1.0977592 -0.29621416
0.24736418 1.102065 -0.29562792
0.84219742 1.1083903 -0.29589865
0.22023137 1.1117522 -0.29664099
0.19219682 1.1174557 -0.296774
-0.15019538 1.1271206 -0.29761684
0.54184568 1.1277502 -0.29654369
0.049977817 1.1310025 -0.296314
0.51130056 1.1367972 -0.29543522
0.48237118 1.1491356 -0.29538372
0.39578173 1.1874249 -0.29665768
-0.38060725 1.1918279 -0.29653406
-0.35031858 1.2007208 -0.2964524
-0.31985122 1.2089487 -0.29639634
-0.2896727 1.2184271 -0.29683316
0.30532452 1.2158667 -0.29712448
0.15107277 1.254356 -0.29944816
0.60133296 1.2515618 -0.29514813
0.85308063 1.3190851 -0.29588088
0.37213176 1.3380332 -0.29520988
0.33830675 1.347209 -0.29525644
-0.35748488 1.3511935 -0.2970944
-0.28816774 1.3641938 -0.29637465
0.30533728 1.3603486 -0.29635283
0.67864722 1.4124769 -0.29515585
0.60656464 1.4449972 -0.29517293
0.45895812 1.5023084 -0.29587135
0.97562677 1.5085735 -0.2952677
0.42297214 1.5208343 -0.29732278
-0.28641716 1.5481066 -0.29653579
0.90793926 1.5725937 -0.29844165
0.73771393 1.640192 -0.29557905
0.4817687 1.7322427 -0.29550198
0.96410549 1.8833394 -0.29733849
0.91277754 1.8997753 -0.29620191
0.86253434 1.9177109 -0.29551002
0.81408978 1.939377 -0.29558837
0.71756041 1.9844486 -0.29655576
0.66760349 2.0029449 -0.29670733
0.61607587 2.016602 -0.29633272
0.86017299 2.3788505 -0.29564157
0.55431962 2.4696229 -0.29581434
-0.4314526 -2.0425081 -0.2933774
-0.37808174 -2.0435605 -0.29206491
-0.48280755 -2.0307946 -0.29335174
-0.73697871 -1.9604594 -0.29433671
-0.88366824 -1.9002547 -0.29451445
0.90640759 -1.8865175 -0.29413483
-0.93237698 -1.87946 -0.29484484
0.99563098 -1.8295895 -0.29272661
1.1387849 -1.7608585 -0.29470268
-0.41429311 -1.7426078 -0.29438263
-0.45846462 -1.7328689 -0.29459834
1.1815724 -1.7296941 -0.29438424
-1.2055359 -1.7178434 -0.2949321
0.65260649 -1.6716624 -0.294934
0.69260377 -1.6499652 -0.29409641
0.73500431 -1.6341677 -0.29449338
0.7773248 -1.6178557 -0.2949954
-0.79723454 -1.6070436 -0.29483423
1.3526194 -1.6051198 -0.29498854
0.85714209 -1.5750997 -0.29471785
1.3833058 -1.5599016 -0.29300138
-0.16705376 -1.5517551 -0.29396337
-0.20622087 -1.5475563 -0.29406032
-0.12707119 -1.5460212 -0.29217657
0.89483261 -1.5498923 -0.29413345
-0.28411576 -1.5356672 -0.29415306
-0.24436501 -1.5366001 -0.29305705
1.4242986 -1.5267274 -0.29342896
-0.36139223 -1.5200951 -0.29429162
-0.95282966 -1.5149101 -0.29413092
0.97101456 -1.5014418 -0.29387185
1.4698466 -1.4979284 -0.29492995
-0.43476909 -1.4901757 -0.29237801
-0.47481871 -1.4868402 -0.29398122
1.0079551 -1.4755372 -0.29368734
-1.4813194 -1.4720099 -0.29348269
0.49157992 -1.4748387 -0.29281157
-0.5486843 -1.4595718 -0.29369494
1.498226 -1.4516969 -0.29317918
0.5626691 -1.4412864 -0.29142123
0.60333252 -1.4372973 -0.29360008
0.63945472 -1.421728 -0.29362297
-0.65546101 -1.4095142 -0.2927849
0.67718166 -1.4094267 -0.29451847
-1.0949928 -1.4039648 -0.29262507
-1.5567693 -1.3981746 -0.29406431
1.1187689 -1.3977141 -0.29424164
-0.69174349 -1.3943976 -0.29317808
0.71365893 -1.3941026 -0.29498619
-0.72997326 -1.3826904 -0.29449648
-0.11360048 -1.382129 -0.29477876
1.5708447 -1.3754023 -0.29342091
-0.14749283 -1.3700542 -0.29290417
1.1517514 -1.3667548 -0.29375017
-1.595825 -1.3620986 -0.29485399
-0.25179341 -1.3609625 -0.2941983
-0.21642239 -1.3608931 -0.29290926
-1.1727322 -1.3565513 -0.29471329
0.77977681 -1.3506104 -0.29374301
-0.28412566 -1.3450586 -0.29221746
-0.79694003 -1.3409846 -0.29381263
1.1822994 -1.3332343 -0.29286587
-1.6296877 -1.3214037 -0.29485464
-0.38650692 -1.3247566 -0.29333305
-0.41992456 -1.3149455 -0.29341397
-0.4534466 -1.3053088 -0.29372382
0.43656552 -1.3097845 -0.29346836
0.84378207 -1.3047072 -0.2926558
0.46770662 -1.2934656 -0.29236376
-0.483908 -1.2872584 -0.29231727
-1.6578407 -1.2762705 -0.29402667
-0.89709759 -1.2783304 -0.29414809
0.53474748 -1.2739097 -0.29367429
1.2508724 -1.2747706 -0.29352808
-0.54883331 -1.262599 -0.29263961
-0.92541444 -1.2503557 -0.29299212
-0.58253479 -1.2526923 -0.29365769
0.90424645 -1.2545447 -0.29127762
0.56164032 -1.2487199 -0.29104242
1.2876068 -1.2476188 -0.29466525
-0.0391495 -1.2408243 -0.29423884
0.59791303 -1.2444439 -0.29346958
0.94488412 -1.2435331 -0.29416424
-1.6935104 -1.236954 -0.29472211
-0.10149992 -1.2349066 -0.29367688
-0.069916368 -1.2301536 -0.29203391
-1.299578 -1.2278165 -0.29383689
-0.16312373 -1.2241397 -0.29270267
-0.64207721 -1.2162007 -0.29233319
-0.22511923 -1.2167866 -0.29328945
0.66288775 -1.2181345 -0.29478541
0.97510093 -1.2182251 -0.29390565
1.7100769 -1.2162615 -0.2949104
-0.9917469 -1.2074807 -0.29430836
-0.67591834 -1.2056057 -0.2937935
0.27066043 -1.2058553 -0.29291531
0.30265427 -1.2052332 -0.29452595
0.23780586 -1.2004701 -0.29005688
1.3078164 -1.2047307 -0.29223871
-0.70851588 -1.1921962 -0.29478958
1.0046023 -1.1921366 -0.29363522
0.36293513 -1.1879961 -0.29441816
0.68685359 -1.1896629 -0.29199749
-1.0236121 -1.1840574 -0.29480231
-0.34438285 -1.1803759 -0.29142934
0.39249039 -1.1775502 -0.29419068
-0.40804589 -1.1746166 -0.29472032
1.0379566 -1.1704643 -0.29465586
-1.3617061 -1.1622691 -0.29423544
0.75102919 -1.1612871 -0.29396889
-0.76798356 -1.1552801 -0.29487726
-0.43419319 -1.1550105 -0.29245746
1.3729632 -1.1422464 -0.2935296
-0.46110255 -1.1385162 -0.29113504
-0.79139227 -1.1277044 -0.2928437
-0.52303386 -1.1247406 -0.29399323
-0.09211456 -1.1207188 -0.29432267
-0.063798234 -1.1225073 -0.29427576
-0.035453673 -1.1236869 -0.29425672
-0.0070665721 -1.1204028 -0.29325664
0.02126253 -1.1232883 -0.29405868
0.80879074 -1.1221102 -0.29401821
0.049371295 -1.1172769 -0.29271799
0.07757245 -1.1160624 -0.2928195
0.13466127 -1.1180915 -0.29476067
0.5380559 -1.1198624 -0.29446959
-0.82472008 -1.1143045 -0.29467547
-0.55298036 -1.1146827 -0.29491839
-0.14711703 -1.1040196 -0.29151702
1.3962665 -1.1032281 -0.29246563
-0.26067501 -1.0964564 -0.29498205
-0.20339936 -1.099389 -0.29263401
0.83539283 -1.0994351 -0.2935079
-1.4148848 -1.0892336 -0.293464
0.27311417 -1.0875983 -0.29350287
-0.28626937 -1.0820186 -0.29294837
-0.22909655 -1.0845492 -0.29013065
1.1169429 -1.0822549 -0.29293495
0.30026969 -1.0796467 -0.29330879
0.32846475 -1.0751642 -0.29424948
0.62186807 -1.0771049 -0.29478219
-0.34224355 -1.0716963 -0.29445854
-0.31261361 -1.0714865 -0.29214001
-0.87266767 -1.0624982 -0.29225934
-1.807157 -1.0586241 -0.29433548
-1.4471055 -1.0569777 -0.29452002
-0.62932843 -1.0589502 -0.29196307
-0.36820257 -1.0599221 -0.29368329
0.6460911 -1.0565656 -0.29353034
0.89081448 -1.0571074 -0.29384544
-0.6611523 -1.0511702 -0.29432508
-0.39499754 -1.050745 -0.29380924
0.38127953 -1.0544473 -0.29347622
0.4094083 -1.0487063 -0.29466048
-0.42153472 -1.0408186 -0.29391494
0.91979772 -1.0372211 -0.29467681
-0.93302578 -1.0257759 -0.29474565
1.1748694 -1.0286938 -0.29412493
-0.1098137 -1.0200546 -0.29420426
-1.4669667 -1.0157349 -0.29325131
-1.1908582 -1.0164437 -0.29489419
-0.13559985 -1.0175906 -0.29438695
-0.083131798 -1.0114294 -0.29101875
-0.18628491 -1.0068841 -0.29363734
0.48486379 -1.009153 -0.29303819
0.224557 -1.0004536 -0.29403132
1.4878935 -1.0026855 -0.29488155
-0.52534837 -0.99509686 -0.29452196
-0.21080673 -0.99796474 -0.29249465
-0.26146612 -0.98826933 -0.29315007
0.53647178 -0.98583025 -0.2937597
1.843851 -0.98836374 -0.29400474
-1.2124563 -0.98309904 -0.29400462
-1.4910077 -0.97766417 -0.29303119
-0.975568 -0.96943688 -0.29234353
1.2249721 -0.96788371 -0.29405418
-0.56864059 -0.95683283 -0.2913264
-1.0087274 -0.95302641 -0.29497835
-0.59566307 -0.9470486 -0.29283154
0.39789698 -0.94789571 -0.29479873
-0.81338477 -0.94087809 -0.29477948
0.041696765 -0.94360155 -0.29480982
0.065162882 -0.93752146 -0.29333064
0.088787012 -0.9354766 -0.29329857
1.2500236 -0.9374339 -0.29429451
0.11251461 -0.93420792 -0.29369763
0.13648088 -0.93402207 -0.29462829
1.0115067 -0.93177694 -0.29232907
-0.17165643 -0.92781609 -0.29450995
-0.14726335 -0.92601174 -0.29266423
0.82356912 -0.92870766 -0.29419935
-1.0276773 -0.92298347 -0.29361415
0.15905011 -0.92473668 -0.29287231
-0.64101702 -0.91342521 -0.29207408
-0.2410537 -0.91111606 -0.29416749
-1.536415 -0.90002465 -0.29264766
0.22698125 -0.90388727 -0.29088598
-0.85822886 -0.89699298 -0.29423651
-0.66545147 -0.89911181 -0.29277447
0.68075871 -0.89592576 -0.29451108
-1.2853904 -0.8900106 -0.29447562
0.29822761 -0.89474285 -0.29437694
-0.69139326 -0.88648242 -0.29425049
1.5588523 -0.88693845 -0.29476589
-0.33255103 -0.88462907 -0.294981
0.50967795 -0.88278627 -0.29231331
-1.9060096 -0.87177211 -0.29454869
0.016492423 -0.87128597 -0.29442516
-1.5674818 -0.8658601 -0.29430884
-0.07149034 -0.8697927 -0.29485887
0.060237471 -0.86665785 -0.29351521
0.36441612 -0.86813545 -0.29387242
-0.71024752 -0.86474699 -0.29289275
-0.3756355 -0.86415488 -0.29410562
-0.1152526 -0.86489737 -0.294797
0.126137 -0.86323261 -0.29474866
0.38459381 -0.85508448 -0.29264718
1.0875596 -0.85931039 -0.29462659
-1.3037088 -0.85485095 -0.2936359
-0.56783724 -0.85419941 -0.29413792
0.16915767 -0.85392642 -0.29411355
0.7179606 -0.85198599 -0.29161623
-1.0987314 -0.84584635 -0.29473901
-0.73338211 -0.84833544 -0.29350999
-0.39303628 -0.84519172 -0.29093516
1.5808324 -0.84737724 -0.29478416
-0.4182902 -0.84317797 -0.29378247
0.43015349 -0.84028667 -0.29464307
0.91332024 -0.84132987 -0.29431635
-0.26535949 -0.83094275 -0.29471004
0.23162128 -0.83281517 -0.29205415
0.25494611 -0.83451551 -0.29481307
-1.5912812 -0.82731014 -0.29476303
-0.24215592 -0.82999206 -0.29211217
0.45154828 -0.82977331 -0.2948589
-1.3270512 -0.82304245 -0.294121
-0.91716796 -0.82373214 -0.29218444
-0.60869843 -0.82243103 -0.29341164
0.76624405 -0.82134867 -0.29400218
-0.28463471 -0.81936044 -0.29305673
0.62015492 -0.816167 -0.29394564
-0.628111 -0.80534387 -0.29287806
-0.47938758 -0.80664963 -0.2928825
-0.32623434 -0.80551082 -0.29362252
0.46662888 -0.80822325 -0.29129338
0.49306503 -0.80631912 -0.29499829
1.602625 -0.80768305 -0.29495269
-0.50150955 -0.79735327 -0.29400927
0.95633805 -0.79563218 -0.29485252
0.35709208 -0.7939387 -0.29412302
-1.3458406 -0.78838712 -0.29378173
-0.64880359 -0.78993726 -0.29313692
0.37490329 -0.7802909 -0.29247928
1.1443561 -0.77117711 -0.29332516
1.354203 -0.77049935 -0.29346117
-0.40621373 -0.76943618 -0.29396543
0.55211735 -0.76600349 -0.29472262
0.68173051 -0.76876163 -0.29464844
1.6203861 -0.76599401 -0.29456964
-0.42676213 -0.76119679 -0.29483879
-1.3680564 -0.75569969 -0.29437399
-0.98552126 -0.75869274 -0.29478142
0.41211283 -0.75730598 -0.2912949
-1.1487551 -0.75324678 -0.29199389
0.43536836 -0.75407857 -0.29418641
-1.6302415 -0.74564105 -0.29462785
-0.83396673 -0.74900699 -0.29339203
-0.44445714 -0.74787337 -0.29392955
0.56816375 -0.74774295 -0.2931208
-0.46269128 -0.73563588 -0.29361609
0.45241651 -0.73984575 -0.29299518
1.372691 -0.73580676 -0.29334974
0.58460695 -0.73036832 -0.29200086
-1.1690856 -0.72507155 -0.29241684
0.60855043 -0.7221517 -0.29476258
-0.72355384 -0.71900654 -0.2925126
1.0107913 -0.71890712 -0.29398564
1.1875458 -0.71592999 -0.29475081
-1.0218316 -0.7075212 -0.29457736
-0.87457657 -0.70913517 -0.29470193
-0.61234015 -0.70832092 -0.29224697
0.62705952 -0.70711124 -0.29498944
-1.1810815 -0.69187206 -0.29095697
-0.53496486 -0.68591487 -0.29389262
1.0223788 -0.688977 -0.29220521
1.2050419 -0.68563133 -0.2947045
-0.76215816 -0.68451387 -0.29376706
1.658596 -0.68394977 -0.29485971
-0.88244712 -0.67934227 -0.29148364
-0.55155271 -0.6715315 -0.29360086
-0.7818948 -0.66737759 -0.29478812
0.65662736 -0.66917241 -0.29262543
1.0451338 -0.66659564 -0.29380673
-1.2029507 -0.66449708 -0.2921198
-0.56705838 -0.65594149 -0.29294881
-1.0530448 -0.65310258 -0.29369122
0.57810611 -0.65190834 -0.29438248
0.78649795 -0.65433252 -0.29338691
1.2187855 -0.65330839 -0.2939395
-0.68487304 -0.64705497 -0.29408336
-0.58452189 -0.64262795 -0.29349813
1.6741325 -0.64142722 -0.29464987
0.59404272 -0.63676345 -0.29422021
1.054911 -0.6359691 -0.29195002
-0.91500568 -0.6335544 -0.29129645
1.4320003 -0.63324213 -0.29491341
-0.81318593 -0.62602228 -0.29428881
0.9340958 -0.62948352 -0.29482135
1.2392168 -0.62453437 -0.29497153
-1.6808662 -0.61980766 -0.29443547
-1.0562025 -0.61871845 -0.2901243
-0.94204599 -0.61770612 -0.29484773
0.607207 -0.61880785 -0.29291159
-1.2420965 -0.60646123 -0.29381257
0.94899851 -0.60527968 -0.29460952
-1.086522 -0.60018307 -0.29419798
0.62364709 -0.60427898 -0.29339159
-0.72924799 -0.59129798 -0.29303876
-0.62653744 -0.59194058 -0.29121524
1.2482769 -0.59008938 -0.29348961
1.0955887 -0.58727092 -0.29462272
-1.6985518 -0.57807928 -0.29488379
-1.4491353 -0.57629663 -0.29373762
-1.2598654 -0.57623821 -0.29448172
0.73394555 -0.57991028 -0.2919623
0.95816976 -0.57764721 -0.29283738
-1.1002713 -0.57203323 -0.29391804
-0.74561983 -0.57400727 -0.29370248
0.65637326 -0.57470816 -0.29475531
-0.66403788 -0.56678218 -0.294963
1.4622542 -0.56024814 -0.29494014
-0.76016039 -0.5552274 -0.29381657
0.97558159 -0.55507559 -0.29378363
0.76891774 -0.54687893 -0.29451036
-1.4670913 -0.54097962 -0.29451588
-1.1112326 -0.54256612 -0.29309475
-1.7132473 -0.53524244 -0.29499584
0.67990059 -0.5372079 -0.29276225
-0.6892311 -0.53059703 -0.29387438
0.87937921 -0.53014708 -0.29445478
0.77495581 -0.52223963 -0.29168165
-0.99965954 -0.51972491 -0.29489672
-0.87673324 -0.51358622 -0.29137623
1.1368792 -0.50273716 -0.2946263
-0.80096197 -0.4967598 -0.29417926
-1.012049 -0.49413911 -0.29477862
-0.70946193 -0.49123493 -0.29154924
-1.1439443 -0.4887045 -0.29483607
1.0172632 -0.48088381 -0.29450622
-1.2903581 -0.4758105 -0.29233417
1.146148 -0.47263321 -0.29384333
-1.4943969 -0.46687052 -0.29488751
0.73570275 -0.46923774 -0.29481867
-0.92182231 -0.4500854 -0.29417112
1.0198995 -0.45100778 -0.29188102
0.8327437 -0.44637755 -0.29490769
1.4999589 -0.44791245 -0.29484615
1.1593337 -0.44418719 -0.29425594
-0.74509251 -0.4364717 -0.29174933
0.92890465 -0.43911469 -0.29463932
-1.1604553 -0.42790976 -0.29314721
-0.93003726 -0.42538112 -0.29327315
1.0382726 -0.42814907 -0.29395303
-0.75989968 -0.41976047 -0.29330552
0.94024676 -0.41578472 -0.29481444
-1.3178366 -0.41171059 -0.29347408
-0.94142324 -0.4021855 -0.29356915
1.0509526 -0.40266204 -0.29457188
-0.76736677 -0.39895546 -0.29220805
1.3287041 -0.39677295 -0.29475561
0.94681984 -0.39043695 -0.29369211
1.1759509 -0.38373026 -0.29318038
-0.77813047 -0.37992695 -0.29256222
-0.86635733 -0.37011659 -0.29405522
0.78861874 -0.37279829 -0.29471323
1.0497136 -0.37209544 -0.2914995
1.5195445 -0.37140653 -0.29463285
-1.1815341 -0.36912778 -0.29338807
0.9574222 -0.3668268 -0.29401535
-1.0592736 -0.36050954 -0.29286805
-0.79349178 -0.36292788 -0.29479995
-0.96376234 -0.35538059 -0.29456222
-1.522682 -0.35188004 -0.29435709
1.1822522 -0.35303998 -0.29243675
1.0602995 -0.34599149 -0.2919212
-1.1916066 -0.33952248 -0.29366785
1.7591732 -0.33696032 -0.29437858
-1.0712066 -0.3346599 -0.29373845
-0.97354168 -0.33133185 -0.29490137
0.87063873 -0.33357656 -0.29101193
1.523181 -0.33180493 -0.29362068
1.1942441 -0.32403725 -0.29328668
0.88773322 -0.31467769 -0.2939775
-1.1890192 -0.30657092 -0.29103059
-0.97163945 -0.30355376 -0.29191142
-0.80978042 -0.29860085 -0.2915999
0.82154781 -0.29121673 -0.29449043
0.89762032 -0.29290685 -0.29470968
0.98485994 -0.2940954 -0.29474473
1.0806913 -0.29322669 -0.29308411
1.2036631 -0.29419893 -0.29368275
1.5378867 -0.29457408 -0.2949284
1.7498764 -0.28961429 -0.29150686
-1.0904646 -0.28116009 -0.29474926
-0.98647809 -0.28107554 -0.29414448
-0.82484144 -0.28072372 -0.29437825
-1.3594346 -0.27822134 -0.29495376
0.90009731 -0.2687839 -0.29320228
1.0897113 -0.26634687 -0.2936137
1.212569 -0.26414219 -0.29413545
1.3617059 -0.26082757 -0.29470891
-0.90127277 -0.25679812 -0.29250666
-1.0937822 -0.25276464 -0.29382807
-0.98865783 -0.25491071 -0.29278278
-1.206058 -0.24683134 -0.29177752
1.777485 -0.24828458 -0.29496825
-0.99824178 -0.23068598 -0.29380322
-0.9062559 -0.2336646 -0.29211688
1.2160759 -0.2329329 -0.29346657
1.3675067 -0.22633 -0.29463425
-1.0905126 -0.22318387 -0.29134378
-1.2220972 -0.21814257 -0.29423216
-0.84241533 -0.21720426 -0.29392654
0.99448431 -0.2166353 -0.2918694
1.5433475 -0.21557952 -0.29351321
-0.91875869 -0.21231805 -0.29432595
1.0990279 -0.21051298 -0.29288563
0.84685749 -0.20698862 -0.29454157
0.91909426 -0.20021258 -0.29360062
1.7797631 -0.20296778 -0.29440245
1.3668441 -0.19092499 -0.29335982
-1.2281966 -0.18738864 -0.29446819
-0.91464561 -0.18719099 -0.29140201
0.84832114 -0.18479559 -0.29333505
1.5555437 -0.17739734 -0.29488727
-0.85383242 -0.17474499 -0.29445508
1.2314043 -0.17200635 -0.29469335
-1.1003708 -0.16788599 -0.29134056
1.0142659 -0.16786666 -0.29481077
-0.85921752 -0.15336908 -0.29488337
-1.116114 -0.14157318 -0.294469
-0.92609763 -0.14129674 -0.29240403
0.85501683 -0.14151005 -0.29280546
1.5557495 -0.13775872 -0.29417348
0.9336912 -0.13042086 -0.29425848
1.1132356 -0.12695563 -0.29326349
1.3777466 -0.12199689 -0.29400244
-0.92905509 -0.11784574 -0.29230562
-1.1191722 -0.11335141 -0.29442731
0.93293959 -0.10639431 -0.29308197
1.2297411 -0.10889128 -0.29260603
0.86234254 -0.098343283 -0.29323927
1.1193044 -0.099112324 -0.29410961
1.5553656 -0.098249257 -0.29353851
1.0211774 -0.09042336 -0.29398188
-0.86620009 -0.08773002 -0.29415131
0.93122911 -0.082458608 -0.29179794
-0.93717259 -0.071083203 -0.29335597
1.1139736 -0.070367433 -0.29214916
1.0165833 -0.064215489 -0.29209968
-1.1158553 -0.056365043 -0.29243293
0.93219072 -0.05888458 -0.29154071
1.5608538 -0.0591073 -0.29419908
-1.021421 -0.051594894 -0.29327938
1.3693396 -0.051854927 -0.29127818
-0.87047958 -0.04397041 -0.29447493
1.1198622 -0.04240758 -0.2933194
0.93617558 -0.035451628 -0.29241401
1.0253602 -0.038828924 -0.29424632
-1.3854815 -0.034971863 -0.2945945
1.022597 -0.012902614 -0.29326651
-1.1252162 2.9858625e-06 -0.29451066
0.87197924 0.011002195 -0.29463008
1.1217779 0.014154029 -0.29363409
-0.94375753 0.023822013 -0.29466492
-0.86967909 0.02195215 -0.29392311
0.86440486 0.032733776 -0.29225689
0.94071233 0.035623431 -0.29383108
0.8696683 0.054935168 -0.29441151
-0.93882066 0.071208209 -0.29387185
-1.0207367 0.077421419 -0.29355049
0.93650711 0.08292596 -0.29345176
-1.1223284 0.085126996 -0.29459855
-0.86154771 0.087258816 -0.2925714
1.3820192 0.087299317 -0.29435024
-0.93500036 0.094698213 -0.29333076
1.0195851 0.090282366 -0.29352349
0.86188453 0.098291047 -0.29308352
1.1188048 0.099068075 -0.2939783
1.7895917 0.11304484 -0.29470804
-0.9313882 0.11814168 -0.29303968
1.0202508 0.11635146 -0.29446676
0.93228579 0.13022456 -0.29381555
1.5517998 0.13740897 -0.29342663
-0.93078929 0.14201257 -0.29388535
-1.2242354 0.1552878 -0.29248565
1.7864069 0.15818299 -0.29474714
-1.1048959 0.16857639 -0.29253867
-0.92531848 0.16516802 -0.2933808
-1.3694779 0.17371105 -0.29343143
-0.84946769 0.1738517 -0.29294983
1.2241725 0.17099619 -0.29296267
0.92227805 0.17665748 -0.29310006
1.541945 0.17584652 -0.29230934
1.1075088 0.18329887 -0.29381928
0.9995265 0.19145401 -0.29183814
1.372488 0.19171336 -0.29457116
-1.1071395 0.19762281 -0.29435953
-0.84745574 0.19584048 -0.29386699
1.2177674 0.20154728 -0.29255402
-1.3680072 0.20871985 -0.29415137
0.84629393 0.20685087 -0.29434556
-0.91417801 0.21125948 -0.29285851
-0.84530103 0.2179483 -0.29493341
1.0038115 0.21866712 -0.29460683
0.91429466 0.22347158 -0.29377559
1.3534325 0.22400065 -0.2916019
0.83920318 0.22770309 -0.29378465
-1.5469317 0.23601878 -0.29473788
-0.83139682 0.2368885 -0.29207513
-1.3661146 0.2438495 -0.29497385
0.90252745 0.24488503 -0.29188761
0.99153519 0.2423507 -0.29270583
-1.2155763 0.24877934 -0.29408026
0.83656836 0.24981309 -0.29497555
-1.0917805 0.25230205 -0.29329035
-0.82733893 0.25847226 -0.29284811
1.5447512 0.25566494 -0.29491341
1.3574214 0.26000687 -0.29378164
0.82276046 0.26847896 -0.29240301
0.89938545 0.26857132 -0.29297039
0.99279356 0.26937714 -0.29499042
-1.5288585 0.27289903 -0.29251352
-1.3533645 0.276979 -0.29363674
-1.2084646 0.27926686 -0.29397136
-1.0895995 0.28093702 -0.29451543
1.2027875 0.29398492 -0.29346913
-0.89062923 0.3031137 -0.29364693
-1.3392086 0.30948079 -0.29216707
-1.198211 0.30894089 -0.29328042
-1.0749638 0.30628762 -0.29255578
0.79543519 0.32801098 -0.29069847
-1.336787 0.34467065 -0.29344314
-0.79928136 0.34146106 -0.29365554
0.96511859 0.34210873 -0.29363379
-1.5116349 0.34932718 -0.29222155
-0.87605679 0.34839299 -0.29426911
0.79445553 0.35131466 -0.29348743
-0.79050404 0.36156133 -0.29368991
-1.183194 0.36964637 -0.29380026
-0.8613205 0.3679648 -0.29234561
0.78451407 0.37085792 -0.2931793
-0.95071822 0.3780846 -0.29339856
1.0598319 0.37568203 -0.29430923
0.8639099 0.38202792 -0.29483676
-1.5090194 0.3890782 -0.29352078
-1.0491524 0.38686758 -0.29267612
0.77002633 0.38807407 -0.29133266
1.1806911 0.38527706 -0.29436219
-1.7474258 0.40381664 -0.29476061
-1.177555 0.400765 -0.29481775
-0.77234387 0.40154308 -0.29410332
-1.3189249 0.41205058 -0.29371643
-1.0371497 0.41245693 -0.29213879
1.1717249 0.41534516 -0.29464647
-0.76127076 0.42051783 -0.29383472
-1.5018026 0.42790607 -0.29412407
-1.1643153 0.42933309 -0.29412228
-0.93191135 0.42623833 -0.29386413
-0.83599371 0.43463475 -0.29409355
-1.0351048 0.44220719 -0.29461268
0.82957494 0.44467899 -0.29378551
1.1572107 0.4433738 -0.29371712
1.0247374 0.45314711 -0.29326558
-1.1452503 0.45544675 -0.292117
-0.73728067 0.45726439 -0.29311612
0.9031288 0.45515442 -0.29001489
0.72717738 0.46380019 -0.29140228
0.80945879 0.46055686 -0.29068553
-1.0180403 0.46563205 -0.29300737
-0.91179591 0.47404444 -0.29469573
1.1433176 0.47146609 -0.2931177
-1.2946326 0.47738665 -0.29330254
-0.72994387 0.47862932 -0.29490799
-1.1348107 0.4848026 -0.29248205
0.90240031 0.48371574 -0.29360786
1.016942 0.48073199 -0.29441327
-1.0107275 0.49349391 -0.29439372
-0.89331818 0.49345937 -0.29265577
-0.79905379 0.49557635 -0.29347843
1.1364294 0.50253826 -0.29450971
0.88978475 0.50625986 -0.29356709
-0.70196694 0.51272243 -0.29369354
-1.1276884 0.51578295 -0.29390794
-0.9935981 0.51657355 -0.29310861
0.86762828 0.52306288 -0.29052007
0.78162789 0.52673596 -0.29419291
1.1180078 0.52850807 -0.29309919
-0.76940042 0.5327366 -0.29209796
0.99304122 0.5323022 -0.29490176
-1.4627479 0.53937805 -0.29364395
-1.1037564 0.53891581 -0.29112285
-1.2728848 0.54378921 -0.29422316
-0.97953027 0.54108202 -0.29289398
-0.67559236 0.54779226 -0.29386055
0.7666356 0.54525578 -0.29363626
-0.8546865 0.56042391 -0.29308319
-0.96755618 0.56678987 -0.29349753
-0.73741817 0.56769329 -0.29047182
-1.0993185 0.57153779 -0.29366353
0.84622139 0.57026529 -0.29262397
-1.6957216 0.57711607 -0.29439244
-1.4469007 0.57540798 -0.29328468
-0.64469683 0.57901883 -0.29276997
0.96300679 0.58056325 -0.29431567
-0.95153177 0.5901438 -0.29306149
-0.73312241 0.59443951 -0.29459563
-0.62808406 0.59340179 -0.2919341
-1.0827072 0.59807581 -0.29316506
0.61759371 0.59841365 -0.29054382
0.94529438 0.60291713 -0.29345956
-1.2391785 0.6050365 -0.29312235
-0.7164942 0.61155564 -0.29402256
1.2385617 0.62420428 -0.2948156
-1.071722 0.62780976 -0.29438731
-0.69597745 0.62507528 -0.29198426
0.93292278 0.62869298 -0.29445112
0.59349263 0.63617378 -0.29394779
-0.79666132 0.6459589 -0.29411507
-1.0525411 0.65279019 -0.29355073
0.57873738 0.65262026 -0.29470396
0.78372496 0.65202552 -0.2923525
0.91600138 0.65148956 -0.29420644
1.2187417 0.65328491 -0.29392892
-1.6567671 0.65886831 -0.29303366
-0.6614939 0.65733665 -0.29107565
-0.57046449 0.65988147 -0.29470843
0.67817199 0.65711057 -0.2947419
-0.90998918 0.66466355 -0.29494604
-1.2114739 0.66920519 -0.29418954
1.4080522 0.66561878 -0.29334778
0.66178221 0.67442572 -0.29492268
0.77274793 0.67660362 -0.29453412
-0.65165359 0.6810872 -0.29421598
1.2037389 0.68488997 -0.29438582
-1.4060305 0.68650299 -0.29470807
0.87627769 0.69237077 -0.29230753
-1.0149833 0.70277935 -0.29260311
1.3915582 0.70131063 -0.29350564
-0.6120615 0.70799857 -0.29211396
-0.4978942 0.70948058 -0.29284102
0.50901979 0.70621032 -0.29411927
0.73657978 0.71370441 -0.29411387
-0.72642684 0.72186154 -0.29367408
-1.1729312 0.72745657 -0.29337874
-0.59828395 0.72842807 -0.29421914
-0.48295286 0.7265076 -0.29474396
0.71747929 0.73118693 -0.29376239
1.3673891 0.73296475 -0.29221672
0.84471816 0.73961949 -0.29386726
-1.6229061 0.74228597 -0.29330212
-0.82645911 0.74226421 -0.29075083
-0.70920289 0.74123585 -0.29418036
-0.44144359 0.74280256 -0.29193661
0.45389569 0.74226469 -0.29395312
0.56719172 0.74646372 -0.29261932
0.69746822 0.74762684 -0.29320157
-1.1474998 0.7524237 -0.29167482
-1.3668851 0.75505269 -0.29412195
-0.98310202 0.75683033 -0.29405779
0.41448784 0.76167035 -0.29297364
0.82800251 0.7627371 -0.29465535
-0.53840369 0.76720506 -0.29254735
-0.40537578 0.76784891 -0.29335904
-0.8174302 0.77229238 -0.29433802
0.97595799 0.77113092 -0.29480717
-0.95733452 0.77623796 -0.29211745
0.37456647 0.77958983 -0.29221648
0.65969604 0.7828449 -0.29357114
0.80731374 0.7822417 -0.2942251
-0.36518279 0.78529507 -0.29260421
-1.3490845 0.79028738 -0.29448983
-0.79902267 0.7940011 -0.29483187
0.35726458 0.79432219 -0.29426509
0.51249021 0.79244357 -0.29456028
1.1144624 0.79264134 -0.29069799
0.78433853 0.79932356 -0.29311091
-0.93898892 0.80146354 -0.29259869
0.49120581 0.80327868 -0.29388595
0.64161891 0.80159527 -0.2944361
-0.62995499 0.8077082 -0.29373789
-0.47998691 0.80765814 -0.29324865
-0.32731658 0.80818301 -0.29459658
-1.5731518 0.81788468 -0.29140481
-0.61095089 0.82547444 -0.2944974
-0.26455635 0.82842779 -0.29381806
0.25333038 0.82922679 -0.2929447
0.27548313 0.82650489 -0.29434568
0.42462015 0.82947755 -0.2908529
-0.75631022 0.83149344 -0.29419354
1.1088163 0.83153784 -0.29460576
-0.22202002 0.83917397 -0.29327816
0.21091531 0.83990932 -0.29258201
-0.89417505 0.84479946 -0.29155928
-0.41828436 0.84316611 -0.29377836
-0.17787945 0.84208608 -0.29078516
0.40476379 0.84243989 -0.29172307
0.74646926 0.84176505 -0.29447263
-0.20097515 0.84534562 -0.29356882
0.57769668 0.84568542 -0.2936933
-0.73500526 0.85021305 -0.29415959
0.71979338 0.8541609 -0.29236066
1.0791601 0.85267371 -0.29235113
0.38580465 0.85777664 -0.29356855
-0.37556618 0.86399543 -0.29405135
-0.093104899 0.8648473 -0.29388538
0.12594682 0.86193103 -0.29430425
-0.71143919 0.86619788 -0.29338416
-0.049382418 0.86886615 -0.29402861
0.10430948 0.86608082 -0.29472843
-0.88047785 0.87494439 -0.29419982
-0.027482299 0.87103808 -0.29443511
0.53479797 0.87456578 -0.29396713
0.69952393 0.87393785 -0.29299355
-0.3088468 0.88905829 -0.29376513
1.0645612 0.88566923 -0.2943581
-0.82556629 0.90763408 -0.29079956
-0.26421368 0.90559524 -0.29444429
0.25190812 0.90575832 -0.29344073
0.65432727 0.90780878 -0.29289532
0.84739655 0.9083373 -0.29442778
-0.61816686 0.92991048 -0.29226345
0.15993278 0.9298687 -0.29449767
0.63226241 0.92556375 -0.29338175
-0.43293393 0.93098825 -0.29442787
-0.12468357 0.93567079 -0.29462856
-0.0059206476 0.93871689 -0.29300362
1.251139 0.93827033 -0.29455709
0.041678518 0.94318867 -0.2946808
0.39732391 0.94653052 -0.29437414
-0.5990203 0.95238632 -0.29448196
0.58188796 0.95157301 -0.29193759
0.99275112 0.96192008 -0.2938315
-0.57416332 0.96612573 -0.29415581
-0.30941617 0.96890116 -0.29166901
0.56017578 0.9702509 -0.29323691
1.2284561 0.97063655 -0.29489049
0.24894373 0.99134654 -0.29310802
-0.52567345 0.9957127 -0.2947042
0.71809483 0.99627942 -0.29107696
1.1986548 0.99722934 -0.29368499
0.17261043 1.0035781 -0.29201496
-0.50027788 1.0084465 -0.29464212
-0.46870261 1.0079058 -0.29093519
0.48338544 1.0060762 -0.29214472
-0.13521209 1.0146806 -0.2935451
-0.0064270338 1.0190042 -0.29221871
0.045050956 1.0195073 -0.29264244
0.019385047 1.0241019 -0.29372731
0.45926768 1.0211102 -0.29305103
0.70031291 1.0251824 -0.2942636
-0.44778013 1.0301247 -0.29399291
0.91417277 1.0308781 -0.29287475
-0.42206144 1.0421191 -0.29428223
0.67412555 1.0423739 -0.29422081
0.64484811 1.054533 -0.29296562
0.38276327 1.0585506 -0.29461825
0.32753536 1.0721221 -0.29341692
0.61915064 1.0723982 -0.29349408
0.86477637 1.0803931 -0.29415751
-0.28813183 1.0890583 -0.29485428
-0.25830656 1.0864941 -0.29230189
0.2736904 1.089893 -0.29412213
0.56302112 1.099838 -0.29284745
-0.23265217 1.1013817 -0.29463357
-0.20361567 1.1005582 -0.29294521
-0.17608464 1.1072439 -0.29344842
0.80900002 1.1224006 -0.29409426
0.44602382 1.1424975 -0.29069123
0.78073782 1.1429157 -0.29421282
0.75215185 1.1630229 -0.29440832
0.4222253 1.1676848 -0.2942946
0.72006065 1.1775296 -0.29338661
0.36322924 1.1889589 -0.29465675
0.68781775 1.1913328 -0.29240739
0.33280063 1.1966145 -0.29437864
0.26964843 1.2013465 -0.29182008
0.65716547 1.2076191 -0.29224068
-0.25564551 1.2102327 -0.29317158
-0.19351377 1.2168406 -0.29203224
0.24137378 1.2184813 -0.29440874
-0.22595066 1.2212805 -0.29437265
0.21073319 1.2252284 -0.29466006
0.63208365 1.2347487 -0.29485148
0.56430942 1.2546542 -0.29242551
0.90197581 1.2513946 -0.29054621
0.53502262 1.2745651 -0.29382539
0.87541324 1.2815102 -0.29231545
0.50392997 1.2908251 -0.29454795
0.46972954 1.2990601 -0.29362828
0.4381375 1.3145007 -0.29452506
0.40383938 1.3218881 -0.29380301
-0.38756037 1.3283674 -0.29413256
0.81459564 1.3321245 -0.29410037
-0.32052243 1.3481877 -0.29456097
-0.25154665 1.3596288 -0.29391
0.26849678 1.3554012 -0.2937052
0.78281015 1.3558642 -0.29488567
0.2345906 1.3639383 -0.29417849
-0.21744707 1.3673365 -0.29429609
0.74531746 1.3696089 -0.29369026
0.71262389 1.3920807 -0.29455838
0.64195317 1.4272829 -0.29477021
-0.39497703 1.4929035 -0.29086465
0.37945217 1.5110587 -0.29344589
-0.36093163 1.5181577 -0.29391655
0.34183955 1.5229747 -0.29399088
0.9300341 1.5209033 -0.29299337
-0.32313129 1.5297122 -0.2944808
0.26367041 1.5330119 -0.29298404
0.30344701 1.5318338 -0.29412892
-0.24555482 1.5440817 -0.29448396
-0.20632349 1.5483264 -0.29420665
0.85722774 1.5752572 -0.29474732
0.81532282 1.5926987 -0.29406682
0.77480704 1.6126156 -0.29403991
0.43653077 1.7383578 -0.29457188
-0.36859393 1.7449336 -0.29311061
0.39303282 1.7510526 -0.29494819
-0.32633379 1.7638589 -0.29481226
0.76313931 1.9547943 -0.29490864
0.56195128 2.0205464 -0.2947343
0.79303747 2.379272 -0.29311311
0.72919345 2.3868701 -0.29168898
0.48802465 2.4636021 -0.2935243
0.14588962 -1.2113204 -0.28917441
-0.00760152 -1.2052187 -0.28565916
0.083557554 -1.2021722 -0.28561884
0.11391459 -1.2002255 -0.28574839
0.17477916 -1.1961206 -0.28650767
0.20589492 -1.1970981 -0.28789487
-0.031816978 -1.0084236 -0.28932264
-0.4671827 -1.0046374 -0.28999177
-0.49138957 -0.7002117 -0.28901526
-1.0201221 -0.66890121 -0.28912556
-0.70455122 -0.60136187 -0.2891216
-0.88466161 -0.48867759 -0.28981984
0.9022947 -0.45473403 -0.28974703
-0.84209478 -0.38515794 -0.28902751
-1.3441901 -0.067898892 -0.28608802
0.85389799 -0.010774055 -0.28852069
0.8852821 0.66390222 -0.28962946
1.1272949 0.75967962 -0.28895199
-1.1029712 0.76370263 -0.28516498
0.39107025 0.76393926 -0.28995746
0.16618825 0.83893657 -0.28895065
0.86427987 0.83743864 -0.28523341
-0.84174514 0.87976468 -0.28858519
-0.49300611 0.87935317 -0.28909329
-0.44840127 0.90387499 -0.28934017
-0.79914409 0.92440528 -0.28961849
-0.54128981 0.96547467 -0.28970578
1.0972686 1.0631917 -0.28777507
1.0708654 1.0913246 -0.28798255
1.0398448 1.1146255 -0.28711432
1.0073956 1.1360018 -0.28598019
0.59789348 2.3809383 -0.28690773
0.6629867 2.3838284 -0.28918028
-0.041582227 -1.3179284 -0.28028089
0.022540286 -1.1907915 -0.28228456
0.05261644 -1.1907148 -0.28249127
-1.1891336 -0.1204372 -0.28328297
-1.3263366 -0.10060073 -0.28273857
1.2054996 0.53308165 -0.28017941
1.1161945 0.71191877 -0.28141141
-1.0691528 0.780918 -0.28142765
0.87769938 0.80851674 -0.28283757
-0.096582077 0.89714664 -0.28164062
-0.074190177 0.90264052 -0.28268746
0.062667914 0.90162551 -0.28209955
0.085883237 0.90488195 -0.28370628
0.10845845 0.90052968 -0.28310978
-0.7572099 0.92192507 -0.28276381
-0.7388103 0.94727904 -0.28473026
-0.71148658 0.96131128 -0.28346026
-0.6894173 0.9823938 -0.28445545
-0.65936166 0.99187988 -0.28229365
-0.63069576 1.0027473 -0.28076676
-0.41755709 1.1107563 -0.28125197
-0.39224139 1.1291212 -0.28330514
0.54603416 1.3986758 -0.28280556
1.2134849 0.46493468 -0.27622509
1.2053272 0.49703676 -0.27713546
-1.0432745 0.80315346 -0.27986249
-1.0158634 0.82369506 -0.27799761
-0.60181254 1.0126501 -0.27919769
-0.57374132 1.023357 -0.27806866
-0.55117226 1.0440116 -0.27981195
-0.5224337 1.0531076 -0.2786271
-0.49445385 1.0632818 -0.27792865
-0.46436405 1.0682762 -0.27608272
-0.43983951 1.0860152 -0.27770978
0.4979046 1.3769796 -0.27578995
-0.54526871 2.29352 -0.2755225
-1.1405916 -0.028790433 -0.27042207
-1.1361419 0.086174741 -0.27005479
1.2492464 0.27213186 -0.27176964
1.209497 0.39467683 -0.27043474
1.2189945 0.43210095 -0.2749092
1.105448 0.66643608 -0.27437401
0.89126849 0.7414971 -0.27479064
0.86096925 0.75384855 -0.2712287
-0.97672707 0.83367455 -0.27295882
0.89972401 1.1240543 -0.27118626
0.87773663 1.1551623 -0.27325967
-0.38881671 1.2175349 -0.27167797
0.45899701 1.3770834 -0.27340344
-0.48536363 2.2977245 -0.27446857
-0.081279173 -1.4300781 -0.26979133
0.33442616 -1.2024593 -0.26529828
0.3674483 -1.202769 -0.26732761
-1.1295444 -0.085674331 -0.26848662
1.1364422 -0.071786731 -0.26988935
-1.1217234 -0.056661461 -0.26620293
1.136696 -0.043045048 -0.26960573
1.1358937 -0.014332134 -0.2692439
-1.1327853 -3.0059475e-06 -0.26848575
-1.1303991 2.9996154e-06 -0.2679202
1.1231115 0.014170855 -0.2662141
-1.1302154 0.028528523 -0.26796198
1.1315501 0.042850181 -0.26838523
-1.1170858 0.056427199 -0.26510233
1.1316473 0.071483843 -0.26875061
1.1262964 0.099731445 -0.26799229
-1.4154712 0.10736147 -0.26737118
-1.4054103 0.14234202 -0.26606464
-1.407652 0.17855324 -0.26725706
1.3963439 0.26746228 -0.267784
1.2140807 0.29674518 -0.26566419
1.210613 0.32847863 -0.26663461
-0.94427186 0.84807491 -0.26978466
-0.91181701 0.8614673 -0.2666392
-0.88569981 0.88013351 -0.26541317
0.11056964 0.91805887 -0.26516801
0.088579804 0.9332934 -0.26883692
1.108 1.187682 -0.26695096
1.0744572 1.2116246 -0.26615241
1.0434449 1.2382301 -0.26612696
-0.39626676 1.3582085 -0.26648554
-0.25430155 1.5990825 -0.26611391
0.14651164 -1.2164851 -0.26044714
0.20894465 -1.2148297 -0.26201826
0.23807313 -1.2018193 -0.26042518
0.29943538 -1.192415 -0.26133156
-1.3778379 -0.10450704 -0.26026255
-1.3887621 -0.070150346 -0.2619082
-1.4010304 -0.035364345 -0.26396951
-1.4026281 0.035404671 -0.26427051
-1.3911138 0.070269138 -0.26235172
1.1916316 0.35584083 -0.26434788
1.2218925 0.6952188 -0.26478896
1.1408911 0.81143826 -0.26369572
-0.85056102 0.88897884 -0.2615236
-0.097080521 0.90177667 -0.26009053
-0.074994035 0.91242063 -0.26253095
-0.02882747 0.91367257 -0.26213804
0.89843196 1.0661469 -0.26260269
0.90711206 1.327914 -0.26430476
-0.0076953755 -1.2200994 -0.25935194
0.11416846 -1.2029003 -0.25683996
0.083185181 -1.1968148 -0.25501108
0.26744604 -1.1915344 -0.25957653
-1.1908692 -0.21256843 -0.25713456
1.1614903 0.70022202 -0.25544801
-1.1702056 0.72576618 -0.25935853
1.1563797 0.7375493 -0.2583358
-1.1355739 0.74460375 -0.25576669
0.061972629 0.89162219 -0.25630128
-0.81666982 0.89785326 -0.25798845
-0.051277507 0.90220952 -0.25913799
-0.76464629 0.93097907 -0.25608259
-0.11614002 1.0788194 -0.25717252
1.0994258 1.1204306 -0.25798982
-0.39449587 1.1356109 -0.25553802
0.98856229 1.2350428 -0.25999668
-0.40291786 2.1778016 -0.25884634
0.052892603 -1.1969644 -0.25467741
0.022595754 -1.1937218 -0.25378534
0.17230538 -1.1791909 -0.25331295
-1.1794791 -0.17995571 -0.25361371
-1.1837859 -0.15015699 -0.25364411
-1.1741521 -0.11891986 -0.25085697
1.1140943 0.75078368 -0.25304183
-1.0993375 0.76118666 -0.25185195
-0.78297693 0.90570402 -0.25448498
-0.7367599 0.94465005 -0.25464705
-0.71186584 0.9618237 -0.25435224
-0.68199974 0.97182405 -0.25236452
-0.65790325 0.98968601 -0.2526105
-0.62757999 0.99779344 -0.25055715
-0.60429633 1.0168295 -0.25142735
-0.55340117 1.0482335 -0.25195962
0.10023338 1.0560776 -0.25142986
0.073828034 1.0621901 -0.25236109
-0.47089604 1.0833031 -0.2510832
-0.44363698 1.0953916 -0.25120986
-0.41419688 1.1018177 -0.25020644
-0.39225385 1.4826106 -0.2520529
-0.041634247 -1.3195771 -0.24866731
1.2186477 0.50252974 -0.24828336
1.2008283 0.53101599 -0.24730466
-1.0524316 0.76870465 -0.24547264
-1.0382143 0.79925799 -0.24678309
0.13792636 0.94391429 -0.24968083
-0.57375991 1.0233903 -0.2493895
-0.51909387 1.0463753 -0.24828476
1.0907348 1.0568608 -0.24961163
-0.49432376 1.063002 -0.24919023
0.88743693 1.2312235 -0.24943833
0.54832804 1.4045516 -0.24780723
-1.1431196 -3.0333704e-06 -0.24298377
-1.1393806 3.0234487e-06 -0.24218901
1.1511726 0.014524917 -0.24471502
1.2079566 0.42818829 -0.24139103
1.2065703 0.4622854 -0.2433681
0.86618537 0.7584157 -0.24472076
-1.0036756 0.81381279 -0.24337803
-0.98291802 0.83895874 -0.24340163
0.017451918 0.92197555 -0.2413583
-0.0058377841 0.92557895 -0.24226302
0.89303601 1.1752975 -0.24259716
-0.39441019 1.2350502 -0.24419676
0.46581882 1.3975502 -0.24211212
-0.08164835 -1.4365736 -0.23648386
0.36917382 -1.2084173 -0.23799111
-1.2490908 -0.2229609 -0.2389861
-1.2464671 -0.1901762 -0.23749013
-1.2482958 -0.15833974 -0.23700167
-1.246524 -0.12624978 -0.23598514
1.1188612 -0.014117228 -0.23784631
1.2040634 0.35955319 -0.23668212
1.2106327 0.39504746 -0.23985697
1.2071799 0.76995003 -0.23532143
-0.93116856 0.83630645 -0.23573864
-0.90945023 0.85923117 -0.23565544
-0.096431494 0.89574784 -0.23580498
-0.051083419 0.89879465 -0.23562741
-0.028377401 0.89940786 -0.2355254
-0.074089833 0.90141964 -0.23673041
0.08544369 0.90025073 -0.23668778
0.10906251 0.90554518 -0.23872744
1.0928957 1.2969123 -0.23834625
1.0524054 1.314804 -0.2366775
0.49341261 1.3645568 -0.2384778
0.55258024 2.4618735 -0.23550949
0.177231 -1.2128999 -0.23087691
0.24026683 -1.2128934 -0.23288883
0.20739423 -1.2058153 -0.23045133
0.2704111 -1.2047445 -0.23256056
0.2987875 -1.189835 -0.2310646
0.32865545 -1.1817102 -0.23102409
-1.4124094 0.035651568 -0.23220533
-1.411931 0.14300245 -0.23323993
-1.3928225 0.17667219 -0.23074646
-1.3957056 0.21294585 -0.2320406
-1.3975971 0.24946907 -0.23332755
1.2155015 0.264781 -0.2343099
1.3925545 0.26673645 -0.23302892
1.2071804 0.29505864 -0.23406686
1.1924855 0.32356003 -0.23272687
1.2293972 0.6994887 -0.23246869
1.2236218 0.737679 -0.23482241
-0.87752372 0.8720088 -0.23301134
0.061718192 0.88796151 -0.23297304
-0.85967267 0.89850199 -0.23421828
-0.82702631 0.90923923 -0.23150231
1.0985935 1.2388422 -0.23269577
1.006103 1.3241014 -0.23370573
-0.39386454 1.349975 -0.23112042
0.89641207 1.3860868 -0.23197976
0.72954202 2.388011 -0.23306745
0.66871136 2.404412 -0.23294675
0.023014961 -1.2158682 -0.22905101
-0.0076080426 -1.2062529 -0.22720344
0.083596945 -1.2027389 -0.22708358
0.11356386 -1.1965301 -0.22638041
0.14320451 -1.189026 -0.22557265
-1.3933473 -0.035170406 -0.22907145
-1.6099511 0.040637851 -0.226326
-1.3869503 0.070058823 -0.22823778
-1.6017724 0.080910102 -0.22539155
-1.3878784 0.1052686 -0.22875489
-1.1862743 0.73573202 -0.22941872
-0.79269898 0.91694993 -0.22829886
0.13762461 0.94184929 -0.22560187
-0.71251541 0.96270138 -0.22558695
-0.39417487 1.1346869 -0.22624774
1.1012013 1.1803944 -0.22686557
-0.25451618 1.600432 -0.22774254
0.5974263 2.3790777 -0.22895853
0.052502256 -1.1881309 -0.224004
-1.3296664 -0.16866116 -0.22028349
-1.1402086 0.7476427 -0.22408782
1.1149428 0.75135553 -0.22096747
-1.100902 0.76226991 -0.2200738
-0.75574744 0.9201445 -0.22427376
-0.72840393 0.9339363 -0.22308338
-0.005873105 0.93117905 -0.22070667
0.017690983 0.93460524 -0.22155403
-0.67941642 0.96814299 -0.22277291
-0.65987039 0.9926452 -0.22450723
-0.63091254 1.0030919 -0.22319743
-0.60606271 1.0198017 -0.22344077
-0.57926691 1.0332128 -0.2231048
-0.55228078 1.0461115 -0.2228092
-0.46635932 1.0728663 -0.22034113
-0.44232386 1.0921494 -0.22193795
-0.41313535 1.0989939 -0.22113948
0.89352912 1.30803 -0.22261935
-0.54589689 2.2961621 -0.22029832
-0.041346435 -1.310455 -0.21548222
-1.1432034 -3.033593e-06 -0.21532349
1.217855 0.50220287 -0.21650623
1.2057159 0.53317732 -0.21667148
0.87479132 0.76595092 -0.21900131
-1.0601335 0.7743302 -0.21576211
-1.0406772 0.80115396 -0.21584888
-0.05152218 0.90651447 -0.21520318
0.040049117 0.90631521 -0.21501884
-0.028771225 0.91188991 -0.21623805
-0.075366043 0.91694671 -0.21806189
-0.5175063 1.0431751 -0.21933202
-0.49155018 1.0570376 -0.2195683
0.8951031 1.2418594 -0.21513395
-0.39365157 1.4878936 -0.21629508
-0.48262131 2.2847421 -0.21796459
-0.42394879 2.2914753 -0.21751688
-1.1307182 3.0004624e-06 -0.2129719
1.1333008 0.01429942 -0.21347532
1.2072526 0.42793876 -0.21051031
1.2100281 0.46361023 -0.21296678
-0.97408551 0.83141983 -0.21047895
-0.95325136 0.8561396 -0.21057913
-0.11924676 0.894871 -0.21397161
-0.39749461 1.2447088 -0.21474765
0.24249804 -1.2241567 -0.20510134
0.30386424 -1.2100517 -0.20504822
0.33594784 -1.2079308 -0.20606001
0.36619511 -1.198667 -0.20599078
