# .PCD v0.7 - Point Cloud Data file format
VERSION 0.7
FIELDS x y z intensity
SIZE 4 4 4 4
TYPE F F F F
COUNT 1 1 1 1
WIDTH 1358
HEIGHT 1
VIEWPOINT 0 0 0 1 0 0 0
POINTS 1358
DATA ascii
-0.68484396 -0.73168403 0.50143296 0
-0.68099904 -0.72757614 0.59100634 0
-1.060782 -1.1623293 -0.056180127 0
-0.78984612 -0.86545718 0.041831084 0
-0.79602116 -0.87222332 0.12690587 0
-0.79635859 -0.8725931 0.2130563 0
-0.79631352 -0.87254369 0.30138507 0
-0.69504768 -0.76158381 0.3430303 0
-0.68260074 -0.74794531 0.41925427 0
-0.67692214 -0.74172306 0.50243145 0
-0.67588788 -0.74058986 0.59461677 0
-1.0400183 -1.168801 -0.055855505 0
-0.77876806 -0.87520069 0.041824728 0
-0.78471065 -0.88187921 0.12686302 0
-0.77041459 -0.8658129 0.20901555 0
-0.77633858 -0.87247044 0.29795948 0
-0.69103837 -0.77660769 0.34585053 0
-0.68002433 -0.76422983 0.42354894 0
-0.68246001 -0.76696712 0.51366937 0
-0.68377078 -0.76844019 0.61001623 0
-1.0346327 -1.1926545 -0.056368362 0
-0.75791293 -0.8736707 0.04129225 0
-0.76786143 -0.88513869 0.12593099 0
-0.76448232 -0.88124347 0.21040002 0
-0.76467317 -0.88146347 0.29771873 0
-0.69322121 -0.79909849 0.35195115 0
-0.68072432 -0.78469294 0.43010515 0
-0.68626177 -0.79107606 0.523987 0
-0.68184173 -0.78598094 0.61707604 0
-1.0212942 -1.207669 -0.0564657 0
-0.75638425 -0.89441592 0.041819256 0
-0.75170481 -0.88888252 0.12510702 0
-0.74802762 -0.88453436 0.20892027 0
-0.75214052 -0.8893978 0.29717609 0
-0.69447899 -0.8212136 0.35781145 0
-0.68637997 -0.81163663 0.44010121 0
-0.6807726 -0.80500597 0.52749383 0
-0.67802489 -0.80175686 0.62270933 0
-0.99379933 -1.2056227 -0.055780485 0
-0.73999411 -0.89772016 0.041534778 0
-0.7370255 -0.89411873 0.12452789 0
-0.73773843 -0.89498365 0.20917757 0
-0.73440063 -0.89093441 0.29457623 0
-0.69644356 -0.84488702 0.36427623 0
-0.6749205 -0.81877643 0.4393295 0
-0.68369985 -0.829427 0.53781211 0
-0.68036562 -0.82538211 0.63435423 0
-0.98258352 -1.223073 -0.056010965 0
-0.73666865 -0.9169699 0.041992892 0
-0.73560631 -0.91564763 0.12622622 0
-0.73059809 -0.90941364 0.21038328 0
-0.73420757 -0.91390646 0.2990911 0
-0.68783498 -0.85618412 0.36538365 0
-0.67958736 -0.84591788 0.44926545 0
-0.68468571 -0.85226405 0.54698616 0
-0.68150419 -0.84830385 0.64532429 0
-0.97127521 -1.240674 -0.05625245 0
-0.72127342 -0.92133021 0.041773327 0
-0.72553086 -0.92676848 0.1264898 0
-0.72022641 -0.91999274 0.21071588 0
-0.72490925 -0.92597449 0.3000294 0
-0.6952101 -0.8880378 0.37521181 0
-0.68241495 -0.87169367 0.45835483 0
-0.68299776 -0.87243813 0.55437022 0
-0.68456179 -0.87443602 0.65859383 0
-0.95133513 -1.2472444 -0.056002762 0
-0.72067332 -0.94483608 0.042424269 0
-0.7152192 -0.93768543 0.12674055 0
-0.71955806 -0.94337392 0.21397886 0
-0.72096997 -0.945225 0.30330122 0
-0.69220167 -0.90750843 0.37972558 0
-0.68334961 -0.89590299 0.46652293 0
-0.68156618 -0.89356482 0.56229657 0
-0.68220437 -0.89440149 0.66710824 0
-0.93199229 -1.2543286 -0.055789474 0
-0.71903497 -0.96771836 0.043041755 0
-0.71844774 -0.96692806 0.12946001 0
-0.72133297 -0.97081113 0.21812469 0
-0.71670353 -0.9645806 0.30659181 0
-0.69037008 -0.92913955 0.38510859 0
-0.68239963 -0.91841245 0.47373214 0
-0.68092561 -0.91642869 0.57124329 0
-0.68466479 -0.92146105 0.68080676 0
-0.92418963 -1.2771084 -0.056280591 0
-0.71889234 -0.99341452 0.043778554 0
-0.71272349 -0.9848901 0.13065293 0
-0.7193594 -0.99405998 0.22129551 0
-0.71941072 -0.99413097 0.31308016 0
-0.69184649 -0.9560408 0.39261657 0
-0.68196255 -0.94238251 0.4816286 0
-0.6839112 -0.94507527 0.58368534 0
-0.68104643 -0.94111651 0.68893808 0
-0.89906704 -1.2759155 -0.055724692 0
-0.6175856 -0.87644964 0.038278308 0
-0.6117897 -0.86822438 0.11414536 0
-0.61620981 -0.87449723 0.192936 0
-0.77441823 -1.0990195 0.3430143 0
-0.68617141 -0.97378355 0.3963232 0
-0.68451184 -0.97142839 0.49202898 0
-0.68199241 -0.96785289 0.59240216 0
-0.88971329 -1.2970227 -0.05615278 0
-0.59703118 -0.87035114 0.037680633 0
-0.59674329 -0.86993146 0.11337289 0
-0.59876168 -0.87287384 0.19089927 0
-0.75982493 -1.1076716 0.34270132 0
-0.67805248 -0.98846394 0.3987914 0
-0.67872655 -0.98944652 0.49678692 0
-0.68435162 -0.99764675 0.60531574 0
-0.87052315 -1.3039455 -0.055973481 0
-0.58896613 -0.88220489 0.03786974 0
-0.57807791 -0.86589557 0.11188938 0
-0.58039331 -0.86936378 0.18851829 0
-0.74131441 -1.1104054 0.34063202 0
-0.68659765 -1.0284458 0.41140121 0
-0.67877948 -1.0167351 0.5061565 0
-0.68259674 -1.022453 0.61510277 0
-0.85146087 -1.3108388 -0.055804715 0
-0.56562668 -0.87079209 0.03707115 0
-0.56713754 -0.8731181 0.11189099 0
-0.57049882 -0.87829286 0.18888175 0
-0.72750741 -1.1200104 0.34074122 0
-0.6856302 -1.0555396 0.41875252 0
-0.68171513 -1.0495124 0.51815927 0
-0.68297774 -1.0514561 0.62732732 0
-0.83652413 -1.3240451 -0.055914056 0
-0.5466525 -0.86523807 0.036538765 0
-0.55263251 -0.87470317 0.11119352 0
-0.54952085 -0.86977804 0.18554777 0
-0.7078107 -1.1203182 0.3380965 0
-0.67820472 -1.0734581 0.42243958 0
-0.68342423 -1.0817195 0.5297696 0
-0.68169075 -1.0789757 0.63857424 0
-0.81584322 -1.3280538 -0.055645101 0
-0.53750557 -0.87496758 0.036660902 0
-0.53410399 -0.86943036 0.10965957 0
-0.53293163 -0.867522 0.18362035 0
-0.69782156 -1.1359347 0.34013057 0
-0.6832009 -1.1121348 0.4342401 0
-0.6816144 -1.1095521 0.53915435 0
-0.68847364 -1.1207179 0.65809566 0
-0.80392033 -1.3463663 -0.055983789 0
-0.52382135 -0.87727034 0.036478125 0
-0.51624835 -0.86458743 0.10822024 0
-0.51760817 -0.8668648 0.18208724 0
-0.6916787 -1.1583896 0.34421894 0
-0.68269712 -1.1433476 0.44303563 0
-0.67868835 -1.136634 0.5481177 0
-0.67558169 -1.1314311 0.65933889 0
-0.78021079 -1.3448446 -0.055507593 0
-0.50587124 -0.87196714 0.035989881 0
-0.5111227 -0.88101906 0.10946269 0
-0.50984037 -0.87880868 0.18323302 0
-0.69347358 -1.1953362 0.35257491 0
-0.68106711 -1.1739511 0.45153522 0
-0.68454856 -1.1799521 0.56480539 0
-0.67975086 -1.1716824 0.67775339 0
-0.77241307 -1.3708854 -0.056176506 0
-0.48839036 -0.86679935 0.035519935 0
-0.48982149 -0.86933935 0.1072367 0
-0.48975912 -0.8692286 0.17993544 0
-0.69222355 -1.2285641 0.35977626 0
-0.6759693 -1.1997161 0.45813486 0
-0.68456846 -1.2149779 0.57739908 0
-0.75151092 -1.3739573 -0.055910174 0
-0.47763816 -0.87324673 0.035534859 0
-0.48018074 -0.87789524 0.10753772 0
-0.47798225 -0.87387586 0.17963727 0
-0.69100821 -1.2633427 0.36738366 0
-0.68377745 -1.250123 0.47405815 0
-0.6792798 -1.2419001 0.58608198 0
-0.7331937 -1.3815061 -0.055837229 0
-0.47012082 -0.8858161 0.035802603 0
-0.45929143 -0.86541098 0.10529166 0
-0.46304047 -0.87247509 0.1781366 0
-0.67861432 -1.278666 0.36932543 0
-0.67735684 -1.2762965 0.48071083 0
-0.68454343 -1.2898377 0.60458905 0
-0.7169894 -1.3930544 -0.055934642 0
-0.45412114 -0.88232189 0.035427444 0
-0.45296061 -0.88006711 0.10637243 0
-0.447256 -0.86898345 0.17625985 0
-0.68112147 -1.3233658 0.37972897 0
-0.68271583 -1.3264636 0.49632871 0
-0.68516731 -1.3312266 0.61989605 0
-0.69800967 -1.3992002 -0.055824064 0
-0.43372419 -0.86942482 0.034687549 0
-0.43045101 -0.8628636 0.1036297 0
-0.43150142 -0.86496913 0.17432967 0
-0.67480081 -1.3526766 0.38567069 0
-0.68363637 -1.370388 0.50950265 0
-0.68167728 -1.3664609 0.63225597 0
-0.6798678 -1.4069077 -0.055785585 0
-0.41860706 -0.8662588 0.034348208 0
-0.42116469 -0.87155157 0.10402794 0
-0.42441353 -0.87827462 0.17592025 0
-0.68119007 -1.4096439 0.3994357 0
-0.68160611 -1.4105048 0.52118546 0
-0.66524404 -1.4220791 -0.056050554 0
-0.40538445 -0.86658233 0.03415592 0
-0.40511179 -0.86599946 0.10274822 0
-0.40731838 -0.87071645 0.17336524 0
-0.68269402 -1.4593815 0.41106078 0
-0.68459743 -1.4634504 0.53752106 0
-0.6482656 -1.4325081 -0.056135412 0
-0.39648485 -0.87613434 0.034332905 0
-0.39161995 -0.8653841 0.10208202 0
-0.39672777 -0.87667114 0.17354243 0
-0.68713641 -1.5184031 0.42521441 0
-0.68523204 -1.5141948 0.55294621 0
-0.63047987 -1.4412489 -0.056162376 0
-0.38242903 -0.87421572 0.034066308 0
-0.37988803 -0.86840707 0.10186625 0
-0.38201314 -0.87326497 0.17190227 0
-0.68072402 -1.5561048 0.4333376 0
-0.68123233 -1.5572668 0.56549764 0
-0.60657495 -1.4355644 -0.055638812 0
-0.36816803 -0.87133324 0.033770651 0
-0.36847404 -0.8720575 0.10174212 0
-0.36648458 -0.86734909 0.16981584 0
-0.68438244 -1.6197094 0.44861451 0
-0.58986676 -1.4465592 -0.05577264 0
-0.35742798 -0.87653816 0.033795264 0
-0.35829175 -0.87865639 0.10197756 0
-0.3607775 -0.88475233 0.17232004 0
-0.6802572 -1.6682281 0.4596439 0
-0.574736 -1.4618326 -0.056078032 0
-0.34378034 -0.87440026 0.03354327 0
-0.34164679 -0.86897361 0.1003465 0
-0.34030131 -0.86555135 0.16773243 0
-0.68642414 -1.7459097 0.47862786 0
-0.55319607 -1.4607986 -0.055766724 0
-0.32992056 -0.87120557 0.03325871 0
-0.33254752 -0.87814248 0.10091373 0
-0.3325955 -0.8782692 0.16937196 0
-0.6844098 -1.8072885 0.49305269 0
-0.53972071 -1.4812658 -0.056284152 0
-0.32043293 -0.87942952 0.033415981 0
-0.31873795 -0.87477767 0.10005789 0
-0.3186076 -0.87441981 0.16784261 0
-0.51950014 -1.4835837 -0.056119215 0
-0.30383489 -0.86768878 0.032821886 0
-0.30082008 -0.85907918 0.097821258 0
-0.30658638 -0.87554651 0.16730458 0
-0.50020528 -1.4883006 -0.056054935 0
-0.29630804 -0.88162893 0.033205424 0
-0.2927829 -0.8711403 0.09876699 0
-0.29256994 -0.87050664 0.16562442 0
-0.4823598 -1.4973792 -0.056163646 0
-0.28268293 -0.87752652 0.032914236 0
-0.28093627 -0.87210441 0.09846741 0
-0.28331834 -0.87949908 0.16664335 0
-0.46025732 -1.4929204 -0.055774607 0
-0.26556909 -0.86141706 0.032182019 0
-0.27118933 -0.87964725 0.09892565 0
-0.27000579 -0.87580824 0.16528672 0
-0.44331184 -1.5050093 -0.056013245 0
-0.25813401 -0.87634492 0.032615695 0
-0.25498214 -0.86564457 0.096982121 0
-0.25634906 -0.87028509 0.16362219 0
-0.42486525 -1.5123885 -0.05608432 0
-0.24334714 -0.86624026 0.032123029 0
-0.24506319 -0.8723489 0.097379789 0
-0.2459828 -0.87562245 0.1640303 0
-0.40648493 -1.5202217 -0.056180537 0
-0.23284537 -0.87082338 0.09687452 0
-0.23283894 -0.8707993 0.16256467 0
-0.38696042 -1.5238377 -0.056129642 0
-0.22197136 -0.87411606 0.032197542 0
-0.22215557 -0.87484145 0.097002618 0
-0.22364868 -0.88072133 0.1638782 0
-0.36850536 -1.531759 -0.056246042 0
-0.21126589 -0.87816477 0.16289458 0
-0.34976575 -1.5388129 -0.056338865 0
-0.32768273 -1.5305779 -0.055881869 0
-0.18742256 -0.8754347 0.16146125 0
-0.30966651 -1.5409598 -0.0561141 0
-0.17694533 -0.88051385 0.16197425 0
-0.29053518 -1.546311 -0.056171283 0
-0.27072725 -1.5480455 -0.056106005 0
-0.25201002 -1.5562472 -0.056283791 0
-0.23041618 -1.5460197 -0.055804532 0
-0.21138318 -1.5521137 -0.055923991 0
-0.19098401 -1.5478491 -0.055679269 0
-0.1720883 -1.5556337 -0.055876918 0
-0.15176091 -1.5502566 -0.055610724 0
-0.13285725 -1.5594153 -0.055874828 0
-0.11298711 -1.5578668 -0.055763941 0
-0.09391509 -1.5683904 -0.056093857 0
-0.074271083 -1.5718055 -0.056178097 0
-0.054609228 -1.5765125 -0.056317285 0
-0.034290537 -1.5560127 -0.055565149 0
-0.014770004 -1.5641863 -0.055845961 0
0.0049148072 -1.5606413 -0.055717181 0
0.024494078 -1.5559644 -0.055556815 0
0.044323806 -1.5640081 -0.055859525 0
0.064293236 -1.5701689 -0.056104027 0
0.08408659 -1.5697598 -0.056122795 0
0.10374215 -1.5670216 -0.056067158 0
0.061373875 -0.92705023 0.03316934 0
0.12285238 -1.5578276 -0.055789128 0
0.07394921 -0.93771178 0.033581458 0
0.14291763 -1.5611827 -0.055969298 0
0.083107084 -0.90783298 0.032546334 0
0.16253574 -1.5589933 -0.055959743 0
0.095824696 -0.91912133 0.03299167 0
0.1827013 -1.561514 -0.056128353 0
0.10973383 -0.93787467 0.033711743 0
0.11586574 -0.99028289 0.10715099 0
0.11590175 -0.99059069 0.17987041 0
0.11526306 -0.98513192 0.25305322 0
0.11669561 -0.99737567 0.3340846 0
0.11639176 -0.99477875 0.41468379 0
0.20172982 -1.5543253 -0.055956829 0
0.12153342 -0.93641329 0.033711553 0
0.12708203 -0.97916526 0.10611278 0
0.12835057 -0.98893934 0.17984977 0
0.12891179 -0.99326354 0.2555387 0
0.12854306 -0.99042243 0.33227137 0
0.12825072 -0.98817003 0.41256937 0
0.12649964 -0.97467792 0.49176067 0
0.22081469 -1.5483667 -0.055837985 0
0.13725674 -0.96245295 0.03470847 0
0.13699573 -0.96062285 0.104282 0
0.13951693 -0.97830164 0.17822056 0
0.13617586 -0.9548738 0.24608377 0
0.13671368 -0.95864505 0.32216257 0
0.13800183 -0.96767759 0.40470704 0
0.13662682 -0.95803601 0.48419383 0
0.23913319 -1.5380043 -0.055568479 0
0.15115832 -0.9721868 0.035125352 0
0.15222976 -0.97907782 0.10648506 0
0.15046935 -0.96775562 0.17663053 0
0.15051398 -0.96804267 0.24994619 0
0.15047483 -0.9677909 0.32584706 0
0.14922568 -0.95975691 0.40214843 0
0.14856662 -0.95551813 0.48382843 0
0.25855991 -1.5353484 -0.055585749 0
0.16424796 -0.97531682 0.035310369 0
0.16618261 -0.98680502 0.10754454 0
0.16661918 -0.98939741 0.18094908 0
0.16692007 -0.99118406 0.25644362 0
0.16626382 -0.98728716 0.33308977 0
0.16673665 -0.9900949 0.41570714 0
0.15969336 -0.94827127 0.48113906 0
0.27882922 -1.5372522 -0.055777367 0
0.62435269 -3.4422061 0.12489635 0
0.17072444 -0.94124472 0.47862673 0
0.29971004 -1.5415771 -0.056066781 0
0.67201543 -3.4565527 0.12571397 0
0.18339238 -0.94328994 0.48080289 0
0.31725544 -1.5288088 -0.055743281 0
0.71627837 -3.4516437 0.12585349 0
0.19156507 -0.92312479 0.4717167 0
0.33953124 -1.5385199 -0.056248792 0
0.76139182 -3.450099 0.12613676 0
0.20080867 -0.90992552 0.46622702 0
0.35817277 -1.5311159 -0.056138545 0
0.80568326 -3.4441326 0.12627953 0
0.20957738 -0.89590079 0.46035674 0
0.37626836 -1.5218148 -0.055966806 0
0.85245067 -3.4477313 0.12679499 0
0.55319571 -2.2373965 0.24769211 0
0.55256993 -2.2348652 0.41519216 0
0.2209485 -0.89362478 0.46058035 0
0.39560211 -1.5177318 -0.055995408 0
0.89998204 -3.4527912 0.12738776 0
0.23022428 -0.88325799 0.4566952 0
0.4137643 -1.5092872 -0.055871651 0
0.94785255 -3.4574797 0.12799095 0
0.24158183 -0.88121754 0.45717686 0
0.43522367 -1.5126063 -0.056192938 0
0.25594723 -0.88953656 0.46312812 0
0.45326498 -1.5037889 -0.056072969 0
0.25380078 -0.84203029 0.44002351 0
0.47214201 -1.4978943 -0.05607041 0
0.26493227 -0.8405109 0.44093791 0
0.49075454 -1.4911916 -0.056046389 0
0.26968619 -0.81946015 0.43164185 0
0.50755602 -1.4792531 -0.05583347 0
0.29409662 -0.85713363 0.45340067 0
0.52803028 -1.4780325 -0.05603392 0
0.54273331 -1.4608625 -0.055637673 0
0.56938124 -1.4754125 -0.056460403 0
0.58621973 -1.463897 -0.056297753 0
0.60199302 -1.4501069 -0.056054495 0
0.61860901 -1.4387028 -0.055910353 0
0.63851744 -1.4349402 -0.056072146 0
0.36871839 -0.82862085 0.37551162 0
0.65485662 -1.4231405 -0.055928849 0
0.67558879 -1.4208076 -0.056167044 0
0.39338556 -0.82731569 0.37929025 0
0.35782078 -0.75252062 0.49416336 0
0.68814552 -1.4014367 -0.05573941 0
1.1156816 -2.2721319 0.45651126 0
0.39283869 -0.8000322 0.36902052 0
0.36191913 -0.73706323 0.48696697 0
0.70977724 -1.4006344 -0.056058533 0
1.1484224 -2.266232 0.45819506 0
0.40668693 -0.80253303 0.37250662 0
0.36980376 -0.72974986 0.48517326 0
0.72371864 -1.384626 -0.055778142 0
1.1740451 -2.2461953 0.45709676 0
0.42041799 -0.80434811 0.37577659 0
0.37661722 -0.72054803 0.48217022 0
0.7453438 -1.3832885 -0.056097899 0
1.2031065 -2.2328534 0.4574284 0
0.43038005 -0.79874516 0.37566108 0
0.38879177 -0.72156119 0.48608577 0
0.76392305 -1.3759934 -0.056187708 0
1.2338676 -2.2224669 0.45844725 0
0.44608116 -0.80349028 0.38050446 0
0.39384696 -0.70940495 0.48119941 0
0.78021836 -1.3645699 -0.056117974 0
1.2712651 -2.2233906 0.46190327 0
0.47939813 -0.83844769 0.39988607 0
0.4058944 -0.70989263 0.48495871 0
0.79657334 -1.3533385 -0.056064148 0
1.3209157 -2.2441702 0.46963847 0
0.49598646 -0.84265637 0.40483999 0
0.40810487 -0.6933499 0.47713044 0
0.81366432 -1.3433896 -0.056072 0
1.3552651 -2.2375922 0.47179586 0
0.49882063 -0.82357115 0.39865696 0
0.42429352 -0.70052415 0.48570555 0
0.82748699 -1.3281784 -0.055867586 0
1.4029554 -2.251848 0.47848868 0
0.42835313 -0.68753874 0.48040393 0
0.84848595 -1.3244302 -0.056154892 0
1.4367821 -2.2427216 0.48035571 0
0.43742365 -0.68278927 0.48089591 0
0.86015475 -1.3061403 -0.055834223 0
1.469027 -2.2307096 0.4817068 0
0.57664168 -0.87562728 0.43409428 0
0.44680411 -0.6784696 0.48177794 0
0.87284464 -1.2897571 -0.055599313 0
1.5164208 -2.2407362 0.48795673 0
0.58682513 -0.86712098 0.43350622 0
0.45297444 -0.66933674 0.47930512 0
0.89474344 -1.2869039 -0.055957571 0
1.5487403 -2.2275431 0.48929185 0
0.59956336 -0.8623482 0.43486008 0
0.44986966 -0.64704466 0.46736148 0
0.91310513 -1.2786571 -0.056094497 0
0.61373651 -0.85943949 0.43725583 0
0.46056378 -0.64494562 0.46999705 0
0.92762399 -1.2650014 -0.056003422 0
0.63068253 -0.86006212 0.44157809 0
0.46709245 -0.63697428 0.46843711 0
0.94157147 -1.2506883 -0.055890229 0
1.6863903 -2.2400303 0.10010153 0
1.6945592 -2.250881 0.30278882 0
0.6473555 -0.85988158 0.44563529 0
0.47701326 -0.63361615 0.47034761 0
0.9568429 -1.2382139 -0.055866782 0
0.66847932 -0.86505359 0.45264229 0
0.48039657 -0.62166286 0.46592799 0
0.97494107 -1.2293254 -0.056015212 0
0.68246067 -0.8605302 0.45473602 0
0.48673868 -0.61373991 0.46454668 0
0.98441887 -1.2096733 -0.055680163 0
0.49133638 -0.60376382 0.46164206 0
1.0033172 -1.2016679 -0.055888787 0
0.50361079 -0.60317206 0.46600148 0
1.0164781 -1.1867329 -0.055785052 0
0.51276684 -0.59865266 0.46746132 0
1.0288638 -1.1710221 -0.055651125 0
1.0444921 -1.1590457 -0.055702601 0
1.7682787 -1.9622128 0.094302028 0
0.52713662 -0.58494979 0.4669812 0
1.057222 -1.1438752 -0.055608913 0
1.7696767 -1.9147251 0.093083389 0
0.53287309 -0.57654905 0.46559456 0
1.078712 -1.1380384 -0.055981066 0
0.93780369 -0.98938042 0.048668459 0
0.5342586 -0.56364143 0.4605673 0
1.0915099 -1.1228784 -0.055907011 0
0.93815202 -0.96511328 0.048052039 0
1.3917191 -1.4317151 0.2145807 0
0.53965372 -0.55516267 0.45915535 0
1.1033112 -1.1067883 -0.055793196 0
0.94512874 -0.9481073 0.047794092 0
1.3947748 -1.3991704 0.21231851 0
1.1202472 -1.0958289 -0.055947404 0
0.96093547 -0.93998975 0.047991056 0
1.2990396 -1.2707241 0.19529404 0
1.3045785 -1.2761422 0.32912841 0
1.2993252 -1.2710035 0.46372977 0
0.55600214 -0.54388285 0.46126282 0
1.1362013 -1.0837783 -0.056058172 0
0.98422962 -0.9388184 0.048560161 0
1.4030627 -1.3383269 0.2083825 0
0.74727613 -0.71279764 0.34357855 0
0.56575739 -0.53965396 0.46368149 0
1.1553271 -1.0745666 -0.056329735 0
1.0170001 -0.94590902 0.049585391 0
0.74374133 -0.69175184 0.33792162 0
0.56950504 -0.52969509 0.4612498 0
1.1604481 -1.0523914 -0.055928864 0
0.75498682 -0.68468523 0.33908686 0
0.57786775 -0.52405888 0.46264157 0
1.1683917 -1.0330852 -0.055680327 0
1.389555 -1.2286365 0.33451697 0
0.77088594 -0.68161297 0.3423456 0
0.58384037 -0.51622832 0.46218234 0
1.1894009 -1.025269 -0.056061838 0
1.3996249 -1.2064831 0.33325741 0
0.78927982 -0.68036282 0.34668204 0
0.58886993 -0.50760859 0.46106732 0
1.1989427 -1.0074612 -0.055909198 0
1.3894238 -1.1675209 0.32730201 0
1.4812983 -1.2447222 0.4936378 0
0.82096148 -0.68984687 0.35675403 0
0.832681 -0.69969469 0.45031625 0
0.59695888 -0.5016194 0.46241841 0
1.213624 -0.99399793 -0.056005698 0
1.3997227 -1.1464189 0.32630157 0
1.5097455 -1.2365311 0.49788937 0
0.85533077 -0.700544 0.36782688 0
0.80515659 -0.65944976 0.43090603 0
0.6042918 -0.49493483 0.46323422 0
1.2202522 -0.97401553 -0.055741157 0
1.3997455 -1.1172886 0.32300147 0
1.5422568 -1.2310424 0.50345904 0
0.83334959 -0.66518664 0.35474387 0
0.80363441 -0.64146775 0.42573467 0
0.60894388 -0.48606414 0.46207187 0
1.2306476 -0.9571957 -0.055661015 0
1.3981597 -1.0874864 0.31945029 0
0.81650418 -0.63507563 0.42828214 0
0.61944932 -0.48180667 0.46540287 0
1.244835 -0.9433164 -0.055761024 0
0.82021719 -0.6215477 0.42609063 0
0.62926048 -0.47684371 0.46822578 0
1.257583 -0.92828304 -0.055804033 0
0.84826207 -0.6261434 0.43652901 0
0.63388145 -0.46789864 0.46724305 0
1.2778095 -0.91858459 -0.056183834 0
0.64046919 -0.46041691 0.46778834 0
1.2780877 -0.89459264 -0.05569635 0
1.4006437 -0.98037523 0.43618909 0
0.65156698 -0.45606184 0.47166216 0
1.2925582 -0.88068277 -0.055839248 0
1.3950144 -0.95049119 0.43067452 0
0.66482961 -0.45298076 0.47709587 0
1.314815 -0.87181121 -0.056322034 0
1.472736 -0.9765234 0.063086808 0
1.4012893 -0.92914951 0.42896569 0
0.67356008 -0.44661584 0.47928727 0
1.3225479 -0.85316133 -0.056188628 0
1.3987226 -0.90230083 0.42466813 0
0.68570387 -0.44234014 0.48392659 0
1.3335218 -0.83665228 -0.056202803 0
0.68554151 -0.43010911 0.47995168 0
1.3439534 -0.81979698 -0.056202922 0
0.69439846 -0.42357555 0.48238006 0
1.3511243 -0.80100495 -0.056076556 0
1.6314119 -0.96717155 0.067709506 0
0.70151532 -0.41588864 0.48364764 0
1.3558745 -0.78091794 -0.055861153 0
0.69897109 -0.40257344 0.47836071 0
1.3698509 -0.76616156 -0.056035046 0
0.70175278 -0.39249235 0.47684416 0
1.3816248 -0.75006646 -0.056125868 0
1.3830922 -0.72846699 -0.055808414 0
1.3955244 -0.71271533 -0.055943497 0
1.3939077 -0.71188962 0.52072382 0
1.4123199 -0.69901341 -0.056259468 0
1.4044995 -0.69514281 0.52136928 0
1.4188734 -0.68015134 -0.056174904 0
1.4083081 -0.6750868 0.51958632 0
1.4319156 -0.66436207 -0.056355584 0
1.3961064 -0.64774776 0.5120346 0
1.4362062 -0.64450228 -0.056200586 0
1.3947923 -0.62591761 0.50862163 0
1.4355618 -0.6226179 -0.055864144 0
1.3911477 -0.60335511 0.50448215 0
1.4443839 -0.60495228 -0.055906579 0
1.4111223 -0.59102136 0.50898647 0
1.4517453 -0.58666074 -0.055901144 0
1.5880024 -0.64172328 0.18406954 0
1.4041559 -0.56742948 0.50385648 0
1.4580637 -0.56796372 -0.055864621 0
1.6348575 -0.63683069 0.18855618 0
1.4034854 -0.54670364 0.5011059 0
0.83227569 -0.32419872 0.44689864 0
1.4792156 -0.55485487 -0.056402873 0
0.84459323 -0.31680754 0.4513348 0
1.4691011 -0.53005803 -0.055758275 0
0.81842023 -0.29528955 0.4353269 0
1.4896313 -0.51636165 -0.056286234 0
1.3929678 -0.48285449 0.6104058 0
0.81902379 -0.28390414 0.43371198 0
1.486009 -0.49423659 -0.055909779 0
1.3950179 -0.46397355 0.48911095 0
1.3987586 -0.46521771 0.6103279 0
0.84288841 -0.28033903 0.44444486 0
1.4992208 -0.4777514 -0.056176063 0
1.39562 -0.44473729 0.48731992 0
1.3866096 -0.44186595 0.60255128 0
0.87234962 -0.27798855 0.45809731 0
1.49756 -0.45653263 -0.055893995 0
1.3962933 -0.42566139 0.48564491 0
1.3926786 -0.42455944 0.60281765 0
0.87386799 -0.2663995 0.45709684 0
1.5091938 -0.43938842 -0.056117252 0
1.4138952 -0.41164309 0.26558143 0
1.3972068 -0.40678439 0.3712728 0
1.3988482 -0.40726227 0.48471141 0
1.4032413 -0.40854126 0.60511494 0
0.89191204 -0.25967228 0.46478799 0
1.5095626 -0.41895112 -0.055930365 0
1.4474077 -0.40170121 0.27090469 0
1.3956772 -0.38734436 0.36954096 0
1.3962188 -0.38749465 0.48207131 0
1.3957373 -0.38736102 0.59972805 0
0.87218469 -0.24205869 0.45288348 0
1.5131165 -0.39948785 -0.05587123 0
1.4819661 -0.39126366 0.27642879 0
1.4041103 -0.37070841 0.37050846 0
1.3996761 -0.36953771 0.48162019 0
1.3951678 -0.36834747 0.59744298 0
0.87064666 -0.22986516 0.45054618 0
1.5298957 -0.38337854 -0.056308076 0
1.5128224 -0.37910011 0.28127161 0
1.404215 -0.35188404 0.36933759 0
1.4026483 -0.35149145 0.48108181 0
1.4033265 -0.35166141 0.598993 0
0.88635099 -0.22211184 0.45718932 0
1.521185 -0.3609018 -0.05581579 0
1.5462617 -0.36685124 0.28660721 0
1.392109 -0.33027846 0.36503065 0
1.3920991 -0.33027613 0.4759995 0
1.3845196 -0.32847786 0.58915323 0
0.90210921 -0.2140258 0.46389067 0
1.5227909 -0.3410885 -0.055712704 0
1.5732236 -0.35238487 0.29075921 0
1.4052562 -0.31476203 0.36740962 0
1.3950176 -0.31246868 0.47561431 0
1.4023211 -0.31410459 0.59499806 0
0.89867908 -0.20129427 0.46078682 0
1.5342101 -0.32341498 -0.05597705 0
1.5974419 -0.33674437 0.29442814 0
1.3966098 -0.2944085 0.36415082 0
1.4007336 -0.29527783 0.47625768 0
1.3879737 -0.29258803 0.58730072 0
0.90733981 -0.19126929 0.46395579 0
1.5382978 -0.30409887 -0.055982038 0
1.6460352 -0.32539698 0.30260527 0
1.40517 -0.27778146 0.36544177 0
1.3964624 -0.2760601 0.47358596 0
1.3997252 -0.27670512 0.59075201 0
0.93331957 -0.18450359 0.47601447 0
1.5494909 -0.28608793 -0.056253817 0
1.3999808 -0.25848335 0.36321694 0
1.3845612 -0.25563636 0.46842104 0
1.4013681 -0.25873953 0.59002358 0
0.9547593 -0.17628054 0.48577857 0
1.550882 -0.26619685 -0.056178175 0
1.4037658 -0.2409455 0.363383 0
1.3965534 -0.23970754 0.47141966 0
1.4003402 -0.24035752 0.58826983 0
0.94895738 -0.16288117 0.48174486 0
1.5476974 -0.24563043 -0.055946346 0
0.98545867 -0.15639919 0.035622474 0
0.98675054 -0.15660422 0.10737261 0
0.9934603 -0.15766911 0.18141168 0
0.99378008 -0.15771987 0.2567184 0
0.99058372 -0.15721257 0.33368608 0
0.98949444 -0.1570397 0.41481373 0
0.9604848 -0.15243566 0.4865838 0
1.5575372 -0.22712533 -0.056194194 0
0.9689579 -0.14129671 0.034958914 0
0.96382868 -0.14054875 0.10467751 0
0.9604364 -0.14005408 0.1750454 0
0.97112852 -0.14161325 0.25038642 0
0.96864825 -0.14125156 0.325672 0
0.96619487 -0.1408938 0.40427035 0
0.97074455 -0.14155725 0.49083948 0
1.5464604 -0.20565908 -0.055696703 0
0.94343537 -0.1254646 0.033978395 0
0.98758322 -0.13133571 0.10706929 0
0.97833073 -0.13010524 0.17799406 0
0.99502283 -0.13232507 0.2560972 0
0.98083657 -0.13043848 0.32919151 0
0.97830951 -0.13010241 0.4086214 0
0.9691934 -0.1288901 0.48919573 0
1.5532361 -0.18668886 -0.055851642 0
0.92632926 -0.11133874 0.033309173 0
0.98947704 -0.11892869 0.10710376 0
0.97327596 -0.11698143 0.17679238 0
0.96764779 -0.11630496 0.2486548 0
0.98859841 -0.11882308 0.33126813 0
0.99375248 -0.11944257 0.41441059 0
1.5537443 -0.16693223 -0.05578991 0
0.91317147 -0.098109923 0.032789018 0
1.3941985 -0.14979084 0.35775176 0
1.397711 -0.15016821 0.46768644 0
1.3967211 -0.15006186 0.58162081 0
1.5534917 -0.14714412 -0.055709891 0
0.9076255 -0.085968755 0.032548431 0
1.4062557 -0.13319817 0.36038667 0
1.3938574 -0.13202383 0.46580374 0
1.4021062 -0.13280514 0.58312064 0
1.548115 -0.1269892 -0.055455338 0
0.91985899 -0.075454444 0.032950453 0
1.4007028 -0.11489724 0.35856441 0
1.3990605 -0.11476251 0.46702263 0
1.4019618 -0.1150005 0.58241218 0
1.5604284 -0.1082382 -0.055843163 0
0.92815214 -0.064380728 0.033215851 0
1.3973027 -0.096923091 0.35735327 0
1.4020922 -0.097255304 0.46758875 0
1.3956199 -0.096806355 0.57922524 0
1.5723385 -0.08918722 -0.056224741 0
1.3941668 -0.07908085 0.35626835 0
1.4079171 -0.079860806 0.46915874 0
1.4003818 -0.079433382 0.58074045 0
1.572683 -0.06935367 -0.05620138 0
1.3987626 -0.061683964 0.35721594 0
1.3907714 -0.061331563 0.46315122 0
1.3940741 -0.06147721 0.57775778 0
1.5644162 -0.049262308 -0.055879358 0
1.4063278 -0.044284225 0.35897711 0
1.4026558 -0.044168591 0.4668867 0
1.397898 -0.044018771 0.57906687 0
1.5757293 -0.029764833 -0.0562656 0
1.4149747 -0.026728252 0.36106977 0
1.4034894 -0.026511297 0.46701601 0
1.3932078 -0.026317084 0.57694101 0
1.5684885 -0.0098749762 -0.055998173 0
1.4065357 -0.0088553447 0.35885942 0
1.3992392 -0.0088094063 0.46552795 0
1.3936599 -0.0087742805 0.57703674 0
1.5637444 0.0098451078 -0.055828802 0
1.4066596 0.0088561252 0.35889101 0
1.3970751 0.008795782 0.46480796 0
1.3985201 0.0088048792 0.57904905 0
1.5634323 0.029532552 -0.055826511 0
1.4026122 0.026494728 0.35791513 0
1.4043461 0.026527481 0.4673011 0
1.4043653 0.026527844 0.58156145 0
1.5652746 0.049289338 -0.055910021 0
1.4098911 0.04439643 0.35988668 0
1.3940393 0.043897264 0.46401861 0
1.3987399 0.044045284 0.57941568 0
1.5582186 0.068715811 -0.055684481 0
1.4130905 0.06231581 0.36087501 0
1.3895365 0.061277106 0.46273997 0
1.4018252 0.061819028 0.58097011 0
1.5632515 0.088671781 -0.055899803 0
1.4139037 0.080200382 0.36131197 0
1.3911304 0.078908622 0.46356493 0
1.3990272 0.079356551 0.58017868 0
1.566927 0.10868897 -0.056075729 0
1.8629483 0.12922232 0.066669464 0
1.8536739 0.12857901 0.19969171 0
1.8570861 0.12881568 0.33572781 0
1.4161748 0.098232135 0.3621797 0
1.3954178 0.096792333 0.46536288 0
1.3948368 0.09675204 0.57890022 0
1.5686032 0.1286698 -0.056189246 0
1.7991729 0.14758304 0.064448528 0
1.8097334 0.1484493 0.19514401 0
1.5553671 0.12758407 0.28145057 0
1.4160758 0.11615825 0.36249971 0
1.3973124 0.11461911 0.46643904 0
1.3996824 0.11481353 0.58146524 0
1.5501815 0.14683059 -0.055591185 0
1.7999117 0.1704846 0.064546779 0
1.8046017 0.17092882 0.19480731 0
1.4575567 0.13805731 0.26404497 0
1.4068681 0.13325618 0.36054361 0
1.397114 0.1323323 0.46689209 0
1.3977418 0.13239175 0.5813055 0
1.5697142 0.168648 -0.056363333 0
1.1861598 0.12743944 0.042591147 0
1.1996634 0.12889023 0.12966895 0
1.2098713 0.12998696 0.21945444 0
1.2067392 0.12965044 0.30964965 0
1.3941379 0.14978431 0.46649083 0
1.3888696 0.14921831 0.57835132 0
1.5697095 0.18866885 -0.056443997 0
1.1121732 0.13367598 0.039991796 0
1.1154678 0.13407196 0.12074134 0
1.1125939 0.13372652 0.20209903 0
1.1074044 0.13310279 0.2845678 0
1.3999149 0.16826065 0.46909565 0
1.3962278 0.16781749 0.58224922 0
1.5597484 0.20742622 -0.056175284 0
1.107517 0.14728533 0.039887894 0
1.1198468 0.14892504 0.12140872 0
1.1179093 0.14866737 0.20338848 0
1.0937234 0.14545096 0.28150055 0
1.4078711 0.1872285 0.47251421 0
1.3975847 0.18586054 0.5837447 0
1.5479405 0.2257259 -0.055847954 0
1.1010942 0.16056527 0.039726246 0
1.1137739 0.16241427 0.12096245 0
1.1097673 0.16183002 0.20226188 0
1.0977131 0.16007222 0.28302377 0
1.405974 0.20502388 0.47270656 0
1.3875095 0.20233132 0.58055466 0
1.5377575 0.24405289 -0.055587035 0
1.1101693 0.17619164 0.040130526 0
1.1134506 0.17671241 0.1211594 0
1.1047196 0.17532675 0.2017283 0
1.1098636 0.17614314 0.2867057 0
1.4021629 0.22253308 0.47232985 0
1.4014322 0.2224171 0.5875054 0
1.5489118 0.26585868 -0.056106806 0
1.103369 0.18938471 0.039967742 0
1.1162709 0.19159923 0.12171917 0
1.110564 0.19061968 0.2032177 0
1.0989208 0.18862122 0.2844699 0
1.4009907 0.24046917 0.47291753 0
1.3899707 0.23857768 0.58391368 0
1.5384742 0.28405386 -0.055853859 0
1.107886 0.20455286 0.040221475 0
1.1126753 0.20543714 0.12159954 0
1.0977243 0.20267668 0.20131928 0
1.1066 0.20431544 0.287101 0
1.404407 0.25930059 0.47513527 0
1.3963296 0.25780922 0.58790219 0
1.5346404 0.30337587 -0.055848937 0
1.1130736 0.22003831 0.040507197 0
1.1153427 0.22048689 0.1221848 0
1.1144207 0.22030459 0.20487384 0
1.1077999 0.21899578 0.28810492 0
1.39845 0.27645305 0.47426006 0
1.3961148 0.27599141 0.58922827 0
1.5431551 0.3253006 -0.056303415 0
1.1080147 0.23357204 0.040426925 0
1.1149268 0.23502912 0.12245373 0
1.1120995 0.23443311 0.20497359 0
1.1090862 0.23379788 0.28918216 0
1.4033178 0.29582259 0.47713634 0
1.3907874 0.29318112 0.58849126 0
1.5284127 0.34234771 -0.055918377 0
1.1042552 0.24734108 0.040400188 0
1.1161563 0.25000679 0.12292479 0
1.1051767 0.24754748 0.20425595 0
1.109542 0.24852526 0.29009399 0
1.4034762 0.3143633 0.47849816 0
1.3854498 0.31032559 0.58783966 0
1.5356711 0.36433864 -0.056347318 0
1.1053857 0.26225322 0.04055915 0
1.1094043 0.26320666 0.12253648 0
1.1090899 0.26313204 0.20557526 0
1.1071626 0.26267481 0.29031366 0
1.4043243 0.33317655 0.48017964 0
1.40537 0.33342463 0.59802568 0
1.5126071 0.37904614 -0.055671766 0
1.1142963 0.27923295 0.04101187 0
1.1171123 0.27993861 0.12376738 0
1.1043632 0.2767438 0.20532881 0
1.1129608 0.2788983 0.29273173 0
1.400318 0.35090747 0.48028255 0
1.3970594 0.35009092 0.59631795 0
1.5185218 0.40091494 -0.056070819 0
1.1193891 0.29553729 0.041333001 0
1.1122878 0.29366243 0.12363276 0
1.1130389 0.29386073 0.20761335 0
1.1052275 0.29179838 0.291641 0
1.3890111 0.36672199 0.47795045 0
1.3836876 0.36531648 0.59252685 0
1.5071672 0.41828632 -0.055841614 0
1.1083858 0.30761194 0.041066483 0
1.1202577 0.3109068 0.12494389 0
1.1062806 0.30702767 0.20705748 0
1.1146927 0.30936229 0.29514316 0
1.398634 0.38816497 0.48290524 0
1.4007974 0.38876536 0.60190231 0
1.5096539 0.43952239 -0.056134362 0
1.107134 0.32233226 0.041167222 0
1.1229429 0.32693487 0.12569256 0
1.1138813 0.32429668 0.2092278 0
1.1180401 0.32550749 0.29709122 0
1.3989244 0.40728447 0.48473781 0
1.4008051 0.407832 0.6040644 0
1.4933772 0.45525748 -0.055737875 0
1.4137787 0.4309918 0.37708858 0
1.3988482 0.42644021 0.48653349 0
1.4007552 0.42702156 0.60631353 0
1.4814377 0.47208452 -0.055509724 0
1.4125197 0.45012265 0.3782346 0
1.3968287 0.44512242 0.48774192 0
1.408474 0.44883341 0.61205244 0
1.4842995 0.49366805 -0.055845458 0
1.4038351 0.4669061 0.37745351 0
1.4048009 0.46722731 0.49254099 0
1.3975306 0.46480927 0.60979205 0
1.4782891 0.51243007 -0.05585767 0
1.4012852 0.48573762 0.37838247 0
1.3862306 0.48051912 0.48811281 0
1.3960153 0.48391086 0.61174124 0
1.4807606 0.5342648 -0.056200799 0
1.403566 0.50641263 0.38069007 0
1.3908923 0.50183994 0.49194035 0
1.3997146 0.50502306 0.61610013 0
1.4617856 0.54831684 -0.055738259 0
1.3993206 0.52488619 0.38130108 0
1.3952153 0.52334625 0.49576086 0
1.3943534 0.52302295 0.61659038 0
1.45656 0.56737792 -0.055807006 0
1.4017371 0.54602265 0.38380265 0
1.3933384 0.54275107 0.49748302 0
1.3843082 0.53923351 0.61510223 0
1.448163 0.58521312 -0.055763204 0
1.3957474 0.5640316 0.38407686 0
1.3760635 0.55607718 0.49377605 0
1.3880402 0.56091708 0.61984974 0
1.4380533 0.60230082 -0.055661544 0
1.4020967 0.58724117 0.38782814 0
1.3841912 0.57974178 0.4992725 0
1.3815366 0.57862997 0.62015015 0
1.4412884 0.62510157 -0.056086987 0
1.3933153 0.60429519 0.38747323 0
1.3846259 0.60052651 0.50211704 0
1.3741096 0.5959655 0.62013578 0
1.4290848 0.64130652 -0.055921912 0
1.3962333 0.62656432 0.39044785 0
1.3850037 0.62152499 0.50505215 0
1.3837805 0.62097609 0.62797934 0
1.4175577 0.65770042 -0.055790503 0
1.3836364 0.64196205 0.38915494 0
1.3780147 0.63935375 0.50539929 0
1.3804166 0.64046818 0.63006282 0
1.419593 0.68049628 -0.056203395 0
1.3760608 0.65962869 0.38932958 0
1.3813311 0.66215503 0.5096333 0
1.385669 0.6642344 0.63622731 0
1.4038479 0.69482028 -0.05592199 0
1.3717737 0.67894548 0.39050454 0
1.3598264 0.67303234 0.50478601 0
1.3632056 0.67470479 0.62976432 0
1.3861705 0.70793813 -0.055568516 0
1.3744332 0.7019437 0.39374661 0
1.3673671 0.69833499 0.510809 0
1.3636382 0.6964305 0.63396519 0
1.3928918 0.73362839 -0.056203835 0
1.3643708 0.71860653 0.39342505 0
1.3567901 0.71461385 0.51017892 0
1.3627179 0.71773595 0.63768858 0
1.374795 0.74635863 -0.055848416 0
1.3581544 0.73732471 0.39427856 0
1.3521842 0.73408347 0.51188225 0
1.3486491 0.73216438 0.63536906 0
1.3608617 0.76113391 -0.055667337 0
1.3478789 0.75387257 0.39402011 0
1.3490018 0.75450063 0.51423335 0
1.3478457 0.75385398 0.63941193 0
1.353734 0.77968508 -0.055772964 0
1.3434756 0.77377671 0.39554983 0
1.3406353 0.77214092 0.51470965 0
1.3397266 0.77161747 0.64011896 0
1.351863 0.80144286 -0.056107212 0
1.3297513 0.78833407 0.39440051 0
1.3380268 0.79324019 0.51750207 0
1.3300563 0.78851491 0.64019191 0
1.3352336 0.81447798 -0.055838268 0
1.3312261 0.81203347 0.39783919 0
1.3379937 0.81616169 0.52142286 0
1.3308481 0.81180292 0.64544213 0
1.3238335 0.83057386 -0.055794481 0
1.3274424 0.83283806 0.39981088 0
1.3185055 0.82723099 0.51784658 0
1.3314958 0.83538115 0.65080637 0
1.3183091 0.85042691 -0.05600854 0
1.3147616 0.84813851 0.39917663 0
1.3196666 0.85130262 0.52247143 0
1.3139765 0.84763199 0.64740902 0
1.2949069 0.85861075 -0.055469237 0
1.3067198 0.86644346 0.40001583 0
1.303697 0.86443913 0.52041715 0
1.3078817 0.8672139 0.64973503 0
1.3085998 0.89161277 -0.056532256 0
1.3019205 0.88706177 0.40193421 0
1.2946563 0.88211232 0.52120095 0
1.2931509 0.88108659 0.64787734 0
1.2845352 0.89910549 -0.055977315 0
1.2818029 0.89719301 0.39917961 0
1.2776662 0.8942976 0.51885349 0
1.2935836 0.90543896 0.65375453 0
1.271479 0.91403377 -0.055905491 0
1.2817384 0.92140901 0.4027409 0
1.2750075 0.91657025 0.52241939 0
1.273441 0.91544414 0.64934903 0
1.253124 0.92499167 -0.055606168 0
1.273284 0.93987274 0.40377113 0
1.2594569 0.92966628 0.52080303 0
1.2759689 0.9418546 0.65663373 0
1.2459455 0.9441579 -0.055810768 0
1.2525204 0.94914031 0.40094504 0
1.250268 0.94743341 0.52189529 0
1.2602842 0.95502359 0.65469891 0
1.232702 0.9587937 -0.055753935 0
1.2453212 0.96860874 0.40251291 0
1.2517422 0.97360313 0.52758646 0
1.2491685 0.97160131 0.6552282 0
1.2259138 0.9785347 -0.055999778 0
1.2337735 0.98480833 0.40275678 0
1.2399479 0.98973686 0.52782637 0
1.240608 0.9902637 0.6572265 0
1.2178893 0.99749142 -0.056202535 0
1.2300073 1.0074164 0.40563628 0
1.2348338 1.0113696 0.53102857 0
1.2334245 1.0102153 0.66010767 0
1.1989217 1.0074435 -0.055908218 0
1.2170367 1.0226655 0.40557349 0
1.2167239 1.0224026 0.5287351 0
1.2175113 1.0230643 0.65843356 0
1.1908718 1.0265371 -0.056131173 0
1.2861171 1.1086388 0.060620509 0
1.2688751 1.0937761 0.18003564 0
1.2712651 1.0958364 0.30269432 0
1.2048302 1.0385691 0.40583169 0
1.2073144 1.0407104 0.53029889 0
1.2147774 1.0471437 0.66403335 0
1.172266 1.0365109 -0.05586496 0
1.2443806 1.1002743 0.059301622 0
1.2396748 1.0961134 0.17783681 0
1.2421814 1.0983298 0.29903874 0
1.1955739 1.0571196 0.40716535 0
1.193252 1.0550666 0.52991569 0
1.1963381 1.0577953 0.66118258 0
1.1591552 1.051219 -0.055866558 0
1.2158607 1.1026442 0.058599528 0
1.219992 1.106391 0.17699778 0
1.2113686 1.0985705 0.29492781 0
1.1788188 1.0690516 0.40601155 0
1.1838144 1.0735821 0.53168601 0
1.1848451 1.0745168 0.66225618 0
1.1495204 1.0691658 -0.05604662 0
1.1971074 1.1134264 0.058366798 0
1.2028691 1.1187853 0.17654346 0
1.2004029 1.1164914 0.29565749 0
1.1664982 1.0849568 0.40644133 0
1.1630766 1.0817745 0.52844816 0
1.1712042 1.0893339 0.66224629 0
1.1322687 1.0800271 -0.055864148 0
1.1768847 1.1225846 0.058065422 0
1.1833295 1.1287321 0.1757478 0
1.184876 1.1302072 0.29531512 0
1.1618685 1.1082612 0.40965822 0
1.1533598 1.100145 0.53028548 0
1.1565528 1.1031908 0.6617642 0
1.1240643 1.0995629 -0.056138042 0
1.1675447 1.1420954 0.05830954 0
1.1597608 1.1344812 0.17435525 0
1.1650897 1.139694 0.29393721 0
1.1478018 1.1227828 0.40965098 0
1.1417571 1.11687 0.53137499 0
1.1453345 1.1203693 0.66336501 0
1.1089826 1.1124775 -0.056079995 0
1.1624171 1.1660804 0.058782116 0
1.1578636 1.1615126 0.17625488 0
1.1652689 1.1689413 0.29767236 0
1.1355199 1.1390985 0.41035435 0
1.1298198 1.1333804 0.5324192 0
1.1300784 1.1336399 0.66274428 0
1.1013333 1.132984 -0.05641016 0
1.1600484 1.1933866 0.059417538 0
1.164397 1.1978601 0.17953129 0
1.1632617 1.1966922 0.30098516 0
1.1199658 1.1521521 0.40994385 0
1.1139392 1.1459522 0.53169346 0
1.1202565 1.1524512 0.66544199 0
1.0785654 1.1378837 -0.055973459 0
1.1698735 1.2342135 0.060712006 0
1.1720876 1.2365493 0.18310332 0
1.1682076 1.232456 0.30625612 0
1.1140196 1.1752878 0.41315171 0
1.100944 1.1614932 0.53242964 0
1.0998607 1.1603501 0.66195345 0
1.0700577 1.1577631 -0.056284063 0
1.0915493 1.1810162 0.41030109 0
1.0912348 1.1806759 0.53488171 0
1.1010028 1.1912445 0.67161566 0
1.0452191 1.1598524 -0.05574137 0
1.0711744 1.1886543 0.40823621 0
1.0716766 1.1892117 0.53259289 0
1.0770252 1.1951468 0.66611671 0
1.0303961 1.172766 -0.055734001 0
1.0584046 1.2046444 0.40911824 0
1.0580488 1.2042396 0.53331411 0
1.0586462 1.2049195 0.66408098 0
1.0233002 1.1946979 -0.056159459 0
1.0425434 1.217164 0.40887922 0
1.0445565 1.2195145 0.53421134 0
1.0463667 1.2216277 0.66597492 0
1.0082628 1.2075912 -0.056164272 0
1.0238678 1.2262812 0.40757856 0
1.029079 1.2325225 0.53419071 0
1.0328506 1.2370399 0.66723382 0
0.98921108 1.215562 -0.055951219 0
1.0178387 1.2507402 0.41141543 0
1.018263 1.2512616 0.53671265 0
1.0175519 1.2503878 0.66746926 0
0.97502315 1.2294289 -0.056019928 0
0.99690253 1.2570171 0.40931851 0
0.99725354 1.2574598 0.53394246 0
0.9968757 1.2569833 0.66423655 0
0.96193957 1.2448094 -0.056164362 0
0.98365986 1.2729168 0.41042992 0
0.98267204 1.2716385 0.53466642 0
0.97654033 1.2637036 0.6612373 0
0.93793142 1.2458532 -0.055674162 0
0.9589231 1.2737365 0.40676862 0
0.96524179 1.2821295 0.5339247 0
0.96383941 1.2802668 0.66350079 0
0.93017876 1.2684853 -0.056157656 0
0.95043218 1.2961049 0.41005751 0
0.95183438 1.2980171 0.53550714 0
0.94826597 1.2931509 0.66393697 0
0.911991 1.277097 -0.056026053 0
0.93888795 1.3147619 0.41218701 0
0.9340567 1.3079964 0.53472936 0
0.93373889 1.3075514 0.66524106 0
0.89607084 1.288813 -0.056040585 0
0.91638744 1.3180342 0.40956277 0
0.92162251 1.3255638 0.53712416 0
0.91195226 1.3116552 0.66143405 0
0.88148868 1.3025299 -0.05614993 0
0.90570647 1.3383152 0.41228828 0
0.89903885 1.328463 0.53366929 0
0.90066695 1.3308687 0.66535103 0
0.86492467 1.3133835 -0.05614385 0
0.88057441 1.3371475 0.40848017 0
0.87946504 1.3354629 0.53199035 0
0.87622815 1.3305477 0.65962213 0
0.84168804 1.3138192 -0.055704992 0
0.86103165 1.3440133 0.40723315 0
0.85873145 1.3404229 0.52961665 0
0.86483651 1.3499525 0.66379064 0
0.82793045 1.3288902 -0.055897526 0
0.84889805 1.3625448 0.40957677 0
0.84581625 1.3575982 0.53215241 0
0.84922558 1.3630704 0.66492999 0
0.81147921 1.3397819 -0.05592142 0
0.82790649 1.3669039 0.40772104 0
0.82776916 1.3666772 0.53158325 0
0.82943213 1.3694229 0.66288131 0
0.79844826 1.356524 -0.056196108 0
0.8136881 1.3824157 0.40925923 0
0.80707943 1.3711879 0.52934283 0
0.80907488 1.3745781 0.66039276 0
0.77842999 1.3614421 -0.055989344 0
0.79764897 1.3950553 0.40999511 0
0.79693866 1.393813 0.53416073 0
0.79654306 1.3931212 0.66442996 0
0.75984526 1.3686484 -0.055887781 0
0.77352726 1.3932928 0.40658224 0
0.7736609 1.3935333 0.53027803 0
0.77392906 1.3940165 0.66015667 0
0.74357444 1.3800048 -0.055964731 0
0.75720257 1.4052972 0.40727061 0
0.76001334 1.4105138 0.53305554 0
0.75553131 1.4021955 0.65947229 0
0.72688168 1.3906776 -0.056021925 0
0.73976141 1.4153192 0.40744314 0
0.74122775 1.4181247 0.53236222 0
0.73671007 1.4094814 0.65848374 0
0.71004403 1.4011607 -0.0560796 0
0.72056538 1.421923 0.40669993 0
0.71797216 1.4168057 0.5284313 0
0.71840405 1.417658 0.65802526 0
0.6912806 1.4078214 -0.055993352 0
0.6953724 1.4161545 0.40251362 0
0.69343156 1.412202 0.52341598 0
0.6999433 1.4254634 0.6575051 0
0.67501247 1.4195955 -0.056119125 0
0.68040454 1.4309354 0.40424752 0
0.67993063 1.4299388 0.52677482 0
0.67877042 1.4274988 0.65444952 0
0.65266675 1.4183815 -0.05574182 0
0.66237593 1.4394816 0.40427348 0
0.65753973 1.4289714 0.52332675 0
0.66022408 1.4348052 0.65393585 0
0.6392476 1.4365811 -0.056136265 0
0.63810521 1.4340138 0.40044951 0
0.63918412 1.4364384 0.52307224 0
0.63858926 1.4351016 0.6503545 0
0.61669594 1.4342536 -0.055737447 0
0.6231969 1.4493729 0.40251523 0
0.6227994 1.4484484 0.52454823 0
0.61862439 1.4387386 0.64842111 0
0.60004336 1.4454104 -0.055872954 0
0.60470676 1.4566437 0.40238786 0
0.60110307 1.447963 0.52158993 0
0.60519242 1.4578137 0.65353167 0
0.58246481 1.4545203 -0.055937152 0
0.57907295 1.4460503 0.39741567 0
0.58279532 1.4553457 0.52156448 0
0.58362287 1.4574124 0.65000564 0
0.56571889 1.4659225 -0.056097243 0
0.56479359 1.4635247 0.40023181 0
0.56727701 1.4699599 0.52420032 0
0.56390756 1.4612287 0.64848936 0
0.54346603 1.4628347 -0.055712786 0
0.54582167 1.4691753 0.39986581 0
0.54580146 1.469121 0.52140892 0
0.54650009 1.4710014 0.64972085 0
0.52678436 1.4745449 -0.055901702 0
0.52399361 1.4667332 0.3973738 0
0.52455151 1.4682949 0.51873028 0
0.52705508 1.4753028 0.64863795 0
0.50678641 1.4770101 -0.055748809 0
0.50308609 1.4662256 0.39548862 0
0.50437224 1.469974 0.51703876 0
0.50467241 1.470849 0.64383471 0
0.4880189 1.482879 -0.055733964 0
0.4850651 1.4739038 0.39588076 0
0.4836632 1.4696441 0.51473969 0
0.48496673 1.4736049 0.64231694 0
0.47100568 1.4942892 -0.055935461 0
0.46488184 1.4748609 0.39453426 0
0.46397328 1.4719785 0.51347029 0
0.46474642 1.4744314 0.64007562 0
0.451471 1.4978372 -0.055851042 0
0.44708017 1.4832698 0.39524636 0
0.44412404 1.4734623 0.51199651 0
0.44456029 1.4749095 0.63780248 0
0.42975047 1.4935843 -0.055486277 0
0.45274895 1.5735148 0.058455676 0
0.45072329 1.5664747 0.17517807 0
0.44956294 1.5624419 0.29321676 0
0.42637917 1.4818673 0.39341077 0
0.42377135 1.4728041 0.50987309 0
0.42492184 1.4768025 0.63625675 0
0.41192976 1.5025953 -0.055623926 0
0.4272736 1.558565 0.057695843 0
0.42510009 1.5506368 0.17279461 0
0.42489365 1.5498837 0.28983298 0
0.40673947 1.4836627 0.39249656 0
0.40513384 1.477806 0.50979823 0
0.40742293 1.4861557 0.63802558 0
0.39650333 1.5211893 -0.056122974 0
0.39961669 1.5331337 0.056563653 0
0.39955553 1.5328993 0.17024387 0
0.39812922 1.5274272 0.28467345 0
0.3878144 1.4878542 0.3922824 0
0.38699681 1.4847175 0.51046091 0
0.38598973 1.4808539 0.63361251 0
0.37413844 1.5132005 -0.05565 0
0.3780067 1.5288455 0.056225367 0
0.37845546 1.5306606 0.16945256 0
0.37825343 1.5298434 0.28421354 0
0.36753112 1.4864771 0.39066815 0
0.36828595 1.4895301 0.51048064 0
0.36657768 1.4826211 0.63234341 0
0.35753781 1.5284016 -0.056039024 0
0.35992864 1.5386219 0.056413755 0
0.35841787 1.5321637 0.1691059 0
0.36084986 1.5425599 0.2857092 0
0.34848768 1.4897141 0.39033464 0
0.34564352 1.4775559 0.50484526 0
0.34654707 1.4814184 0.62991935 0
0.3374548 1.5291108 -0.055904794 0
0.33996513 1.5404859 0.056320675 0
0.33936661 1.5377738 0.16924003 0
0.34147474 1.5473263 0.28577295 0
0.33117852 1.5006711 0.3920818 0
0.32708764 1.4821341 0.50496221 0
0.32550937 1.4749824 0.62539023 0
0.31867206 1.5356352 -0.055992186 0
0.32209966 1.5521525 0.056594431 0
0.32372636 1.5599912 0.17122297 0
0.32183176 1.5508615 0.28565475 0
0.30943012 1.4910997 0.38853225 0
0.3079879 1.4841499 0.50428772 0
0.30751571 1.4818743 0.62662089 0
0.29818213 1.5337181 -0.055780951 0
0.30513284 1.5694696 0.057081223 0
0.30614501 1.5746757 0.17239793 0
0.30402106 1.563751 0.28730094 0
0.28967407 1.4899565 0.3872532 0
0.2871179 1.4768087 0.50052512 0
0.28672975 1.4748122 0.62205851 0
0.28071058 1.5476247 -0.056153722 0
0.28855184 1.5908554 0.057722297 0
0.29117015 1.6052909 0.17533441 0
0.28924033 1.5946513 0.2922858 0
0.27233994 1.5014753 0.38932487 0
0.26743287 1.4744215 0.49853519 0
0.26971921 1.4870267 0.62572831 0
0.26160285 1.5534177 -0.056239929 0
0.24827276 1.4742625 0.38142785 0
0.24743585 1.4692929 0.49570832 0
0.24953745 1.4817724 0.62214577 0
0.24050452 1.5468241 -0.05588714 0
0.23202558 1.4922911 0.38530582 0
0.22955759 1.476418 0.49709752 0
0.22916476 1.4738915 0.6175763 0
0.22145058 1.5528257 -0.055998787 0
0.21056934 1.4765257 0.38052043 0
0.20936877 1.4681071 0.49337253 0
0.20943224 1.4685522 0.61418539 0
0.2008604 1.5476265 -0.055715665 0
0.19146729 1.4752527 0.37954098 0
0.19071974 1.4694929 0.49299207 0
0.19132414 1.4741498 0.61547005 0
0.18197368 1.5552952 -0.055904817 0
0.17193691 1.4695127 0.37747729 0
0.17243771 1.473793 0.49366713 0
0.17100433 1.4615422 0.60925895 0
0.16322513 1.5656058 -0.056197096 0
0.15381236 1.4753214 0.37844184 0
0.15248154 1.4625566 0.48922136 0
0.15300848 1.4676108 0.61093706 0
0.14239869 1.5555139 -0.055766065 0
0.1342608 1.4666185 0.37574595 0
0.13432309 1.467299 0.49020302 0
0.1333801 1.456998 0.60577202 0
0.12285023 1.5578003 -0.055788152 0
0.11468901 1.4543121 0.37219355 0
0.11497441 1.457931 0.48655111 0
0.11479365 1.455639 0.60455805 0
0.10350795 1.5634841 -0.055940583 0
0.096112356 1.4517739 0.37120479 0
0.096624538 1.4595103 0.48663351 0
0.095308483 1.4396313 0.59736395 0
0.083848767 1.56532 -0.055964064 0
0.078178465 1.4594648 0.37289003 0
0.077438585 1.4456525 0.48164967 0
0.07745453 1.4459502 0.59953362 0
0.064121999 1.5659869 -0.055954598 0
0.058769695 1.4352729 0.36649093 0
0.058950085 1.4396784 0.47937399 0
0.058348209 1.4249794 0.59048712 0
0.044383768 1.566124 -0.055935092 0
0.04097189 1.4457326 0.36900076 0
0.040807609 1.4399357 0.47925055 0
0.040503893 1.4292188 0.59198552 0
0.024486138 1.55546 -0.055538807 0
0.022684805 1.4410319 0.36769894 0
0.022451872 1.4262351 0.47455889 0
0.022410695 1.4236193 0.58950257 0
0.0049332557 1.5664994 -0.055926327 0
0.0045195809 1.4351416 0.36615238 0
0.0044751596 1.4210361 0.47277278 0
0.0044681635 1.4188145 0.58744317 0
-0.014866224 1.5743763 -0.056209773 0
-0.013369578 1.4158772 0.36125171 0
-0.01336552 1.4154475 0.47093213 0
-0.013343519 1.4131175 0.58510751 0
-0.034649879 1.5723187 -0.056147434 0
-0.030964836 1.4051013 0.35857338 0
-0.031431314 1.4262688 0.47462654 0
-0.031210152 1.4162331 0.58651376 0
-0.054256245 1.5663223 -0.055953264 0
-0.048989791 1.4142852 0.36104584 0
-0.048600037 1.4030334 0.46706098 0
-0.048426766 1.3980311 0.57918233 0
-0.073855095 1.563002 -0.055863447 0
-0.066413902 1.4055233 0.3589941 0
-0.065323882 1.3824551 0.46044794 0
-0.065607823 1.3884642 0.57551551 0
-0.093524806 1.5618726 -0.055860747 0
