# .PCD v0.7 - Point Cloud Data file format
VERSION 0.7
FIELDS x y z intensity
SIZE 4 4 4 4
TYPE F F F F
COUNT 1 1 1 1
WIDTH 1347
HEIGHT 1
VIEWPOINT 0 0 0 1 0 0 0
POINTS 1347
DATA ascii
-1.5483012 -0.27580404 -0.056146502 0
-1.0443984 -0.18604216 0.037873324 0
-1.0436265 -0.18590465 0.11392338 0
-1.0504389 -0.18711817 0.1924275 0
-1.3166386 -0.2345372 0.34120461 0
-1.186205 -0.21130265 0.40085593 0
-1.184615 -0.21101941 0.49819416 0
-1.1676453 -0.20799655 0.59341663 0
-1.5386447 -0.29411858 -0.055926196 0
-1.0362519 -0.19808401 0.037665371 0
-1.0431335 -0.19939946 0.1141346 0
-1.0419972 -0.19918226 0.19132538 0
-1.3224578 -0.25279349 0.34351033 0
-1.1939411 -0.22822697 0.40440929 0
-1.1920332 -0.22786227 0.50248075 0
-1.1886975 -0.22722463 0.60552174 0
-1.531186 -0.31272656 -0.055793799 0
-1.0286629 -0.2100922 0.03748272 0
-1.0219483 -0.20872082 0.11209531 0
-1.0216341 -0.20865665 0.18805397 0
-1.3134347 -0.26825345 0.34201688 0
-1.2192159 -0.24901035 0.41399956 0
-1.2147788 -0.24810414 0.513345 0
-1.2079686 -0.24671325 0.61687213 0
-1.5338084 -0.33343369 -0.056037903 0
-1.0026205 -0.21795908 0.036630876 0
-1.0082953 -0.21919273 0.1108917 0
-1.0150673 -0.2206649 0.18734182 0
-1.3019609 -0.28303254 0.33993024 0
-1.2330973 -0.26806232 0.41982612 0
-1.2369457 -0.2688989 0.52410167 0
-1.2355039 -0.2685855 0.6326105 0
-1.5212663 -0.35082367 -0.055736661 0
-1.0015423 -0.23096861 0.036694843 0
-1.0017127 -0.23100789 0.11047891 0
-0.99910551 -0.23040663 0.18491669 0
-1.2971083 -0.29912993 0.33961979 0
-1.2495455 -0.28816131 0.42662767 0
-1.264141 -0.29152724 0.53713733 0
-1.2535161 -0.28907701 0.64364606 0
-1.5305874 -0.37333083 -0.056245949 0
-0.98934269 -0.24131396 0.036356315 0
-0.99419934 -0.24249858 0.10997833 0
-0.99837434 -0.24351692 0.18533422 0
-1.3019636 -0.31756639 0.34191093 0
-1.2851486 -0.313465 0.44009632 0
-1.2809781 -0.31244776 0.5459199 0
-1.2748616 -0.31095585 0.65656483 0
-1.5198401 -0.39104861 -0.056027517 0
-0.98420388 -0.25323161 0.036281776 0
-0.97602379 -0.25112692 0.10830896 0
-0.98506534 -0.25345328 0.18344152 0
-1.3191296 -0.33940661 0.34751374 0
-1.3034418 -0.33537021 0.44777143 0
-1.2956604 -0.33336809 0.55392224 0
-1.2943238 -0.3330242 0.66869479 0
-1.510044 -0.4088676 -0.055851761 0
-0.9675948 -0.26199114 0.035788279 0
-0.96757168 -0.26198491 0.10772859 0
-0.97888678 -0.26504862 0.18289794 0
-1.3393848 -0.36265904 0.35402483 0
-1.3159252 -0.35630697 0.45356527 0
-1.330061 -0.36013442 0.57052273 0
-1.5071642 -0.42852747 -0.055940397 0
-0.96179426 -0.27346408 0.035698269 0
-0.95474786 -0.27146059 0.10667293 0
-0.96605068 -0.2746743 0.1811315 0
-1.3656051 -0.38827839 0.36221895 0
-1.3499485 -0.38382682 0.46692109 0
-1.3426448 -0.38175017 0.57793671 0
-1.5052655 -0.44854817 -0.056075118 0
-0.94618773 -0.28195077 0.035247996 0
-0.95818377 -0.28552544 0.10745 0
-0.95147741 -0.28352705 0.17905428 0
-1.3823872 -0.41193214 0.36801699 0
-1.371347 -0.40864232 0.47606444 0
-1.370682 -0.40844417 0.59217215 0
-1.4875467 -0.46373981 -0.055628177 0
-0.94663817 -0.29511261 0.035400402 0
-0.93983787 -0.29299265 0.10579805 0
-0.93811351 -0.29245508 0.17721835 0
-1.4009832 -0.43675381 0.37440202 0
-1.3986448 -0.43602479 0.48740828 0
-1.4065454 -0.4384878 0.61000317 0
-1.4958938 -0.48709077 -0.056165241 0
-0.92382848 -0.30081567 0.03468632 0
-0.91732937 -0.29869944 0.10367945 0
-0.92107397 -0.29991874 0.17469902 0
-1.433643 -0.46682072 0.38467056 0
-1.436819 -0.46785486 0.50272465 0
-1.4264305 -0.4644722 0.62111443 0
-1.4875704 -0.50518364 -0.056087129 0
-0.91517586 -0.31079665 0.03450565 0
-0.91394156 -0.31037748 0.10373005 0
-0.9172765 -0.31151003 0.17470889 0
-1.460954 -0.49614462 0.39364365 0
-1.4628571 -0.49679098 0.51398313 0
-1.4609245 -0.49613464 0.6388039 0
-1.4719014 -0.52062327 -0.055739105 0
-0.91274339 -0.32284462 0.034564473 0
-0.91294265 -0.32291511 0.10406993 0
-0.9140237 -0.32329747 0.17485088 0
-1.4852175 -0.52533329 0.40193179 0
-1.497647 -0.52972972 0.5285086 0
-1.4715339 -0.54143471 -0.055978935 0
-0.90637273 -0.33348984 0.034479517 0
-0.89817846 -0.33047485 0.10285313 0
-0.89956862 -0.33098635 0.17286925 0
-1.5230311 -0.56038249 0.41404179 0
-1.5278162 -0.56214315 0.54161012 0
-1.4680415 -0.56123585 -0.056110475 0
-0.88677484 -0.3390162 0.033893701 0
-0.88839787 -0.33963671 0.10221477 0
-0.90366662 -0.34547397 0.1744789 0
-1.5553625 -0.59461892 0.42483306 0
-1.5645071 -0.59811491 0.55724281 0
-1.4671931 -0.58218938 -0.056353785 0
-0.87793237 -0.34836787 0.033720721 0
-0.88809574 -0.35240075 0.10268243 0
-0.89095664 -0.35353595 0.17287073 0
-1.6057287 -0.63716102 0.44074667 0
-1.6116065 -0.63949335 0.576841 0
-1.4579313 -0.5998702 -0.056283712 0
-0.8687939 -0.35746786 0.033539951 0
-0.87130541 -0.3585012 0.10125503 0
-0.88452971 -0.36394238 0.17249924 0
-1.6323687 -0.67164296 0.45034462 0
-1.4468505 -0.61672539 -0.056151293 0
-0.85367519 -0.36388218 0.033130556 0
-0.86829919 -0.3701157 0.10143924 0
-0.86369532 -0.3681533 0.16932681 0
-1.6842668 -0.71792489 0.46711954 0
-1.4267367 -0.62949634 -0.055673905 0
-0.85656399 -0.37792808 0.033424709 0
-0.86078387 -0.37978995 0.10111195 0
-0.8592391 -0.37910837 0.16937566 0
-1.7302388 -0.76340574 0.48249739 0
-1.426842 -0.6511274 -0.05599352 0
-0.8457101 -0.38593274 0.033188175 0
-0.85016334 -0.38796493 0.1004303 0
-0.84713548 -0.38658321 0.16793603 0
-1.4242345 -0.67173183 -0.05621868 0
-0.83751947 -0.3950111 0.033059329 0
-0.83531147 -0.39396971 0.09925402 0
-0.83056217 -0.39172974 0.16561528 0
-1.4077232 -0.68574333 -0.055903349 0
-0.82808805 -0.403386 0.032884941 0
-0.82826698 -0.4034732 0.099012814 0
-0.83211595 -0.40534812 0.16692965 0
-1.3991582 -0.70350492 -0.05591058 0
-0.82342041 -0.41402057 0.032904007 0
-0.81875724 -0.4116759 0.098487884 0
-0.82149369 -0.41305181 0.165829 0
-1.3918543 -0.72192985 -0.055977542 0
-0.80691826 -0.41853401 0.032452606 0
-0.81257021 -0.42146558 0.098374255 0
-0.82067746 -0.42567065 0.16673303 0
-1.3734795 -0.73449153 -0.055606108 0
-0.8055203 -0.43076566 0.032611951 0
-0.80459929 -0.43027312 0.098057412 0
-0.79630268 -0.42583638 0.16285743 0
-1.3732411 -0.75675201 -0.05597781 0
-0.79701585 -0.43921155 0.032488979 0
-0.79555643 -0.4384073 0.097620405 0
-0.79264194 -0.43680122 0.1632207 0
-1.3564923 -0.76994628 -0.05568587 0
-0.78604758 -0.44616136 0.032268334 0
-0.78477055 -0.44543651 0.096977487 0
-0.7854023 -0.44579509 0.16287294 0
-1.3649991 -0.79766428 -0.056442946 0
-0.78202295 -0.45699063 0.032336783 0
-0.78602719 -0.45933059 0.097839765 0
-0.77857018 -0.45497292 0.16263132 0
-1.3447443 -0.80871224 -0.056022055 0
-0.76838374 -0.4620963 0.16170618 0
-1.3284109 -0.82184082 -0.055768315 0
-0.76542974 -0.47354427 0.096729942 0
-0.75686884 -0.46824795 0.160511 0
-1.3271779 -0.84436804 -0.056158464 0
-0.75389498 -0.47963789 0.16114841 0
-1.3087516 -0.8559826 -0.055830434 0
-0.76056284 -0.49744239 0.16389963 0
-1.2971414 -0.87190378 -0.055799097 0
-0.73718309 -0.49551475 0.16019328 0
-1.2938111 -0.89352006 -0.056135386 0
-0.73359823 -0.50663096 0.16078784 0
-1.2751933 -0.90458649 -0.055817395 0
-1.2711291 -0.92598116 -0.056145433 0
-1.2503817 -0.93519086 -0.055744752 0
-1.2398231 -0.95187074 -0.055803977 0
-1.2234956 -0.96406204 -0.05561107 0
-1.2230526 -0.98892617 -0.056152496 0
-1.2101767 -1.003976 -0.056137316 0
-1.1938945 -1.0161169 -0.055971123 0
-1.1818258 -1.0317849 -0.056009989 0
-1.1675452 -1.0455132 -0.055952698 0
-1.1593406 -1.0647712 -0.056197599 0
-1.140092 -1.0738684 -0.055915594 0
-1.1310649 -1.092567 -0.056143165 0
-1.1225929 -1.1120458 -0.056413244 0
-1.0998886 -1.1173422 -0.055974893 0
-1.0911788 -1.1367763 -0.056255668 0
-1.0675862 -1.1406041 -0.055775404 0
-1.0656227 -1.1676334 -0.056436494 0
-1.0410972 -1.1700133 -0.055913445 0
-1.0334352 -1.191274 -0.056303121 0
-0.61853641 -0.71300691 0.033698805 0
-1.0044447 -1.1877447 -0.055534121 0
-0.592866 -0.70105743 0.032778598 0
-0.99614555 -1.2084689 -0.055912174 0
-0.58322722 -0.70753914 0.032735679 0
-0.98703331 -1.2286119 -0.05626462 0
-0.58023614 -0.72225016 0.033075646 0
-0.96328038 -1.2304617 -0.055789419 0
-0.57767922 -0.73790783 0.033456914 0
-0.6063534 -0.7745353 0.10571229 0
-0.60382891 -0.77131051 0.17666158 0
-0.60790312 -0.77651483 0.25160226 0
-0.61025608 -0.77952039 0.32936126 0
-0.6131413 -0.78320593 0.4118261 0
-0.94726193 -1.2419043 -0.055762984 0
-0.58202207 -0.76305789 0.03426221 0
-0.59890336 -0.78518999 0.10612878 0
-0.59400433 -0.77876717 0.17664227 0
-0.59489357 -0.77993304 0.25026277 0
-0.59780729 -0.78375298 0.32794303 0
-0.59690708 -0.78257281 0.40750861 0
-0.59377599 -0.77846777 0.48986909 0
-0.93410426 -1.2571709 -0.055915896 0
-0.58253425 -0.78400791 0.034870759 0
-0.58015114 -0.78080058 0.10453978 0
-0.58191329 -0.78317219 0.17596541 0
-0.57996124 -0.78054506 0.24809614 0
-0.58030844 -0.78101236 0.323713 0
-0.58539623 -0.78785974 0.40639094 0
-0.57659328 -0.77601224 0.48371664 0
-0.91584074 -1.2655714 -0.05577217 0
-0.58253026 -0.80498016 0.035474483 0
-0.58096987 -0.80282384 0.10650051 0
-0.58092755 -0.80276543 0.17870992 0
-0.57833338 -0.79918063 0.25168476 0
-0.5856393 -0.80927646 0.33234495 0
-0.579813 -0.8012253 0.40948659 0
-0.56197041 -0.77656919 0.47961476 0
-0.90211487 -1.2802409 -0.055913597 0
-2.0118718 -2.8551579 0.12469697 0
-0.55451375 -0.78694099 0.48166981 0
-0.88343561 -1.287871 -0.055756573 0
-1.9901139 -2.9011848 0.12560274 0
-0.54850304 -0.79960692 0.48515636 0
-0.87041211 -1.3037792 -0.05596634 0
-1.9541863 -2.927151 0.12565158 0
-0.51568639 -0.77244008 0.46469623 0
-0.85343862 -1.3138837 -0.055934336 0
-1.9183639 -2.9533546 0.1257295 0
-0.50481647 -0.77717376 0.46368304 0
-0.84390402 -1.3357258 -0.056407332 0
-1.8922294 -2.9950085 0.12647839 0
-0.49350828 -0.78112167 0.46229419 0
-0.8243643 -1.3419248 -0.056226283 0
-1.8555675 -3.0205479 0.12656014 0
-1.216319 -1.9799602 0.24972856 0
-1.2161615 -1.9797039 0.4190256 0
-0.48032463 -0.78188676 0.45913094 0
-0.80567205 -1.3493 -0.056105781 0
-1.8238438 -3.0544844 0.12700972 0
-1.1839758 -1.9828646 0.24819478 0
-1.1838409 -1.9826387 0.41645852 0
-0.46940401 -0.78613484 0.45811826 0
-0.78469163 -1.3525681 -0.055826381 0
-1.7965908 -3.0967727 0.12781729 0
-0.45414227 -0.78280222 0.45280775 0
-0.77187157 -1.3699242 -0.056137118 0
-0.4512338 -0.80085355 0.45992625 0
-0.74834967 -1.3681778 -0.055674989 0
-0.4356479 -0.79647768 0.45422673 0
-0.73671675 -1.3881444 -0.056105532 0
-0.40741569 -0.76766515 0.43483487 0
-0.717305 -1.3936676 -0.055959262 0
-0.4018352 -0.78073442 0.43933681 0
-0.70338339 -1.4099721 -0.056253832 0
-0.40664831 -0.81514966 0.45578542 0
-0.68165213 -1.4106001 -0.055931993 0
-0.66310591 -1.4175085 -0.055870406 0
-0.64636236 -1.4283024 -0.055970605 0
-0.62992358 -1.4399772 -0.056112822 0
-0.6073736 -1.4374546 -0.05571207 0
-0.59524542 -1.4597496 -0.056281202 0
-0.5733583 -1.4583285 -0.055943608 0
-0.33728191 -0.85787165 0.38165554 0
-0.55643505 -1.4693518 -0.056093242 0
-0.32092395 -0.84744871 0.37519094 0
-0.53569269 -1.4702108 -0.055864096 0
-0.28565663 -0.78398579 0.49484277 0
-0.51855689 -1.4808899 -0.056017317 0
-0.29855251 -0.8526035 0.37402514 0
-0.27281582 -0.77910489 0.48955482 0
-0.49995342 -1.4875512 -0.056026712 0
-0.80255806 -2.3879149 0.4543297 0
-0.28673464 -0.85314441 0.37264892 0
-0.26100615 -0.77659237 0.48587239 0
-0.48017302 -1.4905908 -0.05590903 0
-0.77350199 -2.4011657 0.4549616 0
-0.27462655 -0.85251737 0.37083516 0
-0.24649929 -0.76520246 0.47676653 0
-0.4645659 -1.506896 -0.056296725 0
-0.74320483 -2.4107072 0.4549602 0
-0.26571113 -0.8618778 0.37342182 0
-0.24055707 -0.78028649 0.48423904 0
-0.44468728 -1.5096787 -0.056187034 0
-0.71719676 -2.4348273 0.45777154 0
-0.25751987 -0.87425989 0.37735167 0
-0.23015329 -0.78135252 0.48306376 0
-0.42368051 -1.5081712 -0.055927932 0
-0.6911844 -2.460402 0.46090695 0
-0.24997598 -0.88983691 0.38268608 0
-0.22118457 -0.78734839 0.4850103 0
-0.40536827 -1.5160455 -0.056026202 0
-0.66537577 -2.4884529 0.46455538 0
-0.24751331 -0.92568034 0.39672917 0
-0.20830002 -0.77902573 0.47822982 0
-0.38433111 -1.5134835 -0.055748254 0
-0.63915062 -2.5169547 0.46833658 0
-0.23938039 -0.94267225 0.40268779 0
-0.20146155 -0.79334915 0.48542687 0
-0.36868441 -1.5325031 -0.056273367 0
-0.61725485 -2.565731 0.47592852 0
-0.18984804 -0.7891376 0.48134908 0
-0.34730619 -1.5279919 -0.055942692 0
-0.5898574 -2.5951087 0.47996211 0
-0.17832325 -0.78454262 0.47713876 0
-0.32800654 -1.5320903 -0.055937085 0
-0.55764014 -2.6046891 0.48039719 0
-0.17052391 -0.79650259 0.48306829 0
-0.30832961 -1.5343072 -0.055871844 0
-0.52957851 -2.6352839 0.48477161 0
-0.20717913 -1.0309631 0.43538946 0
-0.15992106 -0.79579788 0.48138142 0
-0.28855991 -1.5357981 -0.055789392 0
-0.50110716 -2.6670349 0.48941278 0
-0.19580083 -1.0421078 0.43901998 0
-0.14897065 -0.79286426 0.47843421 0
-0.27014074 -1.5446918 -0.05598446 0
-0.4706386 -2.6911588 0.49271303 0
-0.18187191 -1.0399618 0.43711644 0
-0.13697043 -0.78321069 0.47153085 0
-0.25209036 -1.5567433 -0.056301728 0
-0.16859186 -1.0411118 0.4366729 0
-0.12684052 -0.78328311 0.47057554 0
-0.23194739 -1.5562935 -0.056175377 0
-0.15820798 -1.0615255 0.44436419 0
-0.11630963 -0.78040081 0.46792698 0
-0.2106481 -1.5467163 -0.05572952 0
-0.3796086 -2.7873349 0.10043007 0
-0.378708 -2.7807221 0.30160096 0
-0.14607313 -1.0725646 0.44817972 0
-0.10680995 -0.78426862 0.46940243 0
-0.19122638 -1.5498133 -0.055749923 0
-0.13343659 -1.0814502 0.4511548 0
-0.096648097 -0.78329414 0.4680537 0
-0.17164938 -1.551666 -0.0557344 0
-0.086076848 -0.77811247 0.46427289 0
-0.15284802 -1.5613616 -0.056009084 0
-0.13321477 -1.5636119 -0.056025188 0
-0.065927692 -0.77382803 0.4605796 0
-0.11245228 -1.5504925 -0.055499978 0
-0.056319803 -0.77653766 0.4617337 0
-0.094125412 -1.5719029 -0.056219481 0
-0.04707998 -0.78623992 0.46711314 0
-0.073949665 -1.5650034 -0.055934981 0
-0.12335847 -2.6106465 0.093307436 0
-0.037213825 -0.78755951 0.46758166 0
-0.054330163 -1.5684562 -0.056029495 0
-0.047487374 -1.3709118 0.048972674 0
-0.026889144 -0.77626204 0.46063671 0
-0.034769192 -1.5777329 -0.056340776 0
-0.030011997 -1.3618641 0.048632108 0
-0.017310992 -0.78552645 0.46596795 0
-0.014733262 -1.5602953 -0.055707041 0
-0.012784541 -1.35392 0.048338845 0
-0.018834783 -1.9946584 0.2143741 0
-0.007365068 -0.77998215 0.46258742 0
0.0049084905 -1.5586355 -0.05564557 0
0.0042460319 -1.3482792 0.048135545 0
0.0057508578 -1.8261197 0.19625278 0
0.0057568094 -1.8280095 0.32968077 0
0.005710111 -1.8131809 0.46260279 0
0.002448461 -0.77748096 0.46108577 0
0.02482185 -1.5767858 -0.05630026 0
0.021280991 -1.3518559 0.048268978 0
0.0306812 -1.9489958 0.20948316 0
0.016542958 -1.0508766 0.34966385 0
0.044324044 -1.5640165 -0.055859823 0
0.038692873 -1.3653152 0.048763085 0
0.05469773 -1.9300621 0.20750569 0
0.029184058 -1.0297875 0.34274188 0
0.021995531 -0.77613348 0.46046916 0
0.06386625 -1.5597409 -0.055731423 0
0.07740888 -1.890479 0.067549095 0
0.07769271 -1.8974105 0.20408426 0
0.041912179 -1.0235789 0.3408241 0
0.031922497 -0.77961093 0.4627341 0
0.084351204 -1.5746998 -0.056299411 0
0.10045676 -1.8753643 0.067048907 0
0.099997103 -1.8667831 0.20090951 0
0.054272689 -1.0131829 0.33756328 0
0.04146795 -0.77413917 0.45975983 0
0.10320751 -1.5589459 -0.055778217 0
0.12294616 -1.8570975 0.066445909 0
0.12249277 -1.8502491 0.19928025 0
0.12343284 -1.8644487 0.33698696 0
0.068803683 -1.0392773 0.3465184 0
0.051349949 -0.77563918 0.46099815 0
0.12285233 -1.5578269 -0.055789102 0
0.1445217 -1.832605 0.065629497 0
0.1442233 -1.8288212 0.19715235 0
0.14436851 -1.8306625 0.33118266 0
0.082329996 -1.0439842 0.34840581 0
0.08671239 -1.099555 0.45666873 0
0.061675288 -0.78207248 0.46524644 0
0.14364466 -1.5691246 -0.056254014 0
0.16632745 -1.8169035 0.065137029 0
0.16550002 -1.8078649 0.19510239 0
0.1650016 -1.8024204 0.32642341 0
0.17631672 -1.9260229 0.49344483 0
0.099102743 -1.082564 0.36166874 0
0.099398814 -1.0857983 0.45143932 0
0.071292646 -0.77877623 0.46378282 0
0.16190466 -1.5529402 -0.055742469 0
0.18532608 -1.7775913 0.063806273 0
0.18724546 -1.7960014 0.19406117 0
0.18656769 -1.7895006 0.32448334 0
0.20250984 -1.9424127 0.4982577 0
0.11501836 -1.1032211 0.36902457 0
0.10815904 -1.0374285 0.4318608 0
0.081557535 -0.78227502 0.46644109 0
0.18188189 -1.5545107 -0.05587662 0
0.20986912 -1.7937123 0.06447468 0
0.20697336 -1.7689629 0.19140604 0
0.20761859 -1.7744775 0.32220775 0
0.22969772 -1.9631836 0.50428772 0
0.12291729 -1.0505512 0.35189646 0
0.11989554 -1.0247248 0.42716712 0
0.091293797 -0.78027105 0.46589473 0
0.20265576 -1.5614598 -0.056213673 0
0.22923452 -1.7662487 0.06358622 0
0.22700721 -1.7490873 0.18954974 0
0.22640558 -1.7444518 0.31724826 0
0.13012569 -1.0026165 0.41860092 0
0.10156103 -0.78252631 0.46796784 0
0.22071621 -1.5476762 -0.055813085 0
0.24957246 -1.750018 0.063110039 0
0.24640915 -1.7278367 0.18756817 0
0.24667558 -1.7297049 0.31510627 0
0.1452101 -1.0182225 0.42584619 0
0.11191101 -0.7847271 0.47008944 0
0.24068561 -1.5479888 -0.055929221 0
0.2670275 -1.7174087 0.062050402 0
0.26506016 -1.7047557 0.1854102 0
0.26643887 -1.7136228 0.31276295 0
0.16058792 -1.0328341 0.43276849 0
0.12112955 -0.7790544 0.46756783 0
0.25895032 -1.5376667 -0.05566968 0
0.28767714 -1.7082487 0.061845433 0
0.28508845 -1.6928768 0.18449406 0
0.28472939 -1.6907449 0.30921724 0
0.13122045 -0.77919698 0.46860799 0
0.28054234 -1.5466973 -0.056120068 0
0.30761933 -1.6959791 0.061536584 0
0.3035962 -1.6737986 0.18281701 0
0.30142203 -1.6618118 0.30459574 0
0.30478236 -1.6803383 0.4357031 0
0.14029214 -0.7734642 0.46618575 0
0.29877061 -1.536745 -0.055891041 0
0.33219391 -1.7086598 0.062143538 0
0.32062387 -1.6491486 0.18055132 0
0.32013437 -1.6466309 0.30252811 0
0.3194778 -1.6432538 0.42709655 0
0.15319352 -0.78796029 0.47604784 0
0.32027406 -1.5433551 -0.056273665 0
0.36053032 -1.7373443 0.063346878 0
0.33855078 -1.631428 0.17906378 0
0.33870509 -1.6321718 0.30063134 0
0.33998033 -1.6383169 0.42689225 0
0.16230546 -0.78212696 0.47372082 0
0.33779845 -1.530668 -0.055961728 0
0.38989663 -1.7667408 0.06459263 0
0.35887733 -1.6261829 0.1789699 0
0.35874823 -1.6255978 0.30022877 0
0.35717049 -1.6184486 0.42285365 0
0.17423186 -0.78949779 0.47947606 0
0.35795856 -1.5302001 -0.056104969 0
0.41972911 -1.7942567 0.065786637 0
0.37587181 -1.6067758 0.17734088 0
0.37586594 -1.6067506 0.29759842 0
0.37248021 -1.5922774 0.41720822 0
0.18608494 -0.79547536 0.48449099 0
0.37660316 -1.5231689 -0.056016605 0
0.4473033 -1.8091152 0.066532664 0
0.39017299 -1.578052 0.17469905 0
0.39120704 -1.5822343 0.29394668 0
0.39268544 -1.5882137 0.41740599 0
0.19891369 -0.80450511 0.49147722 0
0.39551514 -1.5173982 -0.0559831 0
0.47940278 -1.8392341 0.06785696 0
0.40946195 -1.5709052 0.17446482 0
0.40709299 -1.5618168 0.2910828 0
0.40970817 -1.5718499 0.41442841 0
0.20408511 -0.78297478 0.4798561 0
0.41137919 -1.500587 -0.055549581 0
0.42734119 -1.5588115 0.17370556 0
0.42516077 -1.5508581 0.29001519 0
0.42610317 -1.5542958 0.41118219 0
0.21240675 -0.77479571 0.4764449 0
0.43585855 -1.5148127 -0.056274906 0
0.44549537 -1.5483052 0.17314619 0
0.44194803 -1.5359764 0.28825012 0
0.43724626 -1.5196357 0.40343761 0
0.2270174 -0.78899187 0.4868938 0
0.45243692 -1.5010418 -0.055970531 0
0.46080565 -1.5288066 0.17160095 0
0.45558754 -1.5114945 0.28470975 0
0.45854002 -1.5212899 0.40537754 0
0.47207138 -1.4976702 -0.05606202 0
0.47857589 -1.5183061 0.17108519 0
0.47555792 -1.5087314 0.28529462 0
0.47432446 -1.5048182 0.40254799 0
0.47416168 -1.5043018 0.52474564 0
0.48494434 -1.4735368 -0.05538284 0
0.49249047 -1.4964663 0.16930963 0
0.49004799 -1.4890445 0.28271639 0
0.49152926 -1.4935455 0.4011564 0
0.48701069 -1.4798156 0.51830226 0
0.5070743 -1.4778491 -0.055780482 0
0.50767851 -1.4796101 0.16811247 0
0.50593501 -1.4745287 0.28114766 0
0.50649709 -1.4761668 0.39817011 0
0.50549364 -1.4732424 0.51818836 0
0.52635354 -1.473339 -0.055855986 0
0.53787261 -1.5055825 0.17181937 0
0.51860392 -1.4516467 0.27800786 0
0.51998937 -1.4555247 0.39433715 0
0.51944506 -1.4540012 0.51368052 0
0.54374689 -1.4635906 -0.055741575 0
0.56505853 -1.5209547 0.17437187 0
0.53489447 -1.4397629 0.27699995 0
0.53469253 -1.4392192 0.39171267 0
0.53372091 -1.4366041 0.50986826 0
0.56599396 -1.4666352 -0.056124516 0
0.59383315 -1.5387737 0.17725797 0
0.55336583 -1.4339124 0.27719298 0
0.55271196 -1.4322181 0.39167038 0
0.55053985 -1.4265897 0.50873411 0
0.58238482 -1.4543207 -0.055929471 0
0.62490618 -1.5605043 0.18065335 0
0.56264257 -1.4050207 0.27295581 0
0.56216913 -1.4038384 0.38581464 0
0.56634319 -1.4142618 0.50684088 0
0.6006676 -1.446914 -0.055931076 0
0.6494689 -1.5644687 0.18204464 0
0.57852048 -1.3935651 0.27212399 0
0.57859701 -1.3937495 0.38501373 0
0.58054036 -1.3984307 0.50374728 0
0.61722445 -1.4354827 -0.055785213 0
0.67894691 -1.5790311 0.18471931 0
0.59215647 -1.377182 0.27035946 0
0.59410274 -1.3817084 0.38372365 0
0.59068972 -1.3737707 0.49750412 0
0.35395563 -0.82319677 0.44833875 0
0.64128584 -1.4411616 -0.056315254 0
0.7177794 -1.6130657 0.18974307 0
0.61269087 -1.3769002 0.27179715 0
0.60764062 -1.3655508 0.38133115 0
0.61062908 -1.3722668 0.49970445 0
0.36667025 -0.82401806 0.45126495 0
0.65782517 -1.4295918 -0.056182381 0
0.62463701 -1.3574669 0.26949236 0
0.62551135 -1.359367 0.38177362 0
0.62302852 -1.3539714 0.49585977 0
0.37366721 -0.81205702 0.44725594 0
0.6764968 -1.4227172 -0.056242529 0
0.64317501 -1.3526392 0.27012038 0
0.6352362 -1.3359433 0.37741172 0
0.63573831 -1.3369994 0.4925369 0
0.37299567 -0.78443438 0.43459466 0
0.69510788 -1.4156159 -0.05630336 0
0.6562556 -1.3364917 0.26852471 0
0.65061396 -1.3250022 0.37660539 0
0.64576483 -1.3151268 0.48743621 0
0.64992714 -1.3236035 0.61052144 0
0.38172898 -0.77740681 0.43332994 0
0.71147615 -1.4039869 -0.056192715 0
0.67088825 -1.3238931 0.26766953 0
0.66054636 -1.3034849 0.3728241 0
0.66365737 -1.3096241 0.48845536 0
0.66859859 -1.3193747 0.61240572 0
0.40701175 -0.80317402 0.45051378 0
0.72710693 -1.3911086 -0.056039285 0
0.68254524 -1.3058528 0.26573873 0
0.67932361 -1.2996891 0.37415543 0
0.67729688 -1.2958114 0.48644602 0
0.67536432 -1.292114 0.60365182 0
0.42514265 -0.81338733 0.45920908 0
0.73981053 -1.3730192 -0.055681437 0
0.70089835 -1.3008019 0.26648581 0
0.69939053 -1.2980034 0.3761757 0
0.68868834 -1.2781411 0.48302984 0
0.69212985 -1.2845283 0.60413176 0
0.43520787 -0.8077051 0.45905864 0
0.75801134 -1.3653451 -0.055752892 0
0.7227326 -1.3018004 0.26853347 0
0.70472497 -1.2693646 0.37041828 0
0.70448893 -1.2689395 0.48286662 0
0.70755017 -1.2744534 0.60353589 0
0.44975385 -0.81010562 0.46360499 0
0.78181535 -1.367363 -0.05623284 0
0.75006074 -1.3118255 0.27252814 0
0.71478355 -1.2501271 0.36740193 0
0.71681952 -1.253688 0.48045966 0
0.71981841 -1.2589328 0.60043073 0
0.4556092 -0.7968418 0.45926124 0
0.78815424 -1.339035 -0.055471599 0
0.78596663 -1.3353182 0.27944264 0
0.7304557 -1.241008 0.367396 0
0.73443538 -1.2477692 0.48169744 0
0.73141611 -1.2426397 0.59700519 0
0.4604286 -0.78224534 0.4541541 0
0.81302291 -1.3423307 -0.0560278 0
0.81388789 -1.3437588 0.28333125 0
0.7442975 -1.2288625 0.36654595 0
0.74602085 -1.2317077 0.47908551 0
0.74848551 -1.235777 0.59818888 0
0.47139257 -0.7782864 0.45526579 0
0.8255623 -1.3250891 -0.055737641 0
0.84331912 -1.3535901 0.28762046 0
0.7593109 -1.2187506 0.36635271 0
0.75436175 -1.210807 0.47461304 0
0.76081139 -1.221159 0.59570307 0
0.48694006 -0.78157514 0.46073979 0
0.84365958 -1.3168967 -0.055835471 0
0.87778121 -1.3701583 0.29346636 0
0.77344984 -1.207304 0.36581051 0
0.77098417 -1.2034552 0.47549912 0
0.77123159 -1.2038413 0.59194577 0
0.50326765 -0.7855674 0.46679205 0
0.8619771 -1.3089075 -0.055952512 0
0.91579312 -1.3906269 0.30029655 0
0.7871595 -1.1952974 0.36514696 0
0.78765249 -1.196046 0.47645274 0
0.78048617 -1.185164 0.58754784 0
0.51442122 -0.78114581 0.46797672 0
0.87899417 -1.298844 -0.055991035 0
0.93787146 -1.3858439 0.30179003 0
0.80573529 -1.1905931 0.36678022 0
0.80025411 -1.1824938 0.47503069 0
0.79675376 -1.1773216 0.58858711 0
0.53748584 -0.79421484 0.47982293 0
0.89592671 -1.2886057 -0.05603157 0
0.82087094 -1.1806533 0.36687341 0
0.8090691 -1.1636789 0.4715277 0
0.81031936 -1.1654772 0.58772027 0
0.55327398 -0.79577047 0.48493335 0
0.90765166 -1.2710204 -0.055759475 0
0.58264631 -0.81590259 0.035793524 0
0.58306313 -0.8164863 0.10782403 0
0.58327872 -0.8167882 0.18101089 0
0.57930219 -0.81121969 0.25432304 0
0.58135766 -0.81409812 0.332816 0
0.57810962 -0.80954975 0.41187349 0
0.54925859 -0.76914847 0.47288752 0
0.92462385 -1.26091 -0.05582229 0
0.57974911 -0.79060423 0.035001177 0
0.58326489 -0.79539871 0.10600075 0
0.57856959 -0.78899568 0.17645228 0
0.57035547 -0.77779412 0.246076 0
0.57990056 -0.79081076 0.32625517 0
0.5827775 -0.794734 0.40803695 0
0.57534486 -0.78459811 0.48680195 0
0.94269359 -1.2521788 -0.055956837 0
0.58311933 -0.77455676 0.034613065 0
0.58239728 -0.7735976 0.10406446 0
0.59197044 -0.78631365 0.17750546 0
0.58783513 -0.78082073 0.24935564 0
0.58083904 -0.77152783 0.32129183 0
0.58782655 -0.78080934 0.40465596 0
0.58307219 -0.77449411 0.48504987 0
0.95870298 -1.240621 -0.055975385 0
0.58055085 -0.75126874 0.033896379 0
0.60910147 -0.78821498 0.10705407 0
0.60272098 -0.77995825 0.17776997 0
0.60447359 -0.7822262 0.2522153 0
0.6113022 -0.79106289 0.33260614 0
0.60273123 -0.77997154 0.40812281 0
0.97413176 -1.228305 -0.055968713 0
0.58235908 -0.73430979 0.033459421 0
0.8815003 -1.1115038 0.36193547 0
0.87803251 -1.1071312 0.47011 0
0.87968147 -1.1092105 0.5861479 0
0.981924 -1.2066075 -0.055539049 0
0.58388615 -0.71749073 0.033025447 0
0.88974965 -1.0933418 0.35964122 0
0.88032818 -1.0817646 0.46400908 0
0.88617361 -1.0889475 0.5812909 0
1.0062191 -1.2051435 -0.056050431 0
0.58336776 -0.69869655 0.03249592 0
0.90247357 -1.0808879 0.35925427 0
0.8964172 -1.0736343 0.46532658 0
0.90205723 -1.0803893 0.58273971 0
1.0156822 -1.1858039 -0.055741377 0
0.60384661 -0.70498788 0.033139542 0
0.92179477 -1.0761907 0.36152235 0
0.91352612 -1.0665371 0.46719921 0
0.91140497 -1.0640607 0.58007663 0
1.0365355 -1.1797537 -0.056066081 0
0.61121356 -0.695665 0.033060469 0
0.93206686 -1.0608506 0.36028332 0
0.92608446 -1.0540416 0.46679688 0
0.92179906 -1.0491641 0.57823771 0
1.0554334 -1.1711869 -0.056286097 0
0.94118857 -1.0444125 0.35869724 0
0.93439776 -1.0368769 0.46436918 0
0.94295055 -1.0463676 0.58319443 0
1.062943 -1.1500652 -0.055909839 0
0.95135123 -1.029327 0.35760221 0
0.94421494 -1.0216058 0.46281818 0
0.95167941 -1.0296822 0.58052784 0
1.082924 -1.142482 -0.056199651 0
0.96859431 -1.0218645 0.35921845 0
0.9591403 -1.0118905 0.46385163 0
0.96949548 -1.0228152 0.58349293 0
1.0944993 -1.1259538 -0.056060132 0
0.98047888 -1.0086565 0.35888714 0
0.97600389 -1.0040529 0.46585572 0
0.97887892 -1.0070106 0.5814625 0
1.1075536 -1.1110442 -0.056007735 0
0.99725038 -1.0003933 0.36038649 0
0.9845559 -0.98765874 0.46396467 0
0.98034459 -0.98343414 0.57493156 0
1.1220497 -1.0975921 -0.056037422 0
1.0061172 -0.98418659 0.35908371 0
0.99730575 -0.97556722 0.46414715 0
0.99879324 -0.97702229 0.57848996 0
1.1334589 -1.0811623 -0.055922866 0
1.0139524 -0.96716976 0.35750511 0
1.0094637 -0.96288818 0.46412572 0
1.0082164 -0.96169841 0.57688802 0
1.1457771 -1.0656842 -0.055864111 0
1.0285356 -0.95663828 0.35837126 0
1.0232366 -0.95170963 0.46491131 0
1.0198482 -0.94855803 0.57666343 0
1.1624641 -1.0542197 -0.05602603 0
1.0395947 -0.94279146 0.35805964 0
1.0323573 -0.9362281 0.46366215 0
1.0431957 -0.9460572 0.5830828 0
1.1740384 -1.0380781 -0.055949427 0
1.053265 -0.93129092 0.35870054 0
1.0475415 -0.92623019 0.46520656 0
1.0471888 -0.9259184 0.57875192 0
1.1861939 -1.0225046 -0.055910677 0
1.360822 -1.1730347 0.064141683 0
1.3685704 -1.179714 0.194181 0
1.311763 -1.1307458 0.31233707 0
1.0583186 -0.91227543 0.35648113 0
1.0580997 -0.91208678 0.46475807 0
1.0666482 -0.91945565 0.58306158 0
1.2071183 -1.0143311 -0.05629044 0
1.3771862 -1.1572376 0.064221062 0
1.3842208 -1.1631489 0.19430801 0
1.1494464 -0.9658699 0.27077129 0
1.0843161 -0.91114151 0.36134478 0
1.0665004 -0.89617109 0.46345451 0
1.0768815 -0.90489423 0.58238059 0
1.2132454 -0.99368793 -0.05598823 0
1.0038549 -0.82219017 0.046325382 0
1.01191 -0.82878751 0.14056928 0
0.99523377 -0.81512922 0.23200764 0
1.0092163 -0.82658136 0.33282304 0
1.0863605 -0.8897649 0.467179 0
1.0830052 -0.88701683 0.57960582 0
1.2246259 -0.97750676 -0.055940948 0
0.90191919 -0.7199195 0.041199695 0
0.90408975 -0.72165203 0.12431926 0
0.90098727 -0.71917564 0.20790939 0
0.90765274 -0.72449601 0.29629692 0
1.0981756 -0.87657303 0.46747616 0
1.0994989 -0.87762922 0.58247232 0
1.2353547 -0.96085691 -0.055873912 0
0.88170093 -0.68578553 0.039878491 0
0.88295674 -0.68676233 0.12021464 0
0.88882101 -0.69132352 0.20307703 0
0.88266695 -0.68653691 0.28529575 0
1.1068766 -0.86092687 0.46652821 0
1.1059105 -0.86017543 0.58008492 0
1.2572982 -0.95276082 -0.0563193 0
0.88217539 -0.66849869 0.039516084 0
0.89395356 -0.67742395 0.1205409 0
0.88895184 -0.67363375 0.20115289 0
0.88928545 -0.67388654 0.28466967 0
1.1274793 -0.85438609 0.47063997 0
1.1231025 -0.85106945 0.58343506 0
1.2561535 -0.9272278 -0.055740599 0
0.90294862 -0.66651022 0.040067475 0
0.90101254 -0.66508108 0.12035394 0
0.90041411 -0.66463935 0.20183678 0
0.90910697 -0.67105597 0.28828695 0
1.1413285 -0.84246993 0.4719553 0
1.1389666 -0.84072649 0.58613014 0
1.2718536 -0.91430306 -0.055921961 0
0.91093063 -0.65484476 0.040052589 0
0.91131908 -0.65512401 0.12061915 0
0.90713662 -0.65211731 0.20148702 0
0.91554761 -0.65816379 0.28767839 0
1.1510677 -0.82747316 0.47163653 0
1.155233 -0.83046746 0.58907282 0
1.2902894 -0.90313309 -0.056228071 0
0.92416567 -0.6468662 0.040273178 0
0.92298281 -0.64603829 0.12107659 0
0.91411793 -0.63983333 0.20123215 0
0.92659831 -0.64856893 0.28856164 0
1.1708677 -0.81954432 0.47548318 0
1.164494 -0.81508315 0.58851492 0
1.2940304 -0.88168585 -0.055902846 0
0.93238091 -0.6352765 0.040279385 0
0.92549276 -0.63058323 0.12035468 0
0.93472701 -0.63687497 0.20398739 0
0.93633628 -0.63797146 0.28906956 0
1.1792399 -0.80347347 0.47473678 0
1.1890459 -0.81015486 0.59572005 0
1.3051722 -0.8654173 -0.055908967 0
0.94035244 -0.62351722 0.040281378 0
0.9451707 -0.62671202 0.12187775 0
0.94422287 -0.62608349 0.20432299 0
0.95099425 -0.63057339 0.29112038 0
1.188454 -0.78802532 0.47441384 0
1.1987878 -0.79487729 0.59553885 0
1.3206266 -0.85192192 -0.056107 0
0.95091343 -0.61342394 0.040399686 0
0.9539097 -0.6153568 0.12199577 0
0.95308745 -0.61482638 0.2045497 0
0.96022308 -0.61942947 0.29153466 0
1.1987994 -0.77333248 0.47461864 0
1.1932882 -0.76977724 0.58794469 0
1.3283775 -0.83342469 -0.055985991 0
0.95841795 -0.60131192 0.040393621 0
0.96025151 -0.60246229 0.12182695 0
0.9639253 -0.6047672 0.20522504 0
0.967969 -0.60730428 0.29154149 0
1.2091849 -0.75864327 0.47491062 0
1.2138532 -0.76157218 0.59330529 0
1.3470678 -0.82169682 -0.056333169 0
0.97982073 -0.59768003 0.040975221 0
0.98101836 -0.59841061 0.12349585 0
0.9719733 -0.59289318 0.20533271 0
0.97208786 -0.59296304 0.29051012 0
1.2270753 -0.74850273 0.47819743 0
1.2250842 -0.74728811 0.59414816 0
1.3485494 -0.79947841 -0.055969685 0
0.97587156 -0.57853889 0.040502205 0
0.98474282 -0.58379817 0.12302952 0
0.98416656 -0.58345652 0.20634013 0
0.98076081 -0.58143741 0.2908909 0
1.2396878 -0.73494053 0.47946799 0
1.2355484 -0.73248655 0.59470266 0
1.3466755 -0.77561969 -0.055482157 0
0.99527568 -0.57323045 0.04100471 0
0.99907231 -0.57541716 0.12390471 0
0.99434608 -0.57269508 0.206946 0
0.98977566 -0.57006276 0.2914125 0
1.2576417 -0.72434056 0.48284596 0
1.2511303 -0.72059035 0.5977878 0
1.3630853 -0.76237756 -0.055758294 0
1.0014949 -0.56013906 0.040967099 0
0.9993313 -0.55892891 0.12305421 0
1.0041224 -0.56160861 0.20749241 0
1.0047767 -0.56197453 0.29372239 0
1.2551259 -0.70199555 0.4784483 0
1.2740446 -0.71257687 0.60440111 0
1.3855953 -0.752222 -0.056287162 0
1.0171834 -0.55221587 0.041321129 0
1.0182713 -0.5528065 0.12451938 0
1.0225277 -0.55511719 0.20983459 0
1.0124359 -0.54963851 0.29391485 0
1.2778759 -0.69374251 0.48375213 0
1.287681 -0.69906557 0.60664606 0
1.384666 -0.72929591 -0.055871919 0
1.3047189 -0.68718815 0.37622404 0
1.2949085 -0.68202114 0.48691025 0
1.2914264 -0.68018711 0.6043275 0
1.3931254 -0.71149009 -0.055847324 0
1.3208605 -0.67458338 0.37839916 0
1.3074691 -0.66774416 0.48843285 0
1.3018205 -0.66485929 0.60522574 0
1.4032292 -0.6945141 -0.055897344 0
1.3321338 -0.65932614 0.37922019 0
1.3198003 -0.65322179 0.48992777 0
1.3134066 -0.65005732 0.60675853 0
1.413623 -0.67763448 -0.055967037 0
1.3318821 -0.63845116 0.37683007 0
1.327741 -0.63646609 0.48986158 0
1.334619 -0.63976312 0.6127879 0
1.421983 -0.65975362 -0.055964664 0
1.350026 -0.62636793 0.37970185 0
1.3501502 -0.62642556 0.4951798 0
1.3508676 -0.6267584 0.61657578 0
1.4298611 -0.64165485 -0.055952288 0
1.3558466 -0.60844064 0.379154 0
1.3526869 -0.60702276 0.49326763 0
1.3563994 -0.60868871 0.61555344 0
1.4362509 -0.62291682 -0.055890962 0
1.3769236 -0.59718591 0.38291478 0
1.3711107 -0.59466481 0.49721593 0
1.3689196 -0.59371454 0.6177935 0
1.4463464 -0.60577428 -0.055982541 0
1.3987046 -0.58582044 0.38688987 0
1.3722826 -0.57475412 0.49497715 0
1.3851061 -0.58012491 0.62175238 0
1.4505743 -0.58618754 -0.055856049 0
1.4006026 -0.56599361 0.38541287 0
1.3864995 -0.56029451 0.49752086 0
1.3922539 -0.56261986 0.62173146 0
1.4533571 -0.56613028 -0.055684287 0
1.4161291 -0.55162877 0.38774326 0
1.4144588 -0.55097812 0.5050239 0
1.3884715 -0.54085523 0.61695212 0
1.461205 -0.54809904 -0.05571612 0
1.4249117 -0.5344854 0.38827437 0
1.409133 -0.52856678 0.50070626 0
1.4165801 -0.53136021 0.62641913 0
1.4713701 -0.5308767 -0.055844396 0
1.4361068 -0.51815355 0.38951614 0
1.4311386 -0.516361 0.50617498 0
1.4336214 -0.5172568 0.63102454 0
1.478103 -0.51236552 -0.055850636 0
1.4404985 -0.49933037 0.38897103 0
1.4320711 -0.49640915 0.50425392 0
1.432959 -0.49671692 0.6279301 0
1.4766244 -0.4911153 -0.055556688 0
1.4547272 -0.48383248 0.39113703 0
1.4486269 -0.48180357 0.50790697 0
1.4510103 -0.48259628 0.63312721 0
1.4951198 -0.47644454 -0.056022394 0
1.4760038 -0.47035289 0.3952339 0
1.4533244 -0.46312574 0.50746906 0
1.4554502 -0.46380314 0.63246596 0
1.5006869 -0.45748585 -0.056010697 0
1.4647435 -0.44652849 0.39068213 0
1.4692264 -0.44789508 0.51101178 0
1.4745772 -0.44952631 0.63826728 0
1.5027919 -0.43752453 -0.055879202 0
1.4853648 -0.4324508 0.39469856 0
1.4784338 -0.43043292 0.51228845 0
1.4816093 -0.43135744 0.63890934 0
1.5188851 -0.42153844 -0.056275774 0
1.4933354 -0.41444758 0.39539844 0
1.4791491 -0.41051042 0.51070464 0
1.4914678 -0.41392928 0.64086211 0
1.5258605 -0.40285251 -0.056341801 0
1.4934982 -0.39430833 0.39409563 0
1.4902929 -0.39346206 0.51280093 0
1.5065747 -0.39776075 0.64515001 0
1.523523 -0.38178158 -0.056073528 0
1.5012008 -0.37618783 0.39484686 0
1.5133622 -0.37923536 0.51905459 0
1.5040836 -0.37691024 0.64199996 0
1.5237448 -0.36150914 -0.055909716 0
1.509053 -0.35802346 0.395695 0
1.5208229 -0.36081588 0.52001393 0
1.5138396 -0.35915911 0.64418268 0
1.5393534 -0.3447983 -0.056318656 0
1.5211632 -0.3407239 0.39771393 0
1.5233735 -0.34121898 0.51937568 0
1.5271759 -0.3420707 0.64797336 0
1.540967 -0.32483935 -0.056223582 0
1.5254341 -0.32156497 0.39774036 0
1.5263679 -0.32176182 0.51897407 0
1.5356661 -0.32372192 0.64979458 0
1.538085 -0.30405682 -0.055974294 0
1.5419121 -0.30481339 0.40100423 0
1.534795 -0.30340645 0.52049905 0
1.5422517 -0.30488053 0.65090513 0
1.5473706 -0.28569645 -0.056176841 0
1.5506171 -0.28629586 0.40229866 0
1.5567942 -0.28743637 0.52669048 0
1.5459104 -0.28542686 0.65088075 0
1.5515642 -0.26631394 -0.056202885 0
1.5472494 -0.26557335 0.40052557 0
1.5552964 -0.26695457 0.52500486 0
1.5489291 -0.26586166 0.65069062 0
1.5546112 -0.24672769 -0.056196261 0
1.5478662 -0.24565721 0.39985278 0
1.5633059 -0.2481076 0.52661216 0
1.5598154 -0.24755363 0.65390253 0
1.5432622 -0.22504371 -0.055679172 0
1.5506936 -0.22612739 0.39981592 0
1.5578752 -0.22717461 0.52377766 0
1.556928 -0.22703649 0.65144187 0
1.5546232 -0.20674463 -0.055990696 0
1.5594659 -0.20738865 0.40137252 0
1.5695683 -0.20873213 0.52678353 0
1.5700535 -0.20879667 0.65578169 0
1.5453763 -0.18574417 -0.055569019 0
1.5669791 -0.18834068 0.40266392 0
1.5821952 -0.19016956 0.53017569 0
1.5699643 -0.18869948 0.6547001 0
1.5560387 -0.16717874 -0.055872295 0
1.5804306 -0.16979936 0.40553895 0
1.5735002 -0.16905476 0.52650702 0
1.5749236 -0.16920771 0.6558277 0
1.5478709 -0.14661172 -0.055508323 0
1.5839462 -0.15002872 0.40592414 0
1.5842935 -0.15006161 0.52944434 0
1.5727262 -0.14896598 0.65407968 0
1.5586244 -0.12785126 -0.055831794 0
1.5993266 -0.13119 0.40940991 0
1.5976665 -0.13105382 0.53331959 0
1.5894058 -0.1303762 0.66028136 0
1.5552796 -0.10788106 -0.055658907 0
1.6625791 -0.11532383 0.059498839 0
1.6727899 -0.11603209 0.18020552 0
1.6649317 -0.11548701 0.30098975 0
1.5895709 -0.11025965 0.4065249 0
1.5958371 -0.1106943 0.53220141 0
1.5928154 -0.11048471 0.66106749 0
1.5628016 -0.088646263 -0.055883717 0
1.6496769 -0.093574062 0.058990266 0
1.6538684 -0.093811817 0.17802578 0
1.6514987 -0.093677402 0.29832438 0
1.5913293 -0.090264432 0.40665168 0
1.5946094 -0.090450488 0.53137004 0
1.5909141 -0.090240881 0.65975446 0
1.5671055 -0.069107711 -0.056002062 0
1.6403085 -0.072335891 0.058618043 0
1.6278365 -0.071785882 0.17511247 0
1.6409051 -0.072362199 0.29622272 0
1.5901406 -0.070123538 0.40609005 0
1.6010883 -0.070606321 0.53319043 0
1.59964 -0.070542447 0.66295213 0
1.5641271 -0.049253203 -0.055869032 0
1.629235 -0.051303405 0.058194622 0
1.6336046 -0.051440999 0.17564936 0
1.6370677 -0.051550049 0.29538935 0
1.5947111 -0.050216272 0.40706351 0
1.5955948 -0.050244097 0.5311082 0
1.5876042 -0.049992479 0.65765101 0
1.5762038 -0.029773798 -0.05628255 0
1.6431431 -0.031038251 0.058672793 0
1.6378372 -0.030938026 0.17604862 0
1.6461103 -0.0310943 0.2969268 0
1.5931414 -0.030093741 0.4065339 0
1.6012512 -0.030246934 0.53282201 0
1.5998805 -0.030221039 0.66252619 0
1.572313 -0.0098990537 -0.056134712 0
1.637282 -0.01030809 0.058454238 0
1.6316594 -0.01027269 0.17535676 0
1.6399782 -0.010325064 0.29577377 0
1.6084367 -0.010126484 0.41037184 0
1.6006083 -0.010077198 0.53252363 0
1.6060125 -0.010111221 0.66496009 0
1.5696684 0.0098824045 -0.056040298 0
1.6479013 0.010374947 0.058833368 0
1.6464716 0.010365946 0.17694867 0
1.6434108 0.010346675 0.29639286 0
1.595782 0.010046812 0.40714315 0
1.6081048 0.010124395 0.53501773 0
1.5904592 0.0100133 0.65852034 0
1.5702742 0.02966179 -0.056070816 0
1.6720558 0.031584401 0.059705202 0
1.6621825 0.031397898 0.17866546 0
1.6632818 0.031418663 0.30002421 0
1.6043459 0.030305389 0.40939301 0
1.5995413 0.030214634 0.53225303 0
1.5994946 0.030213749 0.66236639 0
1.5714855 0.049484916 -0.05613187 0
1.6036453 0.050497603 0.40934405 0
1.6110506 0.050730791 0.5362528 0
1.6052573 0.050548363 0.66496366 0
1.5623324 0.068897225 -0.055831488 0
1.6180689 0.071355149 0.4132224 0
1.6080045 0.070911311 0.53549361 0
1.6081642 0.070918359 0.66648489 0
1.5736188 0.089259848 -0.056270529 0
1.6069299 0.091149345 0.4106383 0
1.6102048 0.091335103 0.53656691 0
1.6103039 0.091340721 0.66779542 0
1.5677301 0.10874468 -0.056104474 0
1.6086564 0.11158351 0.41140592 0
1.5955431 0.11067391 0.53210342 0
1.6059238 0.11139396 0.66650784 0
1.5582024 0.12781665 -0.05581668 0
1.6012595 0.13134855 0.40990469 0
1.6004281 0.13128035 0.53424144 0
1.603057 0.131496 0.66595244 0
1.5741159 0.14909761 -0.056449495 0
1.6025362 0.15178953 0.41068825 0
1.6002094 0.15156914 0.53476316 0
1.6014906 0.1516905 0.66604245 0
1.5615226 0.16776791 -0.056069203 0
1.5886941 0.17068717 0.40765935 0
1.5969434 0.17157346 0.53435135 0
1.5940878 0.17126667 0.66380799 0
1.5521834 0.18656233 -0.055813789 0
1.6007218 0.19239634 0.41133475 0
1.5945165 0.19165049 0.53430444 0
1.5873291 0.19078663 0.66194153 0
1.5559788 0.2069249 -0.056039516 0
1.5954874 0.21217903 0.41064367 0
1.5924615 0.21177663 0.53446704 0
1.5907326 0.2115467 0.66441894 0
1.5492711 0.22591993 -0.055895962 0
1.5851195 0.23114748 0.40869194 0
1.5846838 0.23108393 0.53279102 0
1.5944283 0.23250492 0.66713262 0
1.5446726 0.24515036 -0.055837002 0
1.5951154 0.25315601 0.41205844 0
1.5947596 0.2530995 0.5372076 0
1.5967271 0.25341177 0.66937655 0
1.5498976 0.2660279 -0.056142516 0
1.5842823 0.27192974 0.41011199 0
1.5943608 0.27365965 0.53819144 0
1.5853781 0.27211782 0.66600245 0
1.5419677 0.2846989 -0.055980694 0
1.5817894 0.29205132 0.41038615 0
1.5794879 0.29162639 0.53436816 0
1.5787512 0.29149038 0.66470784 0
1.5320328 0.30286041 -0.055754043 0
1.5687717 0.31012312 0.40798959 0
1.5737299 0.31110328 0.53370315 0
1.5772406 0.31179732 0.66567212 0
1.5301822 0.32256588 -0.055830088 0
1.5740663 0.33181676 0.41042069 0
1.5586543 0.32856789 0.52995163 0
1.5675237 0.33043757 0.66327465 0
1.5271122 0.34205645 -0.055870801 0
1.5549917 0.34830114 0.40655854 0
1.5615647 0.34977341 0.5323965 0
1.5639635 0.35031071 0.66358215 0
1.5265781 0.36218131 -0.056013674 0
1.5639845 0.37105602 0.41009885 0
1.5583256 0.36971343 0.53283721 0
1.5550263 0.36893067 0.66170883 0
1.5255162 0.38228104 -0.056146882 0
1.5453935 0.38726214 0.40647045 0
1.5523139 0.38899633 0.53241426 0
1.5577033 0.39034688 0.66488683 0
1.5102184 0.39872271 -0.055764217 0
1.5453429 0.40799618 0.40777612 0
1.5344932 0.40513167 0.52801001 0
1.5414363 0.40696478 0.66007853 0
1.518116 0.42132497 -0.056247275 0
1.5421712 0.42800105 0.40832895 0
1.5439023 0.42848146 0.53306186 0
1.5312493 0.42496988 0.65795559 0
1.5030264 0.4375928 -0.055887923 0
1.5297205 0.44536459 0.40648499 0
1.5313426 0.44583684 0.53062171 0
1.5288266 0.44510433 0.65927064 0
1.4907292 0.45445025 -0.055639043 0
1.527004 0.46550867 0.40728849 0
1.5309284 0.46670499 0.53247237 0
1.5277762 0.46574405 0.66129428 0
1.4908483 0.47508332 -0.055862341 0
1.5150861 0.4828071 0.4056991 0
1.5083647 0.48066521 0.52668786 0
1.515272 0.48286635 0.65846151 0
1.485611 0.49410421 -0.0558948 0
1.512816 0.50315243 0.40675554 0
1.5051869 0.50061506 0.52773762 0
1.5018048 0.49949017 0.6552906 0
1.4827029 0.51396 -0.056024443 0
1.5001482 0.52000719 0.40507796 0
1.5026622 0.52087867 0.52911013 0
1.4961405 0.51861799 0.65561664 0
1.4827523 0.53498346 -0.0562764 0
1.4942169 0.5391199 0.40527737 0
1.4877548 0.53678834 0.52619934 0
1.4790155 0.5336352 0.65100533 0
1.4700211 0.55140603 -0.056052286 0
1.478121 0.55444425 0.40277341 0
1.4832572 0.55637085 0.52704471 0
1.4805123 0.55534118 0.65469027 0
1.4576331 0.56779599 -0.055848125 0
1.4671988 0.57152212 0.40172639 0
1.4595233 0.56853223 0.52111393 0
1.4676261 0.57168859 0.65212363 0
1.455918 0.58834696 -0.056061815 0
1.4551423 0.5880335 0.40042093 0
1.4566686 0.58865029 0.52269977 0
1.4686983 0.59351158 0.65586883 0
1.4414508 0.60372388 -0.055793054 0
1.4389752 0.602687 0.39802894 0
1.4502124 0.60739344 0.52308607 0
1.4548277 0.60932648 0.65304935 0
1.4370568 0.62326634 -0.055922322 0
1.452009 0.62975127 0.40379563 0
1.448131 0.62806928 0.52514637 0
1.4423174 0.62554789 0.65091789 0
1.4340115 0.64351737 -0.0561147 0
1.4270827 0.6404081 0.3990747 0
1.4238144 0.63894147 0.5192048 0
1.4376063 0.64513057 0.65240628 0
1.4171488 0.65751076 -0.055774413 0
1.423095 0.66026956 0.40025288 0
1.4179014 0.65785986 0.52002811 0
1.4095136 0.65396821 0.64334351 0
1.4118158 0.67676812 -0.055895485 0
1.4158884 0.67872047 0.40059802 0
1.4059083 0.67393637 0.5187009 0
1.4072921 0.67459971 0.64615554 0
1.4116429 0.69867837 -0.056232501 0
1.394811 0.69034761 0.39706263 0
1.3921485 0.68902981 0.51678443 0
1.3820971 0.68405497 0.63849169 0
1.3923841 0.71111149 -0.055817604 0
1.39209 0.71096128 0.3988049 0
1.3894979 0.70963746 0.51907647 0
1.3691971 0.69926959 0.63654965 0
1.3826154 0.72821587 -0.05578918 0
1.3622253 0.71747655 0.39280641 0
1.368083 0.72056168 0.51442528 0
1.3662974 0.71962124 0.63936365 0
1.3896012 0.75439674 -0.056449894 0
1.3516022 0.73376757 0.39237642 0
1.3521373 0.73405808 0.51186454 0
1.357229 0.73682225 0.63941115 0
1.3644885 0.76316243 -0.055815697 0
1.4137244 0.79070014 0.057829734 0
1.4127309 0.79014456 0.17395882 0
1.4081297 0.78757101 0.2909767 0
1.3424499 0.75083613 0.39243305 0
1.3364391 0.74747431 0.50944459 0
1.3390201 0.74891788 0.63522518 0
1.3602747 0.78345215 -0.056042433 0
1.3737746 0.79122752 0.056598626 0
1.3765676 0.79283607 0.17072158 0
1.3743819 0.79157728 0.2860401 0
1.3349977 0.7688939 0.39305374 0
1.3293456 0.76563853 0.5103752 0
1.3305157 0.76631254 0.63571805 0
1.3438729 0.79670596 -0.055775594 0
1.3638322 0.80853873 0.056603976 0
1.3591719 0.80577588 0.16980907 0
1.3732177 0.81410289 0.28790849 0
1.3151729 0.7796914 0.39007661 0
1.3113376 0.77741772 0.50717968 0
1.3255169 0.78582382 0.63800699 0
1.3485906 0.8226257 -0.056396849 0
1.3520988 0.82476568 0.056543559 0
1.3479424 0.82223022 0.1696862 0
1.3416692 0.81840372 0.28343225 0
1.3134155 0.80116922 0.39251646 0
1.3053514 0.79625022 0.50870198 0
1.2969971 0.79115421 0.62902492 0
1.3314639 0.83536118 -0.056116074 0
1.3424575 0.84225857 0.056579415 0
1.3392656 0.84025592 0.16991241 0
1.3327054 0.83614004 0.28374037 0
1.2956655 0.8129012 0.39024004 0
1.2886093 0.80847412 0.50610477 0
1.289643 0.80912268 0.63034964 0
1.3111845 0.84583092 -0.055705849 0
1.3269012 0.85596961 0.056373578 0
1.3242056 0.8542307 0.16935302 0
1.3215828 0.85253876 0.28363544 0
1.2869763 0.8302145 0.39074069 0
1.2723905 0.82080531 0.50375426 0
1.2771163 0.82385391 0.62924767 0
1.3112422 0.86944216 -0.056168988 0
1.3295981 0.88161331 0.056955289 0
1.332901 0.88380343 0.17187475 0
1.3277103 0.88036156 0.2873069 0
1.275931 0.84602839 0.3905907 0
1.2511609 0.82960415 0.4994455 0
1.2542188 0.83163172 0.62307608 0
1.3038738 0.88839269 -0.056328088 0
1.3207262 0.89987499 0.057056118 0
1.3328056 0.90810525 0.17332323 0
1.3298887 0.90611786 0.29022434 0
1.2540264 0.85442924 0.38714814 0
1.2394451 0.84449428 0.49897414 0
1.2340961 0.8408497 0.61829048 0
1.2905746 0.90333271 -0.056240499 0
1.3597096 0.95172358 0.059253257 0
1.3555607 0.94881946 0.17782201 0
1.3662204 0.95628077 0.30075711 0
1.2421551 0.86944175 0.38683251 0
1.2281306 0.85962534 0.49873737 0
1.2286075 0.85995913 0.62091672 0
1.2688036 0.91211051 -0.055787858 0
1.2212569 0.87793034 0.3837367 0
1.2127768 0.87183422 0.49692106 0
1.2127305 0.87180102 0.61839181 0
1.2648013 0.93361121 -0.056124337 0
1.2126642 0.8951264 0.38454801 0
1.2017379 0.887061 0.49693543 0
1.1947922 0.88193405 0.61485887 0
1.2572684 0.95273823 -0.056317966 0
1.1878697 0.90014899 0.38024965 0
1.1847351 0.89777362 0.49454007 0
1.1870983 0.89956439 0.61667985 0
1.238598 0.96337956 -0.056020606 0
1.1818374 0.9192313 0.38199374 0
1.1685598 0.9089039 0.49252653 0
1.1669649 0.90766346 0.61210984 0
1.2245049 0.9774102 -0.055935424 0
1.1575789 0.92398924 0.37788358 0
1.1590495 0.92516309 0.49338922 0
1.1549487 0.92188984 0.61184758 0
1.2189176 0.99833363 -0.056249987 0
1.140337 0.93397349 0.37606451 0
1.1363205 0.93068385 0.48866382 0
1.1472893 0.93966764 0.61400956 0
1.1978806 1.0065688 -0.05585967 0
1.1215039 0.94239014 0.37373751 0
1.1212246 0.94215542 0.48723531 0
1.1152214 0.93711096 0.6031149 0
1.1828045 1.0195829 -0.055750914 0
1.1038439 0.95151848 0.37181574 0
1.1018744 0.94982076 0.4839856 0
1.1049137 0.95244068 0.60397863 0
1.1743621 1.0383643 -0.05596485 0
1.0885528 0.96249229 0.37071821 0
1.0870819 0.96119165 0.48276624 0
1.0879345 0.96194547 0.60127097 0
1.1602848 1.0522434 -0.055920992 0
1.0742346 0.97420591 0.36999044 0
1.0738111 0.97382176 0.48228022 0
1.0668858 0.9675414 0.59632415 0
1.1475623 1.0673445 -0.055951148 0
1.0600765 0.98597431 0.36936098 0
1.0477995 0.97455549 0.47607154 0
1.0565673 0.98271042 0.59742594 0
1.1361655 1.083744 -0.056056403 0
1.0396578 0.99168921 0.36656851 0
1.0412444 0.99320251 0.47873765 0
1.0311521 0.98357594 0.5900116 0
1.1235911 1.0990999 -0.056114402 0
1.0274047 1.0050101 0.36668122 0
1.0168098 0.99464613 0.47322434 0
1.0179691 0.99578029 0.58959645 0
1.1071154 1.1106044 -0.055985574 0
1.0146474 1.017845 0.36667341 0
1.0048137 1.0079803 0.47351098 0
1.0014936 1.0046499 0.58733457 0
1.1008631 1.1325004 -0.05638608 0
0.98743522 1.0158128 0.36143336 0
0.98634177 1.0146879 0.47079006 0
0.98266363 1.0109041 0.58371067 0
