# .PCD v0.7 - Point Cloud Data file format
VERSION 0.7
FIELDS x y z intensity
SIZE 4 4 4 4
TYPE F F F F
COUNT 1 1 1 1
WIDTH 1350
HEIGHT 1
VIEWPOINT 0 0 0 1 0 0 0
POINTS 1350
DATA ascii
-1.0566748 -1.157829 -0.055962611 0
-1.0460182 -1.1755438 -0.056177739 0
-1.0245808 -1.1810675 -0.055820726 0
-0.60953844 -0.70263463 0.033208583 0
-1.0088491 -1.1929529 -0.055777628 0
-0.59320784 -0.70146161 0.032797497 0
-0.99401814 -1.2058882 -0.055792768 0
-0.5852409 -0.7099821 0.032848708 0
-0.9817099 -1.2219856 -0.055961166 0
-0.57341087 -0.71375448 0.032686584 0
-0.96505845 -1.232733 -0.0558924 0
-0.58016187 -0.74107909 0.033600699 0
-0.61110747 -0.78060794 0.10654112 0
-0.62121028 -0.79351294 0.18174684 0
-0.60768354 -0.77623439 0.25151139 0
-0.60727745 -0.77571559 0.32775366 0
-0.61281914 -0.78279436 0.41160971 0
-0.95059508 -1.2462742 -0.055959199 0
-0.57786673 -0.75761008 0.034017596 0
-0.5991202 -0.7854743 0.1061672 0
-0.59145683 -0.77542728 0.17588469 0
-0.59251529 -0.776815 0.24926227 0
-0.59265381 -0.77699655 0.32511595 0
-0.59389031 -0.77861768 0.40544906 0
-0.59789348 -0.78386599 0.49326605 0
-0.93402982 -1.2570708 -0.05591144 0
-0.5795145 -0.77994376 0.034689996 0
-0.58149678 -0.78261161 0.10478226 0
-0.58598375 -0.78865045 0.17719629 0
-0.58222395 -0.78359032 0.24906407 0
-0.57671392 -0.7761746 0.32170787 0
-0.58464056 -0.7868427 0.40586632 0
-0.58292747 -0.78453714 0.48903051 0
-0.92409635 -1.2769794 -0.056274913 0
-0.58509165 -0.80851966 0.035630465 0
-0.58137947 -0.80338985 0.10657559 0
-0.58193403 -0.80415624 0.17901954 0
-0.58477569 -0.808083 0.25448838 0
-0.58313531 -0.80581629 0.33092397 0
-0.58002657 -0.80152041 0.40963742 0
-0.5639841 -0.77935183 0.48133335 0
-0.90448797 -1.2836087 -0.056060683 0
-2.0147483 -2.8592403 0.12487526 0
-0.54718447 -0.77653956 0.47530332 0
-0.8904289 -1.2980659 -0.056197941 0
-1.9910537 -2.902555 0.12566206 0
-0.54647243 -0.79664665 0.48336023 0
-0.87815791 -1.3153815 -0.056464385 0
-1.9500045 -2.920887 0.12538269 0
-0.52062607 -0.77983916 0.46914747 0
-0.85874403 -1.3220514 -0.056282055 0
-1.9277004 -2.9677284 0.12634142 0
-0.50508779 -0.77759141 0.46393222 0
-0.8392722 -1.3283947 -0.056097735 0
-1.8910925 -2.9932091 0.12640239 0
-0.49162436 -0.77813989 0.46052945 0
-0.8216418 -1.3374929 -0.056040596 0
-1.8591641 -3.0264027 0.12680545 0
-1.2179054 -1.9825428 0.25005427 0
-1.2150998 -1.9779756 0.41865981 0
-0.47147802 -0.76748592 0.45067465 0
-0.79983389 -1.3395226 -0.055699218 0
-1.8252945 -3.0569139 0.12711073 0
-1.1792934 -1.9750228 0.24721323 0
-1.1793123 -1.9750545 0.4148654 0
-0.47069669 -0.78829974 0.45937985 0
-0.7867682 -1.3561475 -0.055974118 0
-1.7936759 -3.0917482 0.12760991 0
-0.45619041 -0.78633261 0.4548499 0
-0.77005953 -1.3667082 -0.056005333 0
-0.44243464 -0.78523678 0.4509576 0
-0.75369853 -1.3779569 -0.056072924 0
-0.43459287 -0.79454881 0.4531267 0
-0.73987532 -1.3940958 -0.056346077 0
-0.40921581 -0.77105701 0.43675613 0
-0.71895772 -1.3968787 -0.056088198 0
-0.39941579 -0.77603364 0.43669158 0
-0.70338041 -1.4099661 -0.05625359 0
-0.40567955 -0.81320775 0.45469964 0
-0.68010145 -1.4073912 -0.055804759 0
-0.66644502 -1.4246464 -0.056151744 0
-0.6462236 -1.4279958 -0.055958591 0
-0.62699199 -1.4332757 -0.055851676 0
-0.61011338 -1.4439389 -0.055963382 0
-0.59525108 -1.4597634 -0.056281734 0
-0.57264423 -1.4565122 -0.055873938 0
-0.33522648 -0.85264361 0.37932968 0
-0.55357665 -1.4618037 -0.055805091 0
-0.31529498 -0.83258456 0.36861011 0
-0.53848326 -1.4778695 -0.056155104 0
-0.28627959 -0.78569549 0.49592191 0
-0.5193069 -1.4830317 -0.056098334 0
-0.30309227 -0.8655681 0.37971252 0
-0.27143079 -0.77514952 0.48706946 0
-0.50167435 -1.4926717 -0.056219567 0
-0.80455953 -2.3938699 0.45546272 0
-0.28527522 -0.84880209 0.37075225 0
-0.2619043 -0.77926475 0.48754436 0
-0.48143765 -1.4945166 -0.056056276 0
-0.77342469 -2.4009256 0.45491612 0
-0.27287355 -0.84707552 0.36846802 0
-0.24991025 -0.77579105 0.48336387 0
-0.4628883 -1.5014545 -0.056093432 0
-0.7487309 -2.428632 0.45834306 0
-0.26741028 -0.86738926 0.37580973 0
-0.24070567 -0.78076851 0.4845382 0
-0.44308853 -1.5042511 -0.05598503 0
-0.71744764 -2.435679 0.4579317 0
-0.25741839 -0.87391537 0.37720296 0
-0.23043728 -0.78231663 0.4836598 0
-0.42092225 -1.4983525 -0.055563822 0
-0.6959371 -2.47732 0.46407622 0
-0.24822427 -0.88360137 0.38000441 0
-0.22003236 -0.78324693 0.48248374 0
-0.40559605 -1.5168973 -0.056057684 0
-0.66531426 -2.4882231 0.46451247 0
-0.25056946 -0.93711013 0.40162778 0
-0.21097498 -0.78902984 0.48437116 0
-0.38621736 -1.5209116 -0.056021862 0
-0.63870823 -2.5152125 0.46801239 0
-0.23951411 -0.94319886 0.40291274 0
-0.20099702 -0.79151982 0.48430759 0
-0.36612454 -1.5218626 -0.055882648 0
-0.61685109 -2.5640528 0.47561723 0
-0.19024998 -0.79080832 0.48236814 0
-0.34773049 -1.5298586 -0.056011032 0
-0.59022349 -2.5967195 0.48026001 0
-0.17994976 -0.79169852 0.48149079 0
-0.32787761 -1.5314882 -0.055915102 0
-0.55826652 -2.607615 0.48093683 0
-0.16850993 -0.78709543 0.47736299 0
-0.30917022 -1.5384902 -0.056024168 0
-0.52755421 -2.625211 0.48291865 0
-0.20653215 -1.0277436 0.43402982 0
-0.15989693 -0.79567772 0.48130876 0
-0.28975746 -1.5421717 -0.056020923 0
-0.50185394 -2.6710095 0.49014214 0
-0.19664325 -1.0465914 0.44090885 0
-0.1482335 -0.78894091 0.47606677 0
-0.27062124 -1.5474395 -0.056084041 0
-0.47034842 -2.6894994 0.49240923 0
-0.18092708 -1.0345592 0.43484566 0
-0.13681203 -0.78230488 0.47098553 0
-0.25086394 -1.5491697 -0.056027818 0
-0.16959727 -1.0473205 0.43927702 0
-0.1264177 -0.78067213 0.46900696 0
-0.23049766 -1.5465664 -0.055824269 0
-0.1585598 -1.063886 0.44535235 0
-0.11641663 -0.78111875 0.46835744 0
-0.21217328 -1.5579152 -0.056133024 0
-0.14593858 -1.0715766 0.4477669 0
-0.10670348 -0.78348678 0.46893451 0
-0.19192496 -1.555475 -0.055953588 0
-0.13360816 -1.0828407 0.45173487 0
-0.096139364 -0.77917111 0.46558997 0
-0.17233069 -1.557825 -0.055955622 0
-0.08696878 -0.78617531 0.46908373 0
-0.1528073 -1.5609455 -0.055994157 0
-0.076670915 -0.78320289 0.46669716 0
-0.13252857 -1.5555575 -0.055736598 0
-0.065858372 -0.77301437 0.46009532 0
-0.11387214 -1.5700696 -0.056200739 0
-0.056416597 -0.77787226 0.46252725 0
-0.094346896 -1.5756016 -0.056351766 0
-0.047215641 -0.78850543 0.46845913 0
-0.074133217 -1.5688879 -0.056073818 0
-0.03654867 -0.7734828 0.45922416 0
-0.054282039 -1.5670668 -0.055979863 0
-0.027003312 -0.779558 0.46259251 0
-0.034575287 -1.5689338 -0.056026563 0
-0.029771244 -1.3509393 0.048241984 0
-0.017315304 -0.78572214 0.46608403 0
-0.014842014 -1.5718125 -0.056118235 0
0.0048993574 -1.5557352 -0.055542033 0
0.0024542378 -0.77931529 0.46217364 0
0.02467842 -1.5676745 -0.055974938 0
0.016388591 -1.0410706 0.34640104 0
0.012212909 -0.77581412 0.46015197 0
0.044474982 -1.5693425 -0.056050047 0
0.038510073 -1.3588649 0.048532709 0
0.02912196 -1.0275964 0.34201258 0
0.064460598 -1.5742561 -0.056250069 0
0.042010691 -1.0259848 0.34162515 0
0.031915676 -0.7794444 0.46263522 0
0.08418633 -1.5716219 -0.056189369 0
0.05471164 -1.0213773 0.34029347 0
0.041448668 -0.77377921 0.45954606 0
0.10363054 -1.5653358 -0.056006838 0
0.068448327 -1.0339097 0.34472871 0
0.052031044 -0.78592712 0.46711275 0
0.12313654 -1.5614309 -0.055918172 0
0.082680978 -1.0484347 0.3498911 0
0.085453026 -1.0835856 0.45003635 0
0.06135812 -0.77805066 0.46285391 0
0.14232242 -1.5546808 -0.055736199 0
0.17631634 -1.9260185 0.4934437 0
0.096912213 -1.0586355 0.35367456 0
0.098205067 -1.0727582 0.44601768 0
0.071811251 -0.78444123 0.4671565 0
0.16306825 -1.564101 -0.056143079 0
0.20359208 -1.9527932 0.50092047 0
0.115083 -1.1038412 0.369232 0
0.10848394 -1.040545 0.4331581 0
0.080911912 -0.7760824 0.46274868 0
0.18239927 -1.5589327 -0.056035563 0
0.23008937 -1.9665309 0.50514758 0
0.12275268 -1.0491443 0.35142523 0
0.11945152 -1.0209298 0.42558515 0
0.090835966 -0.77635813 0.46355835 0
0.202094 -1.5571315 -0.056057852 0
0.12974468 -0.99968094 0.41737527 0
0.22133306 -1.5520015 -0.055969067 0
0.14594005 -1.0233409 0.42798686 0
0.1108619 -0.77737069 0.46568257 0
0.24014038 -1.544482 -0.055802524 0
0.26749986 -1.7204468 0.31400844 0
0.16117859 -1.036633 0.4343603 0
0.12195189 -0.7843433 0.47074211 0
0.25954422 -1.5411932 -0.055797357 0
0.2852186 -1.6936498 0.3097485 0
0.12948948 -0.7689184 0.46242645 0
0.27851894 -1.5355417 -0.0557153 0
0.3047035 -1.6799034 0.18348379 0
0.30103585 -1.6596829 0.30420551 0
0.30360806 -1.673864 0.43402439 0
0.14182433 -0.78191155 0.47127718 0
0.29996002 -1.5428629 -0.056113545 0
0.31991881 -1.6455221 0.30232441 0
0.32007799 -1.6463408 0.42789891 0
0.15446542 -0.79450238 0.48000026 0
0.31892517 -1.536855 -0.056036655 0
0.33925924 -1.634842 0.3011232 0
0.33913907 -1.6342629 0.42583594 0
0.16503309 -0.79527098 0.48168194 0
0.33588269 -1.5219871 -0.055644348 0
0.35572433 -1.6118957 0.29769814 0
0.35416472 -1.6048286 0.41929513 0
0.1745853 -0.79109931 0.48044869 0
0.35854226 -1.5326954 -0.056196459 0
0.41898963 -1.7910957 0.065670736 0
0.37631735 -1.6086804 0.29795587 0
0.37514478 -1.6036679 0.42019278 0
0.1841846 -0.78735179 0.47954324 0
0.37809435 -1.5292001 -0.056238405 0
0.44859564 -1.814342 0.066724889 0
0.39494169 -1.597339 0.29675284 0
0.39363182 -1.5920413 0.41841194 0
0.19592123 -0.79240209 0.48408341 0
0.39657614 -1.5214686 -0.056133278 0
0.48324338 -1.8539685 0.068400577 0
0.40705788 -1.561682 0.29105771 0
0.40707791 -1.561759 0.41176784 0
0.20374233 -0.78165966 0.47905016 0
0.41445529 -1.5118078 -0.055964954 0
0.43052879 -1.570439 0.17500126 0
0.42164278 -1.5380256 0.28761548 0
0.42426473 -1.5475897 0.40940812 0
0.21177736 -0.77249986 0.4750331 0
0.4332796 -1.5058496 -0.055941932 0
0.44639239 -1.5514227 0.17349482 0
0.441374 -1.5339816 0.28787574 0
0.44142681 -1.534165 0.4072949 0
0.22327073 -0.7759704 0.47885814 0
0.45105219 -1.4964477 -0.055799227 0
0.46230757 -1.5337894 0.17216027 0
0.45835933 -1.5206904 0.28644192 0
0.45677909 -1.5154477 0.40382078 0
0.47048962 -1.4926521 -0.05587418 0
0.4772588 -1.5141275 0.17061435 0
0.4736369 -1.5026368 0.28414217 0
0.47483736 -1.5064454 0.40298328 0
0.47233972 -1.4985214 0.52272928 0
0.49237221 -1.4961069 -0.056231134 0
0.48898241 -1.4858067 0.16810361 0
0.48871195 -1.484985 0.28194562 0
0.48745909 -1.4811782 0.3978346 0
0.48705387 -1.4799469 0.51834822 0
0.5093829 -1.4845775 -0.056034442 0
0.50841224 -1.4817486 0.16835545 0
0.50284505 -1.4655231 0.27943057 0
0.50603008 -1.4748058 0.39780298 0
0.505198 -1.4723808 0.51788527 0
0.5258677 -1.471979 -0.055804428 0
0.53227037 -1.4899011 0.17002977 0
0.52126819 -1.4591044 0.27943611 0
0.52044648 -1.4568043 0.39468381 0
0.51718748 -1.4476819 0.51144803 0
0.54578173 -1.4690678 -0.055950172 0
0.56555706 -1.5222967 0.17452571 0
0.53897804 -1.4507545 0.27911463 0
0.53367513 -1.4364809 0.39096737 0
0.53702003 -1.4454842 0.51301992 0
0.5602926 -1.4518615 -0.055559162 0
0.59805012 -1.5497009 0.17851673 0
0.5457738 -1.4142395 0.27338997 0
0.54815632 -1.4204133 0.3884421 0
0.54791808 -1.4197959 0.50631142 0
0.58453387 -1.4596872 -0.056135856 0
0.61545742 -1.5369089 0.1779218 0
0.56172067 -1.4027185 0.27250856 0
0.56704885 -1.4160239 0.38916355 0
0.56649035 -1.4146292 0.50697255 0
0.59825402 -1.4411001 -0.055706337 0
0.65371215 -1.5746901 0.18323401 0
0.58038449 -1.3980553 0.27300078 0
0.58055866 -1.3984748 0.38631907 0
0.57707912 -1.3900931 0.50074387 0
0.61817658 -1.4376972 -0.055871267 0
0.68716586 -1.598146 0.18695542 0
0.59357035 -1.3804703 0.27100497 0
0.59727412 -1.3890841 0.38577199 0
0.5938406 -1.3810987 0.50015789 0
0.35704255 -0.83037603 0.45224881 0
0.63485235 -1.4267037 -0.055750292 0
0.71770245 -1.6128926 0.18972272 0
0.61309886 -1.377817 0.27197814 0
0.60765606 -1.3655854 0.38134083 0
0.60694665 -1.3639913 0.49669096 0
0.36454582 -0.81924379 0.44865036 0
0.65073723 -1.4141883 -0.055577029 0
0.62964964 -1.3683604 0.27165499 0
0.62549096 -1.3593228 0.38176116 0
0.62241542 -1.3526391 0.49537185 0
0.37612861 -0.81740624 0.45020214 0
0.67455542 -1.4186344 -0.056081131 0
0.63670522 -1.3390329 0.26740322 0
0.63816518 -1.3421032 0.37915191 0
0.63649541 -1.3385916 0.49312344 0
0.37445629 -0.78750616 0.43629649 0
0.6890102 -1.4031976 -0.055809449 0
0.65393078 -1.3317569 0.26757342 0
0.6489892 -1.3216933 0.37566492 0
0.65395999 -1.3318166 0.49362206 0
0.64965647 -1.3230522 0.61026716 0
0.38549548 -0.78507745 0.43760559 0
0.70973909 -1.4005591 -0.05605552 0
0.66880822 -1.3197885 0.26683965 0
0.66409397 -1.3104856 0.37482646 0
0.66254133 -1.3074217 0.48763394 0
0.66409212 -1.3104819 0.60827804 0
0.40430546 -0.79783356 0.44751826 0
0.73071444 -1.3980105 -0.056317322 0
0.6807313 -1.3023822 0.2650325 0
0.67530239 -1.2919956 0.37194064 0
0.68211973 -1.3050386 0.48990986 0
0.68312359 -1.3069592 0.61058724 0
0.42354316 -0.81032723 0.45748144 0
0.74627686 -1.3850201 -0.056168128 0
0.69748652 -1.2944698 0.2651886 0
0.68766665 -1.2762451 0.36986989 0
0.69474787 -1.2893871 0.48727986 0
0.69000673 -1.280588 0.60227859 0
0.43094316 -0.79979026 0.45456022 0
0.76664591 -1.3808979 -0.05638798 0
0.72327101 -1.3027701 0.26873353 0
0.70642889 -1.2724338 0.3713139 0
0.70884621 -1.2767879 0.48585314 0
0.71008861 -1.2790258 0.60570115 0
0.44651741 -0.80427605 0.46026886 0
0.77974397 -1.3637402 -0.056083854 0
0.75618464 -1.3225359 0.27475318 0
0.72024941 -1.2596867 0.37021139 0
0.7175709 -1.2550021 0.48096329 0
0.71860063 -1.256803 0.59941489 0
0.45126864 -0.78925037 0.4548859 0
0.80162716 -1.3619248 -0.056419846 0
0.78203106 -1.3286319 0.27804336 0
0.73321664 -1.2456987 0.36878464 0
0.72800481 -1.2368441 0.47747982 0
0.73085314 -1.2416831 0.5965457 0
0.45772421 -0.77765071 0.45148659 0
0.81001014 -1.3373564 -0.055820182 0
0.81300819 -1.3423064 0.283025 0
0.74642718 -1.2323786 0.36759472 0
0.7422139 -1.2254224 0.47664073 0
0.74438071 -1.2289999 0.5949083 0
0.46815991 -0.77294916 0.45214373 0
0.83133906 -1.3343612 -0.056127656 0
0.84407324 -1.3548006 0.28787765 0
0.75636774 -1.2140267 0.36493269 0
0.76021665 -1.2202045 0.47829673 0
0.75623202 -1.2138088 0.59211755 0
0.48934957 -0.78544259 0.46301967 0
0.84847468 -1.3244127 -0.056154147 0
0.87912583 -1.3722571 0.2939159 0
0.77167928 -1.2045403 0.3649731 0
0.77106792 -1.2035859 0.47555077 0
0.76906037 -1.2004522 0.59027928 0
0.50288397 -0.78496855 0.46643621 0
0.86094022 -1.307333 -0.055885207 0
0.91212714 -1.3850601 0.29909444 0
0.78187841 -1.1872782 0.36269715 0
0.78644937 -1.1942191 0.47572497 0
0.78191936 -1.1873403 0.58862674 0
0.51307362 -0.77909952 0.4667508 0
0.88479853 -1.3074207 -0.056360766 0
0.94218981 -1.3922248 0.30317959 0
0.79920536 -1.1809442 0.36380774 0
0.79521585 -1.1750491 0.47204 0
0.79683745 -1.1774453 0.58864892 0
0.53308052 -0.78770536 0.47589022 0
0.89552867 -1.2880331 -0.056006677 0
0.81201285 -1.167913 0.36291447 0
0.81196207 -1.1678399 0.47321373 0
0.81273365 -1.1689496 0.58947134 0
0.55320352 -0.79566914 0.48487163 0
0.91188127 -1.2769433 -0.056019314 0
0.57674623 -0.80764049 0.035431068 0
0.58187437 -0.81482166 0.10760421 0
0.58678323 -0.82169574 0.18209846 0
0.58068568 -0.81315702 0.25493041 0
0.57888502 -0.81063551 0.33140045 0
0.58041096 -0.81277239 0.41351306 0
0.55589449 -0.77844095 0.47860071 0
0.92541611 -1.2619905 -0.055870123 0
0.58037442 -0.79145694 0.035038929 0
0.58582288 -0.79888701 0.10646563 0
0.57861543 -0.78905827 0.17646627 0
0.57859588 -0.78903157 0.24963127 0
0.58408427 -0.79651606 0.32860896 0
0.58479369 -0.79748356 0.40944862 0
0.57342666 -0.7819823 0.48517895 0
0.94087917 -1.2497687 -0.055849135 0
0.58403248 -0.77576971 0.034667268 0
0.58821666 -0.78132755 0.1051043 0
0.58877581 -0.78207022 0.17654753 0
0.57882655 -0.76885468 0.24553427 0
0.58946002 -0.78297907 0.32606056 0
0.58953959 -0.78308475 0.40583521 0
0.58441192 -0.77627367 0.48616442 0
0.95703703 -1.2384651 -0.055878114 0
0.58523214 -0.7573266 0.0341697 0
0.6009146 -0.77762067 0.10561517 0
0.60722029 -0.78578067 0.17909704 0
0.60599822 -0.78419924 0.25285143 0
0.61302221 -0.79328865 0.33354199 0
0.6056881 -0.78379786 0.41012496 0
0.96640229 -1.2185587 -0.055524617 0
0.582129 -0.73401976 0.033446208 0
0.88413495 -1.114826 0.36301723 0
0.87724113 -1.1061333 0.4696863 0
0.86642748 -1.0924982 0.57731652 0
0.99131829 -1.2181513 -0.056070402 0
0.57677436 -0.70875168 0.032623198 0
0.89320469 -1.0975875 0.36103776 0
0.88540423 -1.0880022 0.46668461 0
0.88510746 -1.0876374 0.58059156 0
1.0008743 -1.1987419 -0.055752698 0
0.59664834 -0.71460259 0.033235699 0
0.90796912 -1.0874699 0.36144191 0
0.89901543 -1.0767462 0.46667531 0
0.89901638 -1.0767473 0.58077526 0
1.0234576 -1.1948817 -0.056168098 0
0.60804111 -0.70988488 0.033369735 0
0.91639107 -1.0698819 0.35940304 0
0.91146028 -1.0641253 0.46614268 0
0.91225153 -1.0650491 0.58061546 0
1.0328152 -1.1755193 -0.055864852 0
0.61175179 -0.69627756 0.033089582 0
0.92895287 -1.0573063 0.35907963 0
0.92557317 -1.0534598 0.46653914 0
0.91568935 -1.0422102 0.57440513 0
1.0441861 -1.1587061 -0.05568628 0
0.93654269 -1.039257 0.35692662 0
0.93814355 -1.0410335 0.46623072 0
0.93102789 -1.0331374 0.57582057 0
1.0670879 -1.1545498 -0.056127854 0
0.96053767 -1.0392663 0.36105528 0
0.94073004 -1.0178353 0.46111 0
0.94926304 -1.0270677 0.57905382 0
1.0776088 -1.1368746 -0.055923816 0
0.97859925 -1.0324197 0.36292893 0
0.96500438 -1.0180771 0.46668759 0
0.96551198 -1.0186126 0.58109546 0
1.0926745 -1.1240765 -0.05596666 0
0.98472953 -1.0130293 0.360443 0
0.96942186 -0.99728179 0.46271405 0
0.9700036 -0.99788016 0.57619047 0
1.1006588 -1.1041275 -0.055659071 0
0.99464756 -0.99778223 0.3594459 0
0.99047005 -0.99359155 0.46675166 0
0.99168342 -0.99480873 0.58158129 0
1.1153769 -1.0910648 -0.055704176 0
1.0015538 -0.97972262 0.35745502 0
1.0064247 -0.98448735 0.46839109 0
0.99285054 -0.97120917 0.57504797 0
1.1367652 -1.0843163 -0.056086 0
1.0175358 -0.97058791 0.35876858 0
1.0113611 -0.96469808 0.46499813 0
1.0102135 -0.96360344 0.57803077 0
1.1494497 -1.0691001 -0.056043178 0
1.0386546 -0.96604979 0.36189696 0
1.0225242 -0.95104706 0.46458763 0
1.028329 -0.95644611 0.58145887 0
1.1610109 -1.0529019 -0.055955987 0
1.0421932 -0.94514805 0.35895467 0
1.0416335 -0.9446404 0.4678283 0
1.0337729 -0.93751186 0.57781607 0
1.1723361 -1.0365729 -0.055868302 0
1.0570199 -0.93461102 0.35997933 0
1.0522379 -0.93038279 0.46729225 0
1.041823 -0.92117399 0.57578641 0
1.1793774 -1.0166287 -0.055589389 0
1.3705928 -1.1814573 0.064602233 0
1.373413 -1.1838883 0.19486809 0
1.3223523 -1.1398736 0.31485841 0
1.0652087 -0.91821474 0.35880196 0
1.0657753 -0.91870314 0.46812946 0
1.0570337 -0.91116786 0.577806 0
1.1981044 -1.0067568 -0.055870105 0
1.382807 -1.1619608 0.064483173 0
1.3847222 -1.1635702 0.19437841 0
1.1450002 -0.96213382 0.26972395 0
1.0817524 -0.90898722 0.36049044 0
1.0769898 -0.90498525 0.46801275 0
1.0725179 -0.90122759 0.58002073 0
1.2121674 -0.99280494 -0.055938479 0
1.0095863 -0.82688445 0.046589877 0
1.0041754 -0.82245266 0.13949485 0
1.0125855 -0.82934088 0.23605265 0
1.0061781 -0.82409298 0.33182111 0
1.0888782 -0.89182699 0.46826169 0
1.0806885 -0.88511938 0.57836598 0
1.2258558 -0.97848845 -0.055997133 0
0.89451003 -0.71400541 0.040861245 0
0.90897363 -0.72555041 0.12499084 0
0.90250188 -0.7203846 0.20825891 0
0.89579785 -0.71503335 0.29242697 0
1.1015377 -0.87925667 0.46890736 0
1.0996935 -0.87778461 0.58257544 0
1.2380865 -0.96298164 -0.055997469 0
0.88774097 -0.69048351 0.040151674 0
0.88340682 -0.68711239 0.12027591 0
0.89331931 -0.69482231 0.2041048 0
0.88116431 -0.68536818 0.2848101 0
1.1036255 -0.8583982 0.46515796 0
1.1066128 -0.86072165 0.58045322 0
1.2411315 -0.94051003 -0.055595133 0
0.89409924 -0.67753434 0.040050197 0
0.89974266 -0.68181086 0.12132151 0
0.88715214 -0.67226994 0.20074566 0
0.89406532 -0.67750865 0.28619975 0
1.1282356 -0.85495925 0.4709557 0
1.1290263 -0.85555834 0.58651233 0
1.2622688 -0.93174183 -0.056011956 0
0.89981866 -0.66419983 0.039928585 0
0.90251666 -0.66619134 0.12055484 0
0.91010284 -0.67179108 0.20400861 0
0.90236115 -0.66607654 0.28614777 0
1.1367189 -0.8390674 0.47004917 0
1.141468 -0.84257299 0.58741742 0
1.2652923 -0.90958625 -0.055633467 0
0.91339898 -0.65661919 0.040161118 0
0.91865075 -0.66039455 0.12158953 0
0.90932 -0.65368694 0.20197198 0
0.90898573 -0.65344661 0.28561655 0
1.151451 -0.82774866 0.47179356 0
1.1482499 -0.8254475 0.58551204 0
1.2944499 -0.90604526 -0.056409378 0
0.916408 -0.64143628 0.039935116 0
0.91456681 -0.64014757 0.11997259 0
0.92391771 -0.64669269 0.20338945 0
0.93069398 -0.65143573 0.28983712 0
1.1646091 -0.81516367 0.47294161 0
1.162203 -0.81347948 0.58735698 0
1.2968869 -0.88363218 -0.05602625 0
0.94066316 -0.64091957 0.04063718 0
0.92904562 -0.63300395 0.12081671 0
0.92483521 -0.63013524 0.20182867 0
0.93305111 -0.63573313 0.28805533 0
1.1770729 -0.80199701 0.47386441 0
1.1766559 -0.80171293 0.58951259 0
1.3095541 -0.86832285 -0.056096673 0
0.95424223 -0.63272703 0.040876366 0
0.94279718 -0.62513822 0.12157169 0
0.94517285 -0.6267134 0.20452857 0
0.94522917 -0.62675077 0.28935555 0
1.1919705 -0.79035687 0.47581753 0
1.1839497 -0.78503865 0.58816755 0
1.3150518 -0.84832567 -0.055870157 0
0.95372206 -0.61523575 0.04051901 0
0.95532078 -0.61626709 0.12217624 0
0.94733894 -0.61111808 0.20331597 0
0.95163774 -0.61389118 0.28892806 0
1.1957886 -0.77139026 0.47342667 0
1.2055212 -0.77766865 0.59397203 0
1.3297328 -0.83427501 -0.056043111 0
0.96235234 -0.60378033 0.040559441 0
0.97199994 -0.6098333 0.12331748 0
0.9672429 -0.60684872 0.20593138 0
0.96084851 -0.60283685 0.28939688 0
1.2163656 -0.76314843 0.47773084 0
1.2155871 -0.76266003 0.59415275 0
1.3418516 -0.81851494 -0.056115028 0
0.97289628 -0.59345621 0.040685646 0
0.96497869 -0.58862656 0.12147669 0
0.9742648 -0.59429097 0.20581679 0
0.97700864 -0.59596467 0.29198071 0
1.225245 -0.74738616 0.47748408 0
1.2320395 -0.75153071 0.59752136 0
1.3525671 -0.80186027 -0.056136433 0
0.97966421 -0.58078736 0.040659614 0
0.99186045 -0.58801782 0.12391877 0
0.97177112 -0.57610798 0.2037413 0
0.9839353 -0.58331943 0.29183248 0
1.2423182 -0.73649991 0.48048532 0
1.2408041 -0.73560238 0.5972324 0
1.3594981 -0.78300494 -0.056010444 0
0.99535495 -0.57327616 0.041007977 0
0.99047154 -0.57046354 0.12283805 0
0.99471402 -0.57290703 0.20702258 0
0.99376953 -0.57236302 0.29258841 0
1.2392349 -0.71373916 0.47577903 0
1.258335 -0.72473991 0.60123026 0
1.3782203 -0.77084261 -0.056377407 0
1.006246 -0.56279629 0.041161444 0
1.0126152 -0.56635863 0.12468994 0
1.0049258 -0.56205791 0.20765842 0
1.0162078 -0.56836796 0.29706401 0
1.2753518 -0.71330798 0.48615834 0
1.2756294 -0.71346325 0.6051529 0
1.3789523 -0.74861556 -0.056017298 0
1.0068438 -0.54660267 0.040901106 0
1.0288507 -0.55854988 0.12581307 0
1.0097924 -0.54820347 0.2072212 0
1.0141408 -0.55056411 0.29440981 0
1.2734625 -0.69134653 0.48208141 0
1.2746184 -0.69197404 0.600492 0
1.3766891 -0.7250945 -0.055550046 0
1.3095055 -0.68970931 0.37760431 0
1.2950526 -0.68209702 0.48696446 0
1.3011501 -0.68530858 0.60887778 0
1.3948935 -0.71239311 -0.055918202 0
1.3122566 -0.6701892 0.37593433 0
1.3134922 -0.67082024 0.4906829 0
1.3012623 -0.66457427 0.60496622 0
1.4021817 -0.69399565 -0.055855617 0
1.3332344 -0.65987092 0.37953353 0
1.3191328 -0.65289146 0.48968002 0
1.3216145 -0.65411967 0.61055034 0
1.4136809 -0.67766225 -0.055969328 0
1.3384352 -0.64159244 0.3786841 0
1.33952 -0.64211243 0.49420732 0
1.331166 -0.6381079 0.61120242 0
1.4247236 -0.66102517 -0.056072529 0
1.3540905 -0.6282537 0.38084498 0
1.3460237 -0.624511 0.49366632 0
1.3436233 -0.62339723 0.61326921 0
1.4342024 -0.64360309 -0.056122173 0
1.3638783 -0.61204487 0.38139999 0
1.3514402 -0.60646325 0.49281299 0
1.3518604 -0.60665184 0.61349356 0
1.4276137 -0.61917078 -0.055554848 0
1.3830105 -0.59982592 0.38460755 0
1.3656676 -0.59230411 0.49524209 0
1.3671229 -0.59293526 0.61698264 0
1.4518251 -0.60806894 -0.0561946 0
1.389051 -0.58177722 0.38421962 0
1.3863825 -0.58065951 0.50006288 0
1.3658005 -0.57203919 0.6130864 0
1.4526817 -0.58703911 -0.055937197 0
1.3990521 -0.5653671 0.38498625 0
1.4018463 -0.56649619 0.50302774 0
1.3894106 -0.56147087 0.62046176 0
1.459506 -0.56852555 -0.055919882 0
1.4100066 -0.54924387 0.38606688 0
1.4055607 -0.54751205 0.50184691 0
1.4068204 -0.54800278 0.62510526 0
1.4623396 -0.54852468 -0.055759385 0
1.4250339 -0.5345313 0.38830769 0
1.4279494 -0.53562486 0.50739229 0
1.4180433 -0.53190905 0.62706614 0
1.4766353 -0.53277642 -0.056044232 0
1.4456619 -0.52160108 0.39210778 0
1.4267859 -0.51479053 0.50463551 0
1.4273866 -0.51500726 0.62828034 0
1.478397 -0.51246744 -0.055861745 0
1.4528196 -0.50360131 0.39229807 0
1.4469484 -0.50156617 0.50949246 0
1.4462636 -0.50132877 0.63376021 0
1.4951745 -0.49728498 -0.056254622 0
1.4616578 -0.48613754 0.39300048 0
1.4416487 -0.47948265 0.50546032 0
1.4603969 -0.48571819 0.63722289 0
1.4944872 -0.47624293 -0.05599869 0
1.4715979 -0.4689489 0.39405414 0
1.4569117 -0.46426889 0.50872165 0
1.4619457 -0.46587303 0.6352886 0
1.4961236 -0.45609471 -0.05584038 0
1.4798055 -0.45112014 0.39469951 0
1.4686291 -0.44771299 0.510804 0
1.462105 -0.44572413 0.63286871 0
1.5001761 -0.43676296 -0.055781938 0
1.4778613 -0.43026623 0.39270473 0
1.4841015 -0.43208301 0.51425236 0
1.4806988 -0.43109235 0.63851666 0
1.515761 -0.4206714 -0.056160022 0
1.4805864 -0.41090932 0.39202282 0
1.4914711 -0.41393015 0.51495898 0
1.480832 -0.41097748 0.63629204 0
1.5157202 -0.4001753 -0.055967376 0
1.4983813 -0.39559752 0.39538413 0
1.4942591 -0.3945092 0.51416564 0
1.4942433 -0.39450499 0.63986933 0
1.5326399 -0.38406619 -0.056409072 0
1.505414 -0.37724364 0.39595503 0
1.5009449 -0.3761237 0.51479566 0
1.5083903 -0.37798947 0.64383823 0
1.5286925 -0.36268294 -0.056091256 0
1.5143028 -0.35926899 0.3970716 0
1.5282791 -0.36258489 0.5225634 0
1.5218858 -0.36106804 0.64760655 0
1.5341715 -0.34363762 -0.056129068 0
1.5285537 -0.34237933 0.39964622 0
1.5245907 -0.34149164 0.51979071 0
1.5258629 -0.34177658 0.64741623 0
1.5340108 -0.32337296 -0.055969778 0
1.5252632 -0.32152897 0.39769581 0
1.533232 -0.32320878 0.52130789 0
1.5465828 -0.32602319 0.65441382 0
1.5403143 -0.30449754 -0.056055423 0
1.5357 -0.30358535 0.39938867 0
1.5426902 -0.30496719 0.52317661 0
1.5280594 -0.30207491 0.64491528 0
1.5275451 -0.28203601 -0.055457085 0
1.5465651 -0.28554773 0.40124738 0
1.5507414 -0.28631881 0.52464271 0
1.5382628 -0.28401485 0.64766085 0
1.5478959 -0.26568431 -0.056070007 0
1.54345 -0.26492122 0.39954206 0
1.555338 -0.26696169 0.52501887 0
1.5547308 -0.26685748 0.65312785 0
1.5475235 -0.24560283 -0.055940058 0
1.5585814 -0.24735777 0.40262076 0
1.5534828 -0.24654859 0.52330315 0
1.5520904 -0.24632761 0.65066403 0
1.5540526 -0.22661719 -0.056068473 0
1.5570275 -0.22705099 0.40144897 0
1.5619272 -0.22776549 0.52513999 0
1.5715376 -0.22916692 0.65755481 0
1.5646298 -0.20807537 -0.056351088 0
1.5640467 -0.20799783 0.40255153 0
1.5662389 -0.20828936 0.52566612 0
1.5741632 -0.20934319 0.65749824 0
1.5617949 -0.18771757 -0.056159399 0
1.5686349 -0.18853968 0.4030894 0
1.5751561 -0.1893235 0.52781701 0
1.5774494 -0.18959914 0.65782148 0
1.5588764 -0.1674836 -0.055974182 0
1.565227 -0.16816591 0.4016377 0
1.5794079 -0.16968948 0.52848381 0
1.5815414 -0.1699187 0.65858346 0
1.5488751 -0.14670683 -0.055544332 0
1.5921241 -0.15080331 0.4080199 0
1.5774485 -0.14941326 0.52715683 0
1.5829275 -0.14993222 0.65832222 0
1.5692451 -0.12872246 -0.056212239 0
1.5786082 -0.12949049 0.4041062 0
1.5806704 -0.12965965 0.52764606 0
1.5837587 -0.12991299 0.65793544 0
1.5702238 -0.10891766 -0.056193717 0
1.6798403 -0.11652114 0.06011657 0
1.6661516 -0.11557163 0.1794904 0
1.6679511 -0.11569645 0.30153558 0
1.6083583 -0.11156283 0.41132969 0
1.5955695 -0.11067574 0.53211218 0
1.5811745 -0.10967724 0.65623611 0
1.5652407 -0.08878462 -0.055970937 0
1.6458783 -0.093358599 0.058854431 0
1.6528375 -0.093753345 0.17791483 0
1.6475245 -0.093451977 0.2976065 0
1.5871404 -0.090026826 0.40558124 0
1.5953259 -0.090491131 0.53160882 0
1.5805441 -0.089652665 0.65545398 0
1.5645001 -0.068992816 -0.055908956 0
1.636753 -0.072179094 0.05849098 0
1.6399113 -0.072318368 0.17641141 0
1.6393981 -0.07229574 0.29595065 0
1.5930121 -0.070250168 0.4068234 0
1.5982051 -0.070479169 0.53223026 0
1.5986562 -0.07049907 0.66254443 0
1.5708789 -0.049465813 -0.0561102 0
1.6297107 -0.051318385 0.058211613 0
1.6220602 -0.051077474 0.17440808 0
1.6316243 -0.051378645 0.29440719 0
1.6010369 -0.050415467 0.40867823 0
1.5960048 -0.050257009 0.5312447 0
1.6008645 -0.050410036 0.66314399 0
1.5540836 -0.029355956 -0.055492684 0
1.6275349 -0.03074342 0.05811546 0
1.625849 -0.030711573 0.17476001 0
1.6481808 -0.031133411 0.29730028 0
1.5982894 -0.030190986 0.40784755 0
1.5968566 -0.03016392 0.53135967 0
1.5934001 -0.03009863 0.65984261 0
1.5788996 -0.0099405227 -0.056369867 0
1.6430683 -0.010344519 0.05866082 0
1.6279857 -0.010249562 0.17496195 0
1.6413289 -0.010333569 0.29601738 0
1.5974534 -0.010057335 0.40756959 0
1.5953428 -0.010044047 0.53077179 0
1.5990516 -0.010067397 0.66207796 0
1.5715768 0.0098944195 -0.05610843 0
1.6563562 0.010428178 0.059135225 0
1.6419171 0.010337272 0.17645918 0
1.6414032 0.010334036 0.29603079 0
1.6028348 0.010091214 0.40894258 0
1.59922 0.010068458 0.53206176 0
1.6034484 0.010095078 0.66389847 0
1.563809 0.029539665 -0.05583996 0
1.6720587 0.031584453 0.059705302 0
1.6734787 0.031611279 0.17987967 0
1.6667627 0.031484414 0.30065209 0
1.6051209 0.030320028 0.40959078 0
1.6011835 0.030245654 0.53279948 0
1.6031686 0.030283151 0.66388786 0
1.5678397 0.04937011 -0.056001645 0
1.6032523 0.050485227 0.40924373 0
1.6059717 0.050570861 0.53456229 0
1.6000488 0.05038435 0.66280603 0
1.5638771 0.068965346 -0.05588669 0
1.614273 0.07118775 0.41225299 0
1.606954 0.07086499 0.53514379 0
1.6127138 0.071118988 0.66837043 0
1.5690298 0.088999547 -0.05610643 0
1.6116449 0.091416791 0.41184318 0
1.6059577 0.091094196 0.5351516 0
1.597748 0.09062852 0.66258848 0
1.5710794 0.108977 -0.056224331 0
1.6067497 0.11145125 0.41091827 0
1.5955865 0.11067692 0.53211784 0
1.609398 0.11163495 0.66794974 0
1.566027 0.12845849 -0.056096967 0
1.6052375 0.13167486 0.410923 0
1.6009822 0.1313258 0.53442639 0
1.6064813 0.13177688 0.66737503 0
1.5598388 0.1477453 -0.055937503 0
1.6102411 0.15251932 0.4126628 0
1.5912849 0.15072383 0.53178072 0
1.6022835 0.1517656 0.66637218 0
1.5625495 0.16787823 -0.056106072 0
1.5883079 0.17064567 0.40756026 0
1.5957741 0.17144783 0.53396004 0
1.597042 0.17158405 0.66503817 0
1.566957 0.18833803 -0.056345023 0
1.5852571 0.19053757 0.40736079 0
1.5898746 0.19109257 0.532749 0
1.5897274 0.19107486 0.66294158 0
1.5490731 0.20600654 -0.055790804 0
1.599605 0.21272662 0.41170347 0
1.5981545 0.21253373 0.53637779 0
1.5919936 0.2117144 0.66494566 0
1.5588821 0.22732146 -0.056242719 0
1.5944865 0.2325134 0.41110703 0
1.5892469 0.23174934 0.53432518 0
1.5894293 0.23177592 0.66504091 0
1.5519893 0.24631158 -0.056101486 0
1.587976 0.25202292 0.41021413 0
1.5933319 0.25287294 0.53672665 0
1.5843266 0.25144371 0.66417801 0
1.5532095 0.26659638 -0.056262486 0
1.5870122 0.27239832 0.41081867 0
1.5787477 0.27097979 0.53292108 0
1.589704 0.27286035 0.6678198 0
1.5431795 0.28492263 -0.056024686 0
1.5776052 0.29127878 0.40930057 0
1.582829 0.29224327 0.5354985 0
1.5789908 0.2915346 0.66480875 0
1.5371028 0.30386266 -0.055938549 0
1.5616421 0.3087137 0.40613541 0
1.5750388 0.31136206 0.53414708 0
1.5710994 0.31058329 0.66308022 0
1.535365 0.32365844 -0.056019183 0
1.5706414 0.33109477 0.40952766 0
1.5664756 0.33021665 0.53261095 0
1.5722296 0.33142957 0.66526592 0
1.5303867 0.34278986 -0.055990599 0
1.5585065 0.3490884 0.40747747 0
1.5597851 0.3493748 0.53178978 0
1.5624175 0.34996444 0.6629262 0
1.5159546 0.35966089 -0.055623874 0
1.5639145 0.37103939 0.41008046 0
1.5479699 0.36725652 0.52929628 0
1.5588055 0.36982727 0.66331697 0
1.5189509 0.38063586 -0.055905249 0
1.5542867 0.38949069 0.40880954 0
1.5396149 0.3858141 0.52805877 0
1.5528669 0.38913491 0.66282248 0
1.5138555 0.39968297 -0.055898517 0
1.5458091 0.40811926 0.40789914 0
1.5490054 0.40896311 0.53300351 0
1.5518876 0.40972409 0.664554 0
1.5033463 0.41722593 -0.055700049 0
1.5428451 0.42818809 0.40850741 0
1.53774 0.42677125 0.53093427 0
1.5421734 0.42800164 0.66264951 0
1.5088534 0.43928933 -0.056104597 0
1.5356222 0.44708282 0.40805322 0
1.537608 0.44766095 0.53279275 0
1.5353189 0.44699448 0.66207027 0
1.5082928 0.45980451 -0.056294575 0
1.5235857 0.46446657 0.40637672 0
1.5204316 0.46350506 0.52882147 0
1.5244114 0.46471831 0.6598379 0
1.4992658 0.47776574 -0.056177747 0
1.5145586 0.48263901 0.40555784 0
1.516021 0.48310506 0.52936131 0
1.5181428 0.48378119 0.65970904 0
1.4891378 0.4952772 -0.056027494 0
1.4978892 0.49818787 0.40274212 0
1.5125937 0.50307846 0.53033453 0
1.5065879 0.50108099 0.65737766 0
1.4778481 0.51227719 -0.055841006 0
1.502102 0.52068448 0.40560558 0
1.4909457 0.51681727 0.5249846 0
1.497359 0.51904035 0.65615058 0
1.469373 0.53015614 -0.055768598 0
1.4969481 0.54010534 0.40601817 0
1.4862303 0.53623831 0.52566016 0
1.4853039 0.53590405 0.65377319 0
1.4646728 0.54939985 -0.055848349 0
1.4663178 0.55001688 0.39955711 0
1.4767535 0.5539313 0.52473378 0
1.4762149 0.5537293 0.65278995 0
1.4655174 0.57086712 -0.056150202 0
1.4659672 0.57104236 0.40138915 0
1.4579636 0.56792468 0.52055705 0
1.4685646 0.57205415 0.65254062 0
1.4559792 0.58837169 -0.056064174 0
1.4565139 0.58858782 0.40079838 0
1.4593896 0.58974987 0.52367616 0
1.4724406 0.59502387 0.65754002 0
1.4444026 0.60496014 -0.055907305 0
1.4502571 0.60741222 0.40114957 0
1.4491546 0.6069504 0.52270454 0
1.4480158 0.60647345 0.64999157 0
1.4469644 0.62756336 -0.056307871 0
1.4403949 0.62471408 0.4005658 0
1.4376017 0.62350267 0.52132809 0
1.4403068 0.62467587 0.65001053 0
1.4353381 0.64411277 -0.056166615 0
1.4295577 0.64151871 0.39976683 0
1.4338663 0.64345223 0.52287024 0
1.429862 0.64165533 0.64889181 0
1.4373424 0.66687983 -0.056569163 0
1.4153416 0.65667224 0.39807221 0
1.4208016 0.65920556 0.52109182 0
1.4229944 0.66022283 0.6494965 0
1.4055803 0.67377913 -0.055648614 0
1.4123207 0.67701024 0.39958861 0
1.4069095 0.67441624 0.51907027 0
1.3992296 0.67073488 0.64245373 0
1.3978571 0.69185519 -0.055683345 0
1.3913069 0.68861324 0.39606509 0
1.3876805 0.68681842 0.51512587 0
1.3865992 0.68628323 0.64057153 0
1.3936924 0.71177965 -0.055870052 0
1.3732394 0.70133406 0.39340463 0
1.3767064 0.70310467 0.5142979 0
1.3793195 0.70443928 0.64125562 0
1.3929598 0.73366421 -0.05620658 0
1.3651695 0.71902716 0.39365536 0
1.3652523 0.71907079 0.51336086 0
1.3737975 0.72357154 0.64287341 0
1.3773184 0.74772853 -0.055950925 0
1.3592066 0.73789585 0.39458397 0
1.3530906 0.73457563 0.51222539 0
1.3571341 0.73677075 0.63936645 0
1.3672822 0.76472491 -0.055929974 0
1.4152098 0.79153091 0.057890497 0
1.4186132 0.79343444 0.17468312 0
1.4154923 0.79168898 0.29249811 0
1.3522488 0.75631666 0.39529753 0
1.3453796 0.75247473 0.51285261 0
1.3384312 0.74858844 0.63494581 0
1.3613229 0.78405589 -0.056085616 0
1.38832 0.79960489 0.057197884 0
1.3902186 0.80069846 0.17241459 0
1.3801515 0.7949003 0.28724086 0
1.3453308 0.77484524 0.39609605 0
1.3341264 0.76839203 0.51221067 0
1.3239031 0.76250386 0.63255852 0
1.3500779 0.80038458 -0.056033123 0
1.3574678 0.80476558 0.05633983 0
1.3575461 0.80481201 0.16960596 0
1.3601451 0.80635285 0.28516769 0
1.3192322 0.78209794 0.39128062 0
1.3110657 0.77725649 0.50707448 0
1.3112806 0.77738386 0.63115466 0
1.3423454 0.81881613 -0.056135677 0
1.346722 0.82148582 0.056318704 0
1.3482431 0.82241374 0.16972406 0
1.3482929 0.82244414 0.28483152 0
1.3026958 0.79463029 0.38931286 0
1.3043069 0.79561305 0.50829494 0
1.3058225 0.79653758 0.63330513 0
1.3231466 0.8301428 -0.055765528 0
1.3406861 0.84114718 0.056504752 0
1.3427092 0.84241641 0.1703493 0
1.3322393 0.83584762 0.28364113 0
1.2926724 0.81102335 0.38933855 0
1.287554 0.80781209 0.50569034 0
1.2932054 0.81135774 0.63209087 0
1.3266318 0.8557958 -0.05636213 0
1.3331968 0.86003083 0.056641046 0
1.3137153 0.84746349 0.16801141 0
1.3322233 0.85940278 0.28591907 0
1.2770976 0.82384175 0.38774136 0
1.2826595 0.82742977 0.50781989 0
1.2821903 0.8271271 0.63174766 0
1.3041438 0.86473536 -0.055864912 0
1.3182163 0.87406641 0.056467731 0
1.3249108 0.87850529 0.17084442 0
1.3231664 0.87734866 0.28632364 0
1.2644516 0.83841681 0.38707659 0
1.2620653 0.83683455 0.50379843 0
1.2609479 0.83609366 0.62641907 0
1.2950426 0.88237554 -0.055946574 0
1.3355949 0.91000581 0.057698458 0
1.3336369 0.90867168 0.17343132 0
1.3267674 0.90399122 0.28954318 0
1.2500451 0.85171652 0.385919 0
1.2470342 0.84966511 0.50202936 0
1.236248 0.84231591 0.61936861 0
1.2755947 0.89284766 -0.055587709 0
1.3523891 0.94659954 0.058934245 0
1.3444226 0.94102341 0.17636092 0
1.3521025 0.94639903 0.29764923 0
1.2334026 0.86331546 0.38410681 0
1.2369325 0.86578619 0.50231177 0
1.2276949 0.85932034 0.6204555 0
1.2698739 0.91287982 -0.055834912 0
1.2309351 0.88488775 0.38677773 0
1.2127074 0.87178433 0.49689266 0
1.2123795 0.87154865 0.61821282 0
1.2659996 0.93449575 -0.056177512 0
1.2117022 0.89441621 0.38424295 0
1.2027599 0.88781542 0.49735805 0
1.2002604 0.88597041 0.61767286 0
1.2474309 0.94528353 -0.055877306 0
1.1937129 0.9045769 0.38212013 0
1.1809429 0.89489996 0.49295714 0
1.1767256 0.8917042 0.61129147 0
1.2362205 0.96153027 -0.055913072 0
1.1772339 0.91565061 0.38050574 0
1.1711007 0.91088027 0.49359751 0
1.1771889 0.91561562 0.61747265 0
1.2227229 0.97598773 -0.055854019 0
1.1563573 0.92301416 0.37748483 0
1.1604167 0.92625445 0.49397123 0
1.1621681 0.92765242 0.61567211 0
1.2134815 0.99388134 -0.05599913 0
1.1406523 0.93423176 0.37616849 0
1.1381446 0.93217784 0.48944828 0
1.1408509 0.93439442 0.61056387 0
1.1958176 1.0048351 -0.055763464 0
1.1260672 0.94622451 0.37525818 0
1.118745 0.94007176 0.48615775 0
1.116346 0.93805593 0.60372311 0
1.188056 1.0241097 -0.055998445 0
1.109136 0.95608032 0.37359834 0
1.0997707 0.94800735 0.48306155 0
1.0998614 0.94808555 0.60121685 0
1.1811743 1.0443876 -0.056289487 0
1.0893505 0.96319747 0.37098983 0
1.0837018 0.95820302 0.48126516 0
1.087651 0.96169484 0.60111427 0
1.1630777 1.0547762 -0.056055602 0
1.0811818 0.98050612 0.37238318 0
1.0644388 0.96532226 0.47807091 0
1.0795563 0.97903204 0.60340613 0
1.156899 1.0760287 -0.056406379 0
1.0699937 0.99519837 0.37281644 0
1.0519582 0.97842354 0.47796109 0
1.0501355 0.97672826 0.59378916 0
1.1398879 1.0872948 -0.056240063 0
1.0395659 0.99160153 0.36653611 0
1.0367792 0.98894334 0.47668469 0
1.0327909 0.98513907 0.59094924 0
1.1216878 1.0972381 -0.056019351 0
1.0247898 1.0024523 0.36574796 0
1.0210739 0.99881732 0.47520888 0
1.016248 0.99409658 0.58859956 0
1.1044294 1.10791 -0.055849746 0
1.0092705 1.0124513 0.36473033 0
0.99586451 0.99900299 0.46929377 0
0.99834734 1.0014937 0.58548945 0
1.0965105 1.1280228 -0.056163143 0
0.99361408 1.0221692 0.36369503 0
0.98818845 1.0165876 0.47167149 0
0.98867756 1.0170908 0.58728296 0
1.0827118 1.1422582 -0.056188643 0
0.96762627 1.0208431 0.35885942 0
0.95857996 1.0112994 0.46358064 0
0.96837807 1.0216364 0.58282042 0
1.0666267 1.1540508 -0.056103595 0
0.95380169 1.0319784 0.35852331 0
0.94900364 1.026787 0.46516541 0
0.95002699 1.0278943 0.57951987 0
1.0436598 1.1581221 -0.055658214 0
0.92776799 1.0295199 0.35358247 0
0.93391252 1.0363383 0.46412802 0
0.92768413 1.0294269 0.57375252 0
1.0318013 1.1743654 -0.055810012 0
0.9172641 1.0440025 0.35456145 0
0.91204685 1.0380645 0.45972115 0
0.90965563 1.0353428 0.57062024 0
0.91470671 1.0410918 0.69339293 0
1.0279049 1.2000737 -0.056412164 0
0.90599066 1.0577395 0.35532406 0
0.89787364 1.0482628 0.45919415 0
0.89573878 1.0457704 0.57010567 0
0.898233 1.0486825 0.69086045 0
1.0028265 1.2010801 -0.055861443 0
0.87469637 1.0476193 0.45405138 0
0.87764424 1.05115 0.56696862 0
0.88248336 1.0569458 0.6889289 0
0.98987144 1.2163734 -0.055988569 0
0.85738766 1.0535748 0.45191741 0
0.85929602 1.0559199 0.56366038 0
0.85865909 1.0551372 0.68064845 0
0.97339946 1.2273816 -0.055926636 0
0.84189147 1.0615602 0.56096768 0
0.8452149 1.0657507 0.68057537 0
0.96123523 1.2438979 -0.056123234 0
0.81909919 1.059965 0.5546304 0
0.82429838 1.0666932 0.67449534 0
0.93962133 1.2480979 -0.055774473 0
0.80619967 1.0708741 0.67066664 0
0.93021876 1.2685399 -0.056160074 0
0.78545833 1.07113 0.66457993 0
0.90799314 1.2714986 -0.055780455 0
0.89546335 1.2879392 -0.056002595 0
0.8792069 1.2991582 -0.05600458 0
0.86251825 1.3097293 -0.055987641 0
0.8491869 1.3255244 -0.056201283 0
0.82351649 1.3218054 -0.055599514 0
0.81661195 1.3482562 -0.056275133 0
0.79798228 1.3557323 -0.056163311 0
0.78442162 1.3719213 -0.0564203 0
0.76082414 1.3704116 -0.05595978 0
0.74327463 1.3794483 -0.055942163 0
0.72415423 1.3854594 -0.055811718 0
0.70688027 1.3949176 -0.055829726 0
0.69168484 1.4086447 -0.056026094 0
0.67240304 1.4141077 -0.055902183 0
0.65350938 1.4202127 -0.055813786 0
0.64031702 1.4389844 -0.056230176 0
0.61942011 1.4405892 -0.055983659 0
0.60305446 1.4526637 -0.056153335 0
0.57709163 1.4411025 -0.055421136 0
0.56618917 1.467141 -0.056143872 0
0.55215126 1.4862126 -0.056603141 0
0.52721375 1.4757469 -0.05594727 0
0.50871068 1.4826183 -0.055960488 0
0.48808974 1.4830943 -0.055742055 0
0.4710483 1.4944245 -0.055940524 0
0.45515406 1.5100564 -0.056306668 0
0.4317551 1.5005512 -0.055745099 0
0.41348928 1.5082841 -0.055834513 0
0.39396623 1.5114558 -0.055763863 0
0.37445039 1.5144621 -0.055696398 0
0.3567315 1.5249548 -0.055912647 0
0.33853376 1.5339999 -0.056083545 0
0.31847772 1.5346988 -0.05595804 0
0.30276114 1.5572705 -0.056637548 0
0.27932784 1.5400013 -0.055877116 0
0.26226813 1.557368 -0.05638295 0
0.24092625 1.5495365 -0.055985138 0
0.22076879 1.5480449 -0.055826385 0
0.20146026 1.5522485 -0.055882059 0
0.18284178 1.5627147 -0.05617151 0
0.1619173 1.5530615 -0.05574682 0
0.14280897 1.5599958 -0.055926744 0
0.12327844 1.5632303 -0.055982608 0
0.1038959 1.5693439 -0.05615025 0
0.083978057 1.5677338 -0.05605036 0
0.064042725 1.5640508 -0.055885423 0
0.044637892 1.575091 -0.056255355 0
0.024588743 1.5619779 -0.055771537 0
0.0049194163 1.5621047 -0.055769429 0
-0.014753002 1.5623858 -0.055781677 0
-0.034348283 1.5586331 -0.055658724 0
-0.054468177 1.5724405 -0.056171823 0
-0.074203856 1.5703828 -0.056127246 0
-0.09354277 1.5621727 -0.055871479 0
-0.11378729 1.5688996 -0.056158863 0
-0.13359335 1.5680554 -0.056184407 0
-0.1524765 1.5575665 -0.055872947 0
-0.17207088 1.5554763 -0.055871263 0
-0.0950564 0.85928524 0.51270592 0
-0.19258155 1.5607965 -0.056145012 0
-0.10474047 0.84887964 0.50724399 0
-0.21063992 1.5466563 -0.055727355 0
-0.11552915 0.84829068 0.50772107 0
-0.23150049 1.553295 -0.056067146 0
-0.12364163 0.82959622 0.49742445 0
-0.25118801 1.5511711 -0.056100201 0
-0.13377675 0.8261168 0.49630889 0
-0.27001956 1.5439988 -0.055959344 0
-0.14168899 0.81019187 0.48777485 0
-0.29217234 1.5550245 -0.05648781 0
-0.15137945 0.80568457 0.48617032 0
-0.31128827 1.5490301 -0.056407977 0
-0.16292037 0.81072295 0.49040967 0
-0.32782489 1.531242 -0.055906113 0
-0.16947381 0.79159766 0.48009354 0
-0.34848419 1.5331746 -0.05613244 0
-0.17937216 0.78915733 0.47994533 0
-0.36810529 1.5300961 -0.056184977 0
-0.18652943 0.77534318 0.4729349 0
-0.38573885 1.5190272 -0.055952452 0
-0.1950046 0.76792181 0.46986866 0
-0.40647265 1.5201758 -0.056178842 0
-0.20473017 0.76567471 0.47003388 0
-0.42598501 1.5163743 -0.056232132 0
-0.21058491 0.74961692 0.46176752 0
-0.44339076 1.5052772 -0.056023214 0
-0.22168176 0.75259233 0.46528304 0
-0.45881331 1.4882365 -0.055599619 0
-0.48160169 1.4950259 -0.056075379 0
-0.49978086 1.4870378 -0.056007374 0
-0.51965523 1.4840264 -0.056135964 0
-0.53709775 1.474067 -0.056010619 0
-0.5604493 1.479952 -0.056497909 0
-0.57493705 1.4623439 -0.056097649 0
-0.59140903 1.4503413 -0.055918463 0
-0.60228819 1.4254191 -0.055245604 0
-0.61695182 1.4103243 -0.054957312 0
-0.63893032 1.4118794 -0.055327043 0
-0.65239471 1.3946114 -0.054967925 0
-0.66533124 1.3768259 -0.054592807 0
-0.68159521 1.3662964 -0.054511297 0
-0.69173932 1.3439955 -0.053964797 0
-0.69909066 1.3172481 -0.053240072 0
-0.72632748 1.3279154 -0.054036599 0
-0.74026114 1.3138218 -0.053838141 0
-0.74765968 1.2887363 -0.053191766 0
-0.76121771 1.2748501 -0.053010046 0
-0.77811134 1.2666328 -0.05307157 0
-0.79159814 1.2529365 -0.052911159 0
-0.79902321 1.2301102 -0.052367952 0
-0.81462532 1.2202169 -0.052379325 0
-0.83149838 1.212157 -0.052478641 0
-0.84335035 1.1968448 -0.052271336 0
-0.85507059 1.181595 -0.052071437 0
-0.87083727 1.1720226 -0.052128706 0
-0.8799749 1.1536878 -0.051801965 0
-0.89681435 1.1455603 -0.051939968 0
-0.90651518 1.1283869 -0.051674783 0
-0.91533834 1.1104381 -0.051376589 0
-0.93198174 1.1020581 -0.051527757 0
-0.95241481 1.0978793 -0.05188901 0
-0.9583028 1.0769668 -0.051466867 0
-0.97440743 1.0676863 -0.051605642 0
-0.98382556 1.0511146 -0.051399376 0
-1.0025055 1.0443976 -0.051684123 0
-1.0109174 1.0269594 -0.05144703 0
-1.0249317 1.0153021 -0.051505506 0
-1.041983 1.0065172 -0.051721368 0
-1.0507159 0.98968381 -0.05153216 0
-1.0666296 0.97962284 -0.05170355 0
-1.0783067 0.96560186 -0.051676087 0
-1.0861574 0.94826233 -0.051476005 0
-1.1041418 0.93972898 -0.051763419 0
-1.1212119 0.93016982 -0.052010447 0
-1.1328459 0.91598749 -0.052010942 0
-1.146026 0.90301931 -0.052089877 0
-1.1507208 0.88346273 -0.051793516 0
-1.1683549 0.87384105 -0.052087817 0
-1.169837 0.85219276 -0.051671386 0
-1.1944023 0.84727556 -0.052281033 0
-1.2100762 0.83569187 -0.05250233 0
-1.2175591 0.81841063 -0.052375704 0
-1.232205 0.80591768 -0.052565012 0
-1.2492437 0.79478526 -0.052860744 0
-1.2552619 0.77658606 -0.052697428 0
-1.2671604 0.76205426 -0.052789908 0
-1.2904083 0.75407571 -0.053358603 0
-1.3001871 0.7379874 -0.053374466 0
-1.316666 0.72557521 -0.053671625 0
-1.3225397 0.7072506 -0.053543776 0
-1.3539913 0.70229095 -0.054454766 0
-1.3603272 0.68398046 -0.054358885 0
-1.3747517 0.66968197 -0.054593988 0
-1.385233 0.65333694 -0.054679178 0
-1.4003482 0.63903719 -0.054953825 0
-1.4245205 0.62851846 -0.055587426 0
-1.430258 0.60965276 -0.055507351 0
-1.4432765 0.59384042 -0.05571796 0
-1.4548395 0.57728738 -0.055879287 0
-1.4733572 0.56326807 -0.056313645 0
-1.4662825 0.53950244 -0.055779163 0
-0.96328169 0.35442889 0.34148288 0
-1.4746675 0.52160168 -0.055843852 0
-0.97741508 0.34571952 0.34492254 0
-1.4820716 0.50331628 -0.055879802 0
-0.97400528 0.33077529 0.34222227 0
-1.4985213 0.4879463 -0.056263894 0
-0.97988009 0.31906712 0.34284759 0
-1.4958066 0.46631479 -0.055937059 0
-0.98806936 0.3080287 0.34432846 0
-1.5033857 0.447988 -0.05600509 0
-0.97916752 0.2917783 0.33991897 0
-0.74799567 0.22289231 0.46287325 0
-1.5125703 0.43006456 -0.056141049 0
-1.0005662 0.28448799 0.34607649 0
-1.5057932 0.40771663 -0.055694539 0
-0.98669207 0.26716205 0.34008715 0
-0.7633512 0.20668906 0.46900508 0
-1.520373 0.39118573 -0.056047164 0
-1.0081369 0.25938946 0.34632534 0
-0.76530778 0.19691056 0.46864665 0
-1.5136435 0.36919796 -0.055623293 0
-0.99493635 0.24267833 0.34071377 0
-0.77845794 0.18987635 0.47519749 0
-1.5269421 0.35213256 -0.05594461 0
-0.99931246 0.23045436 0.34119156 0
-0.77728969 0.17925303 0.47306898 0
-1.535906 0.33388969 -0.05611454 0
-1.0110286 0.21978694 0.34421957 0
-0.79742295 0.17335132 0.40830153 0
-0.78543007 0.17074418 0.476677 0
-1.544731 0.31549296 -0.056287356 0
-1.0180963 0.2079341 0.345707 0
-0.80890423 0.16520908 0.4130823 0
-0.81582475 0.16662252 0.49381098 0
-1.5420276 0.29476523 -0.056049157 0
-1.0145267 0.19393115 0.34363842 0
-0.82435465 0.15757895 0.34749228 0
-0.81184655 0.15518796 0.41355416 0
-0.80965823 0.15476966 0.48886004 0
-1.5456147 0.27532548 -0.056049082 0
-1.0188395 0.18148926 0.34429783 0
-0.82881349 0.1476393 0.34856054 0
-0.82003468 0.1460755 0.41675514 0
-0.81643927 0.14543505 0.49180964 0
-1.5452459 0.25522923 -0.055914726 0
-1.0224708 0.16888215 0.34477901 0
-0.83570904 0.13803458 0.35070169 0
-0.8295868 0.13702336 0.42069942 0
-0.83537483 0.13797939 0.50212967 0
-1.5529979 0.23646216 -0.056083046 0
-1.0146091 0.15448613 0.341445 0
-0.85353321 0.12996045 0.35746643 0
-0.82844353 0.12614025 0.41928092 0
-0.83756423 0.12752898 0.50244057 0
-1.5502073 0.21610236 -0.055879563 0
-1.026363 0.1430773 0.34476686 0
-0.85589772 0.11931406 0.35779911 0
