# .PCD v0.7 - Point Cloud Data file format
VERSION 0.7
FIELDS x y z intensity
SIZE 4 4 4 4
TYPE F F F F
COUNT 1 1 1 1
WIDTH 1364
HEIGHT 1
VIEWPOINT 0 0 0 1 0 0 0
POINTS 1364
DATA ascii
-0.67800337 -1.1036741 0.64808738 0
-0.80217773 -1.3434479 -0.055862438 0
-0.52261943 -0.87525743 0.036394425 0
-0.51978928 -0.87051767 0.10896252 0
-0.52236158 -0.8748256 0.18375942 0
-0.68758345 -1.151531 0.34218091 0
-0.682423 -1.1428885 0.44285774 0
-0.68320286 -1.1441947 0.55176371 0
-0.6857487 -1.1484584 0.6692614 0
-0.78403395 -1.3514346 -0.055779591 0
-0.50852573 -0.87654269 0.036178734 0
-0.51050061 -0.87994677 0.10932946 0
-0.50925392 -0.8777979 0.18302228 0
-0.69398069 -1.1962103 0.35283276 0
-0.68240643 -1.1762598 0.45242316 0
-0.6813969 -1.1745197 0.56220508 0
-0.68277872 -1.1769015 0.68077236 0
-0.76942313 -1.3655787 -0.055959046 0
-0.48661298 -0.86364484 0.035390671 0
-0.4886089 -0.86718726 0.10697123 0
-0.4903962 -0.87035936 0.18016949 0
-0.69938207 -1.2412692 0.36349684 0
-0.68624699 -1.2179569 0.4651005 0
-0.68244153 -1.211203 0.57560515 0
-0.75121534 -1.373417 -0.055888187 0
-0.47272146 -0.86425775 0.035169069 0
-0.47325602 -0.86523509 0.10598691 0
-0.47821808 -0.87430704 0.17972589 0
-0.69321549 -1.2673781 0.36855716 0
-0.68322378 -1.2491107 0.4736743 0
-0.68435103 -1.2511717 0.5904575 0
-0.73528594 -1.3854483 -0.055996563 0
-0.46373826 -0.87378985 0.035316534 0
-0.46249074 -0.87143922 0.10602509 0
-0.46081927 -0.86828983 0.17728209 0
-0.68066365 -1.2825273 0.37044072 0
-0.68190795 -1.2848718 0.48394072 0
-0.67871249 -1.2788509 0.59943914 0
-0.71900976 -1.3969798 -0.056092255 0
-0.45081574 -0.87589973 0.035169579 0
-0.44672227 -0.86794651 0.10490743 0
-0.45108125 -0.87641561 0.17776734 0
-0.67925149 -1.3197325 0.37868646 0
-0.68194371 -1.3249635 0.49576738 0
-0.67930931 -1.3198448 0.61459613 0
-0.70033669 -1.4038649 -0.056010168 0
-0.43569243 -0.87337029 0.034844965 0
-0.44196635 -0.88594675 0.10640198 0
-0.44543925 -0.89290833 0.17996065 0
-0.68151391 -1.3661335 0.38950747 0
-0.68522608 -1.3735747 0.51068741 0
-0.68219197 -1.3674926 0.63273335 0
-0.6806162 -1.4084564 -0.055846997 0
-0.4154574 -0.85974097 0.034089766 0
-0.42060643 -0.87039626 0.10389005 0
-0.42260957 -0.87454152 0.17517251 0
-0.68173081 -1.4107629 0.3997528 0
-0.68594682 -1.4194875 0.52450454 0
-0.66610146 -1.4239119 -0.056122791 0
-0.41010162 -0.87666613 0.034553368 0
-0.40573275 -0.86732686 0.10290571 0
-0.40791932 -0.87200105 0.173621 0
-0.68635142 -1.4671999 0.41326296 0
-0.68293095 -1.459888 0.53621256 0
-0.64754748 -1.4309212 -0.05607323 0
-0.39429581 -0.87129712 0.034143347 0
-0.39556628 -0.8741045 0.1031107 0
-0.39600661 -0.87507761 0.17322697 0
-0.68596143 -1.5158067 0.42448729 0
-0.68180025 -1.5066115 0.55017692 0
-0.63061666 -1.4415616 -0.056174561 0
-0.38281599 -0.87510031 0.034100778 0
-0.38354909 -0.8767761 0.10284797 0
-0.38189209 -0.87298828 0.17184781 0
-0.67869782 -1.551473 0.43204775 0
-0.68473655 -1.5652772 0.56840652 0
-0.61042219 -1.4446696 -0.055991706 0
-0.37013847 -0.87599665 0.033951394 0
-0.36418933 -0.86191702 0.10055904 0
-0.37131315 -0.87877673 0.17205322 0
-0.68124628 -1.612287 0.44655874 0
-0.58918613 -1.44489 -0.055708285 0
-0.35577145 -0.87247574 0.033638634 0
-0.3535246 -0.86696571 0.10062072 0
-0.35964686 -0.88197964 0.17178002 0
-0.68026823 -1.6682551 0.45965132 0
-0.57744038 -1.4687111 -0.056341901 0
-0.3433021 -0.87318385 0.033496607 0
-0.34125069 -0.86796606 0.10023016 0
-0.34261101 -0.87142611 0.16887088 0
-0.68223071 -1.7352439 0.4757039 0
-0.5562678 -1.46891 -0.056076378 0
-0.32860014 -0.86771882 0.033125602 0
-0.33026704 -0.8721205 0.10022171 0
-0.32944426 -0.86994785 0.16776721 0
-0.68134409 -1.7991931 0.49084413 0
-0.5376758 -1.4756535 -0.056070901 0
-0.31904191 -0.87561184 0.033270918 0
-0.31571615 -0.86648422 0.099109285 0
-0.31535417 -0.86549079 0.16612871 0
-0.51593804 -1.4734111 -0.055734415 0
-0.30533347 -0.87196845 0.032983769 0
-0.30529213 -0.87185043 0.099275485 0
-0.30478886 -0.87041312 0.16632366 0
-0.49766847 -1.4807526 -0.055770651 0
-0.28966698 -0.86186922 0.0324612 0
-0.2925052 -0.870314 0.098673314 0
-0.29265103 -0.87074786 0.16567032 0
-0.48137376 -1.4943182 -0.05604884 0
-0.28061894 -0.87111932 0.032673914 0
-0.28069204 -0.87134629 0.098381817 0
-0.28090858 -0.87201846 0.16522597 0
-0.46251249 -1.5002354 -0.05604789 0
-0.26840645 -0.87062061 0.03252586 0
-0.26947027 -0.87407124 0.098298565 0
-0.26877418 -0.87181336 0.16453278 0
-0.44268805 -1.5028915 -0.055934425 0
-0.25858623 -0.87788016 0.032672834 0
-0.25719282 -0.87314963 0.097822949 0
-0.25543818 -0.86719275 0.1630408 0
-0.42303705 -1.5058806 -0.055842988 0
-0.2452843 -0.87313598 0.032378744 0
-0.24719799 -0.87994814 0.09822809 0
-0.24471578 -0.87111223 0.1631854 0
-0.4035463 -1.5092316 -0.055774391 0
-0.23563161 -0.88124377 0.032566793 0
-0.23209077 -0.86800122 0.096560575 0
-0.23543085 -0.88049287 0.16437429 0
-0.38537502 -1.5175945 -0.05589968 0
-0.2230088 -0.87820148 0.097375177 0
-0.2227751 -0.87728119 0.16323809 0
-0.36596504 -1.5211996 -0.055858303 0
-0.21031582 -0.8742156 0.096631914 0
-0.20956959 -0.87111378 0.16158664 0
-0.34884357 -1.5347558 -0.056190327 0
-0.19803108 -0.87124825 0.16113627 0
-0.33208928 -1.5511605 -0.056633342 0
-0.18560696 -0.86695415 0.15989713 0
-0.30988875 -1.5420657 -0.05615437 0
-0.17611694 -0.87639165 0.16121595 0
-0.28992051 -1.5430396 -0.056052443 0
-0.16369027 -0.87120628 0.15987022 0
-0.26958627 -1.5415213 -0.05586955 0
-0.25077841 -1.5486416 -0.056008719 0
-0.23066664 -1.5477002 -0.055865195 0
-0.21303762 -1.5642617 -0.056361694 0
-0.19316059 -1.5654893 -0.056313824 0
-0.17315739 -1.5652981 -0.056224052 0
-0.15313542 -1.5642973 -0.056114394 0
-0.13331516 -1.5647901 -0.056067407 0
-0.11345661 -1.5643404 -0.055995662 0
-0.094037391 -1.5704329 -0.056166906 0
-0.074369825 -1.5738952 -0.056252785 0
-0.054494813 -1.5732095 -0.056199294 0
-0.03478748 -1.5785627 -0.056370407 0
-0.014837537 -1.5713383 -0.056101307 0
0.0049387366 -1.5682397 -0.055988457 0
0.024779301 -1.5740829 -0.056203753 0
0.044439983 -1.5681075 -0.056005936 0
0.064092375 -1.5652635 -0.055928752 0
0.084007762 -1.5682883 -0.056070186 0
0.10409337 -1.5723268 -0.056256972 0
0.062182818 -0.9392693 0.033606533 0
0.12462654 -1.5803248 -0.0565948 0
0.073131092 -0.92733759 0.033209939 0
0.14368574 -1.5695733 -0.0562701 0
0.08323507 -0.90923107 0.032596454 0
0.16252109 -1.5588529 -0.055954702 0
0.095767759 -0.91857517 0.032972064 0
0.18295577 -1.5636889 -0.056206528 0
0.10781731 -0.92149448 0.03312296 0
0.11562661 -0.98823911 0.10692985 0
0.11577265 -0.98948735 0.17967007 0
0.11598423 -0.99129564 0.2546365 0
0.11640788 -0.9949165 0.33326086 0
0.11590345 -0.99060524 0.41294402 0
0.20284024 -1.5628811 -0.056264844 0
0.12155702 -0.93659514 0.033718098 0
0.12889996 -0.99317241 0.10763074 0
0.12917691 -0.99530631 0.18100768 0
0.12779576 -0.9846645 0.25332645 0
0.12847447 -0.98989403 0.3320941 0
0.12844978 -0.98970377 0.41320974 0
0.12650847 -0.97474605 0.49179503 0
0.22121404 -1.5511669 -0.05593897 0
0.13812388 -0.96853352 0.034927748 0
0.13731857 -0.96288651 0.10452774 0
0.13690059 -0.95995563 0.17487842 0
0.13690068 -0.95995635 0.24739361 0
0.13853267 -0.9713999 0.32644895 0
0.13771549 -0.96566981 0.40386733 0
0.13707569 -0.96118349 0.48578459 0
0.24021018 -1.5449309 -0.05581874 0
0.14906508 -0.95872396 0.034638938 0
0.14999005 -0.96467298 0.10491839 0
0.15200894 -0.97765762 0.1784378 0
0.14929721 -0.96021694 0.24792561 0
0.14933473 -0.96045828 0.32337821 0
0.1513052 -0.97313148 0.40775248 0
0.14845587 -0.95480585 0.48346776 0
0.25886858 -1.5371814 -0.055652108 0
0.1671623 -0.99262244 0.035936899 0
0.16555479 -0.98307693 0.10713825 0
0.16571668 -0.98403823 0.17996895 0
0.16677313 -0.99031144 0.25621787 0
0.1646225 -0.97754091 0.32980159 0
0.16386786 -0.97305983 0.4085547 0
0.15779726 -0.93701214 0.47542635 0
0.27972895 -1.5422127 -0.055957355 0
0.6262601 -3.4527221 0.12527791 0
0.17135184 -0.9447037 0.48038563 0
0.30079719 -1.547169 -0.056270156 0
0.67116356 -3.4521711 0.12555462 0
0.18276459 -0.94006091 0.47915703 0
0.31648934 -1.525117 -0.055608671 0
0.71637595 -3.4521136 0.12587063 0
0.18933789 -0.91239238 0.46623242 0
0.33654878 -1.5250053 -0.055754699 0
0.76077098 -3.4472857 0.1260339 0
0.19923131 -0.90277797 0.46256477 0
0.35748863 -1.5281913 -0.056031317 0
0.80821091 -3.4549377 0.1266757 0
0.21016683 -0.89842057 0.4616515 0
0.37499577 -1.516668 -0.05577752 0
0.85194963 -3.4457047 0.12672046 0
0.5530051 -2.2366254 0.24760675 0
0.55268353 -2.2353246 0.41527751 0
0.21926203 -0.88680381 0.45706478 0
0.39416558 -1.5122206 -0.055792075 0
0.90037996 -3.4543176 0.12744407 0
0.22812936 -0.87522078 0.4525395 0
0.4182694 -1.5257205 -0.056479987 0
0.94706875 -3.4546208 0.12788512 0
0.24030095 -0.87654531 0.45475289 0
0.43270618 -1.5038568 -0.055867895 0
0.25619069 -0.89038271 0.46356866 0
0.45177296 -1.4988389 -0.055888392 0
0.25373125 -0.84179962 0.43990293 0
0.4697682 -1.4903632 -0.055788502 0
0.26638654 -0.84512466 0.4433583 0
0.49280569 -1.497424 -0.056280639 0
0.27245706 -0.82787961 0.4360767 0
0.51432985 -1.4989953 -0.056578629 0
0.29354909 -0.85553789 0.45255658 0
0.52631974 -1.4732444 -0.055852402 0
0.54486972 -1.4666131 -0.055856686 0
0.56429809 -1.4622407 -0.055956353 0
0.58462149 -1.459906 -0.056144271 0
0.59887415 -1.4425939 -0.055764083 0
0.62153274 -1.4455025 -0.056174599 0
0.64002156 -1.4383205 -0.056204237 0
0.36932656 -0.82998759 0.376131 0
0.65910363 -1.4323702 -0.056291573 0
0.67364985 -1.4167298 -0.056005839 0
0.39489329 -0.83048648 0.38074392 0
0.35383227 -0.74413252 0.48865512 0
0.6880942 -1.4013321 -0.055735253 0
1.1091024 -2.2587328 0.45381916 0
0.39708912 -0.8086884 0.37301323 0
0.36818489 -0.74982375 0.49539766 0
0.70780486 -1.3967421 -0.055902753 0
1.1459566 -2.2613661 0.45721129 0
0.40458879 -0.79839265 0.37058482 0
0.37012595 -0.73038566 0.48559597 0
0.72757131 -1.391997 -0.056075074 0
1.1722722 -2.2428033 0.45640653 0
0.41753832 -0.79883868 0.37320271 0
0.38044763 -0.72787637 0.48707414 0
0.74110281 -1.3754176 -0.055778701 0
1.2044071 -2.2352669 0.45792288 0
0.42711788 -0.79269087 0.37281367 0
0.38663545 -0.71755928 0.48338985 0
0.76749432 -1.382426 -0.056450382 0
1.2356902 -2.2257497 0.45912442 0
0.4414393 -0.79512924 0.37654495 0
0.39338988 -0.70858169 0.48064098 0
0.77985042 -1.3639264 -0.056091506 0
1.2725892 -2.2257063 0.46238434 0
0.47889996 -0.83757639 0.39947054 0
0.40096518 -0.70127165 0.47906929 0
0.78903103 -1.3405246 -0.055533309 0
1.3185436 -2.24014 0.46879506 0
0.49646407 -0.84346783 0.40522984 0
0.40715596 -0.69173777 0.47602105 0
0.81434834 -1.3445189 -0.056119137 0
1.3573761 -2.2410777 0.47253072 0
0.50096035 -0.82710391 0.40036702 0
0.42231694 -0.69726074 0.48344287 0
0.82824093 -1.3293885 -0.055918489 0
1.3977002 -2.243413 0.47669634 0
0.4287878 -0.68823642 0.48089144 0
0.84324753 -1.3162534 -0.055808205 0
1.4384743 -2.245363 0.48092148 0
0.43560332 -0.67994785 0.47889468 0
0.86362517 -1.3114101 -0.056059495 0
1.4724863 -2.2359624 0.4828411 0
0.57945824 -0.87990421 0.43621457 0
0.44395274 -0.6741398 0.47870338 0
0.88136202 -1.3023428 -0.056141865 0
1.5113715 -2.2332749 0.48633194 0
0.58969676 -0.87136424 0.43562758 0
0.45886078 -0.67803472 0.48553362 0
0.89892131 -1.2929128 -0.056218855 0
1.5549608 -2.2364902 0.49125713 0
0.60279328 -0.86699373 0.43720272 0
0.44943848 -0.64642453 0.46691355 0
0.91349238 -1.2791995 -0.056118291 0
0.61291426 -0.85828805 0.43667001 0
0.46046406 -0.64480603 0.46989533 0
0.92589909 -1.2626492 -0.055899281 0
0.62556911 -0.85308897 0.43799788 0
0.4717634 -0.64334404 0.47312152 0
0.94555885 -1.2559848 -0.056126915 0
1.6870416 -2.2408955 0.10014019 0
1.6851703 -2.2384098 0.30111119 0
0.64098132 -0.85141474 0.44124734 0
0.47491747 -0.63083231 0.46828112 0
0.96244872 -1.2454681 -0.056194086 0
0.65801853 -0.85151666 0.44555905 0
0.48303956 -0.62508309 0.46849138 0
0.971268 -1.224694 -0.055804174 0
0.68107891 -0.85878795 0.45381537 0
0.49036875 -0.61831713 0.46801123 0
0.99202198 -1.2190161 -0.056110207 0
0.4913241 -0.60374868 0.46163052 0
1.0048764 -1.2035352 -0.055975635 0
1.0220799 -1.1932732 -0.05609249 0
0.50551367 -0.59018463 0.46084899 0
1.037679 -1.1810551 -0.056127932 0
0.517712 -0.58924431 0.46516836 0
1.0550975 -1.1708142 -0.056268182 0
1.7705182 -1.964698 0.094421461 0
1.0676895 -1.1552008 -0.056159504 0
1.7702258 -1.9153191 0.093112268 0
0.5260911 -0.56921124 0.45966887 0
1.081274 -1.1407412 -0.056114022 0
0.94235849 -0.99418575 0.048904836 0
0.53974658 -0.56943125 0.46529827 0
1.0973434 -1.1288795 -0.056205802 0
0.94249851 -0.96958464 0.048274662 0
1.3922546 -1.4322661 0.21466328 0
0.54706478 -0.5627867 0.46546093 0
1.107302 -1.1107917 -0.05599501 0
0.95358247 -0.95658767 0.048221588 0
1.4000275 -1.4044397 0.21311809 0
0.54901654 -0.55074674 0.46118432 0
1.119217 -1.0948211 -0.055895954 0
0.96313703 -0.94214332 0.048101004 0
1.3069174 -1.2784302 0.19647837 0
1.3058401 -1.2773764 0.3294467 0
1.2976155 -1.2693311 0.4631196 0
0.55993629 -0.54773122 0.46452659 0
1.1314328 -1.0792298 -0.055822905 0
0.9800849 -0.93486494 0.048355665 0
1.3992877 -1.3347262 0.20782185 0
0.75629437 -0.72139984 0.34772491 0
0.56263882 -0.53667933 0.46112561 0
1.1475692 -1.067351 -0.055951487 0
1.0185704 -0.94736958 0.049661953 0
1.3922982 -1.2949729 0.20434572 0
0.74051875 -0.68875456 0.33645743 0
0.57235956 -0.53235012 0.46356174 0
1.1604785 -1.0524191 -0.055930331 0
1.3953228 -1.2653955 0.067248866 0
1.394721 -1.2648498 0.20234765 0
0.7559799 -0.68558586 0.33953285 0
0.58507127 -0.53059161 0.46840867 0
1.179832 -1.0432007 -0.056225523 0
1.3967075 -1.2349608 0.066560842 0
1.4057707 -1.2429744 0.20166399 0
1.3981789 -1.2362618 0.33659306 0
0.76794213 -0.67901003 0.34103826 0
0.58605725 -0.51818848 0.46393725 0
1.1843706 -1.0209329 -0.055824738 0
1.3990959 -1.206027 0.065945707 0
1.3869526 -1.1955595 0.19678918 0
1.3990399 -1.2059788 0.33311811 0
0.79023123 -0.68118292 0.34709993 0
0.5884859 -0.50727755 0.46076664 0
1.2075552 -1.0146981 -0.056310814 0
1.3960694 -1.1731051 0.065101624 0
1.4044477 -1.1801453 0.19714734 0
1.3934232 -1.1708815 0.32824412 0
1.4857426 -1.2484567 0.49511886 0
0.82591677 -0.69401073 0.35890737 0
0.83459455 -0.70130259 0.45135111 0
0.60513425 -0.50848907 0.46875125 0
1.2116961 -0.992419 -0.055916734 0
1.39966 -1.1463675 0.064590789 0
1.3939753 -1.1417116 0.19364382 0
1.3968856 -1.1440953 0.3256402 0
1.5126978 -1.2389493 0.49886301 0
0.85378557 -0.69927847 0.36716238 0
0.80972475 -0.6631912 0.4333508 0
0.61024243 -0.49980864 0.46779585 0
1.2182251 -0.97239751 -0.055648558 0
1.4005811 -1.1179557 0.06397859 0
1.4028618 -1.1197761 0.19290425 0
1.3946376 -1.1132115 0.32182282 0
1.5324574 -1.2232203 0.50026006 0
0.82853085 -0.6613403 0.3526926 0
0.80952364 -0.64616859 0.42885458 0
0.60772651 -0.4850924 0.46114811 0
1.2454638 -0.96871978 -0.056331139 0
1.4129444 -1.0989859 0.063906126 0
1.3930876 -1.0835413 0.189669 0
1.393663 -1.0839889 0.31842291 0
0.81477988 -0.63373446 0.42737767 0
0.62527317 -0.48633647 0.46977845 0
1.255785 -0.95161408 -0.056251518 0
1.4058943 -1.0653646 0.062975504 0
1.3938442 -1.0562333 0.18794627 0
1.3981358 -1.0594853 0.31637153 0
0.81546885 -0.61794949 0.42362392 0
0.62160313 -0.47104108 0.46252802 0
1.2619703 -0.93152153 -0.055998717 0
1.4040903 -1.0364271 0.062305152 0
1.4011786 -1.0342779 0.18716428 0
1.398268 -1.0321294 0.31343567 0
0.84729218 -0.62542748 0.43602991 0
0.63108718 -0.46583608 0.46518338 0
1.2711357 -0.91378701 -0.055890396 0
1.4133844 -1.0160459 0.062144909 0
1.3925867 -1.0010949 0.18431811 0
1.3985488 -1.005381 0.31063616 0
0.64516538 -0.46379289 0.47121838 0
1.2857933 -0.89998609 -0.05603214 0
1.4115275 -0.9879933 0.061511371 0
1.3922033 -0.9744674 0.1826288 0
1.3980923 -0.97858936 0.30777332 0
1.3995451 -0.97960621 0.43584692 0
0.64440835 -0.45105118 0.46648008 0
1.299238 -0.88523406 -0.056127816 0
1.443942 -0.98382789 0.062379111 0
1.3962415 -0.95132726 0.18157268 0
1.3927358 -0.94893867 0.30393961 0
1.3975104 -0.95219183 0.43144512 0
0.66730165 -0.45466509 0.47886992 0
1.3021381 -0.86340547 -0.055778995 0
1.471236 -0.97552884 0.063022554 0
1.4019105 -0.92956132 0.18077338 0
1.3943775 -0.92456645 0.30173323 0
1.3956971 -0.92544144 0.42725375 0
0.67129731 -0.44511545 0.47767711 0
1.3127826 -0.8468619 -0.05577375 0
1.5204198 -0.98080635 0.064595237 0
1.3990952 -0.9025411 0.17893067 0
1.4029387 -0.90502053 0.30109587 0
1.3982874 -0.9020201 0.42453599 0
0.6895681 -0.44483289 0.48665372 0
1.3236876 -0.83048224 -0.055788327 0
1.5458304 -0.96985483 0.065150797 0
1.3884544 -0.871117 0.17615299 0
1.3979264 -0.87705976 0.29762629 0
1.4014162 -0.87924922 0.42209095 0
0.68161404 -0.42764503 0.47720206 0
1.3364053 -0.81519276 -0.055887267 0
1.5896622 -0.96967667 0.066478245 0
1.4051898 -0.8571505 0.1768928 0
1.394423 -0.8505829 0.29457664 0
1.4020864 -0.85525751 0.41901591 0
0.69350815 -0.42303246 0.48176157 0
1.3518233 -0.80141938 -0.056105565 0
1.6315114 -0.96723056 0.067713633 0
1.3954971 -0.82731104 0.1743474 0
1.3957647 -0.82746977 0.29263571 0
1.3954345 -0.82727396 0.41388199 0
0.69791389 -0.41375357 0.48116469 0
1.3590416 -0.78274202 -0.055991635 0
1.4120003 -0.81324363 0.17511594 0
1.4039203 -0.80858994 0.29218769 0
1.3980482 -0.80520791 0.41161728 0
0.6966514 -0.40123737 0.47677311 0
1.3841636 -0.77416676 -0.056620527 0
1.4068332 -0.78684586 0.17323257 0
1.4013846 -0.78379846 0.28958288 0
1.3965589 -0.7810995 0.40825054 0
0.70171946 -0.39247373 0.47682151 0
1.3766984 -0.74739194 -0.055925738 0
1.3993565 -0.75969279 0.17112041 0
1.4084156 -0.76461083 0.28902331 0
1.3993374 -0.75968236 0.40623415 0
1.3805939 -0.72715116 -0.055707611 0
1.4063213 -0.74070162 0.170818 0
1.394153 -0.73429269 0.28417647 0
1.3984003 -0.73652965 0.40323767 0
1.39573 -0.71282029 -0.055951733 0
1.407812 -0.7189908 0.1698859 0
1.4057328 -0.71792889 0.28467152 0
1.401792 -0.71591628 0.40158436 0
1.3943163 -0.71209836 0.52087653 0
1.4041479 -0.69496876 -0.055933941 0
1.398085 -0.69196802 0.16764733 0
1.3973198 -0.6915893 0.28118196 0
1.3941194 -0.6900053 0.39686573 0
1.4002429 -0.69303608 0.51978916 0
1.4215424 -0.6814307 -0.056280572 0
1.4257973 -0.68347043 0.1699249 0
1.3994658 -0.67084807 0.27989176 0
1.3850384 -0.66393214 0.3918696 0
1.3942472 -0.66834652 0.51439857 0
1.4198469 -0.65876257 -0.055880599 0
1.4501885 -0.67284006 0.17180844 0
1.3955338 -0.64748204 0.27745271 0
1.398613 -0.6489107 0.39336717 0
1.3896976 -0.64477426 0.50968415 0
1.4390562 -0.64578122 -0.056312107 0
1.4906975 -0.66895545 0.17559578 0
1.4008064 -0.62861651 0.27690527 0
1.3863322 -0.62212116 0.38767907 0
1.3967201 -0.62678272 0.50932461 0
1.4352051 -0.62246323 -0.05585026 0
1.5300003 -0.6635769 0.17922693 0
1.4062243 -0.60989392 0.27643621 0
1.3982136 -0.60641962 0.38883543 0
1.4041944 -0.60901356 0.50921333 0
1.4526657 -0.60842103 -0.05622714 0
1.5539253 -0.65083164 0.18105517 0
1.3949437 -0.58424526 0.27275082 0
1.3973104 -0.58523649 0.3865042 0
1.4081616 -0.58978134 0.5079186 0
1.4524601 -0.58694965 -0.05592867 0
1.583138 -0.63975751 0.1835057 0
1.3935301 -0.56313562 0.27106643 0
1.3914273 -0.56228578 0.38288805 0
1.3886719 -0.56117231 0.49830034 0
1.4640461 -0.57029402 -0.056093831 0
1.6314483 -0.63550264 0.18816297 0
1.4088316 -0.54878616 0.272677 0
1.3878031 -0.54059488 0.37998745 0
1.3900768 -0.54148054 0.49631846 0
0.83942497 -0.3269836 0.45073754 0
1.4744296 -0.55305964 -0.056220382 0
1.4135278 -0.53021532 0.27227214 0
1.3922032 -0.52221644 0.37936163 0
1.3895059 -0.52120465 0.49373215 0
0.84582686 -0.31727028 0.45199403 0
1.4717548 -0.53101546 -0.055858996 0
1.4013108 -0.50559902 0.26867127 0
1.3992357 -0.50485033 0.37951559 0
1.386199 -0.50014657 0.49028039 0
0.82500941 -0.29766697 0.43883178 0
1.4843355 -0.51452595 -0.056086134 0
1.4003313 -0.48540697 0.26729038 0
1.3979231 -0.4845722 0.37747464 0
1.3969829 -0.48424628 0.49189886 0
1.3934489 -0.48302129 0.61061662 0
0.82402784 -0.28563872 0.43636188 0
1.4933209 -0.49666849 -0.05618488 0
1.4161615 -0.4710058 0.26915857 0
1.3910966 -0.46266934 0.37402844 0
1.4024817 -0.46645597 0.49172783 0
1.3961016 -0.46433398 0.60916853 0
0.85897249 -0.28568846 0.4529258 0
1.489971 -0.47480381 -0.055829473 0
1.4070177 -0.44836932 0.26632646 0
1.3986607 -0.44570625 0.37452352 0
1.3929547 -0.44388792 0.48638922 0
1.3977629 -0.44542018 0.60739797 0
0.86285377 -0.27496254 0.45311075 0
1.4999751 -0.45726886 -0.055984132 0
1.4048752 -0.42827755 0.26487911 0
1.4045229 -0.42817017 0.37461984 0
1.3958892 -0.42553815 0.48550433 0
1.3985541 -0.42635056 0.60536081 0
0.86657059 -0.26417488 0.45327976 0
1.5107679 -0.43984669 -0.05617578 0
1.4312705 -0.4167017 0.26884511 0
1.3972473 -0.40679619 0.37128356 0
1.4080226 -0.40993333 0.48789045 0
1.4031252 -0.40850747 0.60506487 0
0.88646621 -0.2580868 0.46195009 0
1.508411 -0.41863152 -0.055887699 0
1.4595088 -0.40505964 0.27316958 0
1.3870112 -0.38493925 0.36724639 0
1.400112 -0.38857517 0.48341557 0
1.4006524 -0.3887251 0.60183996 0
0.87491721 -0.24281706 0.45430234 0
1.5163941 -0.40035322 -0.055992257 0
1.4835124 -0.3916719 0.27671719 0
1.3947676 -0.36824182 0.36804321 0
1.3849099 -0.36563918 0.47653922 0
1.3932517 -0.36784157 0.59662241 0
0.88383216 -0.23334636 0.45736945 0
1.5255613 -0.38229239 -0.056148548 0
1.4975764 -0.37527958 0.27843699 0
1.3988879 -0.3505491 0.36793646 0
1.3936597 -0.34923899 0.47799891 0
1.3880839 -0.34784174 0.59248686 0
0.87985724 -0.22048457 0.45383981 0
1.5264977 -0.36216226 -0.056010723 0
1.5458113 -0.3667444 0.28652373 0
1.3960193 -0.33120617 0.36605597 0
1.3931911 -0.33053517 0.47637284 0
1.387879 -0.32927489 0.59058279 0
0.89977008 -0.21347085 0.46268782 0
1.5237684 -0.34130746 -0.055748463 0
1.5746485 -0.35270405 0.29102257 0
1.3975297 -0.31303135 0.36538947 0
1.4008644 -0.31377828 0.4776077 0
1.3986949 -0.31329235 0.59345949 0
0.90108186 -0.20183249 0.46201885 0
1.5383472 -0.32428709 -0.056127995 0
1.6083748 -0.33904907 0.29644319 0
1.4017062 -0.29548287 0.36547968 0
1.3900042 -0.29301605 0.47260958 0
1.3981099 -0.29472476 0.59158969 0
0.91447669 -0.19277376 0.46760514 0
1.5340422 -0.30325764 -0.055827171 0
1.6347103 -0.32315823 0.30052331 0
1.4104283 -0.27882096 0.36680934 0
1.4038868 -0.27752781 0.47610381 0
1.4058932 -0.27792445 0.59335524 0
0.92536467 -0.18293101 0.4719573 0
1.5333892 -0.28311503 -0.055669252 0
1.406 -0.25959471 0.36477861 0
1.3951156 -0.25758508 0.47199181 0
1.3997992 -0.25844982 0.58936298 0
0.94030315 -0.17361146 0.47842336 0
1.5513332 -0.2662743 -0.056194518 0
1.4076728 -0.2416161 0.36439437 0
1.3945521 -0.23936406 0.47074413 0
1.3910998 -0.23877148 0.58438802 0
0.94266373 -0.16180092 0.47854984 0
1.5525621 -0.24640247 -0.056122191 0
0.98232257 -0.15590148 0.035509109 0
0.98765463 -0.15674771 0.107471 0
0.9892779 -0.15700534 0.18064795 0
0.98660254 -0.15658073 0.25486425 0
0.99775714 -0.15835105 0.33610252 0
0.99081701 -0.1572496 0.4153682 0
0.96015459 -0.15238325 0.48641649 0
1.5458755 -0.22542478 -0.055773452 0
0.97028852 -0.14149074 0.035006922 0
0.96157372 -0.14021993 0.10443261 0
0.96515673 -0.14074241 0.17590572 0
0.95642328 -0.13946888 0.24659498 0
0.95797747 -0.13969551 0.32208434 0
0.96796995 -0.14115264 0.40501305 0
0.97040474 -0.1415077 0.49066764 0
1.5513544 -0.20630991 -0.055872966 0
0.9519971 -0.12660322 0.034286752 0
0.99027801 -0.13169406 0.10736145 0
0.98984361 -0.13163631 0.18008867 0
0.9864614 -0.13118652 0.25389364 0
0.98684174 -0.13123709 0.33120701 0
0.99542069 -0.13237798 0.41576841 0
0.98120868 -0.13048796 0.49526036 0
1.5641197 -0.187997 -0.056242999 0
0.93553197 -0.11244485 0.033640087 0
0.98545098 -0.11844479 0.10666797 0
0.97561723 -0.11726283 0.17721766 0
0.98402423 -0.1182733 0.25286302 0
0.97381634 -0.11704638 0.32631484 0
0.97911465 -0.1176832 0.40830639 0
1.5537375 -0.16693148 -0.055789661 0
0.92183983 -0.099041238 0.03310027 0
1.4172596 -0.15226848 0.36366925 0
1.3954281 -0.14992292 0.46692252 0
1.4009627 -0.15051757 0.58338708 0
1.5552977 -0.14731519 -0.055774659 0
0.91588449 -0.086751036 0.032844607 0
1.4011468 -0.13271426 0.35907739 0
1.3980374 -0.13241975 0.46720067 0
1.399038 -0.13251452 0.58184463 0
1.5743176 -0.12913854 -0.05639394 0
0.90886366 -0.074552514 0.032556586 0
1.4137554 -0.11596791 0.36190572 0
1.3915074 -0.11414294 0.46450126 0
1.3969043 -0.11458565 0.58031112 0
1.5761207 -0.10932669 -0.056404747 0
0.93916065 -0.06514433 0.033609811 0
1.4003402 -0.097133778 0.3581301 0
1.3856733 -0.096116416 0.46211314 0
1.399119 -0.097049072 0.58067751 0
1.5651858 -0.088781506 -0.055968974 0
1.4096428 -0.079958692 0.36022311 0
1.4009267 -0.079464294 0.46682936 0
1.3935618 -0.07904654 0.57791215 0
1.5712119 -0.069288805 -0.056148812 0
1.4173005 -0.062501468 0.36195016 0
1.391439 -0.061361004 0.46337354 0
1.3899686 -0.061296161 0.5760563 0
1.5624479 -0.04920033 -0.055809058 0
1.4094298 -0.044381902 0.3597689 0
1.3942959 -0.043905348 0.46410409 0
1.3896331 -0.043758515 0.57564324 0
1.5590712 -0.029450171 -0.055670783 0
1.4051688 -0.026543021 0.35856751 0
1.3861194 -0.026183186 0.46123609 0
1.39217 -0.026297478 0.5765112 0
1.5637594 -0.0098452019 -0.055829335 0
1.4140089 -0.0089023942 0.36076608 0
1.4004033 -0.0088167349 0.46591523 0
1.4047978 -0.0088444026 0.58164829 0
1.5640889 0.0098472768 -0.055841096 0
1.4078805 0.0088638114 0.3592025 0
1.3943467 0.0087786047 0.46390024 0
1.4037074 0.0088375378 0.58119684 0
1.5647838 0.029558079 -0.055874769 0
1.4158551 0.02674488 0.36129439 0
1.3948296 0.026347719 0.46413448 0
1.4000236 0.02644583 0.57976347 0
1.566077 0.049314603 -0.05593868 0
1.4136567 0.044515003 0.36084786 0
1.3959087 0.043956134 0.46464092 0
1.3931823 0.043870278 0.57711345 0
1.5720409 0.069325358 -0.056178432 0
1.4026427 0.061855078 0.35820687 0
1.398502 0.061672475 0.46572566 0
1.3977019 0.061637193 0.57926124 0
1.5610054 0.088544376 -0.055819485 0
1.4079925 0.079865083 0.35980138 0
1.4011812 0.079478726 0.46691415 0
1.3923974 0.078980491 0.57742929 0
1.5653759 0.10858138 -0.056020223 0
1.8554593 0.12870285 0.066401459 0
1.8598846 0.12900981 0.20036077 0
1.863117 0.12923402 0.3368181 0
1.4135885 0.09805274 0.36151826 0
1.388764 0.096330799 0.46314389 0
1.400524 0.097146526 0.58126056 0
1.5639547 0.12828849 -0.056022733 0
1.7886927 0.14672337 0.064073116 0
1.8125403 0.14867954 0.19544668 0
1.5675025 0.12857953 0.28364652 0
1.4100926 0.11566745 0.36096808 0
1.3913774 0.11413229 0.4644579 0
1.3971344 0.11460453 0.58040673 0
1.5514809 0.14695366 -0.055637781 0
1.7965819 0.1701692 0.064427368 0
1.8101015 0.17144977 0.19540101 0
1.4553597 0.13784921 0.26364699 0
1.3969531 0.13231705 0.35800266 0
1.395286 0.13215914 0.46628118 0
1.3963526 0.13226017 0.58072782 0
1.5696899 0.1686454 -0.056362461 0
1.2050298 0.1294668 0.043268707 0
1.1974115 0.1286483 0.12942556 0
1.2022114 0.12916398 0.21806502 0
1.2010291 0.12903696 0.30818439 0
1.3942928 0.14980097 0.46654269 0
1.4034973 0.15078989 0.58444256 0
1.5578963 0.18724898 -0.056019213 0
1.1150926 0.13402687 0.040096775 0
1.1123276 0.13369453 0.12040145 0
1.1140488 0.13390142 0.20236333 0
1.1056497 0.13289189 0.28411692 0
1.4023079 0.16854827 0.46989748 0
1.3979087 0.16801952 0.58295017 0
1.5497975 0.20610288 -0.055816893 0
1.1083785 0.14739989 0.039918922 0
1.1025726 0.14662778 0.11953592 0
1.104906 0.1469381 0.20102271 0
1.1051921 0.14697614 0.28445235 0
1.3983099 0.18595701 0.46930531 0
1.391502 0.18505163 0.58120412 0
1.556322 0.22694813 -0.056150351 0
1.1180869 0.16304322 0.040339325 0
1.1227148 0.16371804 0.12193348 0
1.1105114 0.16193852 0.20239748 0
1.1055896 0.1612208 0.28505456 0
1.3955393 0.20350225 0.46919823 0
1.3850026 0.20196575 0.57950574 0
1.555621 0.24688797 -0.056232769 0
1.1133238 0.17669229 0.040244557 0
1.103804 0.17518142 0.12010971 0
1.1133145 0.17669082 0.20329778 0
1.0973568 0.17415822 0.28347486 0
1.3980869 0.22188619 0.47095683 0
1.4009514 0.22234081 0.58730388 0
1.5397129 0.26427978 -0.055773593 0
1.1110915 0.19071023 0.040247481 0
1.1093464 0.19041069 0.12096412 0
1.1150297 0.19138619 0.20403488 0
1.1138524 0.19118412 0.28833514 0
1.3965167 0.23970124 0.47140726 0
1.4021473 0.24066769 0.58902895 0
1.5358546 0.28357023 -0.055758756 0
1.1024183 0.20354335 0.040022977 0
1.1123245 0.20537236 0.12156121 0
1.1117923 0.20527411 0.20389929 0
1.1053077 0.20407683 0.28676572 0
1.4049451 0.25939995 0.47531733 0
1.3959012 0.25773013 0.58772182 0
1.5401794 0.30447084 -0.056050513 0
1.1142133 0.22026362 0.040548671 0
1.1226856 0.22193846 0.12298919 0
1.1121509 0.2198559 0.20445658 0
1.1049736 0.21843705 0.28736988 0
1.3905905 0.27489933 0.47159463 0
1.3940532 0.27558386 0.58835816 0
1.5358973 0.32377064 -0.056038603 0
1.1185211 0.2357868 0.040810257 0
1.1084492 0.23366362 0.12174229 0
1.1034473 0.2326092 0.20337887 0
1.1107922 0.23415752 0.28962699 0
1.3940675 0.29387259 0.47399119 0
1.4013238 0.29540226 0.59294963 0
1.5246096 0.34149584 -0.055779237 0
1.1027368 0.24700099 0.040344637 0
1.1176137 0.25033322 0.12308528 0
1.1047937 0.24746169 0.20418517 0
1.1106685 0.24877758 0.29038852 0
1.3962361 0.31274161 0.47602972 0
1.4035838 0.31438741 0.59553379 0
1.5356363 0.36433038 -0.05634604 0
1.117763 0.26518977 0.041013308 0
1.10261 0.26159468 0.12178603 0
1.1104318 0.26345041 0.20582399 0
1.1009634 0.26120403 0.28868815 0
1.3996475 0.33206698 0.4785805 0
1.3927226 0.33042404 0.59264386 0
1.5200962 0.38092285 -0.055947401 0
1.1094289 0.2780132 0.040832721 0
1.1097937 0.2781046 0.12295653 0
1.1091099 0.27793327 0.20621131 0
1.1052496 0.27696592 0.29070354 0
1.3969221 0.3500565 0.47911784 0
1.3939878 0.34932119 0.59500682 0
1.5231785 0.40214437 -0.056242764 0
1.1019573 0.29093504 0.040689342 0
1.1064918 0.2921322 0.12298851 0
1.1039487 0.29146078 0.20591779 0
1.1015731 0.29083359 0.29067671 0
1.3939524 0.36802658 0.47965074 0
1.3953553 0.36839697 0.59752327 0
1.5101629 0.41911775 -0.055952609 0
1.1055771 0.30683243 0.040962417 0
1.109534 0.30793062 0.12374786 0
1.1120384 0.30862564 0.20813513 0
1.1078446 0.30746174 0.29332995 0
1.3887582 0.38542411 0.47949544 0
1.4038522 0.38961318 0.60321492 0
1.5052222 0.43823212 -0.055969574 0
1.111099 0.32348663 0.041314654 0
1.1059383 0.32198414 0.12378921 0
1.1174301 0.3253299 0.20989439 0
1.117852 0.32545272 0.29704124 0
1.391487 0.40511912 0.48216072 0
1.403597 0.40864486 0.60526836 0
1.4910147 0.4545373 -0.055649702 0
1.4157903 0.43160504 0.37762514 0
1.4064888 0.42876944 0.489191 0
1.397609 0.42606246 0.60495174 0
1.4801837 0.47168487 -0.055462737 0
1.41532 0.45101503 0.37898445 0
1.3943684 0.44433844 0.48688287 0
1.3929701 0.44389287 0.60531527 0
1.4921974 0.4962948 -0.05614261 0
1.3967551 0.46455136 0.37554988 0
1.4003538 0.46574822 0.49098176 0
1.3972315 0.46470979 0.60966158 0
1.4824804 0.51388294 -0.056016039 0
1.4024525 0.48614222 0.37869766 0
1.3911492 0.48222411 0.48984471 0
1.4014782 0.48580453 0.61413509 0
1.4731704 0.53152621 -0.055912722 0
1.4062823 0.50739276 0.38142684 0
1.3936253 0.50282604 0.49290699 0
1.3852667 0.49981022 0.60974073 0
1.4603246 0.54776883 -0.055682555 0
1.3921075 0.52218056 0.37933555 0
1.3925259 0.5223375 0.49480525 0
1.392862 0.5224635 0.6159308 0
1.4658252 0.57098705 -0.056161996 0
1.3943528 0.54314619 0.3817808 0
1.3865678 0.54011375 0.49506563 0
1.3883615 0.54081237 0.61690325 0
1.4582694 0.58929718 -0.056152362 0
1.3854587 0.55987388 0.38124567 0
1.3837143 0.55916893 0.49652141 0
1.3799644 0.55765361 0.61624342 0
1.4437498 0.60468674 -0.055882037 0
1.390005 0.58217674 0.38448349 0
1.3914458 0.58278018 0.50188917 0
1.383088 0.57927972 0.62084651 0
1.4362578 0.6229198 -0.055891227 0
1.3812859 0.59907794 0.38412791 0
1.3910517 0.60331345 0.50444728 0
1.3884641 0.60219121 0.62661391 0
1.4317651 0.64250934 -0.056026798 0
1.3935724 0.62537026 0.38970378 0
1.3709965 0.6152392 0.49994433 0
1.3804095 0.61946332 0.62644953 0
1.4197203 0.6587038 -0.055875614 0
1.3918368 0.64576674 0.39146134 0
1.3770236 0.6388939 0.50503582 0
1.3798933 0.64022535 0.62982392 0
1.4157099 0.67863482 -0.056049656 0
1.3742636 0.65876716 0.3888211 0
1.3824965 0.66271365 0.51006323 0
1.3794922 0.66127348 0.63339126 0
1.4012784 0.6935485 -0.055819631 0
1.3720767 0.67909551 0.39059082 0
1.3683673 0.6772595 0.5079565 0
1.3662614 0.6762172 0.63117599 0
1.3999156 0.71495795 -0.056119528 0
1.374998 0.70223218 0.39390841 0
1.3640419 0.6966368 0.50956684 0
1.3683823 0.69885343 0.6361708 0
1.3845611 0.72924066 -0.055867687 0
1.3594677 0.7160241 0.39201123 0
1.3601266 0.71637112 0.51143348 0
1.3501909 0.71113807 0.63182658 0
1.3719283 0.74480236 -0.055731963 0
1.3566959 0.73653287 0.39385512 0
1.3571362 0.73677194 0.51375687 0
1.3505265 0.73318356 0.63625348 0
1.3629968 0.76232809 -0.055754676 0
1.3506721 0.75543481 0.39483663 0
1.3537942 0.75718105 0.51606023 0
1.3468738 0.75331038 0.63895088 0
1.357756 0.78200155 -0.055938669 0
1.3437911 0.77395844 0.39564273 0
1.3487692 0.77682561 0.51783252 0
1.3307048 0.76642138 0.63580841 0
1.3471781 0.79866546 -0.055912774 0
1.3366743 0.79243839 0.39645386 0
1.342978 0.79617542 0.51941705 0
1.3368769 0.79255843 0.64347482 0
1.3354434 0.81460601 -0.055847045 0
1.3288178 0.81056446 0.39711949 0
1.323712 0.80745 0.51585722 0
1.3328367 0.81301594 0.64640659 0
1.335075 0.83762676 -0.056268267 0
1.3234417 0.83032799 0.39860591 0
1.3245158 0.83100188 0.52020711 0
1.3215114 0.82911688 0.64592624 0
1.3085122 0.84410703 -0.055592317 0
1.3160644 0.84897888 0.39957213 0
1.3165693 0.84930462 0.52124512 0
1.3123196 0.84656316 0.64659268 0
1.2997385 0.86181444 -0.055676207 0
1.3052777 0.86548722 0.39957437 0
1.3091185 0.86803401 0.52258134 0
1.3113086 0.86948621 0.65143746 0
1.30413 0.88856715 -0.056339152 0
1.295224 0.8824991 0.39986682 0
1.2941979 0.8818 0.52101642 0
1.2925799 0.88069755 0.64759123 0
1.2847689 0.89926904 -0.0559875 0
1.2902699 0.90311944 0.4018164 0
1.2892919 0.90243495 0.52357465 0
1.2875497 0.90121555 0.6507051 0
1.280439 0.92047489 -0.056299452 0
1.2836231 0.92276388 0.4033331 0
1.2786546 0.91919208 0.52391374 0
1.2842083 0.92318457 0.65483952 0
1.2634135 0.93258691 -0.056062758 0
1.2608815 0.93071783 0.39983818 0
1.2675241 0.93562108 0.52413899 0
1.2725636 0.93934095 0.65488124 0
1.2458091 0.94405454 -0.055804659 0
1.2613438 0.95582652 0.40376949 0
1.2615932 0.95601553 0.52662271 0
1.2622468 0.95651084 0.65571845 0
1.2318922 0.95816374 -0.055717304 0
1.2472688 0.97012371 0.40314245 0
1.2479984 0.97069114 0.52600843 0
1.2477133 0.97046942 0.6544649 0
1.2281673 0.98033351 -0.056102719 0
1.2416925 0.99112946 0.40534189 0
1.2460312 0.99459249 0.53041589 0
1.2403386 0.99004871 0.65708381 0
1.2111262 0.99195224 -0.055890433 0
1.2273772 1.0052623 0.40476891 0
1.2244071 1.0028297 0.52654463 0
1.2303115 1.0076655 0.65844166 0
1.2037437 1.0114955 -0.056133077 0
1.2189026 1.0242333 0.40619528 0
1.2171371 1.0227498 0.52891463 0
1.2157278 1.0215656 0.65746903 0
1.1818212 1.0187353 -0.055704571 0
1.2764015 1.100264 0.060162567 0
1.2758073 1.0997517 0.1810192 0
1.2843158 1.1070862 0.30580178 0
1.2091919 1.042329 0.40730089 0
1.2054608 1.0391127 0.52948475 0
1.2059963 1.0395743 0.65923339 0
1.1740774 1.0381126 -0.055951286 0
1.2398416 1.0962608 0.05908531 0
1.2472259 1.10279 0.17892002 0
1.2406594 1.0969839 0.29867232 0
1.191039 1.0531099 0.40562093 0
1.1923422 1.054262 0.52951163 0
1.2035657 1.064186 0.66517705 0
1.1561424 1.0484866 -0.055721346 0
1.2106484 1.0979174 0.05834832 0
1.2037508 1.091662 0.17464149 0
1.2134267 1.1004369 0.29542887 0
1.1763154 1.0667813 0.40514934 0
1.1854652 1.0750791 0.53242737 0
1.1890813 1.0783585 0.66462398 0
1.1535809 1.0729425 -0.056244601 0
1.200583 1.116659 0.058536258 0
1.1980792 1.1143303 0.17584047 0
1.2034791 1.1193526 0.29641515 0
1.1741464 1.0920705 0.40910619 0
1.1695707 1.0878146 0.53139877 0
1.1649238 1.0834925 0.6586951 0
1.1302009 1.0780547 -0.055762123 0
1.1778705 1.123525 0.058114063 0
1.1821133 1.1275719 0.17556717 0
1.1899874 1.1350827 0.29658905 0
1.1566551 1.1032884 0.40782008 0
1.1531851 1.0999784 0.53020519 0
1.153001 1.0998027 0.65973186 0
1.1240929 1.0995909 -0.056139469 0
1.1727196 1.1471575 0.058567982 0
1.1697631 1.1442655 0.17585897 0
1.1706603 1.145143 0.29534256 0
1.1445668 1.1196184 0.40849644 0
1.1455442 1.1205745 0.53313744 0
1.1437699 1.1188388 0.66245878 0
1.1100581 1.1135565 -0.056134384 0
1.1647156 1.1683862 0.058898352 0
1.1663077 1.1699834 0.17754029 0
1.1592159 1.1628692 0.2961261 0
1.132566 1.1361352 0.40928686 0
1.1288673 1.1324248 0.53197032 0
1.1377641 1.1413498 0.66725159 0
1.0936186 1.1250477 -0.056015015 0
1.1550215 1.1882154 0.059160069 0
1.1620464 1.195442 0.17916887 0
1.1525536 1.1856765 0.29821452 0
1.1210836 1.1533021 0.41035303 0
1.1150702 1.1471158 0.53223336 0
1.1173244 1.1494348 0.66370028 0
1.075704 1.1348649 -0.055824965 0
1.1620175 1.2259254 0.060304306 0
1.1680241 1.2322624 0.18246852 0
1.1745991 1.2391989 0.30793169 0
1.0994072 1.1598717 0.40773246 0
1.1064222 1.1672726 0.53507888 0
1.1012703 1.1618372 0.66280186 0
1.0600635 1.1469498 -0.055758379 0
1.0897552 1.179075 0.40962669 0
1.0940162 1.1836853 0.53624505 0
1.0945822 1.1842976 0.66769904 0
1.0582492 1.1743116 -0.056436267 0
1.078184 1.1964327 0.41090769 0
1.0779109 1.1961297 0.53569114 0
1.0740763 1.1918745 0.66429287 0
1.0383348 1.1818016 -0.056163408 0
1.0614078 1.2080625 0.41027907 0
1.0581961 1.2044071 0.53338826 0
1.0582118 1.204425 0.66380841 0
1.0250959 1.1967944 -0.056258012 0
1.0445305 1.2194841 0.40965858 0
1.0471852 1.2225834 0.53555566 0
1.0440546 1.2189285 0.6645034 0
1.0083466 1.2076914 -0.056168936 0
1.0376214 1.2427537 0.41305354 0
1.0329823 1.2371976 0.53621697 0
1.0288041 1.2321934 0.66461968 0
0.98779023 1.213816 -0.055870853 0
1.0120159 1.2435851 0.40906188 0
1.0099747 1.2410768 0.53234404 0
1.0090538 1.2399452 0.66189492 0
0.97213089 1.225782 -0.055853751 0
0.99562263 1.2554033 0.40879297 0
0.9915545 1.2502737 0.53089118 0
0.99663794 1.2566836 0.66407812 0
0.95829624 1.2400947 -0.055951636 0
0.97736204 1.2647669 0.40780219 0
0.98144203 1.2700467 0.53399718 0
0.97937524 1.2673721 0.66315687 0
0.94077635 1.2496321 -0.055843033 0
0.96854609 1.2865187 0.41085061 0
0.96199816 1.2778211 0.53213048 0
0.97298396 1.2924135 0.66979581 0
0.92357129 1.2594748 -0.055758744 0
0.94941252 1.2947145 0.40961757 0
0.95211715 1.2984027 0.53566623 0
0.95113766 1.297067 0.66594768 0
0.9101004 1.2744496 -0.055909913 0
0.9343484 1.3084049 0.41019407 0
0.94059747 1.3171557 0.53847378 0
0.93039739 1.3028722 0.66286045 0
0.89348978 1.2851007 -0.055879164 0
0.91891754 1.3216733 0.41069359 0
0.91389066 1.3144431 0.53261799 0
0.91748089 1.3196069 0.6654439 0
0.88140953 1.302413 -0.056144886 0
0.90290606 1.3341773 0.41101351 0
0.89969444 1.3294317 0.53405845 0
0.89957309 1.3292524 0.66454297 0
0.86220586 1.3092549 -0.055967364 0
0.88879693 1.3496333 0.41229445 0
0.88347948 1.3415588 0.5344187 0
0.8794632 1.3354601 0.66205746 0
0.84895498 1.3251624 -0.056185935 0
0.86488813 1.350033 0.40905714 0
0.85759091 1.3386426 0.52891326 0
0.86866409 1.355927 0.66672844 0
0.82532734 1.3247119 -0.055721775 0
0.84763652 1.3605199 0.40896812 0
0.84752607 1.3603425 0.53322816 0
0.84495431 1.3562146 0.66158569 0
0.80753511 1.3332701 -0.05564962 0
0.83224326 1.3740641 0.4098568 0
0.8257367 1.3633215 0.53027803 0
0.82767165 1.3665162 0.66147435 0
0.79467815 1.3501188 -0.055930763 0
0.81472135 1.3841711 0.40977892 0
0.81273973 1.3808044 0.53305531 0
0.80745244 1.3718216 0.65906852 0
0.77265352 1.3513393 -0.055573866 0
0.79603219 1.3922276 0.40916407 0
0.78685969 1.3761853 0.5274052 0
0.79766893 1.3950902 0.66536909 0
0.76255345 1.3735266 -0.056086976 0
0.77070791 1.3882145 0.40510032 0
0.78173357 1.4080741 0.53581119 0
0.77500153 1.3959482 0.66107148 0
0.74565029 1.3838574 -0.056120969 0
0.75857282 1.4078403 0.40800762 0
0.75866109 1.408004 0.53210711 0
0.75180459 1.395279 0.65621936 0
0.72442108 1.38597 -0.055832282 0
0.73747391 1.4109427 0.40618324 0
0.7408731 1.4174461 0.53210753 0
0.73574626 1.4076375 0.65762228 0
0.71095777 1.4029639 -0.05615177 0
0.71635979 1.4136239 0.40432623 0
0.71738505 1.4156471 0.52799916 0
0.72039175 1.4215804 0.65984589 0
0.69392431 1.4132055 -0.056207493 0
0.69617689 1.4177929 0.40297931 0
0.6968022 1.4190664 0.52596021 0
0.69784343 1.4211869 0.65553248 0
0.67674291 1.4232348 -0.056262992 0
0.68293804 1.4362636 0.40575275 0
0.67813307 1.4261583 0.52538216 0
0.67800111 1.4258808 0.65370774 0
0.65706563 1.4279411 -0.056117512 0
0.66005969 1.4344479 0.40285978 0
0.66013086 1.4346025 0.52538902 0
0.65871179 1.4315186 0.65243798 0
0.63538438 1.4278994 -0.055797014 0
0.6357469 1.428714 0.39896953 0
0.64148498 1.4416091 0.52495515 0
0.63915324 1.4363692 0.65092891 0
0.62163633 1.4457434 -0.05618396 0
0.62135899 1.4450985 0.40132815 0
0.62541497 1.4545314 0.52675116 0
0.6230098 1.4489377 0.6530177 0
0.60135013 1.4485581 -0.05599463 0
0.60323375 1.4530954 0.40140769 0
0.6026684 1.4517336 0.52294821 0
0.60693622 1.4620141 0.6554147 0
0.58315957 1.4562554 -0.056003876 0
0.58484459 1.4604632 0.40137672 0
0.58836365 1.4692508 0.52654773 0
0.58434731 1.4592214 0.65081245 0
0.56415701 1.4618752 -0.055942364 0
0.56333643 1.4597489 0.39919925 0
0.56547725 1.4652963 0.52253723 0
0.56776345 1.4712204 0.65292364 0
0.54727787 1.4730949 -0.05610355 0
0.5441606 1.4647043 0.39864895 0
0.54591739 1.4694331 0.52151966 0
0.54707056 1.4725369 0.65039915 0
0.52815986 1.4783951 -0.056047667 0
0.52530259 1.4703974 0.39836648 0
0.52752107 1.4766071 0.52166688 0
0.5232833 1.4647449 0.643996 0
0.50792712 1.4803348 -0.055874296 0
0.50519383 1.4723686 0.3971456 0
0.50322974 1.4666444 0.51586759 0
0.50821722 1.4811802 0.64835697 0
0.4900817 1.4891471 -0.055969544 0
0.48451465 1.4722313 0.39543152 0
0.48444638 1.4720237 0.51557314 0
0.48504367 1.4738387 0.64241886 0
0.47161266 1.4962149 -0.056007545 0
0.46618235 1.478987 0.39563799 0
0.46518588 1.4758257 0.51481229 0
0.4681066 1.4850917 0.64470345 0
0.4555003 1.5112052 -0.056349501 0
0.44350311 1.4714023 0.392084 0
0.44179371 1.465731 0.50931001 0
0.44541702 1.477752 0.63903165 0
0.43390831 1.5080347 -0.056023106 0
0.45072591 1.5664837 0.058194473 0
0.45074543 1.5665516 0.17518666 0
0.45284423 1.573846 0.29535693 0
0.42586356 1.4800754 0.39293504 0
0.42492428 1.4768111 0.51126027 0
0.42514834 1.4775896 0.6365959 0
0.41508061 1.5140887 -0.056049395 0
0.42272338 1.5419672 0.057081416 0
0.42319885 1.5437016 0.17202179 0
0.42507881 1.550559 0.28995928 0
0.40784034 1.4876784 0.39355889 0
0.40555725 1.4793503 0.51033098 0
0.40755188 1.4866263 0.63822752 0
0.39502195 1.515506 -0.055913292 0
0.39958331 1.5330058 0.056558929 0
0.40037802 1.5360547 0.17059432 0
0.39825144 1.527896 0.28476086 0
0.3890301 1.4925183 0.3935121 0
0.3867327 1.4837043 0.51011258 0
0.38675535 1.4837911 0.63486928 0
0.37530094 1.5179021 -0.055822909 0
0.3798404 1.5362619 0.056498118 0
0.38077185 1.5400293 0.17048971 0
0.38082668 1.5402509 0.28614706 0
0.36946812 1.4943113 0.39272708 0
0.36677101 1.483403 0.50838077 0
0.36675775 1.4833493 0.63265401 0
0.3606132 1.5415483 -0.056521047 0
0.35894316 1.5344092 0.056259293 0
0.3591173 1.5351535 0.1694359 0
0.3573226 1.5274816 0.28291643 0
0.34824118 1.4886605 0.39005855 0
0.34541157 1.4765644 0.50450647 0
0.34655601 1.4814565 0.62993562 0
0.33813548 1.5321952 -0.056017563 0
0.34081766 1.544349 0.056461908 0
0.3391456 1.5367724 0.1691298 0
0.34078729 1.5442114 0.28519765 0
0.32801956 1.4863569 0.3883419 0
0.32762876 1.4845861 0.50579762 0
0.32584965 1.4765244 0.62604398 0
0.31935328 1.538918 -0.05611188 0
0.32374683 1.5600899 0.056883849 0
0.32240945 1.5536453 0.17052643 0
0.32118705 1.5477546 0.28508249 0
0.31157467 1.501434 0.39122501 0
0.30494982 1.4695097 0.49931327 0
0.30805609 1.4844785 0.62772202 0
0.29899126 1.5378801 -0.055932321 0
0.3042061 1.5647029 0.056907859 0
0.30459827 1.5667199 0.17152691 0
0.30436409 1.5655154 0.2876251 0
0.29140389 1.4988538 0.38956571 0
0.28753367 1.478947 0.50124991 0
0.28876922 1.4853022 0.62648308 0
0.28027663 1.5452322 -0.056066912 0
0.29068998 1.6026435 0.058150012 0
0.29043561 1.6012411 0.17489208 0
0.29111198 1.6049701 0.29417714 0
0.26984891 1.4877417 0.38576382 0
0.26816633 1.4784652 0.49990249 0
0.26646507 1.4690857 0.6181789 0
0.26161712 1.5535024 -0.056242999 0
0.25040093 1.4868997 0.38469741 0
0.24844614 1.4752921 0.49773228 0
0.24789928 1.4720447 0.61806148 0
0.24015698 1.5445888 -0.05580638 0
0.23092379 1.4852048 0.38347617 0
0.23018894 1.4804785 0.49846464 0
0.22927822 1.4746212 0.61788207 0
0.21982342 1.5414158 -0.055587322 0
0.21069595 1.4774134 0.38074923 0
0.20880322 1.4641415 0.49203986 0
0.21053596 1.4762915 0.61742216 0
0.2027268 1.5620072 -0.05623338 0
0.19317602 1.4884185 0.38292813 0
0.19018024 1.4653361 0.49159753 0
0.19103488 1.4719211 0.61453956 0
0.18257651 1.5604475 -0.056090016 0
0.17236678 1.4731869 0.37842107 0
0.17110765 1.4624252 0.48985931 0
0.1721454 1.4712946 0.61332434 0
0.16234265 1.5571414 -0.055893268 0
0.15339077 1.4712776 0.37740454 0
0.15288565 1.4664326 0.49051785 0
0.15269662 1.4646195 0.60969186 0
0.14273757 1.5592158 -0.055898782 0
0.13417825 1.4657167 0.37551492 0
0.13281482 1.4508232 0.48469871 0
0.1339186 1.4628804 0.60821772 0
0.12342992 1.5651511 -0.0560514 0
0.11521097 1.4609307 0.37388745 0
0.11395288 1.4449776 0.48222819 0
0.11510587 1.4595981 0.6062023 0
0.10397933 1.5706041 -0.056195341 0
0.097134188 1.4672086 0.37515131 0
0.096306458 1.4547057 0.48503155 0
0.096026599 1.4504784 0.60186487 0
0.084251463 1.5728378 -0.056232844 0
0.078166373 1.459239 0.37283233 0
0.076799937 1.4337299 0.47767743 0
0.07722161 1.4416019 0.5977307 0
0.064751327 1.5813563 -0.056503769 0
0.059163645 1.444894 0.36894763 0
0.059060287 1.4423698 0.48027012 0
0.059196599 1.4456987 0.59907287 0
0.044495221 1.5700567 -0.056075554 0
0.041094616 1.4500631 0.37010607 0
0.040630527 1.4336872 0.47717088 0
0.040517498 1.4296989 0.59218436 0
0.02467446 1.567423 -0.055965953 0
0.022730788 1.443953 0.36844429 0
0.022280272 1.4153342 0.4709318 0
0.022387641 1.4221548 0.58889616 0
0.0049448009 1.5701654 -0.056057211 0
0.0044975462 1.4281448 0.36436728 0
0.004445116 1.411496 0.46959886 0
0.0044755335 1.4211547 0.58841211 0
-0.014814901 1.5689412 -0.056015722 0
-0.013482261 1.4278107 0.36429647 0
-0.013376239 1.4165826 0.47130981 0
-0.013329313 1.411613 0.58448458 0
-0.0345302 1.566888 -0.055953506 0
-0.03114233 1.4131556 0.36062875 0
-0.031238927 1.4175388 0.47172141 0
-0.031096766 1.411088 0.58438301 0
-0.054402974 1.5705582 -0.056104582 0
-0.048481058 1.3995986 0.35729656 0
-0.048522547 1.4007963 0.46631625 0
-0.048837971 1.4099022 0.58410031 0
-0.074343011 1.5733278 -0.056232501 0
-0.066029921 1.3973972 0.35691854 0
-0.066125363 1.3994169 0.46609733 0
-0.065912396 1.39491 0.57818729 0
-0.093487322 1.5612466 -0.055838358 0
-0.082900211 1.3844409 0.35384789 0
-0.082428224 1.3765588 0.4587934 0
-0.082675949 1.3806958 0.57268167 0
-0.082926892 1.3848865 0.69415557 0
-0.11342707 1.563933 -0.055981081 0
-0.10049763 1.3856618 0.35445526 0
-0.099314198 1.3693446 0.45676956 0
-0.099723794 1.3749921 0.57079148 0
-0.0995984 1.3732631 0.68890351 0
-0.13377014 1.5701305 -0.056258753 0
-0.11668669 1.3696132 0.45731303 0
-0.11615574 1.363381 0.56653374 0
-0.11596934 1.3611931 0.68352693 0
-0.15212256 1.5539509 -0.055743247 0
-0.13289583 1.3575474 0.45380709 0
-0.13289516 1.3575405 0.56475735 0
-0.13273928 1.3559482 0.68167847 0
-0.17325856 1.5662125 -0.056256898 0
-0.14949992 1.3514407 0.5629583 0
-0.1482583 1.3402166 0.67465472 0
-0.19123542 1.5498867 -0.055752564 0
-0.16606495 1.3458899 0.56147265 0
-0.16532612 1.339902 0.67549086 0
-0.21121471 1.5508766 -0.055879418 0
-0.18157007 1.3332063 0.6732145 0
-0.23098302 1.5498229 -0.055941816 0
-0.19512984 1.3092594 0.6623106 0
-0.24962515 1.5415199 -0.055751152 0
-0.27006647 1.5442672 -0.055969071 0
-0.2873964 1.5296055 -0.055564441 0
-0.30939016 1.5395848 -0.056064025 0
-0.32853645 1.5345656 -0.056027461 0
-0.34589851 1.5217988 -0.055715948 0
-0.36753684 1.5277331 -0.056098212 0
-0.3865864 1.5223647 -0.05607539 0
-0.40652695 1.5203788 -0.056186344 0
-0.425154 1.5134163 -0.056122437 0
-0.44282252 1.503348 -0.055951416 0
-0.45902827 1.4889338 -0.055625666 0
-0.48511446 1.5059304 -0.056484386 0
-0.49910846 1.4850371 -0.055932023 0
-0.51819497 1.4798564 -0.05597822 0
-0.54015577 1.4824598 -0.056329522 0
-0.55752206 1.4722221 -0.056202818 0
