# .PCD v0.7 - Point Cloud Data file format
VERSION 0.7
FIELDS x y z intensity
SIZE 4 4 4 4
TYPE F F F F
COUNT 1 1 1 1
WIDTH 1364
HEIGHT 1
VIEWPOINT 0 0 0 1 0 0 0
POINTS 1364
DATA ascii
-0.67933244 -1.3617605 0.38826066 0
-0.68432969 -1.3717778 0.51001936 0
-0.68731171 -1.3777555 0.63748193 0
-0.6772359 -1.4014612 -0.05556963 0
-0.41877225 -0.86660063 0.034361761 0
-0.424236 -0.87790722 0.10478655 0
-0.42144805 -0.8721379 0.17469105 0
-0.67981249 -1.4067931 0.39862791 0
-0.68125683 -1.4097821 0.52091837 0
-0.66656756 -1.4249083 -0.056162067 0
-0.41349617 -0.88392258 0.034839377 0
-0.41098645 -0.87855762 0.1042382 0
-0.40896696 -0.87424058 0.1740669 0
-0.67913026 -1.4517634 0.40891501 0
-0.68326783 -1.4606082 0.53647709 0
-0.64652973 -1.4286722 -0.055985097 0
-0.3986727 -0.88096899 0.034522358 0
-0.38950598 -0.86071277 0.10153098 0
-0.39522937 -0.87336004 0.17288697 0
-0.68363005 -1.5106548 0.42304459 0
-0.68351656 -1.5104041 0.55156195 0
-0.62851137 -1.436749 -0.055987023 0
-0.3816615 -0.8724612 0.033997938 0
-0.3853313 -0.88085014 0.10332586 0
-0.38619366 -0.8828215 0.17378348 0
-0.68300164 -1.5613112 0.43478748 0
-0.682028 -1.5590855 0.56615806 0
-0.61351418 -1.4519874 -0.056275327 0
-0.36503255 -0.86391264 0.033483047 0
-0.37177756 -0.87987584 0.10265428 0
-0.36747199 -0.86968595 0.17027336 0
-0.68248314 -1.6152143 0.44736952 0
-0.59160566 -1.4508237 -0.055937059 0
-0.35749823 -0.87671041 0.033801902 0
-0.35850492 -0.87917918 0.10203823 0
-0.35937831 -0.88132101 0.17165175 0
-0.67884803 -1.6647723 0.45869169 0
-0.5730173 -1.457461 -0.055910334 0
-0.34665397 -0.88170928 0.033823658 0
-0.34223261 -0.87046361 0.10051856 0
-0.3419601 -0.86977047 0.16855004 0
-0.68207175 -1.7348396 0.47559306 0
-0.55504984 -1.4656938 -0.0559536 0
-0.33242735 -0.8778252 0.033511419 0
-0.33349314 -0.88063949 0.10120068 0
-0.33060542 -0.87301409 0.16835853 0
-0.68357652 -1.8050882 0.49245241 0
-0.53516978 -1.4687757 -0.055809565 0
-0.31725308 -0.87070233 0.03308437 0
-0.31909996 -0.87577116 0.10017153 0
-0.31929079 -0.87629485 0.16820252 0
-0.51904964 -1.4822971 -0.056070544 0
-0.30435044 -0.86916113 0.032877579 0
-0.30595317 -0.87373823 0.099490449 0
-0.30542719 -0.87223613 0.16667202 0
-0.49543566 -1.4741092 -0.055520434 0
-0.29207274 -0.86902732 0.032730799 0
-0.29208535 -0.86906481 0.098531678 0
-0.29483604 -0.87724918 0.16690728 0
-0.47942665 -1.4882739 -0.055822127 0
-0.28036228 -0.87032264 0.032644033 0
-0.28173849 -0.87459475 0.098748587 0
-0.28213033 -0.87581116 0.16594458 0
-0.46166345 -1.4974815 -0.055945002 0
-0.267845 -0.86879939 0.032457817 0
-0.26633304 -0.86389506 0.097154148 0
-0.26995295 -0.87563682 0.16525437 0
-0.4430846 -1.5042378 -0.055984531 0
-0.25808299 -0.87617171 0.032609247 0
-0.25323153 -0.85970134 0.096316271 0
-0.2586751 -0.87818182 0.16510685 0
-0.42459106 -1.5114125 -0.056048129 0
-0.24606067 -0.87589961 0.032481227 0
-0.24607961 -0.87596703 0.097783685 0
-0.24467622 -0.87097138 0.16315903 0
-0.40584975 -1.5178461 -0.056092747 0
-0.23637016 -0.88400584 0.03266887 0
-0.23700877 -0.88639414 0.098606683 0
-0.23368868 -0.87397736 0.16315794 0
-0.3837176 -1.5110675 -0.055659264 0
-0.22162998 -0.87277168 0.096773125 0
-0.22041975 -0.86800587 0.16151221 0
-0.36541304 -1.5189052 -0.055774048 0
-0.2098292 -0.87219286 0.16178681 0
-0.34726292 -1.5278016 -0.055935722 0
-0.19814606 -0.87175411 0.16122982 0
-0.32793322 -1.5317479 -0.055924587 0
-0.18755876 -0.87607086 0.16157858 0
-0.30940738 -1.5396703 -0.056067143 0
-0.17521688 -0.87191278 0.16039205 0
-0.28914014 -1.5388861 -0.055901568 0
-0.26905182 -1.5384653 -0.055758789 0
-0.25232813 -1.5582116 -0.056354832 0
-0.23124951 -1.5516109 -0.056006357 0
-0.2101153 -1.542804 -0.055588558 0
-0.19141506 -1.5513424 -0.055804931 0
-0.1727715 -1.5618097 -0.056098752 0
-0.15201424 -1.5528444 -0.055703554 0
-0.13290294 -1.5599517 -0.055894043 0
-0.11301652 -1.5582724 -0.055778459 0
-0.09375383 -1.5656973 -0.055997536 0
-0.074209906 -1.5705109 -0.056131821 0
-0.053748868 -1.5516748 -0.055430017 0
-0.034528714 -1.5668206 -0.055951096 0
-0.014789658 -1.5662678 -0.055920273 0
0.004963309 -1.5760424 -0.056267027 0
0.024772495 -1.5736506 -0.056188315 0
0.044193268 -1.559402 -0.055695012 0
0.064152114 -1.5667223 -0.05598088 0
0.084102273 -1.5700526 -0.056133263 0
0.10337617 -1.5614934 -0.05586936 0
0.061144631 -0.92358756 0.033045448 0
0.12306721 -1.5605518 -0.055886686 0
0.073522642 -0.93230265 0.033387747 0
0.1423613 -1.5551056 -0.055751428 0
0.082938865 -0.90599543 0.032480456 0
0.16289555 -1.5624446 -0.056083623 0
0.096100159 -0.92176342 0.033086509 0
0.18157184 -1.5518607 -0.055781368 0
0.1087385 -0.92936778 0.033405963 0
0.11657213 -0.99632031 0.10780425 0
0.11447467 -0.97839367 0.1776557 0
0.11513519 -0.98403901 0.25277248 0
0.11556327 -0.98769778 0.33084285 0
0.11563374 -0.98830003 0.41198307 0
0.2011456 -1.549824 -0.055794779 0
0.12246794 -0.94361377 0.033970773 0
0.12684163 -0.97731304 0.10591205 0
0.12819132 -0.98771238 0.17962664 0
0.12804398 -0.98657703 0.25381848 0
0.12594728 -0.97042197 0.32556152 0
0.12870608 -0.99167854 0.41403419 0
0.12754428 -0.98272687 0.49582165 0
0.22173014 -1.5547858 -0.056069478 0
0.13733763 -0.96302015 0.034728922 0
0.13685168 -0.95961273 0.10417235 0
0.13690156 -0.95996237 0.17487964 0
0.13863532 -0.97211975 0.25052828 0
0.13893239 -0.97420275 0.32739088 0
0.13851522 -0.97127753 0.40621263 0
0.1381304 -0.96857917 0.4895224 0
0.24169648 -1.5544902 -0.056164123 0
0.15148771 -0.97430533 0.035201896 0
0.15057732 -0.96845013 0.10532919 0
0.15184692 -0.97661561 0.1782476 0
0.15127246 -0.97292095 0.25120574 0
0.1510307 -0.97136611 0.32705078 0
0.15077403 -0.96971524 0.40632105 0
0.14838725 -0.95436442 0.48324427 0
0.26090434 -1.5492699 -0.056089763 0
0.16627556 -0.9873569 0.035746269 0
0.16725954 -0.99319988 0.10824148 0
0.16509238 -0.98033112 0.17929097 0
0.16632895 -0.987674 0.25553548 0
0.16557625 -0.98320436 0.33171234 0
0.16594206 -0.9853766 0.41372609 0
0.15809017 -0.93875146 0.47630885 0
0.27966794 -1.5418764 -0.055945154 0
0.62646461 -3.4538496 0.12531883 0
0.16992188 -0.93682003 0.47637674 0
0.29904759 -1.5381697 -0.055942856 0
0.67088652 -3.4507458 0.12550278 0
0.18259463 -0.93918675 0.47871146 0
0.31862265 -1.5353973 -0.055983506 0
0.71664202 -3.4533958 0.12591739 0
0.18719143 -0.90204889 0.46094689 0
0.33550948 -1.520296 -0.055582523 0
0.76229578 -3.4541953 0.12628652 0
0.19908072 -0.90209556 0.46221513 0
0.35578099 -1.5208915 -0.055763669 0
0.80737203 -3.4513516 0.12654422 0
0.20902954 -0.89355886 0.45915335 0
0.37903175 -1.5329914 -0.056377836 0
0.8492561 -3.4348106 0.12631983 0
0.55312878 -2.2371256 0.24766213 0
0.55174422 -2.2315257 0.41457173 0
0.21990938 -0.88942206 0.45841423 0
0.39423725 -1.5124956 -0.055802222 0
0.90116495 -3.4573293 0.12755519 0
0.22906034 -0.87879252 0.45438629 0
0.41668531 -1.5199422 -0.056266081 0
0.94633865 -3.4519577 0.12778653 0
0.23870586 -0.87072688 0.45173427 0
0.43151811 -1.4997276 -0.055714499 0
0.25869438 -0.89908421 0.468099 0
0.45339307 -1.504214 -0.05608882 0
0.25303563 -0.83949172 0.43869689 0
0.46841189 -1.4860603 -0.055627432 0
0.26513466 -0.84115303 0.44127476 0
0.48614651 -1.4771897 -0.055520128 0
1.0487789 -3.1867871 0.1197753 0
0.27439931 -0.83378124 0.43918532 0
0.5052166 -1.4724349 -0.055576123 0
1.088197 -3.1715095 0.11970662 0
0.29362479 -0.85575855 0.45267329 0
0.53031611 -1.4844308 -0.056276493 0
1.1325694 -3.170224 0.12018687 0
0.54788929 -1.4747406 -0.056166228 0
1.1771106 -3.1684008 0.12067011 0
0.56385982 -1.4611051 -0.055912893 0
1.2157924 -3.1504292 0.12055917 0
0.58190954 -1.4531337 -0.055883825 0
0.60166967 -1.4493279 -0.056024387 0
0.61922401 -1.4401331 -0.055965934 0
0.64184237 -1.4424123 -0.056364127 0
0.36533424 -0.82101566 0.3720651 0
0.65102333 -1.4148099 -0.055601463 0
0.67450225 -1.4185225 -0.056076705 0
0.39962339 -0.84043425 0.38530457 0
0.3599422 -0.75698209 0.49709311 0
0.69152445 -1.408318 -0.056013104 0
1.1109151 -2.2624245 0.45456088 0
0.39591384 -0.80629492 0.3719092 0
0.36657637 -0.74654794 0.49323338 0
0.7080192 -1.3971651 -0.055919681 0
1.1422435 -2.2540388 0.45572978 0
0.4058975 -0.8009752 0.37178352 0
0.37169138 -0.73347479 0.48764977 0
0.72860736 -1.3939792 -0.056154925 0
1.1675922 -2.2338495 0.45458442 0
0.42042875 -0.80436867 0.37578622 0
0.3796978 -0.7264418 0.48611414 0
0.74387604 -1.3805645 -0.055987429 0
1.203979 -2.2344725 0.45776013 0
0.43431646 -0.80605078 0.37909701 0
0.388235 -0.72052789 0.48538968 0
0.7585516 -1.3663183 -0.055792633 0
1.2370497 -2.2281985 0.45962957 0
0.44165877 -0.79552454 0.37673217 0
0.39637893 -0.71396565 0.48429298 0
0.77982843 -1.3638879 -0.056089927 0
1.2761235 -2.2318876 0.4636685 0
0.47351116 -0.82815158 0.39497551 0
0.40114361 -0.70158368 0.4792825 0
0.79908502 -1.3576058 -0.056240924 0
1.3163807 -2.2364657 0.4680261 0
0.49804419 -0.84615237 0.40651959 0
0.40380055 -0.68603712 0.47209811 0
0.81661272 -1.3482575 -0.056275185 0
1.35539 -2.2377985 0.47183931 0
0.50422245 -0.83248973 0.40297407 0
0.41908363 -0.69192243 0.47974157 0
0.83238643 -1.3360423 -0.05619837 0
1.4044533 -2.2542522 0.47899956 0
0.42889804 -0.68841332 0.48101506 0
0.84656578 -1.3214331 -0.056027811 0
1.4378277 -2.2443538 0.48070529 0
0.43338057 -0.67647833 0.47645104 0
0.85698169 -1.301322 -0.055628255 0
1.4691609 -2.2309129 0.4817507 0
0.57785702 -0.87747276 0.43500918 0
0.44400892 -0.67422509 0.47876397 0
0.8853212 -1.3081931 -0.056394059 0
1.5111433 -2.2329378 0.48625854 0
0.59332132 -0.87672001 0.43830514 0
0.45135769 -0.66694778 0.47759438 0
0.88855904 -1.2780088 -0.055570796 0
1.551947 -2.2321553 0.49030495 0
0.60421407 -0.86903721 0.4382332 0
0.45567647 -0.65539658 0.47339407 0
0.9085204 -1.2722369 -0.055812847 0
0.61210674 -0.85715717 0.43609467 0
0.46453097 -0.65050107 0.47404552 0
0.91921818 -1.2535384 -0.055495936 0
0.63114643 -0.86069477 0.44190288 0
0.47283089 -0.64479977 0.47419211 0
0.94755036 -1.25863 -0.056245126 0
1.6842318 -2.2371631 0.099973403 0
1.6860148 -2.2395315 0.30126211 0
0.65201163 -0.86606634 0.44884059 0
0.47268111 -0.6278618 0.46607602 0
0.954409 -1.2350643 -0.055724673 0
0.66047895 -0.85470068 0.44722509 0
0.47516912 -0.61489826 0.46085796 0
0.9748435 -1.2292024 -0.056009606 0
0.68525016 -0.86404759 0.45659477 0
0.48640743 -0.6133222 0.46423054 0
0.98655778 -1.2123016 -0.055801142 0
0.49450895 -0.60766232 0.46462291 0
1.0066582 -1.2056694 -0.056074891 0
0.50323063 -0.60271668 0.46564969 0
1.019246 -1.1899645 -0.055936962 0
0.50452936 -0.58903545 0.45995164 0
1.0359474 -1.1790844 -0.056034274 0
0.51771224 -0.5892446 0.4651686 0
1.0554636 -1.1712204 -0.056287706 0
1.7624109 -1.9557014 0.093989097 0
0.52125984 -0.57842845 0.46177503 0
1.0698968 -1.157589 -0.056275602 0
1.7588477 -1.9030086 0.092513792 0
0.52689266 -0.57007843 0.4603692 0
1.0829365 -1.1424952 -0.056200303 0
0.93970501 -0.99138635 0.048767131 0
0.53613472 -0.56562072 0.46218461 0
1.0927762 -1.1241812 -0.055971872 0
0.94423974 -0.97137588 0.048363846 0
1.4006366 -1.440889 0.21595564 0
1.1108422 -1.114343 -0.056174036 0
0.95520484 -0.95821518 0.04830363 0
1.3967841 -1.4011861 0.21262437 0
1.1252055 -1.100679 -0.056195032 0
0.95944422 -0.93853104 0.04791658 0
1.2998924 -1.2715584 0.19542226 0
1.3003917 -1.2720468 0.32807216 0
1.297982 -1.2696896 0.4632504 0
0.56013465 -0.54792523 0.46469116 0
1.1285267 -1.0764579 -0.055679522 0
0.98860669 -0.94299352 0.048776116 0
1.3966298 -1.3321909 0.20742708 0
0.74969834 -0.71510816 0.34469223 0
0.56810284 -0.54189122 0.46560377 0
1.1535231 -1.0728887 -0.056241777 0
1.0238255 -0.95225739 0.049918178 0
1.4018403 -1.303848 0.2057462 0
0.74589187 -0.69375205 0.33889872 0
0.57477587 -0.53459752 0.46551874 0
1.1651374 -1.0566441 -0.056154869 0
1.4036601 -1.2729565 0.067650691 0
1.4047692 -1.2739623 0.20380545 0
0.75738841 -0.68686324 0.3401655 0
1.1726763 -1.0368737 -0.055884514 0
1.409517 -1.246287 0.067171283 0
1.3994046 -1.2373457 0.20075074 0
1.3955233 -1.2339138 0.33595377 0
0.76955581 -0.68043685 0.34175488 0
0.58325219 -0.51570827 0.46171671 0
1.1913078 -1.0269128 -0.056151718 0
1.4008777 -1.207563 0.066029698 0
1.4045647 -1.2107413 0.1992881 0
1.4027729 -1.2091967 0.33400697 0
0.78740144 -0.67874366 0.34585699 0
0.59322649 -0.51136398 0.46447837 0
1.2041878 -1.0118686 -0.056153785 0
1.3933874 -1.1708515 0.064976558 0
1.3957442 -1.1728318 0.19592559 0
1.4009126 -1.1771748 0.33000836 0
1.4906515 -1.2525816 0.49675471 0
0.82528013 -0.69347578 0.35863075 0
0.83465058 -0.70134968 0.45138142 0
0.60322362 -0.50688362 0.46727124 0
1.2102091 -0.99120104 -0.05584811 0
1.3909372 -1.1392233 0.064188257 0
1.3960098 -1.1433779 0.19392645 0
1.3933572 -1.1412053 0.32481766 0
1.4985281 -1.2273438 0.4941901 0
0.84604889 -0.69294184 0.3638353 0
0.80679655 -0.66079295 0.43178371 0
0.60417873 -0.49484226 0.46314758 0
1.2361971 -0.98674297 -0.056469522 0
1.4180608 -1.1319079 0.064777054 0
1.4005624 -1.1179407 0.19258805 0
1.3967263 -1.1148787 0.32230482 0
1.5356323 -1.2257546 0.50129646 0
0.82809222 -0.66099018 0.35250589 0
0.80576557 -0.64316887 0.4268637 0
0.60765606 -0.48503619 0.46109468 0
1.2333978 -0.95933485 -0.055785403 0
1.409701 -1.0964632 0.063759431 0
1.3998289 -1.0887847 0.19058684 0
1.4008784 -1.0896009 0.32007146 0
0.81477982 -0.63373441 0.42737764 0
0.61860722 -0.48115167 0.4647702 0
1.2532661 -0.9497053 -0.056138687 0
1.3962059 -1.058023 0.062541522 0
1.4049575 -1.0646548 0.1894448 0
1.3972597 -1.0588214 0.31617329 0
0.81677526 -0.61893946 0.42430261 0
0.62241828 -0.4716588 0.46313456 0
1.2636944 -0.93279421 -0.056075223 0
1.4038206 -1.0362282 0.062293187 0
1.4051499 -1.0372094 0.18769474 0
1.3985778 -1.0323582 0.31350514 0
0.84830648 -0.62617618 0.43655187 0
0.63543618 -0.46904626 0.46838906 0
1.2725393 -0.91479599 -0.055952109 0
1.4064578 -1.0110666 0.061840355 0
1.3989265 -1.0056525 0.18515724 0
1.3976196 -1.0047131 0.31042978 0
0.63557869 -0.45690128 0.46421641 0
1.2808224 -0.89650679 -0.055815522 0
1.4074725 -0.98515499 0.061334662 0
1.3992898 -0.97942764 0.1835584 0
1.3956151 -0.97685546 0.307228 0
1.3903601 -0.97317725 0.43298656 0
0.65196586 -0.45634103 0.47195089 0
1.2972138 -0.88385487 -0.056040373 0
1.4521085 -0.98939216 0.062731907 0
1.3946316 -0.95023036 0.18136331 0
1.3972208 -0.9519946 0.30491838 0
1.3934079 -0.94939661 0.43017858 0
0.67173117 -0.45768312 0.4820486 0
1.3110001 -0.86928159 -0.056158613 0
1.4762927 -0.97888178 0.063239172 0
1.3914648 -0.92263514 0.17942643 0
1.4026864 -0.93007576 0.3035312 0
1.4000106 -0.92830151 0.4285742 0
0.67176837 -0.44542778 0.47801229 0
1.3225732 -0.85317761 -0.056189701 0
1.5123925 -0.97562808 0.064254202 0
1.397462 -0.90148759 0.1787218 0
1.3961543 -0.900644 0.29963982 0
1.4004991 -0.90344673 0.42520747 0
0.67491758 -0.43538201 0.47631431 0
1.332927 -0.83627909 -0.056177735 0
1.5520991 -0.97378778 0.065414995 0
1.3949609 -0.87519914 0.17697845 0
1.3993864 -0.87797576 0.29793712 0
1.3993175 -0.87793249 0.42145884 0
0.68866062 -0.43206602 0.48213539 0
1.3417412 -0.81844759 -0.056110408 0
1.5911461 -0.97058189 0.066540301 0
1.3975409 -0.85248482 0.17592993 0
1.3973752 -0.85238373 0.29520032 0
1.4008904 -0.85452795 0.41865849 0
0.70252031 -0.42852977 0.48802206 0
1.3517052 -0.80134934 -0.056100663 0
1.6243002 -0.96295547 0.067414343 0
1.3962071 -0.82773197 0.17443609 0
1.3912902 -0.82481706 0.29169759 0
1.391907 -0.82518268 0.41283575 0
0.70281458 -0.41665891 0.48454338 0
1.3675269 -0.78762907 -0.05634122 0
1.4088782 -0.81144542 0.17472874 0
1.3903754 -0.80078876 0.28936869 0
1.4041388 -0.80871582 0.41341048 0
0.6967966 -0.40132102 0.4768725 0
1.3702749 -0.76639879 -0.056052394 0
1.4091568 -0.78814548 0.1735187 0
1.4032009 -0.7848143 0.28995818 0
1.3949807 -0.78021669 0.40778917 0
0.70631367 -0.39504328 0.47994331 0
1.3734069 -0.74560505 -0.055792026 0
1.3995774 -0.75981271 0.17114744 0
1.3888347 -0.75398058 0.28500506 0
1.3979486 -0.75892842 0.40583098 0
1.4000305 -0.73738831 -0.056491885 0
1.4070404 -0.74108034 0.17090534 0
1.4013473 -0.73808181 0.28564289 0
1.3982825 -0.73646766 0.40320373 0
1.3900739 -0.70993167 -0.055724997 0
1.4168026 -0.72358245 0.17097084 0
1.4018543 -0.71594805 0.28388608 0
1.3880484 -0.70889723 0.39764708 0
1.3925736 -0.71120828 0.52022541 0
1.4004152 -0.69312131 -0.05578525 0
1.4137251 -0.699709 0.16952278 0
1.3918619 -0.68888795 0.28008369 0
1.3911326 -0.68852699 0.39601544 0
1.393636 -0.68976599 0.51733661 0
1.4261122 -0.68362129 -0.056461498 0
1.4324627 -0.68666548 0.17071927 0
1.3972137 -0.66976851 0.27944133 0
1.404215 -0.67312467 0.39729524 0
1.3947463 -0.66858572 0.51458269 0
1.4137368 -0.65592766 -0.055640124 0
1.4519458 -0.67365539 0.17201664 0
1.390668 -0.64522451 0.27648532 0
1.3890903 -0.64449251 0.3906889 0
1.4048496 -0.65180433 0.51524127 0
1.4303385 -0.64186913 -0.055970971 0
1.4949292 -0.67085445 0.17609425 0
1.3927406 -0.62499696 0.27531084 0
1.4006641 -0.62855268 0.39168695 0
1.4071858 -0.63147926 0.51314104 0
1.4392205 -0.62420481 -0.056006525 0
1.5255228 -0.66163498 0.17870244 0
1.4046122 -0.60919476 0.27611929 0
1.3974448 -0.60608619 0.38862163 0
1.3966637 -0.6057474 0.50648242 0
1.4456942 -0.60550112 -0.055957299 0
1.5588274 -0.65288478 0.18162635 0
1.3933922 -0.58359545 0.27244747 0
1.4053079 -0.58858609 0.38871637 0
1.3933533 -0.58357912 0.50257725 0
1.4537921 -0.58748788 -0.05597996 0
1.602748 -0.64768207 0.18577875 0
1.393196 -0.56300056 0.27100143 0
1.3974626 -0.56472474 0.38454884 0
1.4007548 -0.56605512 0.50263608 0
1.4531384 -0.56604511 -0.055675909 0
1.6382128 -0.6381377 0.18894316 0
1.4019327 -0.54609883 0.27134174 0
1.4080309 -0.54847425 0.38552591 0
1.4061475 -0.54774064 0.50205642 0
0.83233678 -0.32422251 0.44693148 0
1.4723285 -0.55227154 -0.056140266 0
1.4147818 -0.53068566 0.27251366 0
1.3931658 -0.52257752 0.37962395 0
1.3954593 -0.5234378 0.49584758 0
0.83879781 -0.31463367 0.44823784 0
1.4782723 -0.53336704 -0.056106362 0
1.4074028 -0.507797 0.26983926 0
1.3929434 -0.50257999 0.37780893 0
1.3936034 -0.50281811 0.49289927 0
0.8159076 -0.29438296 0.43399039 0
1.4772178 -0.51205868 -0.055817187 0
1.4058968 -0.48733613 0.26835269 0
1.3980141 -0.4846037 0.37749919 0
1.3998321 -0.48523393 0.49290213 0
1.3980097 -0.48460218 0.61261517 0
0.82038814 -0.28437707 0.43443447 0
1.4874983 -0.4947319 -0.055965807 0
1.4016879 -0.46619195 0.26640767 0
1.3976903 -0.46486238 0.37580132 0
1.3987114 -0.46520203 0.49040598 0
1.3977051 -0.46486729 0.60986817 0
0.85250729 -0.28353819 0.44951677 0
1.4802159 -0.47169515 -0.055463944 0
1.3989974 -0.44581357 0.26480836 0
1.3975528 -0.44535321 0.37422687 0
1.3934814 -0.4440558 0.48657316 0
1.4048203 -0.44766912 0.61046475 0
0.86216474 -0.27474299 0.45274892 0
1.4992846 -0.45705837 -0.05595836 0
1.4141295 -0.43109876 0.26662394 0
1.3937024 -0.42487153 0.37173375 0
1.3892591 -0.42351699 0.48319834 0
1.3934729 -0.42480156 0.60316139 0
0.8683871 -0.26472864 0.45422992 0
1.5058098 -0.43840319 -0.055991422 0
1.4280384 -0.41576073 0.26823801 0
1.3946643 -0.40604419 0.37059718 0
1.3917425 -0.40519348 0.4822492 0
1.3987533 -0.40723461 0.60317957 0
0.89364684 -0.26017734 0.46569201 0
1.5086095 -0.41868666 -0.055895057 0
1.4605198 -0.40534022 0.27335882 0
1.389761 -0.38570243 0.36797449 0
1.3904389 -0.38589057 0.48007572 0
1.3967996 -0.38765585 0.6001845 0
0.86906707 -0.24119346 0.45126465 0
1.5082253 -0.39819652 -0.055690624 0
1.4824618 -0.39139453 0.27652124 0
1.3973374 -0.36892027 0.36872128 0
1.4047058 -0.37086564 0.4833509 0
1.3928066 -0.36772409 0.59643191 0
0.88163346 -0.23276587 0.45623168 0
1.5190771 -0.38066748 -0.055909891 0
1.5161103 -0.37992403 0.28188291 0
1.3955545 -0.3497138 0.36705971 0
1.400589 -0.35097539 0.4803755 0
1.4013199 -0.35115853 0.59813643 0
0.88098943 -0.22076827 0.45442379 0
1.5300316 -0.36300066 -0.056140389 0
1.541672 -0.36576235 0.2857565 0
1.400448 -0.33225688 0.36721724 0
1.3949738 -0.33095813 0.47698241 0
1.4005154 -0.33227292 0.59595996 0
0.89817554 -0.21309254 0.46186787 0
1.5266986 -0.34196377 -0.055855665 0
1.5685089 -0.35132882 0.28988785 0
1.4062467 -0.31498384 0.36766857 0
1.402626 -0.31417286 0.4782083 0
1.4035907 -0.31438896 0.59553677 0
0.90128142 -0.20187718 0.46212116 0
1.5316563 -0.32287663 -0.05588387 0
1.6076102 -0.33888787 0.29630229 0
1.394924 -0.29405317 0.36371127 0
1.3891413 -0.29283416 0.47231624 0
1.4049568 -0.29616809 0.59448683 0
0.9190591 -0.19373974 0.46994829 0
1.5271676 -0.3018986 -0.055576984 0
1.6432544 -0.32484728 0.30209407 0
1.4118031 -0.27909276 0.36716688 0
1.3892591 -0.27463615 0.4711431 0
1.3982069 -0.27640498 0.59011126 0
0.92463779 -0.18278731 0.47158656 0
1.5493423 -0.28606048 -0.056248423 0
1.4131703 -0.26091859 0.3666389 0
1.4086649 -0.26008675 0.47657576 0
1.4018598 -0.25883028 0.59023052 0
0.94757497 -0.17495409 0.48212323 0
1.5400059 -0.26433006 -0.055784207 0
1.4114902 -0.24227132 0.36538252 0
1.4090052 -0.2418448 0.47562289 0
1.3951151 -0.23946068 0.58607477 0
0.9613477 -0.16500787 0.48803487 0
1.5487659 -0.24579999 -0.055984966 0
0.98758274 -0.1567363 0.035699252 0
0.9912734 -0.15732203 0.10786477 0
0.98456126 -0.15625677 0.17978667 0
0.98236281 -0.15590785 0.25376901 0
0.98224729 -0.15588953 0.3308779 0
0.98178238 -0.15581574 0.41158071 0
0.94435227 -0.14987533 0.47841102 0
1.5551893 -0.22678295 -0.056109481 0
0.97129267 -0.14163718 0.03504315 0
0.97402543 -0.14203568 0.10578494 0
0.95961964 -0.13993497 0.17489655 0
0.96464616 -0.14066796 0.24871507 0
0.96740365 -0.14107007 0.32525352 0
0.95398641 -0.13911352 0.39916214 0
0.96576399 -0.14083096 0.48832113 0
1.554292 -0.20670058 -0.055978764 0
0.95030916 -0.12637873 0.034225959 0
0.9936024 -0.13213617 0.10772186 0
0.99072903 -0.13175406 0.18024975 0
0.98410624 -0.13087331 0.25328749 0
0.98813152 -0.13140862 0.33163989 0
0.98615324 -0.13114552 0.4118976 0
0.96864945 -0.12881775 0.48892117 0
1.557634 -0.18721746 -0.056009784 0
0.92801255 -0.11154106 0.033369701 0
0.98593223 -0.11850262 0.10672005 0
0.99611217 -0.1197262 0.18094051 0
0.98340273 -0.1181986 0.25270331 0
0.98839462 -0.11879859 0.33119985 0
0.97719556 -0.11745254 0.40750608 0
1.5440865 -0.16589458 -0.055443123 0
0.91701108 -0.098522447 0.032926887 0
1.4111853 -0.15161586 0.36211056 0
1.3910939 -0.14945728 0.46547228 0
1.3950018 -0.14987713 0.58090484 0
1.5612388 -0.14787792 -0.055987712 0
0.91093254 -0.086281992 0.032667026 0
1.4044508 -0.13302721 0.35992411 0
1.3986765 -0.13248028 0.46741423 0
1.3951378 -0.13214511 0.58022255 0
1.561306 -0.12807123 -0.055927854 0
0.91526639 -0.07507772 0.032785941 0
1.4111283 -0.11575241 0.3612332 0
1.404848 -0.11523725 0.46895456 0
1.3955175 -0.11447188 0.57973504 0
1.5693884 -0.10885971 -0.056163818 0
0.93749034 -0.065028474 0.033550035 0
1.4173099 -0.098310873 0.36247 0
1.3963641 -0.096857972 0.46567845 0
1.4013548 -0.097204149 0.58160537 0
1.5525037 -0.088062145 -0.055515479 0
1.3993639 -0.07937564 0.3575964 0
1.403159 -0.079590909 0.4675732 0
1.3962159 -0.079197086 0.57901281 0
1.5587654 -0.068739928 -0.055704024 0
1.4105918 -0.062205628 0.36023691 0
1.4002454 -0.061749361 0.46630627 0
1.4006734 -0.06176823 0.58049273 0
1.5685109 -0.049391247 -0.056025621 0
1.4096071 -0.044387482 0.35981414 0
1.3930184 -0.043865118 0.46367881 0
1.398718 -0.044044595 0.57940656 0
1.576445 -0.029778354 -0.056291159 0
1.4058605 -0.026556088 0.35874403 0
1.3920884 -0.026295939 0.46322232 0
1.3875716 -0.026210619 0.57460701 0
1.5675243 -0.0098689049 -0.055963747 0
1.4056056 -0.0088494886 0.35862207 0
1.4046174 -0.0088432673 0.46731728 0
1.3971483 -0.008796243 0.57848108 0
1.5689387 0.0098778103 -0.056014244 0
1.4157646 0.0089134481 0.36121401 0
1.3928831 0.0087693892 0.46341327 0
1.3943937 0.0087788999 0.57734054 0
1.5618376 0.029502425 -0.055769559 0
1.4074548 0.026586205 0.35915086 0
1.3998147 0.026441885 0.46579325 0
1.3981551 0.026410537 0.57898974 0
1.5677882 0.049368493 -0.055999808 0
1.4014133 0.044129469 0.35772264 0
1.3969194 0.043987956 0.46497729 0
1.3977506 0.044014134 0.57900584 0
1.5788156 0.069624119 -0.056420535 0
1.410275 0.062191654 0.360156 0
1.393047 0.061431918 0.46390906 0
1.4042411 0.06192556 0.58197135 0
1.5606124 0.088522092 -0.055805437 0
1.4099422 0.079975672 0.36029962 0
1.386995 0.078674048 0.4621869 0
1.3999377 0.079408191 0.58055627 0
1.5596713 0.10818569 -0.055816073 0
1.8707714 0.12976496 0.066949435 0
1.8610724 0.1290922 0.20048873 0
1.8506341 0.12836815 0.33456141 0
1.4074562 0.097627379 0.35994998 0
1.403412 0.09734685 0.46802887 0
1.4031625 0.097329542 0.58235568 0
1.5540009 0.127472 -0.055666171 0
1.8038987 0.14797069 0.064617813 0
1.801005 0.14773333 0.19420283 0
1.5755483 0.1292395 0.28510243 0
1.4104899 0.11570005 0.3610698 0
1.3922559 0.11420435 0.46475115 0
1.402113 0.1150129 0.58247495 0
1.5623405 0.14798225 -0.056027219 0
1.8074913 0.17120254 0.064818591 0
1.8007509 0.17056409 0.19439161 0
1.4669663 0.13894857 0.26574957 0
1.4079262 0.13335639 0.36081478 0
1.3979418 0.13241069 0.46716872 0
1.3982182 0.13243687 0.58150363 0
1.5567403 0.16725411 -0.055897482 0
1.1984669 0.12876169 0.043033052 0
1.1997329 0.1288977 0.12967648 0
1.1944445 0.12832953 0.21665622 0
1.1951731 0.12840781 0.30668178 0
1.3963492 0.1500219 0.46723077 0
1.3935667 0.14972295 0.58030725 0
1.560421 0.18755242 -0.056109998 0
1.1125786 0.1337247 0.040006377 0
1.1130508 0.13378145 0.12047973 0
1.1087034 0.13325892 0.20139234 0
1.1135012 0.13383558 0.28613448 0
1.3900975 0.16708067 0.46580595 0
1.3992114 0.16817608 0.58349341 0
1.5615677 0.20766816 -0.056240804 0
1.1119745 0.14787811 0.040048432 0
1.1149309 0.14827128 0.12087575 0
1.1033894 0.14673641 0.20074679 0
1.1093504 0.14752914 0.28552261 0
1.3907264 0.18494849 0.46676007 0
1.4046253 0.18679686 0.58668548 0
1.5528507 0.22644192 -0.05602511 0
1.1077228 0.16153187 0.039965391 0
1.1156561 0.16268873 0.12116687 0
1.1160936 0.16275254 0.20341489 0
1.1065918 0.16136694 0.28531298 0
1.3887284 0.20250906 0.46690834 0
1.396729 0.20367573 0.58441228 0
1.5479071 0.2456637 -0.055953924 0
1.1091856 0.17603552 0.040094968 0
1.1155109 0.1770394 0.12138359 0
1.1150113 0.17696011 0.20360762 0
1.1207312 0.1778679 0.28951308 0
1.4006331 0.22229028 0.47181451 0
1.4011952 0.22237949 0.58740604 0
1.5486264 0.26580971 -0.056096472 0
1.109033 0.1903569 0.040172912 0
1.0996723 0.18875022 0.11990926 0
1.1019536 0.18914178 0.20164213 0
1.1161258 0.19157434 0.28892365 0
1.400014 0.24030153 0.47258782 0
1.3981798 0.2399867 0.58736223 0
1.5372069 0.28381988 -0.055807848 0
1.1063449 0.20426835 0.040165536 0
1.1088682 0.20473422 0.12118348 0
1.1075315 0.20448743 0.20311788 0
1.1034966 0.20374244 0.28629583 0
1.3949636 0.25755703 0.4719404 0
1.3956679 0.25768706 0.5876236 0
1.5394892 0.3043344 -0.056025397 0
1.1002878 0.21751074 0.040041894 0
1.1120914 0.21984415 0.12182862 0
1.1000971 0.21747304 0.20224063 0
1.1067879 0.21879573 0.28784174 0
1.3984113 0.27644539 0.47424692 0
1.3920304 0.27518398 0.58750445 0
1.5397127 0.32457495 -0.056177817 0
1.1197948 0.2360553 0.04085673 0
1.1071628 0.23339245 0.12160101 0
1.1044916 0.23282933 0.20357135 0
1.1006311 0.23201555 0.28697762 0
1.3968452 0.29445815 0.47493559 0
1.3845692 0.29187033 0.58586013 0
1.5217063 0.34084556 -0.055673022 0
1.1105857 0.24875905 0.040631793 0
1.1141698 0.24956186 0.12270602 0
1.1133957 0.24938846 0.20577498 0
1.1183978 0.25050887 0.29240939 0
1.4041032 0.31450373 0.4787119 0
1.3928249 0.31197754 0.59096885 0
1.5260938 0.36206642 -0.055995904 0
1.1072128 0.2626867 0.040626191 0
1.1198611 0.26568756 0.12369146 0
1.1015087 0.26133344 0.20417006 0
1.1132166 0.26411113 0.29190111 0
1.3987057 0.33184353 0.47825846 0
1.4020422 0.33263513 0.59660965 0
1.5177056 0.3803238 -0.055859417 0
1.1162318 0.27971798 0.041083105 0
1.1032484 0.27646443 0.12223137 0
1.112434 0.27876627 0.20682937 0
1.1169448 0.27989665 0.29377961 0
1.3956909 0.34974799 0.47869557 0
1.3988023 0.35052767 0.59706187 0
1.5144131 0.39983019 -0.055919107 0
1.1105813 0.29321191 0.041007776 0
1.1077877 0.29247433 0.12313256 0
1.1195115 0.2955696 0.20882069 0
1.1047466 0.29167143 0.2915141 0
1.3917383 0.36744201 0.47888887 0
1.3920416 0.36752209 0.59610426 0
1.5133356 0.41999826 -0.05607016 0
1.1152844 0.30952653 0.041322079 0
1.1126186 0.30878669 0.12409189 0
1.1208029 0.31105807 0.20977554 0
1.1039084 0.30636933 0.29228777 0
1.3963228 0.38752353 0.48210725 0
1.3898607 0.38573009 0.59720296 0
1.4994351 0.43654725 -0.055754386 0
1.1132011 0.32409865 0.041392822 0
1.0971531 0.31942642 0.12280586 0
1.1124623 0.32388353 0.20896125 0
1.1227542 0.32687995 0.2983439 0
1.3955626 0.4063057 0.48357293 0
1.3944652 0.40598622 0.60133046 0
1.5045927 0.45867655 -0.056156475 0
1.400944 0.42707914 0.37366524 0
1.3941733 0.42501509 0.48490754 0
1.3985914 0.42636195 0.60537696 0
1.4971645 0.47709611 -0.056099012 0
1.4164237 0.45136672 0.37927997 0
1.4066304 0.44824591 0.49116448 0
1.3929253 0.44387856 0.60529578 0
1.4942386 0.49697369 -0.056219406 0
1.4050117 0.46729743 0.37776986 0
1.4068903 0.46792224 0.49327356 0
1.3996884 0.46552694 0.61073357 0
1.4825418 0.51390415 -0.056018356 0
1.4032316 0.48641235 0.37890807 0
1.388442 0.48128566 0.48889145 0
1.3925321 0.48270348 0.61021489 0
1.4787444 0.53353739 -0.056124281 0
1.4069146 0.50762087 0.38159832 0
1.396039 0.50369692 0.49376068 0
1.3876613 0.50067419 0.61079472 0
1.4655349 0.54972321 -0.055881221 0
1.4047511 0.52692312 0.38278079 0
1.3954626 0.52343905 0.49584877 0
1.3941727 0.52295518 0.61651045 0
1.4597569 0.56862324 -0.055929493 0
1.4060606 0.54770678 0.38498643 0
1.3923048 0.54234844 0.49711394 0
1.3881751 0.54073983 0.61682045 0
1.4579813 0.58918077 -0.056141268 0
1.3954688 0.56391901 0.38400018 0
1.3858178 0.56001896 0.49727622 0
1.384783 0.55960083 0.61839527 0
1.4463559 0.60577828 -0.05598291 0
1.3865595 0.58073366 0.38353047 0
1.3869208 0.58088499 0.50025707 0
1.3849672 0.5800668 0.62169009 0
1.4456021 0.6269725 -0.056254853 0
1.3930042 0.60416025 0.38738671 0
1.3829571 0.59980273 0.50151193 0
1.385566 0.60093421 0.62530601 0
1.4346138 0.64378768 -0.056138273 0
1.3873905 0.62259609 0.38797507 0
1.381752 0.62006581 0.50386643 0
1.3764453 0.61768442 0.62465054 0
1.4232231 0.66032898 -0.056013476 0
1.3841503 0.64220047 0.38929945 0
1.3790826 0.63984925 0.50579095 0
1.3767645 0.63877374 0.62839592 0
1.4050208 0.67351097 -0.055626467 0
1.3793194 0.66119069 0.39025152 0
1.3827375 0.66282922 0.51015216 0
1.3688475 0.6561709 0.6285038 0
1.4055794 0.69567734 -0.055990968 0
1.3868735 0.68641901 0.39480302 0
1.370146 0.67813993 0.50861681 0
1.3678094 0.67698342 0.63189119 0
1.405229 0.71767157 -0.056332529 0
1.3831261 0.70638335 0.39623696 0
1.3614252 0.69530034 0.50858933 0
1.363382 0.69629973 0.6338461 0
1.3812029 0.72747195 -0.055732183 0
1.5863832 0.83553928 0.4574438 0
1.3606265 0.71663439 0.51162148 0
1.3444622 0.70812076 0.6291458 0
1.3821907 0.75037372 -0.056148857 0
1.3556091 0.73594284 0.39353961 0
1.3497583 0.73276651 0.51096392 0
1.3608222 0.73877299 0.64110392 0
1.3591452 0.76017386 -0.055597123 0
1.3480258 0.75395471 0.39406306 0
1.3508734 0.7555474 0.51494682 0
1.342675 0.75096202 0.63695902 0
1.361784 0.78432149 -0.056104619 0
1.335236 0.76903111 0.39312389 0
1.3428693 0.77342755 0.51556736 0
1.3394319 0.77144778 0.63997817 0
1.3462952 0.79814208 -0.055876132 0
1.3414531 0.7952714 0.39787123 0
1.3366581 0.79242879 0.51697272 0
1.3310399 0.78909802 0.64066529 0
1.3373719 0.81578243 -0.055927694 0
1.3287287 0.81051016 0.39709285 0
1.3300558 0.81131965 0.51832944 0
1.3261399 0.80893099 0.64315879 0
1.3275512 0.83290637 -0.055951171 0
1.3249056 0.8312465 0.39904684 0
1.3163452 0.82587564 0.51699811 0
1.3267735 0.83241838 0.64849824 0
1.3210055 0.8521663 -0.056123096 0
1.3178817 0.85015124 0.40012392 0
1.321241 0.85231823 0.52309471 0
1.3198544 0.85142374 0.65030509 0
1.3033377 0.86420095 -0.055830386 0
1.3004472 0.8622843 0.39809564 0
1.3064348 0.86625445 0.52151 0
1.3098985 0.86855119 0.65073693 0
1.2964272 0.88331896 -0.056006391 0
1.2891543 0.87836349 0.39799297 0
1.2955559 0.88272536 0.52156317 0
1.2906522 0.8793841 0.64662546 0
1.2874453 0.90114242 -0.056104131 0
1.2909355 0.90358537 0.4020237 0
1.2860711 0.90018058 0.52226669 0
1.2869339 0.90078443 0.65039384 0
1.2681383 0.91163218 -0.055758599 0
1.2792546 0.91962343 0.40196043 0
1.2741578 0.91595942 0.52207124 0
1.2792796 0.91964138 0.65232629 0
1.2676929 0.93574572 -0.056252651 0
1.2763264 0.94211847 0.40473589 0
1.2710578 0.9382295 0.52560019 0
1.2761451 0.94198465 0.65672439 0
1.2492867 0.94668984 -0.055960435 0
1.2554632 0.9513703 0.40188706 0
1.2579752 0.95327389 0.52511251 0
1.2517366 0.94854635 0.65025854 0
1.2403649 0.96475387 -0.056100521 0
1.2433767 0.96709645 0.40188447 0
1.2500886 0.97231692 0.52688944 0
1.2485504 0.97112048 0.65490401 0
1.2288786 0.98090124 -0.056135211 0
1.2449237 0.99370861 0.40639672 0
1.2382224 0.98835951 0.52709186 0
1.2424793 0.99175739 0.65821785 0
1.2186499 0.99811435 -0.056237634 0
1.2306687 1.0079581 0.4058544 0
1.2328637 1.0097558 0.53018135 0
1.2216533 1.0005742 0.65380794 0
1.1924217 1.0019817 -0.05560511 0
1.2283751 1.0321929 0.40935197 0
1.2135918 1.0197707 0.52737409 0
1.2258108 1.0300382 0.66292197 0
1.1907494 1.0264314 -0.056125399 0
1.2730769 1.097398 0.060005862 0
1.2727934 1.0971538 0.18059158 0
1.2752832 1.0993 0.30365106 0
1.2078204 1.0411468 0.40683889 0
1.2086792 1.0418869 0.53089839 0
1.2015452 1.0357375 0.65680027 0
1.170416 1.0348752 -0.055776801 0
1.2353665 1.092304 0.058872048 0
1.2429066 1.098971 0.17830041 0
1.2420965 1.0982547 0.29901829 0
1.1964183 1.0578662 0.40745294 0
1.2002956 1.0612946 0.53304374 0
1.192151 1.054093 0.65886843 0
1.1618569 1.0536691 -0.055996768 0
1.2146221 1.101521 0.05853983 0
1.2255516 1.1114328 0.17780435 0
1.2202243 1.1066015 0.29708385 0
1.1773427 1.0677128 0.40550312 0
1.1804016 1.0704869 0.53015316 0
1.176318 1.0667837 0.65749007 0
1.1426798 1.0628035 -0.055713098 0
1.1993827 1.1155425 0.05847773 0
1.1984055 1.1146337 0.17588834 0
1.1933835 1.1099628 0.29392862 0
1.1696777 1.0879141 0.4075492 0
1.1753622 1.0932013 0.5340302 0
1.1652775 1.0838214 0.65889508 0
1.1353742 1.0829893 -0.056017365 0
1.1816652 1.1271445 0.058301277 0
1.1820226 1.1274854 0.17555368 0
1.1823151 1.1277645 0.29467684 0
1.1567515 1.1033803 0.40785405 0
1.1581893 1.1047517 0.53250599 0
1.1578957 1.1044718 0.66253263 0
1.1215879 1.0971403 -0.056014359 0
1.1704 1.1448886 0.058452141 0
1.1653528 1.1399513 0.17519595 0
1.1627926 1.137447 0.29335767 0
1.147661 1.1226451 0.40960073 0
1.1518047 1.1266985 0.53605109 0
1.137408 1.1126156 0.65877408 0
1.1068118 1.1102998 -0.055970218 0
1.1654348 1.1691078 0.058934726 0
1.1578099 1.1614587 0.1762467 0
1.1662006 1.169876 0.29791036 0
1.1403624 1.1439563 0.41210434 0
1.1358389 1.1394185 0.53525567 0
1.1263281 1.1298777 0.66054481 0
1.0999675 1.131579 -0.056340206 0
1.1611875 1.1945585 0.059475888 0
1.1527632 1.1858921 0.17773756 0
1.1648114 1.1982864 0.30138612 0
1.116406 1.14849 0.40864086 0
1.11255 1.1445233 0.53103048 0
1.1130478 1.1450354 0.66115999 0
1.0729645 1.1319748 -0.055682797 0
1.1713966 1.2358203 0.060791045 0
1.1750292 1.2396526 0.18356286 0
1.177667 1.2424356 0.30873597 0
1.1071559 1.1680467 0.41060621 0
1.099915 1.1604074 0.53193194 0
1.1011355 1.1616951 0.66272074 0
1.0572289 1.1438829 -0.055609282 0
1.0916359 1.1811099 0.41033363 0
1.0923622 1.1818957 0.53543431 0
1.0954037 1.1851865 0.66820014 0
1.0429609 1.1573465 -0.055620939 0
1.0792052 1.1975658 0.41129681 0
1.0782142 1.1964661 0.53584182 0
1.0778073 1.1960148 0.66660041 0
1.0389738 1.1825289 -0.056197971 0
1.0584222 1.2046646 0.40912503 0
1.0547917 1.2005324 0.5316723 0
1.056191 1.202125 0.66254085 0
1.0154122 1.1854886 -0.055726558 0
1.0420276 1.216562 0.40867695 0
1.0457227 1.220876 0.53480774 0
1.0463513 1.2216098 0.66596514 0
1.0041003 1.2026058 -0.055932406 0
1.0319217 1.2359273 0.41078463 0
1.0305381 1.2342701 0.53494817 0
1.0280786 1.2313244 0.66415101 0
0.98356259 1.208621 -0.055631731 0
1.0165712 1.2491827 0.41090313 0
1.0122342 1.2438533 0.53353494 0
1.0193001 1.2525361 0.66861606 0
0.97982484 1.2354835 -0.056295808 0
0.99407506 1.2534519 0.40815756 0
0.99951589 1.2603124 0.53515381 0
0.99864316 1.2592119 0.66541421 0
0.95437223 1.2350167 -0.055722527 0
0.97932231 1.2673037 0.40862012 0
0.98716784 1.2774563 0.53711253 0
0.98152006 1.2701477 0.66460919 0
0.94549268 1.2558969 -0.056122988 0
0.96709991 1.2845978 0.41023719 0
0.96707445 1.2845639 0.53493845 0
0.96828955 1.286178 0.66656423 0
0.92528307 1.2618091 -0.055862091 0
0.95440781 1.3015264 0.41177276 0
0.95100778 1.2968899 0.53504205 0
0.9508006 1.2966074 0.66571164 0
0.90951174 1.2736251 -0.055873744 0
0.93554407 1.3100792 0.41071898 0
0.93689334 1.3119687 0.53635329 0
0.93831575 1.3139606 0.66850185 0
0.8975966 1.2910075 -0.056136008 0
0.91981822 1.3229687 0.41109613 0
0.91784531 1.3201311 0.53492278 0
0.9148795 1.3158653 0.66355717 0
0.88054276 1.3011322 -0.056089677 0
0.898426 1.3275573 0.40897414 0
0.90037161 1.3304323 0.53446043 0
0.90245682 1.3335135 0.66667324 0
0.86164445 1.3084024 -0.05593092 0
0.87647575 1.3309237 0.4065789 0
0.87514114 1.3288971 0.52937484 0
0.88073683 1.337394 0.66301626 0
0.83885705 1.3094002 -0.055517629 0
0.85850716 1.3400728 0.40603918 0
0.86133683 1.3444897 0.53122348 0
0.86306006 1.3471795 0.66242713 0
0.82963389 1.3316244 -0.056012534 0
0.84365314 1.3541262 0.4070462 0
0.84923375 1.3630835 0.53430259 0
0.84578037 1.3575406 0.66223246 0
0.81559432 1.3465761 -0.056205004 0
0.82786435 1.3668344 0.4077003 0
0.82654154 1.3646504 0.53079492 0
0.83196688 1.3736078 0.6649071 0
0.79118186 1.3441787 -0.055684686 0
0.80736977 1.3716811 0.40608129 0
0.81101239 1.3778697 0.53192234 0
0.8124938 1.3803866 0.66318339 0
0.77876115 1.3620213 -0.056013163 0
0.7951448 1.3906757 0.40870795 0
0.7932843 1.3874217 0.5317114 0
0.79514647 1.3906785 0.66326499 0
0.76394624 1.3760352 -0.056189414 0
0.77113765 1.3889885 0.40532622 0
0.77317804 1.3926637 0.5299471 0
0.77432865 1.3947362 0.66049749 0
0.74810743 1.3884176 -0.056305904 0
0.75757664 1.4059914 0.40747181 0
0.75828546 1.407307 0.53184366 0
0.75879139 1.4082459 0.66231787 0
0.72561061 1.3882457 -0.055923961 0
0.73717254 1.4103662 0.40601727 0
0.74095291 1.4175988 0.53216487 0
0.73943782 1.4147002 0.66092187 0
0.70712316 1.3953968 -0.055848908 0
0.71579301 1.4125055 0.40400633 0
0.71791595 1.4166948 0.52838993 0
0.71798116 1.4168235 0.65763789 0
0.68994385 1.4050992 -0.055885077 0
0.70151401 1.4286623 0.40606868 0
0.69928306 1.4241189 0.52783281 0
0.70159411 1.4288254 0.65905577 0
0.67157871 1.4123741 -0.055833653 0
0.67903072 1.4280462 0.4034313 0
0.67830491 1.4265199 0.52551532 0
0.67973912 1.429536 0.65538353 0
0.65594786 1.425512 -0.056022048 0
0.65997005 1.434253 0.40280506 0
0.66102743 1.436551 0.52610254 0
0.66270804 1.4402032 0.65639615 0
0.63328266 1.4231761 -0.055612445 0
0.6454224 1.4504577 0.40504146 0
0.63727784 1.4321544 0.52151227 0
0.6425795 1.4440689 0.65441829 0
0.62448227 1.4523623 -0.05644118 0
0.62587261 1.4555957 0.40424341 0
0.6227088 1.4482378 0.52447194 0
0.61945796 1.4406773 0.64929485 0
0.60558695 1.458764 -0.056389142 0
0.5969395 1.4379336 0.39721933 0
0.60138339 1.4486383 0.52183318 0
0.60175425 1.4495316 0.64981884 0
0.58314955 1.4562303 -0.056002911 0
0.58340108 1.4568584 0.40038607 0
0.58210307 1.4536171 0.52094495 0
0.58484924 1.4604747 0.65137142 0
0.56409049 1.4617028 -0.055935767 0
0.56600481 1.4666632 0.40109015 0
0.56129187 1.4544508 0.51866966 0
0.56478107 1.4634922 0.64949387 0
0.54352802 1.4630017 -0.055719141 0
0.54467672 1.4660935 0.39902705 0
0.54358792 1.4631629 0.51929432 0
0.54192877 1.4586968 0.64428616 0
0.53029954 1.4843845 -0.056274734 0
0.52521789 1.4701601 0.39830223 0
0.52486914 1.4691839 0.5190444 0
0.52466774 1.4686202 0.64569986 0
0.50787503 1.4801829 -0.055868562 0
0.50572908 1.4739285 0.39756635 0
0.5039258 1.4686729 0.51658112 0
0.50417507 1.4693995 0.64320022 0
0.48750997 1.4813327 -0.055675842 0
0.4849731 1.4736242 0.39580566 0
0.48810238 1.4831327 0.51946408 0
0.48381171 1.4700953 0.64078718 0
0.47129765 1.4952154 -0.055970136 0
0.46666795 1.4805275 0.3960501 0
0.4612399 1.4633068 0.51044536 0
0.46355349 1.4706467 0.63843262 0
0.45303637 1.5030305 -0.05604469 0
0.44573376 1.4788028 0.39405605 0
0.44465905 1.4752374 0.51261324 0
0.44337019 1.4709612 0.63609505 0
0.43283099 1.5042905 -0.055884011 0
0.45007008 1.5642045 0.058109798 0
0.45051622 1.5657549 0.17509758 0
0.4518618 1.5704315 0.29471615 0
0.43069512 1.4968674 0.39739302 0
0.42556924 1.4790525 0.51203626 0
0.42164752 1.4654226 0.63135391 0
0.4138889 1.5097417 -0.055888474 0
0.42274985 1.5420637 0.057084989 0
0.42274445 1.5420442 0.17183709 0
0.42358077 1.5450947 0.28893742 0
0.40768254 1.4871027 0.3934066 0
0.40623653 1.4818282 0.51118577 0
0.40711883 1.4850465 0.63754934 0
0.39723647 1.5240021 -0.056226745 0
0.40051374 1.5365753 0.056690626 0
0.40179116 1.5414761 0.17119643 0
0.40082192 1.5377576 0.2865988 0
0.39056283 1.4983987 0.39506251 0
0.38606375 1.4811379 0.5092302 0
0.38960481 1.4947232 0.63954675 0
0.37753832 1.5269512 -0.0561557 0
0.37705323 1.5249892 0.056083549 0
0.37815565 1.5294479 0.1693183 0
0.37944928 1.53468 0.28511211 0
0.36803198 1.4885029 0.39120054 0
0.36667392 1.4830102 0.50824618 0
0.36744365 1.4861234 0.63383722 0
0.35532558 1.5189447 -0.055692289 0
0.35955575 1.5370278 0.056355309 0
0.36034837 1.5404161 0.17001674 0
0.36233562 1.5489113 0.28688559 0
0.34872103 1.4907116 0.390596 0
0.34674862 1.48228 0.50645941 0
0.3478232 1.4868736 0.63223898 0
0.33885044 1.5354348 -0.056136005 0
0.34013936 1.5412754 0.056349538 0
0.34009719 1.5410844 0.16960436 0
0.33978948 1.5396899 0.28436258 0
0.32562646 1.475513 0.38550872 0
0.32790443 1.4858352 0.5062232 0
0.32735384 1.4833403 0.62893391 0
0.31946811 1.5394714 -0.056132056 0
0.32339039 1.5583724 0.05682122 0
0.32147995 1.5491661 0.1700348 0
0.32259896 1.5545585 0.28633571 0
0.31041777 1.4958591 0.38977239 0
0.30536497 1.4715103 0.49999303 0
0.30694723 1.479135 0.62546253 0
0.29867625 1.5362597 -0.055873387 0
0.30423728 1.5648632 0.056913693 0
0.30446798 1.5660497 0.17145354 0
0.3044115 1.5657593 0.28766993 0
0.28888199 1.4858823 0.38619429 0
0.28754437 1.4790021 0.50126857 0
0.28945526 1.488831 0.62797147 0
0.27972156 1.5421721 -0.055955879 0
0.29019389 1.5999085 0.058050774 0
0.28884122 1.592451 0.17393199 0
0.29189593 1.6092921 0.29496935 0
0.27057481 1.4917437 0.38680151 0
0.2675949 1.4753149 0.49883729 0
0.26753715 1.4749964 0.62066609 0
0.26072159 1.5481846 -0.056050472 0
0.250157 1.4854512 0.38432264 0
0.24949858 1.4815415 0.49984074 0
0.24896018 1.4783444 0.62070656 0
0.23974937 1.5419673 -0.055711664 0
0.23171462 1.4902911 0.38478944 0
0.22951862 1.4761674 0.49701312 0
0.22940318 1.4754249 0.61821884 0
0.21954206 1.5394429 -0.055516172 0
0.212843 1.4924687 0.38462919 0
0.20937784 1.4681708 0.49339393 0
0.21021548 1.4740443 0.61648232 0
0.20170015 1.5540969 -0.055948604 0
0.19095732 1.4713235 0.37853006 0
0.19000368 1.4639757 0.49114111 0
0.19076739 1.4698601 0.61367905 0
0.18100287 1.5469979 -0.05560657 0
0.17237712 1.4732752 0.37844375 0
0.17116171 1.4628873 0.49001408 0
0.1718238 1.4685462 0.61217856 0
0.16208293 1.5546501 -0.055803843 0
0.15303977 1.4679109 0.37654093 0
0.15287054 1.4662876 0.4904694 0
0.15208796 1.4587814 0.60726154 0
0.14245945 1.5561777 -0.055789862 0
0.13431305 1.4671892 0.37589216 0
0.13432327 1.4673009 0.49020371 0
0.1332467 1.4555409 0.6051662 0
0.12322146 1.5625076 -0.055956732 0
0.11493857 1.4574766 0.37300345 0
0.11517709 1.4605013 0.48740888 0
0.11447127 1.4515511 0.60286027 0
0.10315181 1.5581044 -0.055748109 0
0.097257979 1.4690784 0.37562943 0
0.096057437 1.4509443 0.4837774 0
0.095700666 1.4455552 0.59982198 0
0.083902501 1.5663232 -0.055999927 0
0.078355193 1.462764 0.37373295 0
0.077188499 1.4409838 0.48009419 0
0.077560253 1.4479238 0.60035193 0
0.064422838 1.5733341 -0.056217123 0
0.058904193 1.4385576 0.36732966 0
0.058671825 1.4328828 0.47711122 0
0.059197556 1.4457222 0.59908253 0
0.044131685 1.557229 -0.055617407 0
0.040835708 1.4409273 0.36777428 0
0.040401891 1.4256195 0.47448573 0
0.040569384 1.4315298 0.59294271 0
0.024675075 1.5674621 -0.055967353 0
0.022749599 1.4451479 0.36874917 0
0.022470653 1.4274281 0.47495586 0
0.022387398 1.4221394 0.58888978 0
0.0049328767 1.5663791 -0.055922028 0
0.0044789715 1.4222466 0.36286244 0
0.004465207 1.4178758 0.47172135 0
0.004475032 1.4209956 0.58834618 0
-0.014745025 1.5615411 -0.055751514 0
-0.013372452 1.4161816 0.36132938 0
-0.013189566 1.3968135 0.46473241 0
-0.013347145 1.4135016 0.58526653 0
-0.034900635 1.5836974 -0.05655377 0
-0.031132441 1.4127069 0.36051425 0
-0.030907448 1.4024972 0.46671593 0
-0.030997396 1.4065788 0.58251554 0
-0.054404438 1.5706004 -0.056106091 0
-0.048637763 1.4041224 0.35845143 0
-0.048645347 1.4043415 0.46749642 0
-0.048603218 1.4031252 0.58129269 0
-0.07428202 1.572037 -0.056186371 0
-0.066310063 1.4033258 0.35843283 0
-0.066075519 1.398362 0.46574599 0
-0.065860815 1.3938184 0.57773477 0
-0.094070241 1.5709815 -0.056186527 0
-0.083063327 1.387165 0.35454413 0
-0.083280861 1.3907979 0.46353915 0
-0.082656495 1.3803709 0.57254684 0
-0.082778461 1.3824078 0.69291312 0
-0.11259554 1.5524677 -0.055570681 0
-0.10157166 1.4004704 0.35824335 0
-0.099547364 1.3725594 0.45784196 0
-0.099752776 1.3753917 0.57095736 0
-0.099452756 1.3712549 0.68789607 0
-0.13179322 1.5469264 -0.055427335 0
-0.11597741 1.3612878 0.45453322 0
-0.11584648 1.359751 0.56502533 0
-0.11702455 1.3735787 0.68974632 0
-0.15345486 1.5675604 -0.056231447 0
-0.13385297 1.3673248 0.45707551 0
-0.13297135 1.3583188 0.56508118 0
-0.13237652 1.3522426 0.67981553 0
-0.17214002 1.5561012 -0.055893708 0
-0.14923616 1.3490564 0.56196505 0
-0.14949523 1.3513982 0.68028349 0
-0.19285899 1.563045 -0.056225896 0
-0.16633877 1.3481092 0.56239849 0
-0.16537704 1.3403147 0.67569888 0
-0.21225229 1.5584953 -0.056153923 0
-0.18081184 1.3276389 0.67040318 0
-0.23023075 1.5447755 -0.055759624 0
-0.1974747 1.3249928 0.67026955 0
-0.2505224 1.5470606 -0.055951539 0
-0.26996627 1.5436941 -0.055948298 0
-0.29087067 1.5480965 -0.056236144 0
-0.30985108 1.5418785 -0.056147549 0
-0.32822171 1.5330954 -0.055973783 0
-0.347637 1.5294474 -0.055995978 0
-0.36380324 1.5122137 -0.055528339 0
-0.38735271 1.5253824 -0.056186546 0
-0.40531608 1.5158503 -0.05601899 0
-0.42305475 1.5059437 -0.055845328 0
-0.44316643 1.5045155 -0.055994872 0
-0.4613744 1.4965439 -0.055909973 0
-0.47791514 1.4835817 -0.055646133 0
-0.50067782 1.4897066 -0.056107894 0
-0.51767921 1.4783834 -0.055922505 0
-0.53692406 1.4735903 -0.055992503 0
-0.55526519 1.4662625 -0.055975311 0
-0.57689637 1.4673274 -0.056288823 0
-0.59139609 1.4503095 -0.055917237 0
-0.61187023 1.4480966 -0.056124531 0
-0.63160026 1.4438101 -0.05626218 0
-0.64690405 1.4294994 -0.056017511 0
-0.66615129 1.4240184 -0.056126993 0
-0.68424177 1.415959 -0.056144483 0
-0.70059294 1.4043784 -0.056030657 0
-0.72008127 1.3990617 -0.05617585 0
-0.73675925 1.3882244 -0.056108769 0
-0.74702036 1.3657475 -0.05557609 0
-0.77153111 1.3693199 -0.056112356 0
-0.7849074 1.3529401 -0.055841729 0
-0.80282962 1.3445398 -0.055907838 0
-0.81689519 1.3297663 -0.05571685 0
-0.82978141 1.3133726 -0.055463362 0
-0.85706872 1.3194722 -0.056172252 0
-0.87173182 1.305756 -0.056051195 0
-0.88903385 1.2960322 -0.056109898 0
-0.90101647 1.278682 -0.055845518 0
-0.92521429 1.2785243 -0.056342993 0
-0.93298888 1.2556698 -0.055849127 0
-0.94890797 1.2440623 -0.055859882 0
-0.96547103 1.2332599 -0.055916294 0
-0.97665143 1.2156891 -0.055672813 0
-0.99265707 1.2042369 -0.055716373 0
-1.0161512 1.2015874 -0.056181345 0
-1.0223978 1.1785508 -0.055701785 0
-1.0442573 1.1735648 -0.056083165 0
-1.0554562 1.1564938 -0.05589807 0
-1.0740607 1.1475214 -0.056113657 0
-1.0877846 1.1332405 -0.056080684 0
-1.0989436 1.1163824 -0.055926803 0
-1.1120113 1.1015635 -0.055881485 0
-1.125306 1.0870041 -0.055857304 0
-1.1417521 1.0754321 -0.055997014 0
-1.1510175 1.0571271 -0.05579415 0
-1.1610148 1.0396653 -0.05563974 0
-1.1797274 1.0299529 -0.055910543 0
-1.1925821 1.015 -0.0559096 0
-1.1995803 0.99518514 -0.055645779 0
-1.2207854 0.98709297 -0.056048404 0
-0.66983402 0.54160905 0.51085424 0
-1.2277781 0.96743643 -0.055805724 0
-0.6700933 0.52800477 0.50594115 0
-1.2456135 0.95631623 -0.056064595 0
-0.66884524 0.51350403 0.50007707 0
