# .PCD v0.7 - Point Cloud Data file format
VERSION 0.7
FIELDS x y z intensity
SIZE 4 4 4 4
TYPE F F F F
COUNT 1 1 1 1
WIDTH 1352
HEIGHT 1
VIEWPOINT 0 0 0 1 0 0 0
POINTS 1352
DATA ascii
-0.67920768 -0.56347823 0.52337301 0
-1.1948212 -1.0169057 -0.056014571 0
-0.78487378 -0.66800165 0.34289345 0
-0.69780588 -0.59389865 0.37939087 0
-0.67876905 -0.5776965 0.44596586 0
-0.6878984 -0.58546644 0.53570813 0
-1.1799011 -1.0301046 -0.055918775 0
-0.78564352 -0.68590069 0.34697554 0
-0.69564128 -0.60732484 0.38234159 0
-0.68296832 -0.59626079 0.45362198 0
-0.69049817 -0.6028347 0.54360127 0
-1.1764094 -1.0534509 -0.0563775 0
-0.76367521 -0.68385577 0.34104943 0
-0.69059515 -0.61841398 0.3838177 0
-0.68261981 -0.61127228 0.45846662 0
-0.68280661 -0.61143959 0.54356432 0
-1.1479187 -1.0542811 -0.055643938 0
-0.76207203 -0.69990849 0.34424213 0
-0.69116765 -0.63478798 0.38854763 0
-0.67419297 -0.61919791 0.45800734 0
-0.68105614 -0.62550122 0.54839754 0
-1.1387733 -1.0726264 -0.055850923 0
-0.75564516 -0.71175259 0.34536019 0
-0.69678026 -0.65630698 0.3963173 0
-0.68416059 -0.64442027 0.47025412 0
-0.69051772 -0.65040815 0.5625664 0
-1.1301019 -1.0916368 -0.056095365 0
-0.74367774 -0.71836519 0.3439976 0
-0.68289375 -0.65965015 0.3931123 0
-0.68287814 -0.65963507 0.47504422 0
-0.68056393 -0.65739959 0.56115669 0
-1.1104832 -1.1000497 -0.055804696 0
-0.72602582 -0.71920455 0.33999467 0
-0.68630409 -0.679856 0.3999719 0
-0.68224144 -0.6758315 0.48048332 0
-0.68522841 -0.67879045 0.57200527 0
-1.1056324 -1.1231773 -0.056267206 0
-0.72312886 -0.73460388 0.34294268 0
-0.68130219 -0.69211352 0.40210411 0
-0.6861248 -0.69701266 0.48936081 0
-0.68219757 -0.69302315 0.57671422 0
-1.0842924 -1.1296023 -0.055900645 0
-0.84227854 -0.8774752 0.04342363 0
-0.8453114 -0.88063484 0.13118604 0
-0.84515989 -0.88047695 0.22010927 0
-0.84465021 -0.87994599 0.31119192 0
-0.71135682 -0.74108255 0.34175834 0
-0.67781359 -0.70613772 0.40526098 0
-0.68330085 -0.71185422 0.4937008 0
-0.68605888 -0.71472752 0.58754027 0
-1.0729287 -1.1463119 -0.056054514 0
-0.81799251 -0.87393934 0.042735528 0
-0.8220315 -0.87825459 0.12927923 0
-0.8155334 -0.87131202 0.21523386 0
-0.81336695 -0.86899745 0.3036738 0
-0.70943046 -0.75795215 0.34539086 0
-0.68545139 -0.732333 0.41530824 0
-0.68418956 -0.73098493 0.50095379 0
-0.68245858 -0.72913551 0.592273 0
-1.0634784 -1.1652839 -0.056322932 0
-0.79777527 -0.87414539 0.042251017 0
-0.79863852 -0.87509125 0.12732315 0
-0.79759198 -0.87394452 0.21338627 0
-0.79217583 -0.86800992 0.29981908 0
-0.70183378 -0.76901948 0.34637946 0
-0.68651104 -0.75222993 0.42165598 0
-0.67890525 -0.74389607 0.50390339 0
-0.68111664 -0.74631917 0.59921682 0
-1.0477396 -1.1774783 -0.05627019 0
-0.78074455 -0.87742198 0.041930877 0
-0.78422189 -0.88132989 0.12678401 0
-0.78615099 -0.88349789 0.21328488 0
-0.78081387 -0.87749988 0.2996771 0
-0.68524897 -0.77010143 0.34295306 0
-0.68052649 -0.76479417 0.42386168 0
-0.68164891 -0.76605558 0.5130589 0
-0.68461913 -0.76939362 0.61077309 0
-1.0302538 -1.1876067 -0.056129791 0
-0.76619738 -0.88322043 0.041743599 0
-0.7615819 -0.87790006 0.12490113 0
-0.76347637 -0.88008386 0.21012315 0
-0.76463121 -0.88141507 0.29770237 0
-0.69119745 -0.79676557 0.35092363 0
-0.6841718 -0.7886669 0.43228337 0
-0.68240732 -0.78663296 0.52104402 0
-0.68184668 -0.78598666 0.61708051 0
-1.0126029 -1.1973916 -0.055985171 0
-0.74888319 -0.88554597 0.041404534 0
-0.75578642 -0.893709 0.12578633 0
-0.76063091 -0.89943755 0.21244028 0
-0.74544919 -0.88148534 0.2945323 0
-0.69500536 -0.82183605 0.35808262 0
-0.67937565 -0.80335414 0.43561012 0
-0.69352627 -0.82008708 0.53737599 0
-0.6837467 -0.80852282 0.62796432 0
-0.99593949 -1.2082189 -0.055900611 0
-0.74788862 -0.90729731 0.041977882 0
-0.74232996 -0.90055382 0.12542413 0
-0.73560387 -0.89239413 0.20857233 0
-0.73943239 -0.89703864 0.29659453 0
-0.6997326 -0.84887707 0.36599657 0
-0.6859349 -0.83213842 0.44649914 0
-0.68699938 -0.83342981 0.5404076 0
-0.67855018 -0.82317972 0.63266158 0
-0.98141903 -1.2216235 -0.055944588 0
-0.73111022 -0.91005105 0.041676037 0
-0.73157275 -0.91062677 0.12553407 0
-0.72310537 -0.900087 0.20822567 0
-0.73529613 -0.91526145 0.29953453 0
-0.69382608 -0.86364156 0.36856619 0
-0.68450749 -0.8520422 0.45251808 0
-0.68973875 -0.85855383 0.55102295 0
-0.68177772 -0.84864432 0.64558327 0
-0.9674058 -1.2357314 -0.056028347 0
-0.7218613 -0.92208111 0.041807372 0
-0.72390646 -0.92469358 0.12620661 0
-0.72404307 -0.92486811 0.21183252 0
-0.73187494 -0.93487221 0.30291241 0
-0.68708205 -0.87765533 0.37082502 0
-0.68204373 -0.87121952 0.45810547 0
-0.69143152 -0.88321114 0.5612157 0
-0.68619764 -0.87652564 0.66016769 0
-0.94982725 -1.2452675 -0.055913996 0
-0.71447259 -0.93670666 0.042059246 0
-0.72014272 -0.94414049 0.12761304 0
-0.70996344 -0.93079495 0.21112564 0
-0.71677417 -0.93972415 0.30153611 0
-0.69657356 -0.91324013 0.38212389 0
-0.68227214 -0.89449036 0.46578738 0
-0.68828362 -0.90237164 0.56783849 0
-0.69165033 -0.90678561 0.67634517 0
-0.93551016 -1.259063 -0.056000054 0
-0.7180804 -0.96643364 0.042984612 0
-0.71157306 -0.95767576 0.12822124 0
-0.71347409 -0.96023422 0.21574822 0
-0.71273005 -0.95923293 0.30489203 0
-0.69283974 -0.93246335 0.3864862 0
-0.68186575 -0.91769397 0.47336155 0
-0.68342876 -0.91979754 0.57334322 0
-0.67976385 -0.91486514 0.67593342 0
-0.92096555 -1.2726531 -0.056084257 0
-0.71958679 -0.99437422 0.043820847 0
-0.71148872 -0.9831838 0.13042659 0
-0.72530514 -1.0022762 0.22312458 0
-0.71793443 -0.99209088 0.31243768 0
-0.69246054 -0.95688933 0.39296502 0
-0.68733978 -0.94981307 0.48542619 0
-0.678855 -0.93808824 0.57937014 0
-0.68262303 -0.94329518 0.69053292 0
-0.90347731 -1.2821743 -0.055998042 0
-0.6130138 -0.86996162 0.037994947 0
-0.61812073 -0.87720913 0.11532658 0
-0.61600024 -0.87419981 0.19287039 0
-0.77302969 -1.0970489 0.34239927 0
-0.68478924 -0.97182208 0.39552489 0
-0.67688447 -0.96060395 0.4865464 0
-0.68413895 -0.97089922 0.59426671 0
-0.88564235 -1.2910881 -0.05589585 0
-0.60172713 -0.87719691 0.03797701 0
-0.59676033 -0.86995625 0.11337613 0
-0.59355032 -0.86527675 0.18923776 0
-0.75349075 -1.0984377 0.33984444 0
-0.67874467 -0.98947293 0.3991985 0
-0.67670149 -0.98649436 0.49530467 0
-0.68425417 -0.99750465 0.60522956 0
-0.86793095 -1.3000628 -0.055806804 0
-0.58285451 -0.87305033 0.037476767 0
-0.58005559 -0.86885786 0.11227217 0
-0.58093148 -0.87016982 0.18869308 0
-0.74584758 -1.1171956 0.342715 0
-0.67862004 -1.0164963 0.40662116 0
-0.68417072 -1.0248106 0.51017666 0
-0.68116969 -1.0203154 0.61381686 0
-0.85116625 -1.3103852 -0.055785403 0
-0.57087988 -0.87887955 0.037415449 0
-0.56502593 -0.86986727 0.11147439 0
-0.56776661 -0.87408656 0.18797718 0
-0.73236108 -1.1274825 0.34301451 0
-0.67871869 -1.0448992 0.41453126 0
-0.68411922 -1.0532135 0.51998657 0
-0.68473822 -1.0541663 0.6289444 0
-0.83711588 -1.3249816 -0.055953607 0
-0.55130827 -0.87260723 0.036849961 0
-0.55020338 -0.87085837 0.11070476 0
-0.54715157 -0.86602795 0.18474777 0
-0.709562 -1.1230901 0.33893302 0
-0.68263578 -1.0804715 0.4251996 0
-0.68336165 -1.0816203 0.52972108 0
-0.68211609 -1.079649 0.6389727 0
-0.82623518 -1.3449702 -0.056353889 0
-0.53757524 -0.875081 0.036665659 0
-0.53392583 -0.86914039 0.109623 0
-0.53754091 -0.87502509 0.18520845 0
-0.70070714 -1.1406319 0.34153703 0
-0.68559963 -1.1160395 0.43576473 0
-0.68352264 -1.1126585 0.54066378 0
-0.68265158 -1.1112406 0.65253049 0
-0.79951376 -1.3389865 -0.055676926 0
-0.52451974 -0.8784399 0.036526758 0
-0.52012312 -0.8710767 0.1090325 0
-0.51681852 -0.86554235 0.18180946 0
-0.68819582 -1.1525567 0.34248567 0
-0.68190521 -1.1420214 0.44252172 0
-0.68079686 -1.1401652 0.54982054 0
-0.68011874 -1.1390295 0.6637668 0
-0.78935701 -1.3606099 -0.056158293 0
-0.50796026 -0.87556803 0.036138505 0
-0.51041734 -0.87980324 0.10931163 0
-0.50344461 -0.86778438 0.18093444 0
-0.6934557 -1.1953053 0.35256582 0
-0.68430042 -1.1795244 0.45367885 0
-0.68456161 -1.1799747 0.56481618 0
-0.68264806 -1.1766763 0.68064213 0
-0.76624244 -1.3599336 -0.055727724 0
-0.4911451 -0.87168849 0.035720285 0
-0.49570468 -0.87978089 0.10852471 0
-0.49250731 -0.87410611 0.18094511 0
-0.68945372 -1.2236483 0.35833669 0
-0.68015182 -1.2071393 0.46096954 0
-0.68046862 -1.2077014 0.57394111 0
-0.753645 -1.3778591 -0.056068946 0
-0.48034108 -0.87818837 0.035735946 0
-0.4751626 -0.86872083 0.10641389 0
-0.46955803 -0.8584742 0.17647123 0
-0.69842833 -1.2769086 0.37132865 0
-0.67952859 -1.242355 0.47111243 0
-0.68742275 -1.2567875 0.59310776 0
-0.73818099 -1.3909034 -0.056217045 0
-0.46455517 -0.87532914 0.035378747 0
-0.46027288 -0.86726028 0.10551666 0
-0.45972127 -0.86622089 0.17685966 0
-0.68467432 -1.2900844 0.37262347 0
-0.68305302 -1.2870295 0.48475337 0
-0.68164438 -1.2843753 0.60202861 0
-0.71889156 -1.3967502 -0.056083035 0
-0.44908178 -0.87253082 0.035034306 0
-0.45370531 -0.88151401 0.10654731 0
-0.44994527 -0.87420851 0.17731966 0
-0.68456572 -1.3300577 0.38164917 0
-0.67995024 -1.3210902 0.4943181 0
-0.68172836 -1.324545 0.61678475 0
-0.7070353 -1.4172926 -0.056545898 0
-0.4330571 -0.86808759 0.034634199 0
-0.42909876 -0.8601529 0.10330415 0
-0.43219239 -0.86635423 0.17460883 0
-0.67905968 -1.3612138 0.38810477 0
-0.68509811 -1.3733181 0.51059204 0
-0.68516368 -1.3734496 0.63548964 0
-0.68841642 -1.424598 -0.056487028 0
-0.42448074 -0.87841368 0.034830164 0
-0.42637345 -0.88233042 0.1053145 0
-0.42296058 -0.87526792 0.175318 0
-0.67814672 -1.4033461 0.39765117 0
-0.68595719 -1.4195089 0.52451247 0
-0.66319495 -1.4176987 -0.055877905 0
-0.40836623 -0.8729564 0.034407154 0
-0.40740779 -0.8709076 0.10333055 0
-0.40618968 -0.86830366 0.17288482 0
-0.6811763 -1.4561372 0.41014695 0
-0.67864537 -1.4507267 0.53284764 0
-0.64575517 -1.4269606 -0.055918027 0
-0.39997908 -0.88385576 0.03463548 0
-0.3922236 -0.86671805 0.10223938 0
-0.3951855 -0.87326312 0.17286777 0
-0.68061125 -1.5039841 0.42117649 0
-0.68043685 -1.5035987 0.54907674 0
-0.6285156 -1.4367586 -0.055987399 0
-0.38139322 -0.87184793 0.033974044 0
-0.38400003 -0.8778069 0.10296889 0
-0.38015759 -0.86902326 0.1710673 0
-0.68701738 -1.5704911 0.43734384 0
-0.6833939 -1.5622081 0.56729198 0
-0.61239094 -1.449329 -0.056172293 0
-0.36709502 -0.86879385 0.033672232 0
-0.3718034 -0.87993699 0.10266142 0
-0.36864749 -0.87246799 0.17081805 0
-0.6856873 -1.6227975 0.44946983 0
-0.58881593 -1.4439822 -0.055673286 0
-0.35420531 -0.86863506 0.033490553 0
-0.35522828 -0.8711437 0.10110562 0
-0.35697827 -0.87543529 0.1705054 0
-0.68243086 -1.6735587 0.46111262 0
-0.57458931 -1.4614594 -0.056063719 0
-0.34792703 -0.8849473 0.03394787 0
-0.34132534 -0.86815602 0.10025208 0
-0.34410423 -0.87522405 0.16960688 0
-0.68053085 -1.7309203 0.47451863 0
-0.555861 -1.4678359 -0.056035373 0
-0.33033937 -0.87231153 0.033300932 0
-0.33230695 -0.87750727 0.10084073 0
-0.32926178 -0.86946601 0.16767429 0
-0.68524706 -1.8094994 0.49365583 0
-0.53502285 -1.4683725 -0.055794243 0
-0.31665984 -0.86907429 0.033022508 0
-0.31711832 -0.87033254 0.099549457 0
-0.3176803 -0.87187487 0.16735412 0
-0.51665944 -1.4754713 -0.055812344 0
-0.31040317 -0.88644642 0.033531427 0
-0.30762586 -0.87851501 0.10003437 0
-0.30597353 -0.87379634 0.16697015 0
-0.49785328 -1.4813025 -0.055791359 0
-0.29317024 -0.87229282 0.03285379 0
-0.29370791 -0.87389249 0.099079028 0
-0.29066971 -0.86485273 0.1645487 0
-0.48245463 -1.4976736 -0.056174692 0
-0.27910793 -0.86642879 0.032497983 0
-0.2805188 -0.87080848 0.098321088 0
-0.28018317 -0.86976665 0.1647993 0
-0.46276638 -1.5010591 -0.056078658 0
-0.26989102 -0.87543601 0.032705761 0
-0.26796025 -0.86917323 0.097747728 0
-0.26984715 -0.87529367 0.16518961 0
-0.44746661 -1.5191144 -0.056538209 0
-0.26251805 -0.89122838 0.09984839 0
-0.25619707 -0.86976916 0.16352518 0
-0.42243531 -1.5037385 -0.055763554 0
-0.24455583 -0.87054288 0.032282583 0
-0.24425071 -0.86945677 0.097056948 0
-0.24532266 -0.87327254 0.1635901 0
-0.40296239 -1.5070477 -0.055693682 0
-0.23487426 -0.87841129 0.03246212 0
-0.23535447 -0.88020724 0.097918421 0
-0.23173152 -0.86665767 0.16179147 0
-0.38811272 -1.5283754 -0.056296788 0
-0.22324288 -0.87912327 0.032381978 0
-0.21844807 -0.86024147 0.16006745 0
-0.36871272 -1.5326208 -0.056277689 0
-0.20957494 -0.87113601 0.096291512 0
-0.34741676 -1.5284784 -0.055960499 0
-0.20089208 -0.88383532 0.16346423 0
-0.32797271 -1.5319324 -0.055931319 0
-0.18855304 -0.88071507 0.16243513 0
-0.3082886 -1.5341032 -0.055864412 0
-0.2884995 -1.5354764 -0.05577771 0
-0.16520539 -0.87927014 0.16134998 0
-0.27035248 -1.5459025 -0.05602834 0
-0.25051656 -1.5470245 -0.055950236 0
-0.23079807 -1.548582 -0.055897024 0
-0.21192212 -1.556071 -0.056066576 0
-0.19243327 -1.5595946 -0.05610178 0
-0.17224126 -1.5570164 -0.05592658 0
-0.15350312 -1.5680534 -0.056249131 0
-0.13219143 -1.5516003 -0.055594809 0
-0.11348507 -1.5647326 -0.056009702 0
-0.093263723 -1.5575125 -0.055704806 0
-0.073889628 -1.5637327 -0.055889565 0
-0.054036211 -1.5599701 -0.055726349 0
-0.034503408 -1.5656723 -0.055910092 0
-0.014818851 -1.5693594 -0.056030653 0
0.0049098977 -1.5590823 -0.055661526 0
0.024727972 -1.5708222 -0.05608733 0
0.044508271 -1.5705171 -0.056091998 0
0.064420089 -1.5732669 -0.056214724 0
0.083645366 -1.561523 -0.055828307 0
0.10374308 -1.5670357 -0.05606766 0
0.061689202 -0.93181324 0.033339757 0
0.12363936 -1.5678068 -0.056146506 0
0.073037215 -0.92614716 0.033167306 0
0.14289194 -1.5609021 -0.055959236 0
0.082933351 -0.90593523 0.032478299 0
0.16265506 -1.5601377 -0.056000821 0
0.096514434 -0.92573708 0.033229142 0
0.18125013 -1.5491111 -0.055682532 0
0.10878012 -0.92972338 0.033418749 0
0.11655441 -0.99616885 0.10778787 0
0.11575618 -0.98934656 0.17964451 0
0.1169662 -0.99968827 0.25679234 0
0.11400298 -0.97436225 0.32637596 0
0.11655337 -0.99615991 0.41525954 0
0.20207115 -1.5569553 -0.056051511 0
0.12155107 -0.93654931 0.033716448 0
0.12794274 -0.98579705 0.10683146 0
0.12706241 -0.9790141 0.17804477 0
0.12728269 -0.9807114 0.25230941 0
0.12826009 -0.98824215 0.33153993 0
0.12710699 -0.9793576 0.4088901 0
0.12516029 -0.96435827 0.48655403 0
0.22065793 -1.5472674 -0.055798348 0
0.1365297 -0.95735496 0.034524623 0
0.13700044 -0.96065587 0.10428558 0
0.13658184 -0.95772058 0.17447124 0
0.13701266 -0.96074158 0.24759597 0
0.13701555 -0.96076173 0.32287389 0
0.1361762 -0.95487618 0.39935318 0
0.13816386 -0.96881384 0.48964098 0
0.24202691 -1.5566155 -0.056240905 0
0.15225846 -0.97926247 0.035380997 0
0.1501696 -0.96582776 0.10504398 0
0.1516562 -0.975389 0.17802373 0
0.14984125 -0.96371597 0.24882905 0
0.14975165 -0.96313965 0.32428101 0
0.15123291 -0.97266662 0.40755773 0
0.14814992 -0.95283806 0.48247138 0
0.26144484 -1.5524794 -0.056205958 0
0.16605748 -0.98606199 0.035699386 0
0.16743764 -0.99425745 0.10835674 0
0.16693279 -0.99125963 0.18128966 0
0.16732994 -0.99361789 0.25707331 0
0.16533259 -0.98175746 0.33122417 0
0.16492319 -0.97932649 0.41118586 0
0.15907058 -0.94457322 0.47926271 0
0.28032935 -1.5455229 -0.056077462 0
0.62721092 -3.4579642 0.12546812 0
0.17088877 -0.94215071 0.47908741 0
0.29856506 -1.5356877 -0.055852588 0
0.6724031 -3.4585469 0.1257865 0
0.18207553 -0.9365167 0.47735053 0
0.31990248 -1.5415645 -0.056208376 0
0.7167955 -3.4541354 0.12594435 0
0.18931337 -0.91227412 0.46617201 0
0.33805627 -1.5318363 -0.056004439 0
0.76153404 -3.4507434 0.12616031 0
0.200866 -0.91018522 0.46636009 0
0.35837772 -1.5319921 -0.056170672 0
0.21016331 -0.89840555 0.46164379 0
0.37811965 -1.5293024 -0.056242172 0
0.21958311 -0.88810241 0.45773408 0
0.39498952 -1.5153816 -0.055908699 0
0.22948143 -0.88040805 0.45522159 0
0.41192204 -1.5025672 -0.055622883 0
0.24067113 -0.87789559 0.45545343 0
0.43318194 -1.5055103 -0.055929326 0
0.25550565 -0.8880018 0.46232906 0
0.45108718 -1.4965638 -0.055803556 0
0.25275224 -0.83855152 0.43820557 0
0.46894532 -1.4877527 -0.05569078 0
0.26533216 -0.84177959 0.44160345 0
0.49033791 -1.4899256 -0.055998806 0
0.27129731 -0.8243556 0.43422046 0
0.50751269 -1.4791268 -0.055828705 0
0.29498985 -0.85973692 0.45477775 0
0.52558875 -1.4711983 -0.05577483 0
0.54409432 -1.4645259 -0.055777196 0
0.56797838 -1.4717774 -0.056321297 0
0.58249521 -1.4545964 -0.055940073 0
0.5999887 -1.4452786 -0.055867862 0
0.62217802 -1.4470032 -0.056232918 0
0.63167524 -1.4195638 -0.05547129 0
0.3675459 -0.82598591 0.3743175 0
0.65522915 -1.4239501 -0.055960666 0
0.67425907 -1.4180111 -0.056056488 0
0.39426082 -0.8291564 0.38013414 0
0.35418087 -0.7448656 0.48913652 0
0.68780786 -1.4007491 -0.055712059 0
0.40105146 -0.81675786 0.3767353 0
0.36848688 -0.75043869 0.49580398 0
0.70489669 -1.3910034 -0.055673067 0
0.40409964 -0.79742742 0.37013677 0
0.37161773 -0.73332942 0.48755315 0
0.7224673 -1.3822321 -0.055681702 0
0.42301694 -0.80932039 0.37809956 0
0.37918252 -0.72545594 0.48545444 0
0.74725103 -1.3868281 -0.056241445 0
0.43355465 -0.8046369 0.37843207 0
0.38308865 -0.71097672 0.47895545 0
0.75785035 -1.3650551 -0.055741053 0
0.44681868 -0.80481869 0.38113353 0
0.39458305 -0.71073085 0.48209876 0
0.78075564 -1.3655095 -0.056156617 0
0.47591138 -0.83234948 0.39697763 0
0.40384379 -0.70630622 0.48250863 0
0.79334772 -1.3478584 -0.055837125 0
0.49467868 -0.84043449 0.40377256 0
0.4093565 -0.69547641 0.4785938 0
0.81486487 -1.3453717 -0.056154732 0
0.49869987 -0.82337177 0.39856043 0
0.41608405 -0.68697 0.47630784 0
0.83086926 -1.3336071 -0.056095935 0
0.43084034 -0.69153088 0.48319337 0
0.84852904 -1.3244976 -0.056157749 0
0.4358913 -0.68039739 0.4792113 0
0.86586577 -1.3148124 -0.056204937 0
0.58280259 -0.88498259 0.43873221 0
0.44496253 -0.67567319 0.47979224 0
0.88466465 -1.3072228 -0.056352235 0
0.58820713 -0.8691631 0.43452716 0
0.45203292 -0.6679455 0.47830886 0
0.89446646 -1.2865055 -0.055940248 0
0.5976842 -0.85964537 0.4334971 0
0.45454282 -0.65376604 0.47221631 0
0.91002023 -1.2743372 -0.055904984 0
0.61790007 -0.8652699 0.44022214 0
0.45944622 -0.6433807 0.46885663 0
0.92618287 -1.2630361 -0.055916414 0
0.63019037 -0.85939097 0.44123352 0
0.46264541 -0.63090986 0.46397731 0
0.94265944 -1.2521335 -0.05595481 0
0.65203571 -0.86609828 0.44885713 0
0.47733879 -0.63404858 0.47066861 0
0.95514321 -1.2360144 -0.055767544 0
0.66887617 -0.86556721 0.45291102 0
0.48259008 -0.62450147 0.46805546 0
0.97014374 -1.2232764 -0.055739582 0
0.68597811 -0.86496544 0.4570798 0
0.49339578 -0.62213397 0.47090027 0
0.99182272 -1.2187712 -0.056098934 0
0.49938497 -0.61365408 0.46920422 0
1.0053747 -1.2041321 -0.056003392 0
0.5041182 -0.60377979 0.46647099 0
1.0198447 -1.1906633 -0.055969812 0
1.0355812 -1.1786675 -0.056014467 0
0.51660496 -0.58798426 0.46417364 0
1.0520717 -1.1674566 -0.056106821 0
1.7665164 -1.9602573 0.094208047 0
0.51954579 -0.57652646 0.46025664 0
1.0583339 -1.1450783 -0.055667397 0
1.761387 -1.9057559 0.092647351 0
0.53859055 -0.58273518 0.47059017 0
1.0784943 -1.1378087 -0.055969771 0
0.93703043 -0.98856467 0.04862833 0
0.53581554 -0.56528401 0.46190947 0
1.0940512 -1.1254928 -0.056037176 0
0.9387095 -0.96568674 0.04808059 0
1.4048189 -1.4451915 0.21660049 0
1.1026326 -1.1061077 -0.05575889 0
0.94498247 -0.94796056 0.047786694 0
1.397487 -1.4018912 0.21273138 0
0.55451721 -0.55626476 0.46580502 0
1.1215203 -1.0970743 -0.056010984 0
0.96668994 -0.94561875 0.048278447 0
1.3048739 -1.2764313 0.19617115 0
1.3004359 -1.27209 0.32808328 0
1.287344 -1.2592834 0.45945367 0
0.55890918 -0.54672647 0.46367446 0
1.1359816 -1.0835687 -0.056047332 0
0.97920752 -0.93402797 0.048312373 0
1.3984149 -1.3338937 0.20769222 0
0.74161124 -0.70739412 0.34097397 0
0.566248 -0.54012197 0.46408361 0
1.1429031 -1.0630111 -0.055723984 0
1.0186961 -0.94748652 0.049668081 0
1.3950999 -1.2975787 0.20475692 0
0.74826401 -0.69595838 0.33997652 0
0.57539868 -0.53517675 0.46602315 0
1.1657065 -1.0571603 -0.056182299 0
1.4028866 -1.2722551 0.067613415 0
1.3981433 -1.2679534 0.20284416 0
0.75361794 -0.68344384 0.33847207 0
0.57911974 -0.52519423 0.46364388 0
1.1637425 -1.0289745 -0.055458769 0
1.3901596 -1.2291713 0.066248797 0
1.3888483 -1.2280117 0.19923639 0
1.403046 -1.2405653 0.33776474 0
0.77625906 -0.68636382 0.34473175 0
0.58946669 -0.5212031 0.46663624 0
1.1955388 -1.0305599 -0.056351144 0
1.403845 -1.2101208 0.066169553 0
1.3962976 -1.2036148 0.1981151 0
1.3955687 -1.2029867 0.33229163 0
0.79100311 -0.68184829 0.34743899 0
0.59227568 -0.5105443 0.46373388 0
1.199158 -1.0076421 -0.055919237 0
1.398066 -1.1747829 0.065194733 0
1.3955394 -1.1726598 0.19589685 0
1.3952233 -1.1723942 0.32866815 0
1.4768087 -1.2409495 0.49214163 0
0.81750464 -0.6869421 0.35525185 0
0.83436877 -0.70111287 0.45122901 0
0.60361612 -0.50721341 0.46757528 0
1.2132335 -0.99367809 -0.055987678 0
1.3998164 -1.1464957 0.064598009 0
1.3937492 -1.1415265 0.19361243 0
1.4061188 -1.1516575 0.32779261 0
1.5003613 -1.2288452 0.49479464 0
0.85450059 -0.69986409 0.36746988 0
0.80221713 -0.65704221 0.42933288 0
0.61113441 -0.50053918 0.46847963 0
1.2240002 -0.97700727 -0.055912364 0
1.4033955 -1.1202021 0.06410715 0
1.3890551 -1.1087556 0.19100572 0
1.3942147 -1.1128739 0.32172525 0
1.5419302 -1.2307817 0.5033524 0
0.83229613 -0.6643458 0.35429543 0
0.80912429 -0.64584982 0.42864302 0
0.60625947 -0.48392141 0.46003494 0
1.2377311 -0.96270531 -0.055981398 0
1.4027916 -1.0910891 0.063446924 0
1.3969268 -1.0865275 0.19019172 0
1.3941904 -1.0843991 0.3185434 0
0.8097232 -0.62980139 0.42472529 0
0.61843699 -0.48101932 0.46464232 0
1.2525254 -0.94914412 -0.056105513 0
1.4029075 -1.0631013 0.062841713 0
1.3930761 -1.0556512 0.1878427 0
1.3892955 -1.0527862 0.31437114 0
0.81656778 -0.61878222 0.42419481 0
0.62732816 -0.47537941 0.46678793 0
1.2583963 -0.92888337 -0.05584012 0
1.4112992 -1.0417484 0.062625043 0
1.3966117 -1.0309069 0.18655424 0
1.3938497 -1.0288681 0.31244528 0
0.847763 -0.62577504 0.4362722 0
0.63511181 -0.46880683 0.46814996 0
1.2694626 -0.91258425 -0.055816833 0
1.4117291 -1.014856 0.062072124 0
1.4002144 -1.0065783 0.18532769 0
1.3888881 -0.99843615 0.30849037 0
0.64077628 -0.46063769 0.46801263 0
1.2873558 -0.90107971 -0.056100231 0
1.4025289 -0.98169476 0.061119232 0
1.3986083 -0.9789505 0.183469 0
1.3942246 -0.97588223 0.30692193 0
1.3928362 -0.97491038 0.43375766 0
0.64939821 -0.45454377 0.47009218 0
1.2943549 -0.88190699 -0.055916868 0
1.441281 -0.98201483 0.062264152 0
1.4016738 -0.95502853 0.18227911 0
1.3952866 -0.95067662 0.30449626 0
1.3947552 -0.95031464 0.43059453 0
0.67240483 -0.45814213 0.48253205 0
1.3115171 -0.86962444 -0.05618076 0
1.4728142 -0.97657531 0.06309016 0
1.4030179 -0.93029559 0.18091616 0
1.3905462 -0.92202604 0.30090415 0
1.3918148 -0.92286718 0.4260653 0
0.67620111 -0.448367 0.48116654 0
1.3092468 -0.84458089 -0.055623524 0
1.5103414 -0.97430485 0.06416706 0
1.3979751 -0.90181857 0.17878743 0
1.3956015 -0.90028739 0.29952118 0
1.4018695 -0.90433085 0.42562357 0
0.68642944 -0.44280818 0.48443866 0
1.3284715 -0.83348376 -0.055989958 0
1.5455059 -0.96965122 0.065137118 0
1.3965032 -0.87616682 0.17717414 0
1.394412 -0.8748548 0.29687804 0
1.4012724 -0.87915909 0.42204767 0
0.69788074 -0.43785074 0.48859045 0
1.3378191 -0.81605518 -0.055946395 0
1.5882068 -0.96878898 0.066417381 0
1.395605 -0.85130394 0.17568623 0
1.406063 -0.85768318 0.29703563 0
1.3955864 -0.85129255 0.41707337 0
0.69747984 -0.42545515 0.48452058 0
1.3463936 -0.79820037 -0.055880211 0
1.632549 -0.96784574 0.067756705 0
1.3951738 -0.82711941 0.174307 0
1.3935506 -0.82615715 0.29217151 0
1.3990127 -0.82939529 0.41494328 0
0.69582707 -0.41251639 0.47972596 0
1.3542231 -0.77996677 -0.055793114 0
1.4105158 -0.8123886 0.17493182 0
1.3970393 -0.80462688 0.2907556 0
1.3890499 -0.80002534 0.40896797 0
0.69904459 -0.40261576 0.47841099 0
1.3643903 -0.76310742 -0.055811677 0
1.4196306 -0.79400355 0.17480841 0
1.4029852 -0.78469366 0.28991362 0
1.3980259 -0.7819199 0.40867937 0
0.70724034 -0.39556161 0.480573 0
1.379338 -0.74882501 -0.056032971 0
1.4024254 -0.76135886 0.17149571 0
1.397119 -0.75847805 0.28670511 0
1.3989322 -0.75946248 0.40611655 0
1.3833452 -0.72860032 -0.055818629 0
1.406754 -0.74092954 0.17087056 0
1.4009484 -0.73787177 0.28556159 0
1.3921623 -0.73324418 0.40143895 0
1.3891376 -0.70945352 -0.055687461 0
1.408793 -0.71949178 0.17000428 0
1.3963432 -0.71313351 0.28277007 0
1.3915763 -0.71069902 0.39865777 0
1.3992077 -0.71459645 0.52270377 0
1.4087892 -0.69726592 -0.056118824 0
1.4136478 -0.69967067 0.16951349 0
1.4032569 -0.6945278 0.28237668 0
1.4033551 -0.69457638 0.39949486 0
1.3983732 -0.69211072 0.51909512 0
1.4193377 -0.68037391 -0.056193292 0
1.4250221 -0.68309879 0.16983251 0
1.3945671 -0.66849989 0.27891201 0
1.3974017 -0.66985863 0.39536756 0
1.4036813 -0.67286879 0.51787919 0
1.4148247 -0.65643245 -0.055682942 0
1.4560282 -0.67554945 0.17250028 0
1.4057362 -0.6522156 0.27948108 0
1.3876275 -0.64381373 0.39027745 0
1.3977714 -0.64852017 0.51264524 0
1.4290576 -0.6412943 -0.055920847 0
1.4897568 -0.66853327 0.17548497 0
1.3953924 -0.62618697 0.27583507 0
1.3978332 -0.62728226 0.39089528 0
1.3933583 -0.62527418 0.50809878 0
1.4444945 -0.62649214 -0.056211755 0
1.5200524 -0.65926242 0.17806162 0
1.3950018 -0.60502666 0.27423009 0
1.3974081 -0.60607028 0.38861144 0
1.3889164 -0.60238731 0.50367296 0
1.4435339 -0.60459632 -0.055873681 0
1.5494399 -0.64895296 0.18053256 0
1.3933619 -0.58358276 0.27244154 0
1.4012753 -0.58689708 0.38760093 0
1.4036264 -0.5878818 0.50628275 0
1.4486449 -0.58540785 -0.055781759 0
1.5885346 -0.64193833 0.18413123 0
1.3952123 -0.56381536 0.27139363 0
1.3971381 -0.56459361 0.38445956 0
1.398479 -0.56513542 0.50181943 0
1.4625597 -0.56971502 -0.056036882 0
1.6229084 -0.6321761 0.18717802 0
1.4052244 -0.54738104 0.27197886 0
1.3984332 -0.54473567 0.38289803 0
1.4091407 -0.54890662 0.50312513 0
0.83792931 -0.32640097 0.44993442 0
1.4629701 -0.54876119 -0.055783428 0
1.4147979 -0.53069174 0.27251676 0
1.3960046 -0.52364236 0.38039747 0
1.3984004 -0.52454102 0.49689263 0
0.83407289 -0.31286135 0.44571295 0
1.4794834 -0.533804 -0.056152329 0
1.3953272 -0.50344008 0.26752406 0
1.4034681 -0.50637734 0.38066354 0
1.3983924 -0.50454605 0.49459308 0
0.81716496 -0.29483664 0.43465921 0
1.4766079 -0.51184726 -0.055794142 0
1.415339 -0.49060917 0.27015498 0
1.396506 -0.48408094 0.37709197 0
1.397386 -0.48438597 0.49204075 0
1.3952957 -0.48366144 0.61142594 0
0.81684637 -0.28314936 0.43255895 0
1.4897085 -0.49546701 -0.056048967 0
1.4123659 -0.4697434 0.26843718 0
1.3929917 -0.46329963 0.37453797 0
1.4022629 -0.46638322 0.49165115 0
1.4015368 -0.46614173 0.61154014 0
0.85329145 -0.28379899 0.44993025 0
1.497373 -0.47716254 -0.056106821 0
1.4133478 -0.45038655 0.26752469 0
1.3816509 -0.4402858 0.36996877 0
1.3955929 -0.44472867 0.48731047 0
1.3975631 -0.44535649 0.60731113 0
0.85926253 -0.27381814 0.45122489 0
1.5026544 -0.45808566 -0.056084134 0
1.4077965 -0.42916813 0.26542991 0
1.4017705 -0.42733109 0.37388569 0
1.3908775 -0.42401037 0.48376125 0
1.4015681 -0.42726937 0.60666543 0
0.86795032 -0.26459551 0.45400146 0
1.5016452 -0.43719071 -0.055836566 0
1.4269952 -0.41545701 0.26804206 0
1.3988096 -0.407251 0.37169865 0
1.3976417 -0.40691099 0.48429331 0
1.3981001 -0.40704447 0.60289794 0
0.88594449 -0.2579349 0.46167821 0
1.5126538 -0.41980904 -0.056044899 0
1.4538077 -0.4034774 0.27210253 0
1.3901689 -0.38581565 0.36808252 0
1.3860149 -0.38466278 0.47854826 0
1.3939008 -0.38685134 0.59893894 0
0.88407946 -0.24535988 0.45905986 0
1.5104434 -0.39878213 -0.055772528 0
1.4909395 -0.39363277 0.27810255 0
1.3998479 -0.36958307 0.36938372 0
1.3974056 -0.36893827 0.48083892 0
1.3990746 -0.36937892 0.59911597 0
0.87967998 -0.23225012 0.45522079 0
1.5273215 -0.38273346 -0.05621333 0
1.5156723 -0.37981427 0.28180149 0
1.3891696 -0.34811381 0.36538035 0
1.4008449 -0.35103953 0.48046327 0
1.3972207 -0.35013133 0.59638679 0
0.87819183 -0.22006722 0.45298076 0
1.5135715 -0.35909551 -0.055536434 0
1.5286467 -0.36267209 0.28334218 0
1.3961967 -0.33124828 0.36610252 0
1.4017385 -0.33256307 0.47929549 0
1.3984993 -0.33179453 0.59510195 0
0.88313383 -0.20952389 0.45413297 0
1.5285308 -0.34237421 -0.055922702 0
1.5738146 -0.35251725 0.29086843 0
1.4055729 -0.31483296 0.36749241 0
1.3939497 -0.31222951 0.47525024 0
1.3991758 -0.31340006 0.59366351 0
0.9039607 -0.20247731 0.46349493 0
1.5295478 -0.32243216 -0.055806942 0
1.6071529 -0.33879152 0.29621801 0
1.3900089 -0.29301703 0.36242971 0
1.3888328 -0.2927691 0.47221133 0
1.397253 -0.29454413 0.59122717 0
0.92063063 -0.19407102 0.47075188 0
1.535665 -0.30357844 -0.055886228 0
1.6219332 -0.3206324 0.29817441 0
1.4122511 -0.2791813 0.36728337 0
1.3877747 -0.27434269 0.47063968 0
1.4033093 -0.27741364 0.59226465 0
0.91725552 -0.18132794 0.46782142 0
1.5433549 -0.28495502 -0.056031052 0
1.4121345 -0.26072735 0.36637017 0
1.4008774 -0.25864887 0.47394109 0
1.3976752 -0.25805765 0.58846867 0
0.94818014 -0.17506582 0.48243111 0
1.5573658 -0.26730973 -0.056413036 0
1.4016062 -0.24057482 0.36282393 0
1.3962357 -0.23965301 0.4713124 0
1.3934479 -0.23917452 0.58537441 0
0.94276959 -0.16181909 0.47860357 0
1.5532738 -0.24651544 -0.056147918 0
0.99176037 -0.15739933 0.035850268 0
0.99737674 -0.15829068 0.1085289 0
0.98317391 -0.15603659 0.17953333 0
0.99140525 -0.15734296 0.25610492 0
0.99403983 -0.15776108 0.33485034 0
0.98298007 -0.15600581 0.41208279 0
0.97235554 -0.15431963 0.49259752 0
1.5575991 -0.22713435 -0.056196425 0
0.97534329 -0.14222784 0.03518929 0
0.96351475 -0.14050296 0.10464341 0
0.9742046 -0.1420618 0.17755474 0
0.96326381 -0.14046638 0.24835867 0
0.96278179 -0.14039609 0.32369959 0
0.95589203 -0.13939139 0.39995947 0
0.95838213 -0.1397545 0.48458862 0
1.5501841 -0.20615429 -0.055830818 0
0.95365036 -0.12682307 0.034346294 0
0.99588668 -0.13243996 0.10796952 0
0.98554933 -0.13106522 0.17930739 0
0.98106247 -0.13046853 0.25250411 0
0.98666036 -0.13121296 0.33114612 0
0.98970014 -0.13161722 0.41337907 0
0.96845812 -0.1287923 0.48882458 0
1.5523734 -0.18658517 -0.055820622 0
0.92781639 -0.11151749 0.033362649 0
0.98272306 -0.11811691 0.10637268 0
0.98023331 -0.11781766 0.17805618 0
0.98478752 -0.11836505 0.25305918 0
0.98515707 -0.11840946 0.33011499 0
0.99019825 -0.11901538 0.4129284 0
1.5643399 -0.1680706 -0.056170363 0
0.92657208 -0.099549673 0.033270191 0
1.4120064 -0.15170407 0.36232123 0
1.3979602 -0.15019499 0.46776983 0
1.4000318 -0.15041755 0.58299947 0
1.5577607 -0.14754847 -0.055862982 0
0.90792042 -0.085996695 0.032559007 0
1.4107171 -0.13362075 0.36153004 0
1.4051591 -0.13309431 0.46958062 0
1.3913151 -0.13178302 0.57863277 0
1.5691046 -0.12871094 -0.056207206 0
0.92392963 -0.075788349 0.033096269 0
1.4058517 -0.11531959 0.35988247 0
1.4012699 -0.11494375 0.46776015 0
1.4040911 -0.11517517 0.58329678 0
1.5719042 -0.10903422 -0.056253854 0
0.9268617 -0.064291216 0.033169668 0
1.4040903 -0.0973939 0.35908914 0
1.3975483 -0.096940115 0.46607336 0
1.3936439 -0.096669286 0.57840514 0
1.5636799 -0.088696092 -0.055915128 0
1.3924385 -0.078982815 0.35582671 0
1.3904865 -0.078872092 0.46335036 0
1.3881251 -0.078738146 0.57565749 0
1.5604854 -0.068815775 -0.055765487 0
1.4156667 -0.062429424 0.36153293 0
1.3919861 -0.061385129 0.46355575 0
1.4079226 -0.062087916 0.58349711 0
1.5786015 -0.049708992 -0.056386042 0
1.395382 -0.043939546 0.35618308 0
1.3981098 -0.044025443 0.46537355 0
1.4000806 -0.044087503 0.57997102 0
1.5670443 -0.029600777 -0.055955481 0
1.4030315 -0.02650265 0.35802212 0
1.4032636 -0.026507033 0.46694091 0
1.4087465 -0.026610602 0.58337569 0
1.5712061 -0.0098920856 -0.056095198 0
1.4121169 -0.0088904826 0.36028337 0
1.3934425 -0.0087729115 0.46359938 0
1.4016068 -0.0088243131 0.58032709 0
1.5715786 0.0098944306 -0.056108497 0
1.409003 0.0088708783 0.3594889 0
1.3903688 0.0087535605 0.46257678 0
1.3942094 0.0087777404 0.57726425 0
1.569075 0.029639138 -0.056027997 0
1.403458 0.026510706 0.35813096 0
1.3955889 0.026362062 0.46438712 0
1.4043497 0.02652755 0.58155501 0
1.5640584 0.049251042 -0.05586658 0
1.4130795 0.044496827 0.36070052 0
1.3938844 0.043892387 0.46396708 0
1.3947427 0.043919418 0.57775986 0
1.5659599 0.069057196 -0.055961125 0
1.4054608 0.061979353 0.35892656 0
1.3971567 0.06161315 0.46527767 0
1.4032601 0.061882302 0.58156478 0
1.555318 0.088221781 -0.055616118 0
1.4064839 0.079779513 0.35941589 0
1.3970311 0.079243325 0.46553123 0
1.3952086 0.079139948 0.5785951 0
1.5633307 0.10843951 -0.055947028 0
1.8533207 0.12855451 0.066324927 0
1.8556781 0.12871802 0.19990762 0
1.8655705 0.1294042 0.33726165 0
1.4055967 0.097498395 0.35947442 0
1.4128927 0.098004475 0.47119066 0
1.4035943 0.097359486 0.58253485 0
1.5698532 0.12877235 -0.056234024 0
1.8135517 0.14876251 0.064963594 0
1.809116 0.14839865 0.19507743 0
1.573686 0.12908675 0.28476545 0
1.4036362 0.11513785 0.35931531 0
1.4038956 0.11515913 0.46863663 0
1.3927252 0.11424284 0.57857507 0
1.5597539 0.14773725 -0.055934459 0
1.805361 0.17100075 0.0647422 0
1.7925525 0.16978754 0.19350658 0
1.4557836 0.13788937 0.26372376 0
1.4046246 0.13304368 0.35996866 0
1.3942341 0.1320595 0.46592966 0
1.3919477 0.13184294 0.57889587 0
1.5614278 0.16775772 -0.056065798 0
1.1912514 0.12798646 0.042773966 0
1.1961837 0.12851638 0.12929285 0
1.1974225 0.12864947 0.21719639 0
1.2016922 0.12910821 0.30835459 0
1.3967073 0.15006037 0.46735057 0
1.3862832 0.14894041 0.57727426 0
1.5569135 0.18713085 -0.055983875 0
1.107197 0.13307786 0.039812859 0
1.1019347 0.13244537 0.11927649 0
1.113885 0.13388172 0.20233355 0
1.1146696 0.13397601 0.28643471 0
1.4036821 0.16871345 0.47035801 0
1.397307 0.1679472 0.58269924 0
1.5502136 0.20615821 -0.055831879 0
1.1026167 0.14663364 0.039711405 0
1.0992603 0.14618731 0.11917682 0
1.1190748 0.14882238 0.20360054 0
1.1109201 0.14773791 0.28592661 0
1.3903248 0.18489508 0.46662527 0
1.3932996 0.18529069 0.58195496 0
1.5539768 0.22660613 -0.056065734 0
1.111904 0.16214159 0.040116251 0
1.1129513 0.1622943 0.1208731 0
1.1032106 0.16087389 0.20106687 0
1.1110057 0.1620106 0.28645101 0
1.3921244 0.20300429 0.46805012 0
1.4047505 0.20484544 0.58776855 0
1.5466075 0.24545744 -0.055906944 0
1.1136894 0.17675032 0.040257774 0
1.1130975 0.17665637 0.12112098 0
1.1107731 0.17628747 0.2028337 0
1.1183271 0.17748636 0.28889203 0
1.3996713 0.22213764 0.47149056 0
1.4002087 0.22222294 0.5869925 0
1.5396469 0.26426843 -0.055771198 0
1.1067708 0.1899686 0.040090967 0
1.1003709 0.18887012 0.11998542 0
1.1090515 0.19036008 0.20294094 0
1.1138456 0.19118296 0.28833339 0
1.3981651 0.23998418 0.4719637 0
1.4043932 0.24105319 0.58997244 0
1.5447114 0.28520548 -0.0560803 0
1.1113549 0.20519337 0.040347423 0
1.1037267 0.20378494 0.1206216 0
1.109584 0.20486636 0.20349428 0
1.1074028 0.20446368 0.28730929 0
1.4002327 0.25852987 0.47372299 0
1.3937594 0.25733468 0.58682001 0
1.5372754 0.30389678 -0.055944834 0
1.1024885 0.2179458 0.04012198 0
1.1120098 0.21982799 0.12181966 0
1.1165544 0.2207264 0.2052661 0
1.1140616 0.22023362 0.28973338 0
1.3963488 0.27603766 0.47354743 0
1.4044504 0.27763924 0.59274632 0
1.5283602 0.32218182 -0.05576361 0
1.1091343 0.23380803 0.040467773 0
1.1194699 0.2359868 0.12295271 0
1.1073253 0.23342669 0.20409364 0
1.1068264 0.23332152 0.28859293 0
1.3966848 0.29442433 0.47488105 0
1.393533 0.29375994 0.58965307 0
1.5432338 0.34566748 -0.056460619 0
1.1226494 0.25146118 0.041073158 0
1.1026611 0.24698402 0.12143853 0
1.1048526 0.24747488 0.20419605 0
1.1107644 0.24879907 0.29041359 0
1.4037786 0.31443104 0.47860128 0
1.3936473 0.31216174 0.59131777 0
1.5236465 0.36148578 -0.055906106 0
1.1136672 0.26421803 0.040863022 0
1.102367 0.26153708 0.1217592 0
1.1086439 0.26302624 0.20549259 0
1.1048592 0.26212832 0.28970969 0
1.3927261 0.33042488 0.47621387 0
1.3946015 0.33086979 0.59344339 0
1.5165617 0.38003716 -0.055817321 0
1.1099001 0.27813131 0.040850066 0
1.1041476 0.27668977 0.12233099 0
1.1127058 0.27883437 0.20687991 0
1.1082021 0.27770579 0.29148006 0
1.3905004 0.34844729 0.47691533 0
1.4070392 0.35259175 0.60057765 0
1.5197192 0.40123111 -0.056115035 0
1.1128649 0.29381478 0.041092094 0
1.1148912 0.29434976 0.12392212 0
1.1021272 0.29097986 0.20557801 0
1.1114333 0.29343683 0.29327857 0
1.3973078 0.36891243 0.48080528 0
1.3933235 0.36786056 0.59665322 0
1.5162789 0.42081511 -0.056179211 0
1.1039512 0.3063812 0.040902175 0
1.10337 0.30621988 0.12306037 0
1.1191931 0.31061131 0.20947425 0
1.1102653 0.30813354 0.29397088 0
1.4072747 0.39056304 0.48588863 0
1.3915344 0.38619462 0.59792215 0
1.4988192 0.43636793 -0.055731487 0
1.1152872 0.32470599 0.041470386 0
1.1171778 0.32525644 0.12504727 0
1.1153667 0.32472911 0.20950679 0
1.1061226 0.32203779 0.29392442 0
1.3918117 0.40521365 0.48227322 0
1.395462 0.40627643 0.60176033 0
1.4956098 0.45593807 -0.055821203 0
1.4059081 0.42859244 0.3749893 0
1.4050373 0.42832696 0.48868614 0
1.4012426 0.42717016 0.60652453 0
1.4944582 0.47623369 -0.055997603 0
1.406762 0.44828784 0.37669283 0
1.3998477 0.44608453 0.48879614 0
1.4035754 0.44727242 0.60992378 0
1.4921538 0.49628028 -0.056140967 0
1.4005933 0.46582788 0.37658188 0
1.3964714 0.46445698 0.48962054 0
1.4017719 0.46621987 0.61164272 0
1.4849216 0.51472908 -0.056108277 0
1.4074371 0.48787007 0.38004363 0
1.3934839 0.48303339 0.49066681 0
1.3961095 0.48394352 0.61178249 0
1.4756513 0.53242135 -0.056006886 0
1.4071552 0.50770766 0.38166356 0
1.396356 0.5038113 0.49387282 0
1.3925248 0.50242895 0.61293548 0
1.4706558 0.55164409 -0.056076486 0
1.3925772 0.52235669 0.37946352 0
1.3977238 0.52428722 0.49665222 0
1.3941773 0.52295697 0.61651254 0
1.4642696 0.5703811 -0.056102399 0
1.3997068 0.54523176 0.38324675 0
1.3860956 0.53992975 0.49489701 0
1.3862096 0.53997415 0.61594707 0
1.4496809 0.58582652 -0.05582165 0
1.3946331 0.56358129 0.38377023 0
1.388657 0.56116629 0.49829498 0
1.3803763 0.55782008 0.61642736 0
1.4541818 0.60905594 -0.056285817 0
1.3882809 0.58145463 0.38400659 0
1.3750174 0.57589948 0.49596354 0
1.3904341 0.58235651 0.62414408 0
1.441502 0.62519425 -0.056095306 0
1.38594 0.60109645 0.3854222 0
1.3830223 0.59983099 0.50153553 0
1.3750403 0.59636909 0.62055576 0
1.4249741 0.63946182 -0.055761054 0
1.3901211 0.62382144 0.38873863 0
1.3815126 0.6199584 0.50377917 0
1.3830949 0.62066847 0.62766826 0
1.4184659 0.65812176 -0.055826243 0
1.3770465 0.63890451 0.3873015 0
1.3753893 0.63813567 0.50443643 0
1.3804842 0.64049953 0.63009369 0
1.4104787 0.6761272 -0.055842549 0
1.3842112 0.66353565 0.39163557 0
1.3769487 0.66005433 0.50801647 0
1.3762598 0.65972406 0.63190717 0
1.4036355 0.6947152 -0.05591353 0
1.3742384 0.68016541 0.39120618 0
1.3733021 0.67970198 0.50978839 0
1.3787686 0.68240756 0.63695401 0
1.3919266 0.7108779 -0.055799268 0
1.3755914 0.70253521 0.3940784 0
1.3676105 0.69845927 0.51089996 0
1.3600215 0.69458342 0.63228381 0
1.3926984 0.73352653 -0.05619603 0
1.3670876 0.72003746 0.39420849 0
1.3577296 0.71510857 0.51053214 0
1.3617688 0.7172361 0.63724452 0
1.3881299 0.75359803 -0.056390125 0
1.359472 0.73803997 0.39466104 0
1.347028 0.73128426 0.50993031 0
1.3621619 0.73950028 0.64173514 0
1.3660051 0.76401061 -0.05587773 0
1.34896 0.75447732 0.39433616 0
1.343845 0.75161642 0.51226765 0
1.3449178 0.75221646 0.63802302 0
1.3690338 0.78849703 -0.056403305 0
1.3412645 0.7725032 0.39489883 0
1.3407936 0.772232 0.51477045 0
1.3309019 0.76653486 0.63590252 0
1.3532825 0.80228442 -0.056166124 0
1.3335243 0.79057091 0.39551961 0
1.3374696 0.7929098 0.51728654 0
1.339542 0.79413849 0.64475769 0
1.3377793 0.81603086 -0.055944726 0
1.3309671 0.81187552 0.39776179 0
1.3411195 0.81806839 0.522641 0
1.3297302 0.81112099 0.64489996 0
1.3239416 0.83064169 -0.055799037 0
1.3215389 0.82913423 0.39803281 0
1.3175412 0.82662606 0.51746786 0
1.3226177 0.82981104 0.64646697 0
1.3167 0.8493889 -0.055940177 0
1.3013213 0.83946824 0.39509594 0
1.3183006 0.85042143 0.52193058 0
1.315563 0.8486554 0.64819068 0
1.3029876 0.86396873 -0.055815384 0
1.3115114 0.86962062 0.40148264 0
1.3107599 0.86912233 0.52323657 0
1.3038151 0.86451751 0.64771479 0
1.2947029 0.88214409 -0.0559319 0
1.2947879 0.88220197 0.39973217 0
1.2947497 0.88217598 0.52123857 0
1.2952111 0.88249034 0.64890951 0
1.2827749 0.8978734 -0.055900604 0
1.2917501 0.90415555 0.40227738 0
1.2882935 0.90173608 0.52316922 0
1.2814069 0.89691579 0.64760059 0
1.2740952 0.91591448 -0.056020521 0
1.2689496 0.91221547 0.39872247 0
1.2822338 0.92176521 0.52538031 0
1.274609 0.91628385 0.64994466 0
1.2617946 0.93139184 -0.055990919 0
1.2635916 0.93271834 0.40069759 0
1.2632596 0.93247324 0.52237552 0
1.2669297 0.93518227 0.65198195 0
1.2434857 0.94229388 -0.055700585 0
1.2590066 0.95405543 0.40302134 0
1.2591249 0.95414507 0.52559239 0
1.2478939 0.94563442 0.64826232 0
1.2355901 0.96104002 -0.055884562 0
1.2459749 0.96911722 0.40272421 0
1.247999 0.97069156 0.52600867 0
1.2538233 0.97522169 0.65766972 0
1.2231139 0.97629976 -0.055871878 0
1.2440237 0.99299014 0.40610287 0
1.2446561 0.99349499 0.52983063 0
1.2375041 0.98778617 0.65558219 0
1.2161715 0.99608445 -0.05612326 0
1.2275783 1.0054269 0.40483522 0
1.2300224 1.0074288 0.52895945 0
1.2232537 1.0018851 0.65466446 0
1.2059922 1.0133849 -0.056237932 0
1.2216313 1.0265263 0.40710464 0
1.2120308 1.018459 0.52669567 0
1.2185084 1.0239021 0.6589728 0
1.1841055 1.0207044 -0.05581224 0
1.2836705 1.1065298 0.060505189 0
1.2718571 1.0963467 0.18045874 0
1.2795098 1.1029433 0.3046574 0
1.2141817 1.0466301 0.40898162 0
1.2014104 1.0356213 0.52770567 0
1.2143286 1.0467569 0.66378808 0
1.1737394 1.0378138 -0.055935182 0
1.2417777 1.0979728 0.059177577 0
1.2352965 1.0922421 0.17720871 0
1.2456126 1.1013635 0.29986474 0
1.1893141 1.0515848 0.40503353 0
1.1942642 1.0559616 0.53036523 0
1.2008078 1.0617474 0.6636529 0
1.1557821 1.04816 -0.055703986 0
1.2176536 1.1042702 0.05868594 0
1.2225471 1.108708 0.17736846 0
1.2100284 1.097355 0.2946015 0
1.1860671 1.0756249 0.40850803 0
1.1810811 1.0711031 0.53045833 0
1.1893144 1.0785698 0.66475421 0
1.1438365 1.0638793 -0.055769492 0
1.1969997 1.1133262 0.058361549 0
1.1990225 1.1152077 0.17597891 0
1.2088643 1.1243615 0.29774153 0
1.16536 1.0838982 0.40604475 0
1.1833421 1.1006234 0.53765583 0
1.1768162 1.0945536 0.66541952 0
1.1308547 1.0786784 -0.055794381 0
1.1813036 1.1267997 0.058283444 0
1.1743377 1.1201552 0.17441234 0
1.1799443 1.1255029 0.29408592 0
1.1597799 1.106269 0.40892181 0
1.1517769 1.0986352 0.5295577 0
1.1560369 1.1026987 0.66146898 0
1.1207166 1.096288 -0.055970844 0
1.1680471 1.1425868 0.058334626 0
1.1654449 1.1400414 0.17520976 0
1.1649988 1.139605 0.29391426 0
1.139284 1.1144507 0.406611 0
1.1476402 1.1226249 0.53411299 0
1.1354302 1.1106809 0.65762854 0
1.1119975 1.1155019 -0.056232456 0
1.159047 1.1626998 0.058611698 0
1.1612399 1.1648996 0.17676884 0
1.161396 1.1650562 0.29668301 0
1.1296732 1.1332334 0.40824151 0
1.1236295 1.1271706 0.52950203 0
1.1317568 1.1353235 0.66372854 0
1.0910146 1.1223689 -0.055881642 0
1.1593862 1.1927054 0.059383627 0
1.1566948 1.1899365 0.17834373 0
1.1518325 1.1849346 0.29802793 0
1.1182318 1.1503682 0.40930915 0
1.1172035 1.1493104 0.53325152 0
1.1138917 1.1459035 0.66166121 0
1.0765946 1.1358044 -0.055871181 0
1.1733437 1.2378745 0.060892094 0
1.1743617 1.2389485 0.18345858 0
1.1733806 1.2379135 0.30761227 0
1.109885 1.1709257 0.41161829 0
1.1048985 1.1656649 0.53434199 0
1.1090066 1.1699991 0.667458 0
1.0642327 1.1514605 -0.055977672 0
1.089408 1.1786994 0.40949619 0
1.0890938 1.1783594 0.53383225 0
1.0957258 1.185535 0.66839659 0
1.0499793 1.1651347 -0.05599523 0
1.0798382 1.1982682 0.41153806 0
1.0721735 1.1897631 0.53283983 0
1.0775791 1.1957616 0.66645932 0
1.0328254 1.1755309 -0.0558654 0
1.0566385 1.2026343 0.40843552 0
1.0619177 1.208643 0.53526419 0
1.0619909 1.2087262 0.66617906 0
1.0203669 1.1912732 -0.055998474 0
1.0477945 1.2232947 0.41093868 0
1.0491165 1.2248381 0.53654337 0
1.0405227 1.214805 0.66225547 0
1.0025636 1.2007653 -0.055846803 0
1.0394419 1.2449342 0.41377828 0
1.027271 1.2303573 0.5332523 0
1.0298793 1.2334812 0.66531432 0
0.98618788 1.2118471 -0.055780221 0
1.0145898 1.2467479 0.41010219 0
1.0082664 1.2389777 0.5314436 0
1.0166588 1.2492902 0.66688341 0
0.97870064 1.2340659 -0.056231216 0
0.99433231 1.2537763 0.40826318 0
0.99593568 1.255798 0.53323692 0
0.9944073 1.2538708 0.66259181 0
0.9623242 1.2453071 -0.056186814 0
0.98490125 1.2745231 0.41094789 0
0.9793815 1.2673802 0.53287601 0
0.98571622 1.2755778 0.66745049 0
0.93628711 1.243669 -0.055576555 0
0.96808296 1.2859035 0.41065419 0
0.97392303 1.2936608 0.53872675 0
0.96462226 1.2813066 0.66403967 0
0.92480546 1.2611578 -0.055833258 0
0.95230478 1.2986586 0.41086543 0
0.95460737 1.3017986 0.53706723 0
0.94971883 1.2951322 0.66495425 0
0.91179907 1.2768282 -0.056014262 0
0.93473536 1.3089468 0.41036397 0
0.93790406 1.3133841 0.53693187 0
0.93585342 1.3105124 0.66674757 0
0.88928533 1.2790533 -0.055616215 0
0.91548735 1.3167396 0.40916049 0
0.92104387 1.3247315 0.53678691 0
0.91496581 1.3159895 0.66361976 0
0.88182288 1.3030238 -0.05617122 0
0.89465809 1.3219897 0.40725893 0
0.90510911 1.3374326 0.53727263 0
0.90119195 1.3316444 0.66573888 0
0.86608428 1.3151443 -0.05621912 0
0.88147962 1.3385221 0.40890011 0
0.88077724 1.3374554 0.5327841 0
0.87594539 1.3301183 0.65940928 0
0.84856194 1.324549 -0.056159925 0
0.86422211 1.3489934 0.40874213 0
0.86863869 1.3558874 0.5357269 0
0.86472291 1.3497751 0.66370344 0
0.83024806 1.3326101 -0.056053996 0
0.84276652 1.3527031 0.40661842 0
0.84619159 1.3582007 0.53238857 0
0.84765476 1.3605491 0.66370004 0
0.81349415 1.3431087 -0.056060273 0
0.83100522 1.3720201 0.4092471 0
0.82685506 1.3651681 0.53099626 0
0.82344294 1.3595345 0.65809476 0
0.79515427 1.3509276 -0.055964269 0
0.8103947 1.3768203 0.40760276 0
0.80486554 1.3674265 0.52789074 0
0.81023133 1.3765428 0.66133672 0
0.77862245 1.3617787 -0.056003187 0
0.7921946 1.3855158 0.40719154 0
0.79091936 1.3832855 0.53012627 0
0.79553437 1.3913569 0.66358858 0
0.76603419 1.379796 -0.056342985 0
0.77538025 1.3966304 0.40755621 0
0.77418065 1.3944696 0.53063428 0
0.77522105 1.3963436 0.6612587 0
0.7452479 1.3831104 -0.056090679 0
0.75613093 1.4033084 0.40669423 0
0.76028931 1.4110259 0.53324908 0
0.75948536 1.4095339 0.66292363 0
0.7243492 1.3858324 -0.055826742 0
0.73881114 1.4135013 0.40691978 0
0.74475431 1.4248718 0.53489512 0
0.73620778 1.4085205 0.6580348 0
0.70687377 1.3949047 -0.055829216 0
0.71810061 1.4170592 0.40530878 0
0.71846479 1.4177778 0.52879387 0
0.7224136 1.4255702 0.66169786 0
0.68995625 1.4051243 -0.055886079 0
0.69968134 1.4249299 0.40500784 0
0.69283307 1.4109832 0.52296424 0
0.69839555 1.4223114 0.65605116 0
0.67507893 1.4197352 -0.05612465 0
0.68368125 1.4378265 0.4061943 0
0.67921436 1.4284323 0.52621984 0
0.6789704 1.4279194 0.65464234 0
0.65694773 1.427685 -0.056107443 0
0.66368568 1.4423279 0.40507287 0
0.66034257 1.4350626 0.52555752 0
0.65804005 1.4300587 0.65177262 0
0.64187717 1.4424907 -0.056367189 0
0.6421836 1.4431792 0.40300897 0
0.64419562 1.4477009 0.5271734 0
0.64010125 1.4384996 0.65189439 0
0.61824459 1.4378551 -0.05587741 0
0.62331963 1.4496584 0.40259451 0
0.6196906 1.4412181 0.52192986 0
0.6205256 1.4431602 0.65041387 0
0.59894502 1.4427648 -0.055770684 0
0.60228872 1.4508191 0.40077886 0
0.60290295 1.4522986 0.52315176 0
0.60206968 1.4502914 0.65015948 0
0.58472657 1.4601684 -0.056154359 0
0.58370537 1.4576184 0.40059489 0
0.58411354 1.4586375 0.52274418 0
0.58630776 1.4641169 0.65299588 0
0.56424147 1.4620941 -0.055950738 0
0.56581712 1.4661769 0.40095711 0
0.56436205 1.4624065 0.52150673 0
0.56511515 1.4643581 0.64987814 0
0.5490948 1.4779856 -0.056289814 0
0.5438922 1.463982 0.39845234 0
0.54368633 1.4634278 0.51938832 0
0.54483819 1.4665282 0.64774507 0
0.52765512 1.4769824 -0.055994112 0
0.52420676 1.4673299 0.39753544 0
0.52267146 1.4630322 0.51687109 0
0.52506185 1.4697235 0.64618492 0
0.51035154 1.4874007 -0.056140993 0
0.5049299 1.4715995 0.39693812 0
0.50378036 1.4682491 0.51643205 0
0.50415736 1.469348 0.64317763 0
0.49195588 1.4948419 -0.056183588 0
0.48829809 1.4837275 0.39851934 0
0.4831135 1.4679737 0.51415461 0
0.48708227 1.480033 0.64511889 0
0.46998104 1.4910384 -0.055813778 0
0.46296436 1.4687777 0.39290693 0
0.46539688 1.476495 0.51504582 0
0.46555614 1.4770002 0.64119083 0
