# .PCD v0.7 - Point Cloud Data file format
VERSION 0.7
FIELDS x y z intensity
SIZE 4 4 4 4
TYPE F F F F
COUNT 1 1 1 1
WIDTH 1347
HEIGHT 1
VIEWPOINT 0 0 0 1 0 0 0
POINTS 1347
DATA ascii
-1.4915031 -0.44444716 -0.055562433 0
-0.9450891 -0.28162339 0.035207067 0
-0.9521023 -0.28371325 0.10676803 0
-0.95147556 -0.28352648 0.17905392 0
-1.3698548 -0.40819767 0.36468062 0
-1.3708549 -0.40849566 0.47589362 0
-1.3844455 -0.4125455 0.59811836 0
-1.5033695 -0.46867251 -0.05621988 0
-0.94917268 -0.29590276 0.035495184 0
-0.93601418 -0.29180059 0.10536761 0
-0.94569457 -0.29481846 0.17865048 0
-1.4012061 -0.43682331 0.37446162 0
-1.4034345 -0.437518 0.48907745 0
-1.4106524 -0.43976817 0.61178434 0
-1.4912841 -0.48558974 -0.055992164 0
-0.93723673 -0.30518165 0.035189748 0
-0.93469143 -0.30435285 0.10564176 0
-0.928433 -0.302315 0.1760948 0
-1.4418352 -0.46948823 0.38686866 0
-1.4345201 -0.46710631 0.50192034 0
-1.4357624 -0.46751085 0.62517786 0
-1.4892323 -0.50574803 -0.056149788 0
-0.93300682 -0.31685209 0.035177946 0
-0.91945577 -0.31225011 0.1043559 0
-0.91022611 -0.30911568 0.17336604 0
-1.4594508 -0.49563417 0.39323866 0
-1.4647968 -0.49744964 0.51466459 0
-1.4639573 -0.49716458 0.64013004 0
-1.4812036 -0.5239135 -0.056091364 0
-0.89984548 -0.31828251 0.034076046 0
-0.90594518 -0.32044005 0.10327227 0
-0.91575086 -0.32390839 0.17518128 0
-1.4959319 -0.52912307 0.40483138 0
-1.4953712 -0.5289247 0.52770543 0
-1.471284 -0.54134274 -0.055969428 0
-0.91872096 -0.33803326 0.034949262 0
-0.89293784 -0.32854664 0.102253 0
-0.90138447 -0.33165449 0.17321821 0
-1.5253255 -0.56122673 0.41466555 0
-1.5282725 -0.56231099 0.54177183 0
-1.4553318 -0.55637693 -0.055624694 0
-0.89974213 -0.34397361 0.034389324 0
-0.89456058 -0.34199271 0.10292382 0
-0.89421105 -0.34185907 0.17265324 0
-1.5696706 -0.60008889 0.42874116 0
-1.5637016 -0.59780699 0.55695587 0
-1.4612128 -0.5798164 -0.056124084 0
-0.88121957 -0.34967223 0.033846978 0
-0.8806265 -0.34943691 0.10181882 0
-0.87395698 -0.3467904 0.16957231 0
-1.6004915 -0.6350829 0.43930915 0
-1.6027042 -0.63596088 0.57365453 0
-1.4498405 -0.59654123 -0.055971369 0
-0.86793125 -0.35711291 0.03350665 0
-0.8756355 -0.36028284 0.10175823 0
-0.87822896 -0.36134994 0.17127049 0
-1.6349639 -0.67271078 0.45106059 0
-1.4547743 -0.62010288 -0.056458808 0
-0.86935985 -0.37056783 0.033739269 0
-0.87672061 -0.37370539 0.10242308 0
-0.85530007 -0.36457479 0.16768093 0
-1.6834595 -0.7175808 0.46689567 0
-1.4352643 -0.63325882 -0.05600667 0
-0.86576241 -0.38198656 0.033783652 0
-0.84991843 -0.37499598 0.099835642 0
-0.85030025 -0.37516445 0.1676136 0
-1.7319275 -0.7641508 0.4829683 0
-1.4214333 -0.64865923 -0.055781268 0
-0.85545862 -0.39038143 0.03357074 0
-0.84863716 -0.38726848 0.10025001 0
-0.85493332 -0.3901417 0.16948186 0
-1.4205887 -0.6700123 -0.056074768 0
-0.83380055 -0.39325711 0.032912534 0
-0.83631253 -0.39444187 0.099372968 0
-0.84209532 -0.39716926 0.16791499 0
-1.4037228 -0.68379462 -0.055744484 0
-0.82661963 -0.40267071 0.032826629 0
-0.83493149 -0.40671965 0.099809505 0
-0.81976593 -0.39933205 0.16445212 0
-1.3903913 -0.69909686 -0.055560254 0
-0.80869853 -0.40661833 0.032315716 0
-0.82075983 -0.4126828 0.098728776 0
-0.81638235 -0.41048181 0.16479722 0
-1.3908652 -0.72141677 -0.05593776 0
-0.81666291 -0.42358837 0.032844514 0
-0.81425524 -0.42233956 0.098578244 0
-0.81409287 -0.42225534 0.16539526 0
-1.3841385 -0.74019158 -0.056037638 0
-0.79901189 -0.42728516 0.032348454 0
-0.81199527 -0.43422824 0.098958768 0
-0.79745775 -0.4264541 0.16309366 0
-1.3734207 -0.75685102 -0.05598513 0
-0.79748017 -0.43946743 0.032507904 0
-0.79816431 -0.43984446 0.097940415 0
-0.80020678 -0.44097 0.16477846 0
-1.3613244 -0.77268904 -0.055884235 0
-0.79306459 -0.45014423 0.098002411 0
-0.77760595 -0.44136989 0.16125618 0
-1.3559721 -0.79238915 -0.056069676 0
-0.77760381 -0.45440823 0.03215405 0
-0.77911395 -0.45529073 0.096979253 0
-0.77725011 -0.45420152 0.16235557 0
-1.3390247 -0.80527252 -0.055783775 0
-0.76976836 -0.46292898 0.096533909 0
-0.77167678 -0.4640767 0.16239919 0
-1.328054 -0.82161999 -0.055753332 0
-0.76256496 -0.47177196 0.096367918 0
-0.76543278 -0.47354615 0.16232717 0
-1.3304332 -0.84643906 -0.056296211 0
-0.75496727 -0.4803201 0.16137762 0
-1.3097464 -0.85663319 -0.055872872 0
-0.75038242 -0.49078396 0.16170578 0
-1.29539 -0.87072659 -0.055723757 0
-0.73652303 -0.49507108 0.16004984 0
-1.2891269 -0.89028507 -0.055932149 0
-0.74051785 -0.5114097 0.16230446 0
-1.2908019 -0.91565877 -0.05650061 0
-1.2629946 -0.92005545 -0.055786137 0
-1.2514163 -0.9359647 -0.055790879 0
-1.2449685 -0.9558211 -0.056035567 0
-1.2280014 -0.96761233 -0.055815868 0
-1.2150186 -0.98243004 -0.055783641 0
-1.2096864 -1.0035692 -0.056114573 0
-1.2001181 -1.0214138 -0.056262892 0
-1.1839211 -1.0336143 -0.056109294 0
-1.1702511 -1.0479363 -0.056082379 0
-1.1565405 -1.0621995 -0.056061868 0
-1.1520643 -1.0851452 -0.056502778 0
-1.1271678 -1.0888026 -0.055949721 0
-1.1193377 -1.108821 -0.05624966 0
-1.0998427 -1.1172956 -0.055972558 0
-1.0931804 -1.1388617 -0.056358863 0
-1.0701952 -1.1433915 -0.055911705 0
-1.0595181 -1.1609446 -0.056113195 0
-1.0502392 -1.1802874 -0.05640443 0
-1.0259409 -1.1826352 -0.055894822 0
-0.60854161 -0.70148551 0.033154272 0
-1.0082484 -1.1922425 -0.055744417 0
-0.59248674 -0.70060891 0.032757629 0
-1.000219 -1.2134106 -0.056140814 0
-0.58036244 -0.70406377 0.032574888 0
-0.97927451 -1.2189541 -0.055822339 0
-0.58168936 -0.7240591 0.033158485 0
-0.9687385 -1.2374337 -0.056105532 0
-0.58454531 -0.74667835 0.033854574 0
-0.6045472 -0.77222806 0.10539739 0
-0.60477549 -0.77251971 0.17693853 0
-0.60690117 -0.77523494 0.25118756 0
-0.61391068 -0.78418869 0.3313337 0
-0.60985142 -0.7790035 0.40961638 0
-0.94344592 -1.2369013 -0.055538345 0
-0.58200288 -0.76303267 0.034261081 0
-0.59410542 -0.77889967 0.10527856 0
-0.60302091 -0.79058832 0.17932357 0
-0.59429044 -0.77914226 0.25000906 0
-0.59664994 -0.78223568 0.32730812 0
-0.59265298 -0.77699548 0.40460435 0
-0.5969426 -0.78261942 0.49248159 0
-0.93743205 -1.2616497 -0.056115102 0
-0.58475709 -0.78699952 0.035003819 0
-0.57855523 -0.77865273 0.10425221 0
-0.58612394 -0.7888391 0.17723867 0
-0.58231556 -0.78371358 0.24910325 0
-0.58161604 -0.78277212 0.32444242 0
-0.58189529 -0.78314793 0.40396053 0
-0.58306634 -0.78472406 0.48914704 0
-0.91467375 -1.2639587 -0.055701103 0
-0.57967991 -0.80104131 0.035300903 0
-0.58206135 -0.80433214 0.10670059 0
-0.58151609 -0.80357873 0.17889097 0
-0.58110851 -0.80301553 0.25289246 0
-0.58526421 -0.80875808 0.33213207 0
-0.58349454 -0.80631268 0.41208664 0
-0.57059848 -0.78849202 0.48697841 0
-0.90021294 -1.2775416 -0.055795714 0
-0.724042 -1.0275278 0.044876538 0
-0.75681996 -1.0740448 0.14120455 0
-0.55401146 -0.78622812 0.48123348 0
-0.88723236 -1.293406 -0.055996198 0
-0.71755421 -1.0460495 0.045287244 0
-0.73834258 -1.0763547 0.14027479 0
-0.54515874 -0.79473162 0.48219827 0
-0.86625129 -1.2975467 -0.055698808 0
-0.71051973 -1.0642785 0.045685474 0
-0.72402805 -1.0845124 0.14013864 0
-0.51942855 -0.77804536 0.46806836 0
-0.85030699 -1.3090624 -0.055729087 0
-0.70093548 -1.0791024 0.045939285 0
-0.70653248 -1.087719 0.13939232 0
-0.5113135 -0.78717595 0.46965063 0
-0.84389639 -1.3357137 -0.056406822 0
-1.892428 -2.9953227 0.12649165 0
-0.69840127 -1.105425 0.14052321 0
-0.49604729 -0.78514045 0.46467263 0
-0.82138693 -1.3370782 -0.056023214 0
-0.67750853 -1.1028686 0.046209894 0
-0.6869334 -1.1182107 0.14103775 0
-1.2203496 -1.9865214 0.4204686 0
-0.48633608 -0.79167235 0.46487716 0
-0.8023712 -1.3437719 -0.055875916 0
-0.66871995 -1.1199394 0.046568643 0
-0.67456657 -1.1297311 0.14140821 0
-1.1803243 -1.9767493 0.41522142 0
-0.46867007 -0.78490567 0.45740196 0
-0.78808749 -1.3584216 -0.056067977 0
-0.6477772 -1.1165696 0.046085693 0
-0.65922976 -1.1363102 0.14118148 0
-0.4565188 -0.78689867 0.45517731 0
-0.76318663 -1.3545101 -0.055505477 0
-0.62125391 -1.1026067 0.045182914 0
-0.6516425 -1.1565406 0.14266419 0
-0.44924775 -0.79732871 0.45790195 0
-0.75172234 -1.3743439 -0.055925906 0
-0.63859111 -1.1675106 0.14301413 0
-0.43234935 -0.79044706 0.45078751 0
-0.73403555 -1.3830923 -0.055901337 0
-0.5931077 -1.1175517 0.045168813 0
-0.41126946 -0.77492648 0.43894798 0
-0.71974194 -1.3984023 -0.056149375 0
-0.575701 -1.1185421 0.044912282 0
-0.40663615 -0.79006225 0.4445858 0
-0.69868076 -1.4005454 -0.055877734 0
-0.56914794 -1.1408895 0.045518208 0
-0.40213063 -0.80609375 0.45072189 0
-0.68158507 -1.4104613 -0.055926491 0
-0.5544802 -1.1474326 0.045497086 0
-0.66213477 -1.4154325 -0.05578858 0
-0.54778224 -1.1709833 0.046153739 0
-0.65038276 -1.4371865 -0.056318745 0
-0.62746185 -1.4343499 -0.055893537 0
-0.60758525 -1.4379555 -0.055731483 0
-0.59073699 -1.4486933 -0.05585492 0
-0.57098973 -1.4523039 -0.055712499 0
-0.33710673 -0.85742605 0.38145733 0
-0.55579555 -1.4676629 -0.056028772 0
-0.32188705 -0.84999186 0.37631688 0
-0.53752959 -1.475252 -0.05605565 0
-0.28522888 -0.78281182 0.49410179 0
-0.51925051 -1.4828708 -0.056092247 0
-0.30395415 -0.86802948 0.38079229 0
-0.27130607 -0.77479333 0.48684561 0
-0.50079858 -1.4900659 -0.056121424 0
-0.80279011 -2.3886054 0.45446107 0
-0.28689292 -0.85361534 0.37285465 0
-0.26400161 -0.785505 0.49144852 0
-0.48007283 -1.4902798 -0.055897363 0
-0.77491212 -2.4055431 0.455791 0
-0.27384645 -0.85009563 0.36978173 0
-0.25214115 -0.78271639 0.48767874 0
-0.45932847 -1.4899076 -0.055662047 0
-0.74413514 -2.4137249 0.45552972 0
-0.26626107 -0.86366165 0.37419468 0
-0.24055915 -0.78029323 0.48424321 0
-0.44381618 -1.5067214 -0.05607697 0
-0.71711743 -2.4345579 0.45772094 0
-0.26019073 -0.88332725 0.38126534 0
-0.22976105 -0.78002089 0.4822405 0
-0.42603889 -1.5165663 -0.056239247 0
-0.69470441 -2.4729321 0.46325424 0
-0.24860373 -0.88495213 0.38058531 0
-0.21551949 -0.76718247 0.472588 0
-0.4034107 -1.5087243 -0.055755645 0
-0.6670059 -2.4945498 0.46569353 0
-0.24556455 -0.91839212 0.39360559 0
-0.20820403 -0.77866673 0.47800943 0
-0.38728794 -1.5251275 -0.056177154 0
-0.6393165 -2.5176077 0.46845809 0
-0.23853709 -0.93935138 0.40126917 0
-0.19881749 -0.78293687 0.47905594 0
-0.36843243 -1.5314558 -0.056234907 0
-0.61569017 -2.5592272 0.47472209 0
-0.1931835 -0.80300206 0.48980594 0
-0.34729257 -1.5279319 -0.055940494 0
-0.58742791 -2.5844202 0.47798523 0
-0.17935053 -0.78906214 0.47988743 0
-0.32698461 -1.527317 -0.055762812 0
-0.55781025 -2.6054838 0.48054376 0
-0.16996866 -0.79390901 0.48149535 0
-0.30986944 -1.5419698 -0.056150872 0
-0.5271675 -2.6232865 0.4825646 0
-0.20576347 -1.0239185 0.43241444 0
-0.15776099 -0.78504896 0.47487935 0
-0.29149011 -1.5513934 -0.056355905 0
-0.4992294 -2.6570411 0.48757887 0
-0.19633664 -1.0449595 0.44022137 0
-0.14872968 -0.79158175 0.4776603 0
-0.26984507 -1.5430012 -0.055923183 0
-0.46942648 -2.6842277 0.49144405 0
-0.18201695 -1.0407913 0.43746507 0
-0.13783455 -0.7881518 0.47450566 0
-0.24992885 -1.5433953 -0.055818979 0
-0.1706855 -1.0540408 0.44209567 0
-0.12645085 -0.78087682 0.46912995 0
-0.23139127 -1.5525621 -0.056040689 0
-0.15763012 -1.0576482 0.4427411 0
-0.1168652 -0.78412849 0.47016206 0
-0.21177888 -1.5550191 -0.056028679 0
-0.37977231 -2.7885368 0.10047338 0
-0.37887734 -2.7819655 0.30173582 0
-0.14750883 -1.0831064 0.45258471 0
-0.10533299 -0.77342373 0.46291155 0
-0.19289632 -1.5633475 -0.056236777 0
-0.133044 -1.0782685 0.44982746 0
-0.09562964 -0.77503997 0.46312147 0
-0.1722981 -1.5575303 -0.055945039 0
-0.086105242 -0.77836913 0.46442604 0
-0.15204746 -1.5531837 -0.055715725 0
-0.075564511 -0.77190089 0.45996249 0
-0.13313113 -1.5626301 -0.05599001 0
-0.066664189 -0.78247267 0.46572489 0
-0.11378009 -1.5688003 -0.056155309 0
-0.09350162 -1.5614855 -0.0558469 0
-0.046383053 -0.77460116 0.46019846 0
-0.074221626 -1.5707589 -0.056140687 0
-0.12406138 -2.6255221 0.093839109 0
-0.036848236 -0.77982247 0.46298811 0
-0.054240789 -1.565876 -0.055937324 0
-0.047553945 -1.3728337 0.049041331 0
-0.027053393 -0.78100377 0.46345046 0
-0.034798313 -1.5790544 -0.056387961 0
-0.029780926 -1.3513787 0.048257675 0
-0.017127417 -0.77719635 0.46102658 0
-0.014775886 -1.5648093 -0.055868205 0
-0.012734003 -1.348568 0.048147764 0
-0.018834885 -1.9946692 0.21437526 0
-0.0073868232 -0.78228605 0.46395382 0
0.0049490971 -1.5715296 -0.056105912 0
0.0042201527 -1.3400615 0.047842164 0
0.0057419008 -1.8232753 0.1959471 0
0.0057546524 -1.8273245 0.32955721 0
0.0057258201 -1.8181692 0.46387547 0
0.0024442966 -0.77615863 0.46030155 0
0.024845636 -1.5782968 -0.056354214 0
0.02134908 -1.3561811 0.048423413 0
0.030692402 -1.9497074 0.20955965 0
0.016406104 -1.042183 0.34677118 0
0.044330388 -1.5642405 -0.055867821 0
0.038583532 -1.361457 0.048625287 0
0.054542523 -1.9245855 0.2069169 0
0.029193852 -1.0301331 0.34285688 0
0.022152478 -0.78167146 0.46375477 0
0.064238228 -1.5688254 -0.056056023 0
0.078005999 -1.9050617 0.068070158 0
0.077503696 -1.8927946 0.20358777 0
0.041158065 -1.0051619 0.33469173 0
0.03170865 -0.77438837 0.45963427 0
0.083982915 -1.5678244 -0.056053597 0
0.10084745 -1.8826578 0.06730967 0
0.10094531 -1.8844848 0.20281461 0
0.054861419 -1.0241735 0.34122503 0
0.041667622 -0.77786672 0.46197361 0
0.10413245 -1.5729171 -0.056278095 0
0.12249089 -1.8502207 0.066199861 0
0.12239638 -1.8487931 0.19912344 0
0.12235477 -1.8481646 0.33404371 0
0.068815842 -1.0394609 0.34657961 0
0.052052312 -0.78624839 0.46730369 0
0.12307713 -1.5606775 -0.055891193 0
0.14378533 -1.8232675 0.0652951 0
0.14513002 -1.8403188 0.19839182 0
0.14430556 -1.8298644 0.33103824 0
0.082428336 -1.0452312 0.34882197 0
0.086108774 -1.0919008 0.45348981 0
0.061243959 -0.77660304 0.46199274 0
0.14349785 -1.5675207 -0.056196518 0
0.16528293 -1.8054935 0.064727977 0
0.1660184 -1.8135273 0.19571348 0
0.16542326 -1.8070265 0.32725757 0
0.17688744 -1.9322571 0.49504203 0
0.097407952 -1.0640507 0.35548374 0
0.099333227 -1.0850818 0.45114145 0
0.071729556 -0.78354877 0.46662503 0
0.16257802 -1.5593989 -0.055974301 0
0.18699428 -1.7935923 0.064380623 0
0.18709618 -1.7945696 0.19390646 0
0.18562762 -1.7804837 0.32284832 0
0.20351323 -1.952037 0.50072646 0
0.11500598 -1.1031023 0.36898488 0
0.10941385 -1.0494643 0.43687108 0
0.080972619 -0.77666473 0.46309587 0
0.18234076 -1.5584326 -0.056017589 0
0.20804419 -1.7781149 0.063914038 0
0.20647486 -1.7647022 0.19094501 0
0.20757456 -1.7741011 0.32213941 0
0.23008651 -1.9665066 0.50514126 0
0.12364843 -1.0568001 0.35398966 0
0.12028585 -1.0280608 0.42855775 0
0.091177888 -0.77928042 0.46530321 0
0.20290603 -1.5633881 -0.056283094 0
0.22982508 -1.7707989 0.063750036 0
0.22689216 -1.7482009 0.18945366 0
0.22717321 -1.7503664 0.31832388 0
0.12976825 -0.99986261 0.41745111 0
0.099812031 -0.76905024 0.45990887 0
0.2205874 -1.546773 -0.055780511 0
0.24800527 -1.7390288 0.062713742 0
0.24607675 -1.7255058 0.18731514 0
0.24684843 -1.7309169 0.31532708 0
0.14618511 -1.0250593 0.42870554 0
0.11166672 -0.78301412 0.46906325 0
0.24119623 -1.5512727 -0.056047875 0
0.26899278 -1.7300485 0.062507086 0
0.26442668 -1.7006813 0.18496709 0
0.26440072 -1.7005144 0.31037045 0
0.16057576 -1.0327559 0.43273574 0
0.12048551 -0.77491218 0.46508181 0
0.26082093 -1.5487745 -0.056071829 0
0.28671563 -1.7025391 0.06163872 0
0.28538796 -1.6946554 0.1846879 0
0.28525439 -1.6938622 0.30978736 0
0.13209747 -0.78440475 0.47173992 0
0.27839205 -1.534842 -0.055689916 0
0.30843401 -1.7004706 0.061699551 0
0.30428651 -1.6776044 0.18323269 0
0.30582651 -1.6860949 0.30904663 0
0.3019346 -1.6646378 0.43163207 0
0.13965276 -0.76993912 0.46406108 0
0.29849592 -1.5353321 -0.055839654 0
0.33242232 -1.7098346 0.062186267 0
0.32143623 -1.6533271 0.1810088 0
0.31893241 -1.6404485 0.30139223 0
0.32349703 -1.6639268 0.4324697 0
0.15536726 -0.79914105 0.48280272 0
0.31982177 -1.5411756 -0.056194194 0
0.36240727 -1.746389 0.06367667 0
0.34044185 -1.6405408 0.18006401 0
0.34148824 -1.6455832 0.30310163 0
0.3398709 -1.6377895 0.42675483 0
0.16397779 -0.79018563 0.47860181 0
0.33809355 -1.5320052 -0.056010615 0
0.3901414 -1.7678498 0.064633176 0
0.35581499 -1.6123065 0.17744274 0
0.35759994 -1.6203947 0.2992678 0
0.35762203 -1.6204947 0.42338821 0
0.17582677 -0.79672486 0.48386514 0
0.35577172 -1.520852 -0.055762216 0
0.41990685 -1.7950166 0.065814495 0
0.37454161 -1.6010894 0.17671327 0
0.37415442 -1.5994343 0.29624334 0
0.37384602 -1.5981158 0.41873804 0
0.18461338 -0.78918469 0.48065963 0
0.37744346 -1.5265676 -0.056141593 0
0.45078877 -1.8232121 0.067051105 0
0.39224002 -1.5864121 0.17562455 0
0.39211565 -1.5859091 0.2946294 0
0.39155352 -1.5836356 0.41620281 0
0.1942547 -0.78566188 0.47996575 0
0.3959994 -1.5192561 -0.056051645 0
0.48320669 -1.8538277 0.068395384 0
0.40771678 -1.5642099 0.17372125 0
0.40796784 -1.5651731 0.29170835 0
0.41238475 -1.5821186 0.4171358 0
0.20140237 -0.77268243 0.47354832 0
0.41551879 -1.5156871 -0.056108564 0
0.42522347 -1.5510868 0.17284475 0
0.42627969 -1.5549396 0.29077846 0
0.42492187 -1.5499866 0.41004226 0
0.21430935 -0.78173578 0.48071256 0
0.43436831 -1.5096334 -0.056082498 0
0.44439059 -1.5444655 0.1727168 0
0.44196203 -1.5360252 0.28825927 0
0.4410046 -1.5326977 0.40690535 0
0.22284222 -0.77448112 0.4779391 0
0.45163444 -1.4983795 -0.055871259 0
0.45936382 -1.5240229 0.17106403 0
0.45961854 -1.5248681 0.28722882 0
0.45796302 -1.5193756 0.40486744 0
0.47315565 -1.5011101 -0.056190789 0
0.47860241 -1.5183902 0.17109467 0
0.47343105 -1.5019838 0.2840187 0
0.47229642 -1.4983841 0.40082684 0
0.47381189 -1.5031921 0.52435851 0
0.48854581 -1.4844801 -0.055794142 0
0.49497786 -1.5040244 0.17016475 0
0.48721021 -1.4804218 0.28107923 0
0.49182364 -1.4944401 0.40139666 0
0.49046203 -1.4903027 0.52197534 0
0.50797796 -1.4804829 -0.055879891 0
0.50903177 -1.4835541 0.16856059 0
0.50988764 -1.4860486 0.28334415 0
0.50526375 -1.4725724 0.39720055 0
0.50255871 -1.4646887 0.51517969 0
0.52730334 -1.4759976 -0.055956777 0
0.53914672 -1.5091488 0.17222637 0
0.52301878 -1.4640045 0.28037453 0
0.52047247 -1.456877 0.39470351 0
0.51783723 -1.4495007 0.51209056 0
0.55172515 -1.4850656 -0.056559458 0
0.56308627 -1.5156462 0.17376325 0
0.53444344 -1.4385488 0.27676636 0
0.53487217 -1.4397029 0.3918443 0
0.53607082 -1.4429291 0.51211309 0
0.56700784 -1.4692625 -0.056225054 0
0.59584218 -1.5439796 0.17785767 0
0.55302924 -1.4330404 0.27702439 0
0.55041403 -1.4262636 0.39004201 0
0.55204588 -1.430492 0.51012576 0
0.58404541 -1.4584675 -0.056088947 0
0.62112927 -1.5510726 0.17956148 0
0.5639925 -1.4083916 0.27361068 0
0.56329131 -1.4066408 0.38658482 0
0.56149018 -1.4021429 0.50249773 0
0.60139096 -1.4486566 -0.055998437 0
0.65500879 -1.5778135 0.18359746 0
0.57754248 -1.3912094 0.27166396 0
0.57665527 -1.3890721 0.38372165 0
0.57915825 -1.3951014 0.50254798 0
0.61716986 -1.4353558 -0.05578028 0
0.68064928 -1.5829902 0.18518247 0
0.59090388 -1.3742688 0.26978755 0
0.59608424 -1.3863168 0.38500351 0
0.5975247 -1.3896669 0.50326085 0
0.35391787 -0.82310897 0.44829094 0
0.63921601 -1.4365101 -0.05613349 0
0.71497869 -1.6067717 0.18900272 0
0.6154626 -1.383129 0.27302673 0
0.60802662 -1.3664182 0.38157338 0
0.6065501 -1.3631001 0.49636641 0
0.36557907 -0.82156587 0.449922 0
0.65253723 -1.4180999 -0.055730756 0
0.62541807 -1.3591644 0.26982933 0
0.61874831 -1.3446696 0.37764588 0
0.61845934 -1.3440417 0.49222323 0
0.3730199 -0.81065029 0.44648117 0
0.67929775 -1.4286077 -0.056475393 0
0.63928449 -1.3444571 0.26848644 0
0.63211298 -1.329375 0.37555614 0
0.63864982 -1.3431225 0.49479258 0
0.37365595 -0.78582299 0.43536398 0
0.68831563 -1.4017832 -0.055753194 0
0.65219426 -1.3282206 0.26686287 0
0.64894789 -1.3216091 0.37564099 0
0.65423048 -1.3323674 0.49382624 0
0.64964342 -1.3230257 0.61025494 0
0.38374227 -0.78150702 0.43561542 0
0.70811933 -1.3973627 -0.05592759 0
0.67088443 -1.3238854 0.26766801 0
0.66611558 -1.3144749 0.3759675 0
0.66298753 -1.3083022 0.48796234 0
0.66367561 -1.30966 0.60789651 0
0.40473115 -0.79867363 0.44798943 0
0.72899997 -1.3947304 -0.056185186 0
0.68791151 -1.3161194 0.26782799 0
0.67874789 -1.2985876 0.37383834 0
0.68070412 -1.3023303 0.48889318 0
0.67675871 -1.2947818 0.60489821 0
0.41987479 -0.80330884 0.45351911 0
0.74454761 -1.3818108 -0.056037974 0
0.69604301 -1.2917908 0.26463979 0
0.68975234 -1.280116 0.37099171 0
0.6900326 -1.2806361 0.48397267 0
0.69018787 -1.2809242 0.60243672 0
0.43132985 -0.80050784 0.45496809 0
0.76157856 -1.3717704 -0.056015268 0
0.73052973 -1.3158447 0.27143052 0
0.70651788 -1.2725941 0.37136069 0
0.70481151 -1.2695205 0.48308772 0
0.70704824 -1.2735493 0.60310775 0
0.45014384 -0.81080806 0.46400699 0
0.78010786 -1.3643767 -0.056110024 0
0.75513166 -1.3206942 0.27437058 0
0.7170037 -1.2540101 0.36854309 0
0.71965545 -1.2586479 0.48236048 0
0.71860123 -1.256804 0.59941542 0
0.45041448 -0.78775644 0.45402488 0
0.79107124 -1.3439907 -0.0556769 0
0.78442943 -1.3327067 0.27889609 0
0.72728306 -1.2356179 0.36580026 0
0.72982413 -1.239935 0.47867304 0
0.73220336 -1.2439772 0.59764779 0
0.45907545 -0.77994639 0.45281941 0
0.81118661 -1.3392987 -0.055901252 0
0.8115586 -1.3399129 0.28252035 0
0.74674648 -1.2329057 0.36775199 0
0.7428593 -1.226488 0.47705522 0
0.74550992 -1.2308643 0.59581077 0
0.47106099 -0.77773893 0.45494553 0
0.82755756 -1.3282917 -0.055872351 0
0.84285438 -1.3528441 0.28746194 0
0.7543388 -1.21077 0.36395377 0
0.75416255 -1.2104871 0.47448772 0
0.76462668 -1.2272829 0.59869039 0
0.48733157 -0.78220356 0.46111023 0
0.84581017 -1.3202536 -0.055977806 0
0.87785643 -1.3702757 0.29349151 0
0.76811463 -1.1989759 0.36328715 0
0.77294445 -1.2065151 0.47670811 0
0.76974779 -1.2015252 0.5908069 0
0.50211376 -0.78376633 0.46572185 0
0.86556923 -1.3143622 -0.056185689 0
0.90611774 -1.3759348 0.29712391 0
0.78024077 -1.1847914 0.36193752 0
0.78550571 -1.1927862 0.47515416 0
0.778956 -1.1828405 0.58639592 0
0.51131278 -0.77642566 0.46514893 0
0.87896496 -1.2988007 -0.055989172 0
0.94505525 -1.396459 0.30410165 0
0.80628645 -1.1914076 0.36703113 0
0.80357283 -1.1873977 0.47700071 0
0.79983032 -1.1818677 0.59085989 0
0.53607017 -0.79212302 0.47855914 0
0.89094537 -1.2814411 -0.055720035 0
0.81674862 -1.1747243 0.36503103 0
0.81112391 -1.1666343 0.47272524 0
0.80628681 -1.1596771 0.58479548 0
0.54641056 -0.7858988 0.47891769 0
0.91124755 -1.2760559 -0.055980384 0
0.58142692 -0.81419504 0.035718616 0
0.57446277 -0.80444288 0.1062336 0
0.58249623 -0.81569242 0.18076806 0
0.5789035 -0.81066138 0.25414801 0
0.57864296 -0.8102966 0.33126187 0
0.57854801 -0.81016356 0.41218579 0
0.55767035 -0.78092784 0.48012969 0
0.9219178 -1.2572199 -0.055658922 0
0.58004111 -0.79100245 0.035018809 0
0.58060187 -0.79176712 0.10551678 0
0.58062845 -0.79180336 0.17708018 0
0.57880014 -0.7893101 0.24971938 0
0.57902998 -0.7896235 0.32576537 0
0.57497919 -0.78409946 0.40257686 0
0.56766707 -0.77412796 0.48030576 0
0.94157141 -1.2506883 -0.055890229 0
0.5858168 -0.77813977 0.034773182 0
0.57961363 -0.76990008 0.10356707 0
0.58884257 -0.78215891 0.17656755 0
0.58056533 -0.77116424 0.24627183 0
0.58641142 -0.77892959 0.3243742 0
0.58621305 -0.77866614 0.40354526 0
0.58859974 -0.78183639 0.48964822 0
0.95906675 -1.2410917 -0.055996623 0
0.57801694 -0.74798965 0.033748429 0
0.60558957 -0.78367043 0.10643683 0
0.60602421 -0.7842328 0.17874424 0
0.60487688 -0.7827481 0.25238356 0
0.60506415 -0.78299052 0.32921207 0
0.60725987 -0.78583187 0.41118926 0
0.97247791 -1.2262195 -0.055873688 0
0.57774651 -0.72849375 0.033194408 0
0.87991041 -1.1094991 0.36128268 0
0.87408227 -1.1021503 0.46799499 0
0.8765536 -1.1052665 0.58406371 0
0.98828715 -1.2144268 -0.055898961 0
0.58018154 -0.71293843 0.032815911 0
0.89272797 -1.0970017 0.36084506 0
0.88527876 -1.0878479 0.46661842 0
0.88428628 -1.0866283 0.58005291 0
1.0121722 -1.2122735 -0.056382041 0
0.59189993 -0.70891547 0.032971192 0
0.90377665 -1.0824486 0.35977298 0
0.89218324 -1.0685633 0.46312875 0
0.90024137 -1.0782144 0.58156663 0
1.0163609 -1.1865962 -0.055778626 0
0.60946846 -0.71155137 0.033448074 0
0.91660821 -1.0701355 0.35948822 0
0.91322684 -1.0661877 0.46704617 0
0.90946048 -1.0617906 0.57883906 0
1.0341723 -1.1770639 -0.055938259 0
0.61494923 -0.69991678 0.033262532 0
0.92814976 -1.0563923 0.35876921 0
0.92595333 -1.0538924 0.46673074 0
0.91818112 -1.0450463 0.57596827 0
1.0462025 -1.1609436 -0.055793818 0
0.94681001 -1.0506504 0.36083961 0
0.93376726 -1.0361772 0.46405584 0
0.93308687 -1.0354222 0.57709396 0
1.0648414 -1.1521192 -0.056009687 0
0.95376706 -1.0319408 0.35851029 0
0.94559073 -1.0230944 0.46349254 0
0.94444722 -1.0218571 0.5761162 0
1.076721 -1.1359378 -0.055877738 0
0.97152483 -1.0249561 0.36030528 0
0.96026695 -1.013079 0.46439648 0
0.96314543 -1.0161159 0.57967108 0
1.0938148 -1.1252496 -0.056025069 0
0.98488569 -1.01319 0.36050016 0
0.97400194 -1.0019934 0.46490017 0
0.97070009 -0.99859673 0.57660419 0
1.1137371 -1.1172471 -0.056320425 0
0.99021423 -0.99333489 0.35784376 0
0.98617941 -0.98928738 0.46472973 0
0.98425961 -0.98736149 0.57722753 0
1.1161772 -1.0918477 -0.055744141 0
1.0091852 -0.98718774 0.36017868 0
0.99939066 -0.97760671 0.46511748 0
1.0024118 -0.98056209 0.58058584 0
1.140879 -1.0882401 -0.056288961 0
1.0194358 -0.97240019 0.35943851 0
1.0083368 -0.96181327 0.46360761 0
1.0107503 -0.9641155 0.57833797 0
1.1395159 -1.0598607 -0.055558838 0
1.0345268 -0.96221066 0.36045876 0
1.0231278 -0.95160842 0.4648619 0
1.0224462 -0.9509744 0.57813245 0
1.1580426 -1.05021 -0.055812933 0
1.0449619 -0.94765902 0.35990828 0
1.0404088 -0.94352984 0.46727833 0
1.0430058 -0.945885 0.5829767 0
1.1744285 -1.0384229 -0.055968016 0
1.0498286 -0.92825252 0.35753027 0
1.0509846 -0.92927456 0.46673563 0
1.0528375 -0.93091291 0.58187383 0
1.1867212 -1.0229591 -0.055935532 0
1.3645011 -1.1762062 0.064315103 0
1.3683934 -1.1795614 0.19415589 0
1.3213366 -1.1389983 0.31461659 0
1.0654901 -0.91845739 0.35889679 0
1.0626705 -0.91602683 0.46676573 0
1.0589685 -0.91283578 0.57886368 0
1.2048932 -1.0124613 -0.05618668 0
1.3864206 -1.1649972 0.064651683 0
1.3847104 -1.1635603 0.19437674 0
1.1489067 -0.96541637 0.27064416 0
1.0776587 -0.90554726 0.35912621 0
1.0757157 -0.90391463 0.46745911 0
1.0724515 -0.90117168 0.57998478 0
1.2112707 -0.9920705 -0.055897098 0
1.0055605 -0.82358712 0.04640409 0
1.0102499 -0.82742786 0.14033867 0
0.99610692 -0.81584436 0.23221119 0
1.0131376 -0.82979298 0.33411619 0
1.0930818 -0.89526993 0.47006944 0
1.0870855 -0.89035875 0.58178955 0
1.2257544 -0.9784075 -0.055992499 0
0.90424478 -0.72177583 0.041305929 0
0.90381658 -0.721434 0.1242817 0
0.89633024 -0.71545833 0.20683475 0
0.90125942 -0.71939284 0.29420987 0
1.1040066 -0.88122743 0.46995834 0
1.0964755 -0.87521595 0.58087063 0
1.2364333 -0.96169585 -0.055922698 0
0.87560695 -0.68104571 0.039602865 0
0.88261789 -0.68649882 0.12016851 0
0.88105476 -0.68528301 0.20130262 0
0.8798725 -0.68436342 0.28439257 0
1.1181514 -0.86969638 0.47128034 0
1.1054393 -0.85980886 0.57983768 0
1.2539548 -0.9502272 -0.056169536 0
0.89593208 -0.67892325 0.040132299 0
0.88176066 -0.66818434 0.1188968 0
0.88487875 -0.67054725 0.20023124 0
0.885423 -0.67095965 0.28343326 0
1.1229204 -0.85093147 0.46873698 0
1.121623 -0.84994829 0.58266646 0
1.2575132 -0.92823148 -0.055800933 0
0.89964658 -0.66407281 0.039920948 0
0.90729856 -0.66972113 0.1211936 0
0.90757704 -0.66992664 0.20344242 0
0.89831096 -0.66308695 0.28486341 0
1.1349598 -0.83776897 0.46932179 0
1.1378698 -0.83991694 0.58556569 0
1.270586 -0.91339177 -0.055866223 0
0.90970606 -0.65396446 0.039998744 0
0.91496027 -0.65774155 0.12110108 0
0.91335589 -0.6565882 0.20286839 0
0.91642505 -0.65879458 0.28795412 0
1.1534247 -0.8291676 0.47260231 0
1.1454835 -0.82345885 0.58410144 0
1.2833866 -0.89830154 -0.055927262 0
0.91567791 -0.64092523 0.039903298 0
0.92426598 -0.64693642 0.12124491 0
0.92533642 -0.64768571 0.20370176 0
0.92661506 -0.64858067 0.28856686 0
1.1615245 -0.81300467 0.47168902 0
1.1666325 -0.81658 0.58959568 0
1.2930613 -0.88102555 -0.055860981 0
0.93776709 -0.63894635 0.04051207 0
0.93201023 -0.63502389 0.12120224 0
0.93525815 -0.63723689 0.20410331 0
0.93046778 -0.63397294 0.28725779 0
1.1687374 -0.79631764 0.47050869 0
1.1797765 -0.80383915 0.59107602 0
1.3109578 -0.86925352 -0.056156803 0
0.94268137 -0.62506145 0.040381141 0
0.94012135 -0.62336397 0.12122665 0
0.94263119 -0.62502813 0.20397857 0
0.93765855 -0.62173092 0.28703803 0
1.1922798 -0.79056209 0.47594103 0
1.1836087 -0.78481245 0.58799809 0
1.3187163 -0.85068959 -0.05602584 0
0.95850873 -0.61832356 0.040722374 0
0.95129424 -0.61366963 0.12166128 0
0.9572382 -0.617504 0.20544052 0
0.96032792 -0.61949712 0.29156649 0
1.2029135 -0.77598649 0.47624749 0
1.200459 -0.7744031 0.59147787 0
1.3261579 -0.83203214 -0.055892445 0
0.97020411 -0.60870653 0.040890366 0
0.97056127 -0.60893065 0.12313496 0
0.96854872 -0.60766798 0.20620939 0
0.96865135 -0.60773236 0.291747 0
1.2203867 -0.76567125 0.47931015 0
1.2092066 -0.75865686 0.59103411 0
1.3462662 -0.82120782 -0.056299642 0
0.97421175 -0.59425861 0.040740661 0
0.96813089 -0.59054935 0.12187351 0
0.97625762 -0.59550661 0.20623778 0
0.97532237 -0.59493607 0.29147676 0
1.2281193 -0.74913943 0.4786042 0
1.2345282 -0.75304884 0.59872842 0
1.3593034 -0.80585384 -0.056416012 0
0.97858745 -0.58014899 0.040614925 0
0.97689182 -0.57914376 0.12204865 0
0.98374701 -0.58320779 0.20625216 0
0.98964465 -0.58670419 0.29352584 0
1.2432901 -0.7370761 0.48086122 0
1.2371182 -0.73341721 0.59545827 0
1.3517938 -0.77856761 -0.055693027 0
0.98751265 -0.56875932 0.040684879 0
1.0005062 -0.57624298 0.12408254 0
1.0021222 -0.57717371 0.20856437 0
0.99862903 -0.57516181 0.29401916 0
1.2451077 -0.71712154 0.47803375 0
1.2612077 -0.72639441 0.60260278 0
1.3630817 -0.76237553 -0.055758148 0
1.0054687 -0.5623616 0.041129652 0
1.0090897 -0.56438679 0.12425582 0
1.0054179 -0.56233323 0.20776013 0
1.010341 -0.56508666 0.295349 0
1.2680033 -0.709198 0.48335716 0
1.2776006 -0.71456575 0.60608804 0
1.3809301 -0.74968928 -0.056097645 0
1.0158453 -0.55148941 0.041266773 0
1.0184687 -0.55291367 0.12454353 0
1.0111159 -0.54892188 0.20749277 0
1.0154064 -0.55125111 0.29477718 0
1.2806485 -0.69524771 0.48480171 0
1.2788137 -0.69425166 0.60246855 0
1.3911045 -0.73268706 -0.056131717 0
1.3061911 -0.6879636 0.37664858 0
1.290656 -0.67978138 0.48531124 0
1.2965556 -0.68288869 0.60672778 0
1.4006743 -0.7153455 -0.056149945 0
1.3158302 -0.6720143 0.3769581 0
1.305133 -0.66655111 0.48756018 0
1.3077294 -0.66787708 0.6079728 0
1.413287 -0.69949216 -0.056297999 0
1.3351773 -0.66083246 0.38008657 0
1.3212845 -0.65395635 0.49047872 0
1.3228862 -0.65474916 0.61113787 0
1.4103523 -0.6760667 -0.055837549 0
1.3442464 -0.64437813 0.3803283 0
1.329125 -0.63712955 0.49037218 0
1.3235925 -0.6344775 0.60772508 0
1.4206225 -0.65912235 -0.05591112 0
1.3526601 -0.62759 0.38044268 0
1.3334078 -0.61865759 0.48903933 0
1.3401253 -0.62177432 0.61167264 0
1.4317017 -0.64248085 -0.056024313 0
1.3658184 -0.61291552 0.38194254 0
1.3501871 -0.60590094 0.49235603 0
1.3593694 -0.61002153 0.61690122 0
1.4314876 -0.62085092 -0.055705596 0
1.3810314 -0.59896749 0.38405713 0
1.3644065 -0.59175712 0.49478477 0
1.3654623 -0.59221506 0.61623323 0
1.4401773 -0.60319042 -0.055743758 0
1.3989938 -0.58594155 0.38696986 0
1.3715277 -0.57443786 0.49470481 0
1.3800098 -0.57799047 0.61946476 0
1.4489244 -0.58552086 -0.055792525 0
1.4026201 -0.56680888 0.38596806 0
1.3919588 -0.5625006 0.4994798 0
1.3908964 -0.56207126 0.62112528 0
1.4633044 -0.57000512 -0.056065414 0
1.4209721 -0.55351526 0.38906929 0
1.3975469 -0.54439038 0.49898562 0
1.4048697 -0.54724288 0.62423843 0
1.4570493 -0.5465402 -0.055557661 0
1.4262189 -0.53497571 0.38863057 0
1.4169716 -0.53150707 0.50349152 0
1.4180648 -0.53191715 0.62707567 0
1.4803784 -0.53412688 -0.056186296 0
1.4335895 -0.51724523 0.38883334 0
1.4368432 -0.51841921 0.5081926 0
1.4265786 -0.51471573 0.62792462 0
1.4855094 -0.51493287 -0.056130491 0
1.4509948 -0.50296885 0.39180535 0
1.4390802 -0.49883878 0.50672197 0
1.4434031 -0.50033724 0.63250679 0
1.4869077 -0.49453551 -0.05594359 0
1.4620056 -0.48625323 0.393094 0
1.4538946 -0.48355559 0.50975388 0
1.4513446 -0.48270744 0.63327307 0
1.4969076 -0.47701424 -0.056089386 0
1.4752162 -0.47010192 0.39502302 0
1.4568025 -0.46423411 0.5086835 0
1.4600322 -0.46526331 0.63445711 0
1.5014971 -0.45773286 -0.056040939 0
1.479332 -0.45097578 0.39457321 0
1.4713098 -0.44853023 0.51173639 0
1.4687214 -0.44774115 0.63573259 0
1.5001081 -0.4367432 -0.055779412 0
1.4776858 -0.43021515 0.39265808 0
1.4717788 -0.42849535 0.50998241 0
1.4811717 -0.43123004 0.63872057 0
1.5148195 -0.4204101 -0.056125138 0
1.4828643 -0.41154149 0.39262593 0
1.4892099 -0.41330263 0.51417834 0
1.4812673 -0.4110983 0.63647902 0
1.5145154 -0.39985722 -0.055922888 0
1.5009515 -0.39627612 0.3960624 0
1.5033387 -0.39690638 0.51728988 0
1.4989078 -0.39573652 0.6418668 0
1.5260623 -0.38241792 -0.056166988 0
1.5047468 -0.37707645 0.39577955 0
1.5064121 -0.37749377 0.51667082 0
1.5098493 -0.37835509 0.64446098 0
1.5243914 -0.36166251 -0.055933438 0
1.5184172 -0.36024514 0.39815044 0
1.5123169 -0.35879788 0.51710552 0
1.5126725 -0.35888222 0.64368606 0
1.524738 -0.3415246 -0.055783935 0
1.5268492 -0.3419975 0.39920053 0
1.5318729 -0.34312275 0.52227342 0
1.5242915 -0.34142461 0.6467495 0
1.5321157 -0.32297346 -0.05590063 0
1.5359098 -0.32377326 0.40047178 0
1.5352852 -0.32364163 0.52200603 0
1.5351681 -0.32361692 0.64958382 0
1.5373436 -0.30391029 -0.055947315 0
1.5363863 -0.30372101 0.39956713 0
1.5428827 -0.30500525 0.52324188 0
1.5458899 -0.30559975 0.65244061 0
1.5498271 -0.28615001 -0.056266025 0
1.5469482 -0.28561845 0.40134677 0
1.5369148 -0.28376597 0.51996493 0
1.5416 -0.28463101 0.64906591 0
1.5447783 -0.26514921 -0.055957079 0
1.5484805 -0.26578465 0.40084428 0
1.546791 -0.26549467 0.52213377 0
1.5577353 -0.26737317 0.65439004 0
1.557668 -0.24721283 -0.056306761 0
1.5541935 -0.24666138 0.40148726 0
1.5665257 -0.2486186 0.52769679 0
1.5495366 -0.24592231 0.64959341 0
1.546304 -0.22548728 -0.055788916 0
1.564896 -0.22819841 0.40347773 0
1.5668672 -0.22848587 0.52680087 0
1.5723455 -0.22928473 0.65789282 0
1.5682782 -0.20856056 -0.056482486 0
1.5558044 -0.2069017 0.40043011 0
1.5619711 -0.2077218 0.52423376 0
1.5612535 -0.20762637 0.65210611 0
1.5595618 -0.18744917 -0.056079108 0
1.571638 -0.18890065 0.40386111 0
1.5716138 -0.18889774 0.52662998 0
1.5747373 -0.18927316 0.65669048 0
1.5540392 -0.16696391 -0.055800498 0
1.5677069 -0.16843234 0.40227407 0
1.5813649 -0.16989973 0.52913862 0
1.5804516 -0.16980161 0.65812957 0
1.5569459 -0.14747129 -0.055833764 0
1.5805492 -0.14970696 0.40505356 0
1.5804939 -0.14970173 0.52817458 0
1.579373 -0.14959554 0.65684396 0
1.5542824 -0.1274951 -0.055676259 0
1.5924159 -0.13062313 0.40764084 0
1.5857985 -0.13008031 0.52935791 0
1.5994773 -0.13120236 0.66446537 0
1.5685091 -0.10879871 -0.05613235 0
1.6753925 -0.11621262 0.059957396 0
1.6693828 -0.11579576 0.17983848 0
1.6705722 -0.11587825 0.30200943 0
1.5980748 -0.11084952 0.40869972 0
1.5945889 -0.11060773 0.53178519 0
1.5815458 -0.109703 0.65639025 0
1.5662178 -0.088840038 -0.056005877 0
1.6463991 -0.09338814 0.058873054 0
1.6460576 -0.093368769 0.17718501 0
1.6412075 -0.093093656 0.2964654 0
1.600879 -0.090806112 0.40909201 0
1.576167 -0.089404389 0.52522451 0
1.5957205 -0.09051352 0.66174769 0
1.5706271 -0.069263011 -0.05612791 0
1.6457993 -0.072578028 0.058814261 0
1.6323371 -0.071984358 0.17559662 0
1.6372782 -0.072202258 0.29556796 0
1.6032997 -0.070703842 0.40945065 0
1.5900539 -0.070119716 0.5295158 0
1.5952771 -0.070350051 0.66114396 0
1.5726422 -0.049521338 -0.056173187 0
1.6265424 -0.051218618 0.058098447 0
1.6325866 -0.051408943 0.17553991 0
1.6363815 -0.051528443 0.29526556 0
1.5903726 -0.050079655 0.40595609 0
1.5995716 -0.050369326 0.5324319 0
1.5909833 -0.050098889 0.65905076 0
1.5734783 -0.029722314 -0.056185227 0
1.6376694 -0.030934857 0.058477342 0
1.6444471 -0.031062882 0.17675909 0
1.636465 -0.030912103 0.29518697 0
1.5926405 -0.03008428 0.40640607 0
1.590421 -0.030042354 0.5292182 0
1.5948132 -0.030125322 0.66042781 0
1.5597539 -0.0098199835 -0.055686329 0
1.6442149 -0.010351738 0.058701754 0
1.6430833 -0.010344613 0.17658451 0
1.6307005 -0.010266653 0.29410052 0
1.6037664 -0.010097081 0.40918028 0
1.6061674 -0.010112196 0.5343731 0
1.6026843 -0.010090267 0.66358203 0
1.57136 0.0098930541 -0.056100689 0
1.651467 0.010397396 0.058960672 0
1.638621 0.01031652 0.17610495 0
1.6532755 0.010408782 0.298172 0
1.5954401 0.010044659 0.40705591 0
1.6030053 0.010092288 0.53332108 0
1.60585 0.010110199 0.66489279 0
1.5659153 0.029579455 -0.055915173 0
1.6734358 0.031610467 0.059754476 0
1.670257 0.031550419 0.17953336 0
1.6697738 0.031541295 0.30119523 0
1.6110973 0.030432921 0.41111583 0
1.6070224 0.030355947 0.53474236 0
1.5955848 0.030139895 0.66074729 0
1.5681757 0.04938069 -0.056013644 0
1.6117237 0.050751984 0.41140613 0
1.6028416 0.050472297 0.5335204 0
1.612852 0.050787512 0.66810966 0
1.5653598 0.069030732 -0.055939678 0
1.5963717 0.070398316 0.40768135 0
1.622987 0.071572036 0.54048312 0
1.613162 0.071138762 0.66855621 0
1.5598445 0.088478528 -0.055777974 0
1.5941106 0.090422198 0.40736243 0
1.6110494 0.09138301 0.53684831 0
1.6147718 0.09159416 0.66964829 0
1.5614126 0.10830647 -0.05587839 0
1.6158303 0.11208112 0.41324061 0
1.6033264 0.1112138 0.53469908 0
1.6098074 0.11166335 0.66811967 0
1.5638072 0.12827641 -0.056017451 0
1.599739 0.13122381 0.40951544 0
1.595937 0.13091196 0.53274226 0
1.5957597 0.13089742 0.66292095 0
1.5605146 0.14780931 -0.055961739 0
1.6022249 0.15176004 0.41060847 0
1.6032691 0.15185896 0.53578568 0
1.6007247 0.15161794 0.66572392 0
1.5641198 0.16804694 -0.056162458 0
1.6010442 0.17201406 0.41082841 0
1.5943087 0.17129041 0.5334698 0
1.6047903 0.17241652 0.66826469 0
1.5522453 0.18656977 -0.055816013 0
1.6064777 0.19308814 0.41281381 0
1.5902619 0.19113912 0.53287876 0
1.5782557 0.18969604 0.65815771 0
1.5587276 0.20729046 -0.056138515 0
1.5974463 0.21243954 0.41114786 0
1.5982233 0.21254288 0.53640085 0
1.5881894 0.21120849 0.66335672 0
1.5457916 0.22541255 -0.055770427 0
1.5889666 0.23170848 0.40968385 0
1.5932791 0.23233733 0.53568089 0
1.589992 0.231858 0.66527635 0
1.539476 0.24432564 -0.055649158 0
1.5963712 0.25335529 0.41238284 0
1.5880958 0.25204194 0.53496283 0
1.6004326 0.25399986 0.67092997 0
1.5448616 0.26516351 -0.055960096 0
1.5845975 0.27198386 0.41019359 0
1.5888206 0.27270871 0.53632122 0
1.5750464 0.2703445 0.66166228 0
1.5315576 0.28277683 -0.055602752 0
1.5760412 0.29099002 0.40889484 0
1.5752448 0.29084295 0.53293264 0
1.5889168 0.29336727 0.66898787 0
1.535357 0.30351752 -0.055875015 0
1.5674251 0.30985695 0.40763941 0
1.5730734 0.31097353 0.53348053 0
1.5750716 0.31136853 0.66475672 0
1.5394561 0.32452086 -0.056168452 0
1.564545 0.32980967 0.40793812 0
1.5718594 0.33135152 0.53444147 0
1.5689662 0.33074164 0.66388506 0
1.5199745 0.34045765 -0.055609658 0
1.57002 0.35166728 0.41048771 0
1.5556817 0.34845567 0.5303908 0
1.5574478 0.34885126 0.66081756 0
1.5251212 0.36183569 -0.055960219 0
1.5605639 0.37024444 0.40920189 0
1.5573131 0.36947319 0.53249097 0
1.5433567 0.36616203 0.65674299 0
1.5229883 0.38164762 -0.056053851 0
1.5499721 0.38840947 0.4076747 0
1.544379 0.38700792 0.52969277 0
1.5567458 0.39010692 0.66447812 0
1.5211556 0.40161031 -0.056168068 0
1.5444605 0.40776321 0.4075433 0
1.5446289 0.40780765 0.5314976 0
1.5588211 0.41155463 0.66752309 0
1.5083638 0.41861844 -0.055885952 0
1.5385677 0.42700097 0.40737483 0
1.5367899 0.42650756 0.53060621 0
1.5384637 0.42697209 0.66105551 0
1.5078959 0.43901056 -0.056068994 0
1.5310465 0.44575062 0.40683734 0
1.5419996 0.4489395 0.53431445 0
1.5426326 0.44912383 0.66522419 0
1.5079732 0.45970708 -0.056282647 0
1.5198793 0.46333671 0.40538818 0
1.527794 0.46574947 0.53138214 0
1.52731 0.46560192 0.66109252 0
1.4820533 0.47228065 -0.055532791 0
1.5261751 0.48634082 0.40866843 0
1.5196339 0.48425636 0.53062284 0
1.5138657 0.48241821 0.65785044 0
1.4944346 0.4970389 -0.056226783 0
1.505339 0.50066566 0.40474519 0
1.5030452 0.49990273 0.52698666 0
1.4941295 0.49693742 0.6519416 0
1.4871464 0.51550031 -0.056192342 0
1.5065702 0.52223331 0.4068121 0
1.4985025 0.51943678 0.52764547 0
1.5003519 0.52007782 0.65746206 0
1.4894065 0.53738427 -0.056528948 0
1.4856982 0.53604633 0.40296686 0
1.4785473 0.53346628 0.52294284 0
1.4883233 0.53699344 0.65510225 0
1.4715903 0.55199462 -0.056112118 0
1.4866806 0.55765498 0.4051058 0
1.4866034 0.55762601 0.52823371 0
1.4794811 0.55495447 0.65423429 0
1.4618527 0.56943959 -0.056009788 0
1.4573658 0.5676918 0.39903402 0
1.4706535 0.57286787 0.52508789 0
1.4678534 0.57177711 0.6522246 0
1.4645759 0.59184569 -0.056395199 0
1.4664057 0.59258521 0.40352041 0
1.4630278 0.59122008 0.52498168 0
1.459129 0.58964455 0.65159553 0
1.455901 0.60977608 -0.056352366 0
1.4489907 0.6068818 0.4007993 0
1.4497225 0.60718828 0.5229094 0
1.444966 0.60519606 0.64862251 0
1.4380127 0.62368089 -0.055959519 0
1.4406143 0.62480927 0.40062684 0
1.4444705 0.62648177 0.52381897 0
1.4287577 0.61966693 0.64479846 0
1.4389775 0.64574593 -0.056309029 0
1.4439623 0.64798284 0.40379497 0
1.439234 0.64586103 0.52482766 0
1.4263827 0.64009398 0.64731282 0
1.4327109 0.66473103 -0.056386884 0
1.4148737 0.65645516 0.39794061 0
1.4086881 0.6535852 0.51664907 0
1.4188963 0.6583215 0.6476261 0
1.4172109 0.67935443 -0.056109086 0
1.4111423 0.67644536 0.39925522 0
1.4072686 0.67458844 0.51920277 0
1.4089541 0.67539638 0.64691865 0
1.4104111 0.69806874 -0.056183435 0
1.3864679 0.68621826 0.39468756 0
1.3938849 0.68988919 0.51742899 0
1.3944778 0.69018269 0.64421123 0
1.4052609 0.7176879 -0.05633381 0
1.3788995 0.70422471 0.39502612 0
1.3791285 0.70434165 0.5152027 0
1.3811145 0.70535594 0.64209008 0
1.3824111 0.72810823 -0.055780932 0
1.3603333 0.71648002 0.39226082 0
1.3681951 0.72062075 0.51446742 0
1.3631834 0.7179811 0.63790643 0
1.3798555 0.74910593 -0.056053989 0
1.3623466 0.73960054 0.39549553 0
1.3625376 0.73970425 0.51580161 0
1.3556492 0.73596466 0.63866687 0
1.3701607 0.76633489 -0.056047723 0
1.4169071 0.79248029 0.057959929 0
1.4141835 0.79095697 0.17413768 0
1.4093165 0.78823489 0.29122195 0
1.3524892 0.75645119 0.39536783 0
1.3471962 0.75349075 0.5135451 0
1.3492296 0.75462806 0.64006853 0
1.3576665 0.78195006 -0.055934981 0
1.3796364 0.79460359 0.056840125 0
1.3756212 0.79229105 0.17060421 0
1.3862524 0.79841411 0.28851062 0
1.3391315 0.77127475 0.39427084 0
1.3277583 0.76472437 0.5097658 0
1.3287851 0.76531571 0.63489115 0
1.3575066 0.80478865 -0.056341443 0
1.3639293 0.80859625 0.056608003 0
1.3564031 0.80413443 0.16946316 0
1.3590894 0.80572701 0.28494638 0
1.3249005 0.78545839 0.3929618 0
1.3200042 0.78255564 0.5105316 0
1.3199991 0.7825526 0.63535112 0
1.3469231 0.82160854 -0.056327116 0
1.34495 0.82040495 0.056244601 0
1.3457471 0.82089114 0.16940986 0
1.3562129 0.82727516 0.28650463 0
1.3120822 0.80035597 0.39211804 0
1.3031546 0.79491019 0.50784588 0
1.3075253 0.79757631 0.63413095 0
1.3288578 0.83372605 -0.056006234 0
1.3410903 0.84140074 0.056521788 0
1.3394002 0.84034038 0.16992949 0
1.336508 0.83852583 0.28454998 0
1.2917851 0.81046665 0.38907129 0
1.278131 0.80190009 0.50198942 0
1.2947937 0.81235427 0.63286722 0
1.3237271 0.85392201 -0.056238726 0
1.3291312 0.85740817 0.056468319 0
1.3229862 0.8534441 0.16919708 0
1.3334376 0.8601861 0.28617966 0
1.280031 0.82573408 0.38863197 0
1.2729199 0.82114685 0.50396383 0
1.2760309 0.82315373 0.62871283 0
1.3121073 0.87001574 -0.056206044 0
1.3273935 0.88015157 0.056860853 0
1.3233528 0.87747228 0.17064352 0
1.3183162 0.87413269 0.28527412 0
1.2607552 0.83596581 0.38594502 0
1.2641103 0.8381905 0.50461471 0
1.2553988 0.83241409 0.62366229 0
1.3031039 0.88786811 -0.056294829 0
1.3343185 0.90913612 0.057643317 0
1.3400663 0.91305238 0.17426744 0
1.3313601 0.90712035 0.29054543 0
1.2568953 0.85638392 0.38803384 0
1.243013 0.84692526 0.5004105 0
1.2454662 0.84859675 0.62398702 0
1.2885891 0.90194303 -0.056153979 0
1.3507798 0.94547319 0.058864117 0
1.3534826 0.94736499 0.17754942 0
1.3574185 0.95011991 0.29881948 0
1.2401803 0.8680594 0.38621747 0
1.2269995 0.85883367 0.49827805 0
1.2348557 0.8643325 0.6240744 0
1.2824256 0.92190301 -0.056386799 0
1.2190974 0.87637794 0.38305816 0
1.2072242 0.86784267 0.49464601 0
1.2180833 0.87564892 0.62112123 0
1.2637165 0.93281043 -0.056076199 0
1.1989582 0.88500917 0.38020164 0
1.2052983 0.88968915 0.49840772 0
1.1918269 0.8797453 0.61333287 0
1.2486334 0.94619477 -0.05593117 0
1.1854759 0.89833498 0.37948337 0
1.1759737 0.89113438 0.49088284 0
1.1935302 0.90443838 0.62002116 0
1.2449186 0.96829569 -0.056306478 0
1.1771307 0.91557038 0.38047239 0
1.1754494 0.91426265 0.49543038 0
1.165491 0.90651697 0.61133671 0
1.2316334 0.98310018 -0.056261051 0
1.1692493 0.93330461 0.3816933 0
1.1510279 0.91876012 0.48997453 0
1.1457784 0.91456997 0.60698944 0
1.2138655 0.99419576 -0.056016844 0
1.147063 0.93948233 0.37828264 0
1.1356636 0.93014586 0.48838136 0
1.1376984 0.93181247 0.60887671 0
1.2024769 1.0104309 -0.056074001 0
1.1268632 0.94689345 0.37552348 0
1.1221458 0.94292939 0.48763555 0
1.117247 0.93881303 0.60421032 0
1.1903808 1.0261137 -0.056108028 0
1.1131285 0.95952189 0.37494317 0
1.1006984 0.94880706 0.48346907 0
1.1063585 0.95368612 0.6047684 0
1.1710252 1.0354139 -0.055805832 0
1.0917624 0.96533012 0.37181127 0
1.0940045 0.96731251 0.4858405 0
1.0879234 0.96193576 0.60126483 0
1.1667627 1.0581181 -0.056233201 0
1.0739251 0.97392523 0.36988387 0
1.0727999 0.97290474 0.48182607 0
1.0668743 0.96753097 0.59631771 0
1.1480392 1.0677882 -0.055974409 0
1.058748 0.98473877 0.36889812 0
1.0472046 0.97400218 0.47580126 0
1.0526924 0.97910637 0.59523493 0
1.1316345 1.0794221 -0.055832855 0
1.0401083 0.99211895 0.36672735 0
1.0398397 0.99186265 0.47809184 0
1.0304204 0.98287797 0.58959287 0
1.1205527 1.0961277 -0.055962659 0
1.0179199 0.99573207 0.36329612 0
1.0218582 0.9995845 0.4755739 0
1.0125775 0.99050605 0.58647364 0
1.1138948 1.1174052 -0.056328401 0
1.0057727 1.0089424 0.36346629 0
1.0113019 1.0144889 0.47656849 0
1.0118855 1.0150745 0.59342903 0
1.0895494 1.1208615 -0.055806592 0
0.99534816 1.0239531 0.36432976 0
0.97869354 1.0068198 0.46713951 0
0.98157591 1.0097851 0.58306456 0
1.0705928 1.1294726 -0.05555971 0
0.98065192 1.0345852 0.3636902 0
0.96485502 1.0179195 0.46661532 0
0.97067016 1.0240545 0.58419991 0
1.0657091 1.1530581 -0.056055333 0
0.95971859 1.0383803 0.3607474 0
0.94963712 1.0274724 0.46547592 0
0.95154434 1.029536 0.58044547 0
1.0501113 1.1652812 -0.056002274 0
0.93575817 1.0383865 0.35662764 0
0.93362802 1.0360227 0.46398664 0
0.92845422 1.0302814 0.57422876 0
1.0401802 1.183902 -0.056263227 0
0.91538852 1.0418679 0.35383645 0
0.91596532 1.0425243 0.46169627 0
0.90696782 1.0322837 0.5689342 0
0.91170669 1.0376773 0.69111872 0
1.0240489 1.1955719 -0.056200545 0
0.90163368 1.0526527 0.35361528 0
0.89349467 1.0431505 0.45695466 0
0.89937621 1.0500171 0.57242078 0
0.90021908 1.0510012 0.69238806 0
1.0066848 1.2057012 -0.05607637 0
0.87008429 1.0420954 0.45165727 0
0.88015836 1.0541612 0.56859279 0
0.87137508 1.0436414 0.68025696 0
0.990758 1.2174629 -0.056038715 0
0.85758841 1.0538216 0.45202324 0
0.85783041 1.0541189 0.56269896 0
0.85854954 1.0550026 0.6805616 0
0.97626418 1.2309937 -0.05609123 0
0.84113878 1.060611 0.56046617 0
0.83861566 1.0574296 0.67526162 0
0.96030247 1.2426908 -0.056068774 0
0.82115757 1.0626287 0.55602419 0
0.82259095 1.0644836 0.67309821 0
0.94543171 1.2558159 -0.056119367 0
0.80398631 1.067934 0.66882539 0
0.92922968 1.2671911 -0.056100361 0
0.78909826 1.0760938 0.6676597 0
0.91273564 1.2781397 -0.056071799 0
0.89719397 1.2904283 -0.056110825 0
0.87857991 1.2982318 -0.055964645 0
0.86700135 1.3165368 -0.05627865 0
0.84734237 1.3226452 -0.056079209 0
0.82853585 1.3298619 -0.0559384 0
0.81596255 1.3471841 -0.056230377 0
0.80516797 1.3679404 -0.056669053 0
0.77630419 1.3577242 -0.055836443 0
0.76586378 1.3794891 -0.056330454 0
0.74096525 1.3751624 -0.055768352 0
0.72546875 1.3879744 -0.055913027 0
0.7059747 1.3931305 -0.055758204 0
0.69243181 1.4101659 -0.056086596 0
0.67740518 1.4246277 -0.056318052 0
0.656299 1.426275 -0.056052037 0
