# .PCD v0.7 - Point Cloud Data file format
VERSION 0.7
FIELDS x y z intensity
SIZE 4 4 4 4
TYPE F F F F
COUNT 1 1 1 1
WIDTH 1348
HEIGHT 1
VIEWPOINT 0 0 0 1 0 0 0
POINTS 1348
DATA ascii
-0.59660149 -0.78217214 0.17741458 0
-0.60331631 -0.79097563 0.25380608 0
-0.59135211 -0.77528995 0.32440186 0
-0.59608477 -0.78149474 0.40694726 0
-0.59659564 -0.78216451 0.49219534 0
-0.9293437 -1.2507639 -0.05563093 0
-0.59670347 -0.8030777 0.035718936 0
-0.58626652 -0.78903103 0.10564175 0
-0.58560377 -0.78813905 0.17708138 0
-0.58516061 -0.78754264 0.25032032 0
-0.57862276 -0.77874357 0.32277265 0
-0.58633798 -0.78912717 0.40704471 0
-0.5795179 -0.77994835 0.48617017 0
-0.91792881 -1.2684568 -0.055899329 0
-0.57229072 -0.79083049 0.034850925 0
-0.58157569 -0.80366105 0.10661156 0
-0.58822697 -0.81285226 0.18095542 0
-0.58470428 -0.80798429 0.25445729 0
-0.58378065 -0.80670804 0.33129019 0
-0.58261359 -0.80509531 0.41146448 0
-0.56372178 -0.77898926 0.48110944 0
-0.90741569 -1.2877635 -0.056242146 0
-2.0226953 -2.8705182 0.12536782 0
-0.55212057 -0.7835446 0.47959095 0
-0.88078845 -1.2840121 -0.055589501 0
-1.9878823 -2.8979318 0.12546189 0
-0.54513651 -0.79469913 0.48217857 0
-0.87226856 -1.30656 -0.056085709 0
-1.950895 -2.9222207 0.12543996 0
-0.51894093 -0.77731496 0.46762896 0
-0.85722536 -1.3197134 -0.056182519 0
-1.9126251 -2.9445195 0.12535338 0
-0.51158267 -0.78759044 0.46989793 0
-0.83214462 -1.3171132 -0.055621322 0
-1.8893361 -2.9904289 0.12628499 0
-0.49008995 -0.77571118 0.45909208 0
-0.81897116 -1.3331457 -0.055858444 0
-1.8630595 -3.0327437 0.12707114 0
-1.1860038 -1.9306123 0.24350439 0
-1.2153037 -1.9783075 0.41873002 0
-0.47481689 -0.77292109 0.45386621 0
-0.80848897 -1.3540177 -0.056301944 0
-1.8224969 -3.0522285 0.12691592 0
-1.1653193 -1.9516197 0.24428387 0
-1.1721311 -1.9630276 0.41233915 0
-0.46652228 -0.78130865 0.45530578 0
-0.78930497 -1.3605201 -0.05615459 0
-1.7948657 -3.0937989 0.12769456 0
-1.1492801 -1.9810071 0.2461313 0
-0.45257494 -0.78010064 0.45124504 0
-0.77412766 -1.3739283 -0.056301203 0
-0.44793332 -0.79499584 0.45656219 0
-0.75463611 -1.379671 -0.05614268 0
-0.4354673 -0.79614747 0.45403841 0
-0.73862869 -1.3917469 -0.056251138 0
-0.40465769 -0.7624684 0.43189126 0
-0.71947956 -1.3978926 -0.056128908 0
-0.39877072 -0.77478033 0.43598631 0
-0.6960997 -1.3953716 -0.055671312 0
-0.4003801 -0.80258471 0.44875982 0
-0.68215799 -1.411647 -0.055973504 0
-0.66419828 -1.4198436 -0.055962443 0
-0.64361489 -1.4222311 -0.055732694 0
-0.62632996 -1.4317623 -0.055792704 0
-0.61140221 -1.4469889 -0.0560816 0
-0.59171951 -1.4511027 -0.055947818 0
-0.57411748 -1.4602593 -0.056017682 0
-0.33942646 -0.86332619 0.3840822 0
-0.55960029 -1.47771 -0.056412324 0
-0.3184607 -0.84094405 0.37231115 0
-0.53639501 -1.4721384 -0.055937335 0
-0.28481102 -0.78166497 0.49337789 0
-0.51938456 -1.4832536 -0.056106728 0
-0.30390382 -0.86788571 0.3807292 0
-0.27203459 -0.77687383 0.48815295 0
-0.4992055 -1.4853258 -0.055942897 0
-0.8032434 -2.3899541 0.4547177 0
-0.2889019 -0.8595928 0.37546557 0
-0.26524848 -0.78921491 0.49376965 0
-0.48191541 -1.4959997 -0.056111906 0
-0.77299029 -2.3995771 0.45466062 0
-0.27481064 -0.8530888 0.37108374 0
-0.25279993 -0.78476143 0.48895293 0
-0.46050382 -1.4937199 -0.055804476 0
-0.74497223 -2.4164402 0.45604214 0
-0.26777163 -0.86856145 0.37631759 0
-0.23867142 -0.77417004 0.48044324 0
-0.44453549 -1.5091635 -0.056167856 0
-0.72004431 -2.4444945 0.45958909 0
-0.25315213 -0.8594318 0.37095147 0
-0.23260164 -0.78966451 0.48820257 0
-0.42667264 -1.5188222 -0.056322906 0
-0.69187909 -2.4628749 0.4613702 0
-0.2494273 -0.88788378 0.38184613 0
-0.21995702 -0.78297871 0.48231855 0
-0.40147027 -1.5014672 -0.055487458 0
-0.6670416 -2.4946833 0.46571848 0
-0.25195843 -0.94230473 0.40385407 0
-0.20936376 -0.78300399 0.480672 0
-0.38777831 -1.5270585 -0.056248281 0
-0.63824219 -2.5133772 0.46767092 0
-0.24024005 -0.94605762 0.40413392 0
-0.19836816 -0.78116745 0.47797325 0
-0.36740109 -1.5271689 -0.056077495 0
-0.61780334 -2.568011 0.47635144 0
-0.19152349 -0.79610193 0.4855971 0
-0.34738201 -1.5283256 -0.055954903 0
-0.58730358 -2.583873 0.47788405 0
-0.17800923 -0.78316098 0.47629851 0
-0.32978851 -1.5404139 -0.05624098 0
-0.55807412 -2.6067164 0.48077109 0
-0.16997108 -0.79392028 0.48150218 0
-0.30834082 -1.534363 -0.055873875 0
-0.52635926 -2.6192646 0.48182479 0
-0.20712508 -1.0306941 0.43527588 0
-0.15806171 -0.78654534 0.47578454 0
-0.2874597 -1.5299424 -0.055576678 0
-0.49883416 -2.6549375 0.48719284 0
-0.1939476 -1.0322443 0.4348647 0
-0.14732581 -0.78410995 0.47315165 0
-0.26949966 -1.5410261 -0.055851605 0
-0.46937335 -2.683924 0.49138844 0
-0.18151252 -1.0379069 0.43625271 0
-0.13639086 -0.77989662 0.46953565 0
-0.25005099 -1.5441495 -0.055846255 0
-0.16841094 -1.0399946 0.43620431 0
-0.12610416 -0.77873588 0.46784371 0
-0.23151533 -1.5533947 -0.056070738 0
-0.1589773 -1.0666873 0.44652501 0
-0.11570309 -0.77633113 0.46548679 0
-0.21134868 -1.5518605 -0.055914864 0
-0.37875509 -2.7810678 0.10020427 0
-0.37793839 -2.7750709 0.30098805 0
-0.14625925 -1.0739312 0.44875076 0
-0.10546809 -0.77441573 0.46350527 0
-0.19322598 -1.5660193 -0.056332886 0
-0.13424589 -1.0880092 0.45389107 0
-0.095266432 -0.77209634 0.46136248 0
-0.17055458 -1.5417693 -0.055378918 0
-0.086787269 -0.78453445 0.46810469 0
-0.15453942 -1.5786394 -0.056628872 0
-0.075434066 -0.77056837 0.45916846 0
-0.13396704 -1.5724416 -0.056341566 0
-0.066299073 -0.7781871 0.46317413 0
-0.11193994 -1.5434283 -0.055247113 0
-0.056576364 -0.78007513 0.46383706 0
-0.093978792 -1.5694543 -0.056131907 0
-0.046350263 -0.77405357 0.45987311 0
-0.074549578 -1.5776994 -0.056388751 0
-0.1243519 -2.6316705 0.094058856 0
-0.053855572 -1.5547552 -0.055540055 0
-0.047473758 -1.3705188 0.048958637 0
-0.034479938 -1.5646071 -0.055872057 0
-0.030193351 -1.3700933 0.048925977 0
-0.017095646 -0.77575463 0.46017137 0
-0.014883655 -1.5762224 -0.056275681 0
-0.012742133 -1.349429 0.048178505 0
-0.018850403 -1.9963125 0.21455187 0
-0.0073907641 -0.7827034 0.46420133 0
0.0049147485 -1.5606226 -0.055716515 0
0.0042634155 -1.3537992 0.048332617 0
0.0057006138 -1.8101652 0.19453815 0
0.0057017244 -1.8105179 0.32652617 0
0.0056967596 -1.8089412 0.46152112 0
0.0024509227 -0.77826267 0.46154934 0
0.024489656 -1.5556835 -0.055546787 0
0.021281028 -1.3518583 0.048269063 0
0.030679503 -1.9488879 0.20947157 0
0.01642948 -1.0436679 0.34726527 0
0.012225647 -0.77662331 0.46063191 0
0.044306222 -1.5633876 -0.055837363 0
0.038445409 -1.3565832 0.048451215 0
0.054365318 -1.9183326 0.20624463 0
0.028876498 -1.0189351 0.33912987 0
0.022181075 -0.78268057 0.46435344 0
0.064726479 -1.5807495 -0.056482088 0
0.078084558 -1.9069803 0.068138704 0
0.077898577 -1.9024383 0.20462504 0
0.041388683 -1.010794 0.33656707 0
0.031736229 -0.77506185 0.46003401 0
0.084843338 -1.5838871 -0.056627881 0
0.10065327 -1.8790327 0.067180067 0
0.1006708 -1.87936 0.20226307 0
0.054463729 -1.0167493 0.33875149 0
0.041797582 -0.78029287 0.46341449 0
0.10378835 -1.5677196 -0.056092128 0
0.12299568 -1.8578454 0.066472672 0
0.12336133 -1.8633686 0.20069329 0
0.1227161 -1.8536224 0.33503017 0
0.06797903 -1.0268209 0.34236515 0
0.051196463 -0.77332085 0.45962027 0
0.12296467 -1.5592514 -0.05584012 0
0.14468788 -1.8347123 0.065704964 0
0.1445944 -1.8335268 0.19765963 0
0.14397414 -1.8256617 0.33027795 0
0.081878945 -1.0382645 0.34649703 0
0.085737139 -1.0871884 0.4515326 0
0.062106431 -0.78753954 0.46849877 0
0.14194773 -1.5505879 -0.055589464 0
0.16480041 -1.8002225 0.064539008 0
0.16677131 -1.8217521 0.19660106 0
0.16487463 -1.8010333 0.3261722 0
0.17535418 -1.9155084 0.49075103 0
0.098357864 -1.0744272 0.35895035 0
0.09980198 -1.0902022 0.45327035 0
0.071861453 -0.78498966 0.4674831 0
0.16203152 -1.554157 -0.055786144 0
0.18720342 -1.7955983 0.064452626 0
0.18510754 -1.7754952 0.19184543 0
0.18539251 -1.7782285 0.3224394 0
0.20392895 -1.9560244 0.50174928 0
0.11553708 -1.1081965 0.37068883 0
0.10781082 -1.0340885 0.43047044 0
0.081743322 -0.78405702 0.46750364 0
0.18402916 -1.572863 -0.056536291 0
0.20711072 -1.7701367 0.063627258 0
0.20503096 -1.7523614 0.18960972 0
0.20651825 -1.7650731 0.32050011 0
0.22981918 -1.9642218 0.50455439 0
0.12212537 -1.0437828 0.34962931 0
0.11992504 -1.024977 0.4272722 0
0.091956161 -0.78593224 0.46927497 0
0.2013834 -1.5516562 -0.055860739 0
0.22724938 -1.7509533 0.063035578 0
0.13028021 -1.0038072 0.41909802 0
0.10263046 -0.79076624 0.4728955 0
0.22125082 -1.5514249 -0.055948272 0
0.14634341 -1.0261694 0.42916977 0
0.11112759 -0.77923375 0.46679863 0
0.24161774 -1.5539838 -0.056145824 0
0.16184358 -1.0409099 0.4361524 0
0.12207031 -0.78510493 0.47119921 0
0.2593447 -1.5400084 -0.05575446 0
0.13333644 -0.79176188 0.47616449 0
0.27731231 -1.5288893 -0.055473931 0
0.14235836 -0.78485578 0.47305173 0
0.30013508 -1.5437632 -0.05614629 0
0.15443611 -0.79435164 0.47990921 0
0.32036805 -1.543808 -0.056290176 0
0.16398424 -0.79021668 0.47862062 0
0.33973116 -1.5394257 -0.056281913 0
0.17629908 -0.79886502 0.48516494 0
0.35607582 -1.5221518 -0.055809878 0
0.1861136 -0.79559785 0.48456562 0
0.37256306 -1.5068288 -0.055415671 0
0.19657725 -0.79505539 0.48570433 0
0.39408496 -1.5119113 -0.055780664 0
0.20213902 -0.77550858 0.47528037 0
0.41577157 -1.5166092 -0.056142699 0
0.21404614 -0.78077567 0.48012215 0
0.43683183 -1.5181953 -0.056400567 0
0.228259 -0.79330695 0.4895567 0
0.45752305 -1.517916 -0.056599732 0
0.46560261 -1.4771477 -0.055293806 0
0.47469568 -1.5059959 0.52533662 0
0.48904651 -1.4860016 -0.055851325 0
0.48937523 -1.4870005 0.52081871 0
0.51155198 -1.4908992 -0.056273047 0
0.50442481 -1.4701273 0.5170927 0
0.52700156 -1.4751529 -0.055924751 0
0.52132773 -1.4592711 0.51554233 0
0.5445767 -1.4658242 -0.055826642 0
0.53837663 -1.4491358 0.5143159 0
0.55951667 -1.4498508 -0.05548222 0
0.54892492 -1.4224049 0.50724185 0
0.58459187 -1.459832 -0.056141425 0
0.56732368 -1.4167103 0.50771832 0
0.59656775 -1.4370382 -0.055549324 0
0.58095664 -1.3994335 0.50410849 0
0.62503844 -1.4536557 -0.056491446 0
0.59581697 -1.3856951 0.50182247 0
0.35209221 -0.81886303 0.44597846 0
0.64169306 -1.4420768 -0.056351017 0
0.61063975 -1.3722907 0.49971318 0
0.36105427 -0.81139725 0.44435328 0
0.65489608 -1.4232262 -0.05593222 0
0.62343812 -1.3548615 0.49618575 0
0.37513906 -0.8152557 0.44901767 0
0.67465657 -1.4188471 -0.056089539 0
0.6337775 -1.3328756 0.49101776 0
0.37308687 -0.78462619 0.43470091 0
0.68942076 -1.4040338 -0.055842705 0
0.64882225 -1.3213533 0.37556827 0
0.65105879 -1.3259081 0.49143219 0
0.65168679 -1.3271871 0.61217439 0
0.378611 -0.77105689 0.4297905 0
0.70775825 -1.3966502 -0.055899069 0
0.65852129 -1.2994888 0.37168115 0
0.6639204 -1.3101431 0.48864895 0
0.66657966 -1.3153907 0.61055648 0
0.40690923 -0.80297166 0.45040029 0
0.72391599 -1.3850037 -0.055793356 0
0.67517817 -1.2917579 0.37187225 0
0.67641467 -1.2941236 0.48581243 0
0.67888421 -1.2988484 0.60679799 0
0.42066777 -0.80482596 0.45437562 0
0.74062246 -1.3745261 -0.055742551 0
0.69308239 -1.2862961 0.3727828 0
0.68909407 -1.2788942 0.48331442 0
0.69317889 -1.2864753 0.6050474 0
0.43507347 -0.80745572 0.4589169 0
0.76380366 -1.3757783 -0.056178927 0
0.70762736 -1.2745925 0.37194383 0
0.7025097 -1.2653744 0.48151001 0
0.7091527 -1.2773401 0.60490286 0
0.44982243 -0.81022912 0.46367568 0
0.77864599 -1.3618199 -0.056004878 0
0.71552134 -1.2514174 0.36778113 0
0.72177756 -1.2623594 0.48378286 0
0.7199077 -1.259089 0.60050517 0
0.4486689 -0.78470349 0.45226532 0
0.79910433 -1.3576386 -0.056242283 0
0.73440003 -1.2477092 0.36937985 0
0.72939807 -1.2392111 0.47839361 0
0.73089272 -1.2417505 0.596578 0
0.46054131 -0.78243685 0.4542653 0
0.81027186 -1.3377885 -0.055838216 0
0.74283963 -1.2264555 0.36582798 0
0.73950285 -1.2209463 0.47489974 0
0.75006497 -1.2383847 0.59945112 0
0.47552907 -0.78511596 0.45926079 0
0.829633 -1.3316228 -0.05601247 0
0.8537541 -1.370339 0.29117939 0
0.75721216 -1.215382 0.36534011 0
0.75504273 -1.2118999 0.47504148 0
0.75677544 -1.214681 0.59254307 0
0.48542908 -0.77914989 0.45931011 0
0.84536058 -1.3195518 -0.055948053 0
0.87975127 -1.3732334 0.29412502 0
0.76924855 -1.2007459 0.36382344 0
0.768345 -1.1993356 0.47387144 0
0.76549 -1.1948791 0.5875389 0
0.50203633 -0.78364539 0.46564999 0
0.86434269 -1.3124996 -0.056106068 0
0.91430169 -1.3883622 0.29980752 0
0.78568774 -1.1930625 0.36446422 0
0.78171462 -1.1870294 0.4728609 0
0.78962135 -1.1990358 0.59442478 0
0.51143247 -0.77660739 0.46525779 0
0.87620527 -1.2947229 -0.055813383 0
0.94232303 -1.3924216 0.30322245 0
0.81203198 -1.1998974 0.36964655 0
0.79510391 -1.1748837 0.47197357 0
0.79094011 -1.1687311 0.58429235 0
0.53999972 -0.79792953 0.48206714 0
0.89458275 -1.2866727 -0.05594752 0
0.8202737 -1.1797944 0.36660647 0
0.80765104 -1.1616393 0.47070125 0
0.80175537 -1.1531596 0.58150882 0
0.54502952 -0.78391248 0.47770724 0
0.90749353 -1.270799 -0.055749763 0
0.57850194 -0.81009912 0.035538927 0
0.57817501 -0.80964124 0.10692009 0
0.57210797 -0.80114537 0.17754424 0
0.57387012 -0.80361295 0.25193828 0
0.58970404 -0.82578582 0.33759412 0
0.58280945 -0.81613106 0.41522184 0
0.56775141 -0.79504466 0.48880899 0
0.92710179 -1.2642893 -0.055971894 0
0.5807386 -0.79195362 0.03506092 0
0.57859939 -0.78903633 0.10515285 0
0.58376044 -0.79607445 0.17803538 0
0.58013499 -0.79113042 0.25029531 0
0.57314026 -0.78159171 0.32245177 0
0.57971036 -0.79055136 0.40588945 0
0.57123411 -0.7789923 0.48332381 0
0.94310951 -1.2527313 -0.055981528 0
0.58769393 -0.78063315 0.034884606 0
0.58667254 -0.77927643 0.10482838 0
0.58474886 -0.77672124 0.17534003 0
0.58099222 -0.77173132 0.24645293 0
0.58368117 -0.77530307 0.32286397 0
0.58709753 -0.77984095 0.40415412 0
0.58339179 -0.77491862 0.48531577 0
0.95866579 -1.2405729 -0.055973213 0
0.57977945 -0.75027049 0.033851337 0
0.60941416 -0.78861964 0.10710903 0
0.59700924 -0.77256685 0.17608532 0
0.5979988 -0.77384746 0.24951369 0
0.60417479 -0.78183955 0.32872814 0
0.60566163 -0.78376365 0.41010705 0
0.97223526 -1.2259136 -0.055859748 0
0.586918 -0.74005824 0.033721354 0
0.87645394 -1.1051408 0.35986349 0
0.87310839 -1.1009223 0.46747357 0
0.87218457 -1.0997574 0.58115256 0
0.99843657 -1.2268984 -0.056473024 0
0.58168703 -0.7147885 0.032901067 0
0.8948946 -1.0996641 0.36172083 0
0.89085883 -1.0947049 0.46955961 0
0.88713276 -1.0901262 0.58192009 0
1.0136539 -1.214048 -0.056464579 0
0.5869028 -0.70293045 0.032692831 0
0.8997972 -1.0776825 0.35818887 0
0.90054876 -1.0785826 0.46747124 0
0.9035933 -1.082229 0.58373207 0
1.0202794 -1.1911709 -0.055993672 0
0.6116432 -0.71409035 0.033567425 0
0.91366994 -1.066705 0.35833582 0
0.91037774 -1.0628613 0.46558905 0
0.91916049 -1.0731152 0.58501273 0
1.0298672 -1.172164 -0.055705395 0
0.60785258 -0.69183964 0.032878675 0
0.93849564 -1.0681677 0.36276832 0
0.91986698 -1.0469651 0.46366292 0
0.9213717 -1.0486777 0.57796967 0
1.0572556 -1.1732091 -0.056383278 0
0.94883353 -1.0528958 0.3616108 0
0.93100834 -1.0331157 0.46268472 0
0.94192427 -1.0452288 0.5825597 0
1.0659086 -1.1532738 -0.05606582 0
0.95748752 -1.0359663 0.35990876 0
0.94240981 -1.0196527 0.46193337 0
0.94954932 -1.0273774 0.57922846 0
1.0680277 -1.1267664 -0.05542659 0
0.95912409 -1.0118735 0.35570627 0
0.95792276 -1.0106061 0.46326283 0
0.9584862 -1.0112004 0.57686698 0
1.1081887 -1.1400367 -0.056761302 0
0.97404474 -1.0020375 0.35653204 0
0.97753102 -1.0056239 0.46658462 0
0.97223246 -1.0001731 0.57751441 0
1.1101288 -1.1136273 -0.056137957 0
0.99252546 -0.99565339 0.358679 0
0.98640019 -0.98950887 0.4648338 0
0.98242521 -0.98552138 0.57615179 0
1.1135824 -1.0893093 -0.05561455 0
1.0083517 -0.98637235 0.35988119 0
0.99996412 -0.97816765 0.46538433 0
1.0046151 -0.98271728 0.58186191 0
1.1303644 -1.0782107 -0.055770192 0
1.0265998 -0.97923356 0.3619644 0
1.0148333 -0.96801007 0.46659455 0
1.0095861 -0.96300501 0.57767183 0
1.1574495 -1.0765407 -0.056433216 0
1.029501 -0.95753616 0.35870761 0
1.0213859 -0.94998831 0.46407044 0
1.0280234 -0.9561618 0.58128607 0
1.1636547 -1.0552995 -0.056083411 0
1.0447556 -0.9474718 0.35983717 0
1.0400883 -0.94323909 0.46713433 0
1.0336081 -0.93736231 0.57772386 0
1.1805644 -1.0438483 -0.056260426 0
1.0597899 -0.93706018 0.36092266 0
1.0623444 -0.93931895 0.47178051 0
1.0421671 -0.92147821 0.57597661 0
1.1821443 -1.0190138 -0.055719797 0
1.3743037 -1.1846561 0.064777143 0
1.3708901 -1.1817136 0.19451013 0
1.329098 -1.1456885 0.3164646 0
1.0793556 -0.93040943 0.36356717 0
1.0610858 -0.91466087 0.4660697 0
1.0641533 -0.91730505 0.58169776 0
1.1985486 -1.00713 -0.055890813 0
1.3874773 -1.1658852 0.064700961 0
1.3895195 -1.1676012 0.1950518 0
1.1449662 -0.96210533 0.26971593 0
1.0850941 -0.91179526 0.36160406 0
1.0721004 -0.9008767 0.46588805 0
1.0784855 -0.90624213 0.58324808 0
1.2105827 -0.99150705 -0.055865351 0
1.0140318 -0.83052534 0.046795018 0
1.0095268 -0.82683563 0.14023824 0
0.98752934 -0.808819 0.23021159 0
1.0055753 -0.82359928 0.3316223 0
1.0792148 -0.88391244 0.46410608 0
1.0944266 -0.89637136 0.58571839 0
1.2287865 -0.98082769 -0.056131002 0
0.90434122 -0.72185278 0.041310333 0
0.90411514 -0.7216723 0.12432276 0
0.89460349 -0.71408004 0.20643629 0
0.90263146 -0.72048801 0.29465777 0
1.101581 -0.87929124 0.46892577 0
1.1036766 -0.88096386 0.5846855 0
1.2459509 -0.96909863 -0.056353167 0
0.87883735 -0.68355829 0.039748974 0
0.87848085 -0.683281 0.11960524 0
0.88930595 -0.6917007 0.20318782 0
0.87473738 -0.68036932 0.28273278 0
1.1112506 -0.86432898 0.46837178 0
1.1147506 -0.86705124 0.5847218 0
1.2565669 -0.95220661 -0.056286544 0
0.89430654 -0.67769146 0.040059488 0
0.89970207 -0.6817801 0.12131603 0
0.90373838 -0.68483877 0.20449881 0
0.89735663 -0.68000275 0.28725335 0
1.1195703 -0.84839272 0.46733853 0
1.1232724 -0.8511982 0.58352333 0
1.2531813 -0.92503399 -0.055608716 0
0.89777714 -0.6626929 0.039837994 0
0.8947506 -0.6604588 0.11951748 0
0.88633025 -0.65424335 0.19867975 0
0.8996309 -0.66406125 0.28528199 0
1.1345526 -0.83746833 0.46915337 0
1.1496578 -0.84861821 0.59163201 0
1.2854356 -0.92406678 -0.056519143 0
0.91295344 -0.65629888 0.040141527 0
0.9186824 -0.66041732 0.12159373 0
0.90790027 -0.65266627 0.20165662 0
0.914756 -0.65759474 0.28742966 0
1.1444148 -0.82269055 0.46891055 0
1.1574293 -0.83204633 0.59019279 0
1.301792 -0.91118431 -0.056729332 0
0.91672444 -0.64165777 0.039948903 0
0.91971153 -0.64374858 0.12064747 0
0.92373186 -0.64656258 0.20334855 0
0.92575192 -0.64797652 0.28829807 0
1.1638515 -0.81463343 0.47263396 0
1.1686802 -0.81801325 0.59063053 0
1.2881073 -0.8776502 -0.055646967 0
0.94910234 -0.64666957 0.041001759 0
0.93776649 -0.63894594 0.12195081 0
0.925538 -0.63061404 0.20198205 0
0.92746705 -0.63192844 0.28633142 0
1.173722 -0.79971391 0.4725154 0
1.1725852 -0.79893941 0.58747315 0
1.3119674 -0.86992294 -0.056200046 0
0.94192058 -0.62455696 0.040348552 0
0.95192623 -0.63119137 0.12274886 0
0.93737406 -0.62154233 0.20284097 0
0.94944072 -0.6295433 0.29064479 0
1.1933198 -0.79125166 0.47635618 0
1.1912386 -0.78987163 0.59178853 0
1.3177077 -0.85003895 -0.055982988 0
0.96424747 -0.62202561 0.040966187 0
0.95367354 -0.61520445 0.12196557 0
0.96861267 -0.62484151 0.20788169 0
0.94074309 -0.60686314 0.2856203 0
1.2026898 -0.77584213 0.47615892 0
1.1998384 -0.77400273 0.59117204 0
1.3226559 -0.829835 -0.055744849 0
0.96662468 -0.60646081 0.040739506 0
0.96964514 -0.60835588 0.12301872 0
0.96293789 -0.60414773 0.20501481 0
0.96422529 -0.60495543 0.29041392 0
1.2220318 -0.76670343 0.4799563 0
1.216657 -0.76333123 0.59467566 0
1.3483341 -0.82246917 -0.056386121 0
0.98551875 -0.60115576 0.041213509 0
0.97101837 -0.59231073 0.122237 0
0.97390693 -0.5940727 0.20574118 0
0.97916895 -0.59728247 0.29262632 0
1.2349384 -0.75329906 0.48126167 0
1.2324213 -0.75176358 0.59770656 0
1.3424681 -0.79587317 -0.055717289 0
0.98802835 -0.58574599 0.041006759 0
0.99098295 -0.58749759 0.12380914 0
0.98747802 -0.58541965 0.20703441 0
0.98587275 -0.58446801 0.2924071 0
1.2449727 -0.73807371 0.48151201 0
1.241235 -0.73585784 0.59743983 0
1.3689171 -0.78842986 -0.0563985 0
0.99477214 -0.57294047 0.040983967 0
0.9948318 -0.5729748 0.12337881 0
1.0031887 -0.577788 0.20878635 0
0.99217337 -0.57144374 0.29211846 0
1.2427406 -0.71575832 0.47712502 0
1.2454913 -0.7173425 0.59509349 0
1.3759165 -0.76955408 -0.056283165 0
1.01482 -0.56759179 0.041512176 0
1.0037853 -0.56142002 0.12360265 0
1.002764 -0.56084877 0.20721169 0
1.0029386 -0.56094652 0.29318509 0
1.2741284 -0.71262378 0.48569202 0
1.2706833 -0.71069688 0.60280651 0
1.3790681 -0.74867845 -0.056022003 0
1.0122921 -0.54956049 0.041122433 0
1.0186199 -0.55299574 0.12456201 0
1.0163213 -0.55174786 0.20856099 0
1.0108753 -0.54879129 0.2934618 0
1.2837827 -0.69694924 0.48598823 0
1.2839307 -0.69702953 0.60487914 0
1.3953205 -0.73490757 -0.056301832 0
1.3058008 -0.68775803 0.37653604 0
1.2877384 -0.67824471 0.48421419 0
1.2919559 -0.68046606 0.60457528 0
1.3959818 -0.71294892 -0.055961829 0
1.3155791 -0.67188603 0.37688613 0
1.3084952 -0.6682682 0.48881617 0
1.3156052 -0.67189938 0.61163437 0
1.4008782 -0.69335049 -0.05580369 0
1.3323245 -0.65942049 0.37927449 0
1.3076631 -0.64721459 0.48542228 0
1.3236489 -0.65512663 0.61149025 0
1.4150484 -0.67831779 -0.056023471 0
1.3466098 -0.64551103 0.380997 0
1.3371701 -0.64098603 0.49334037 0
1.3370541 -0.64093041 0.61390597 0
1.4345579 -0.66558796 -0.056459576 0
1.3542234 -0.62831539 0.38088238 0
1.3396971 -0.62157565 0.491346 0
1.3476973 -0.62528747 0.6151287 0
1.4198263 -0.63715172 -0.055559613 0
1.3591268 -0.60991269 0.38007128 0
1.3603059 -0.6104418 0.49604595 0
1.3588607 -0.60979325 0.61667043 0
1.430711 -0.62051409 -0.055675376 0
1.3790576 -0.59811145 0.38350824 0
1.3501534 -0.58557546 0.4896161 0
1.368296 -0.59344405 0.61751205 0
1.4391807 -0.60277307 -0.055705182 0
1.3961841 -0.58476472 0.38619268 0
1.3850465 -0.58009994 0.49958101 0
1.3780732 -0.57717937 0.61859548 0
1.449616 -0.58580029 -0.05581915 0
1.3991795 -0.56541854 0.3850213 0
1.3801519 -0.5577293 0.49524307 0
1.3885496 -0.56112289 0.62007725 0
1.4611834 -0.56917888 -0.055984147 0
1.4048929 -0.54725194 0.38466671 0
1.4110413 -0.54964691 0.50380373 0
1.4033591 -0.5466544 0.62356722 0
1.4705223 -0.55159396 -0.056071389 0
1.4226968 -0.53365463 0.38767084 0
1.4132967 -0.53012866 0.50218576 0
1.4245254 -0.5343405 0.62993258 0
1.4737942 -0.53175133 -0.0559364 0
1.4418437 -0.52022344 0.39107215 0
1.4238808 -0.51374233 0.50360793 0
1.4281806 -0.51529372 0.62862974 0
1.476366 -0.51176339 -0.055785004 0
1.4621487 -0.50683516 0.39481717 0
1.4463489 -0.50135833 0.50928134 0
1.4470867 -0.50161409 0.63412094 0
1.4873751 -0.49469098 -0.055961177 0
1.4641247 -0.486958 0.39366376 0
1.4539698 -0.48358059 0.50978023 0
1.4530152 -0.48326308 0.63400197 0
1.4874256 -0.47399265 -0.055734091 0
1.4815984 -0.47213572 0.396732 0
1.4616493 -0.46577859 0.51037586 0
1.4575107 -0.46445978 0.6333614 0
1.496318 -0.45615399 -0.055847637 0
1.4820698 -0.45181045 0.39530349 0
1.4575353 -0.44433105 0.50694549 0
1.470071 -0.44815254 0.63631672 0
1.4940935 -0.43499207 -0.055555768 0
1.4729899 -0.42884797 0.39141026 0
1.4882603 -0.43329379 0.51569337 0
1.4711291 -0.42830622 0.63438994 0
1.511386 -0.4194572 -0.055997927 0
1.4850144 -0.41213825 0.39319524 0
1.4789537 -0.41045621 0.51063716 0
1.4899436 -0.41350624 0.64020717 0
1.5111122 -0.39895871 -0.055797227 0
1.4924606 -0.39403436 0.39382184 0
1.5006607 -0.39619935 0.51636845 0
1.4981538 -0.3955375 0.64154398 0
1.5229977 -0.38164997 -0.056054197 0
1.5045877 -0.37703657 0.39573768 0
1.4987364 -0.3755703 0.51403821 0
1.5048838 -0.37711075 0.64234143 0
1.5247411 -0.36174548 -0.055946268 0
1.509661 -0.35816771 0.39585441 0
1.5088127 -0.35796645 0.51590729 0
1.5211926 -0.36090359 0.64731157 0
1.5286728 -0.34240597 -0.055927895 0
1.5240818 -0.34137765 0.39847699 0
1.5196315 -0.34038085 0.5180999 0
1.5082211 -0.33782506 0.63993096 0
1.5356957 -0.32372814 -0.056031249 0
1.5326539 -0.32308695 0.39962286 0
1.5385144 -0.32432234 0.52310395 0
1.5337048 -0.32330847 0.6489647 0
1.539199 -0.30427703 -0.056014836 0
1.538874 -0.30421281 0.40021414 0
1.5391213 -0.30426168 0.52196628 0
1.5406021 -0.30455443 0.65020889 0
1.5609171 -0.28819761 -0.056668647 0
1.5387608 -0.28410679 0.39922261 0
1.5473125 -0.28568575 0.52348268 0
1.5345737 -0.28333372 0.64610761 0
1.546258 -0.26540318 -0.056010678 0
1.5523136 -0.26644257 0.40183648 0
1.557364 -0.26730946 0.52570283 0
1.5483059 -0.2657547 0.65042883 0
1.5442097 -0.24507689 -0.055820268 0
1.5466411 -0.24546278 0.39953631 0
1.5504208 -0.24606264 0.52227169 0
1.5486193 -0.24577671 0.64920884 0
1.5371284 -0.22414926 -0.055457868 0
1.5574456 -0.22711197 0.40155676 0
1.5549519 -0.22674833 0.52279478 0
1.5600253 -0.22748816 0.65273792 0
1.5601568 -0.20748053 -0.056189992 0
1.5621245 -0.2077422 0.40205678 0
1.5832564 -0.21055245 0.53137755 0
1.5644279 -0.20804852 0.65343195 0
1.5558146 -0.18699877 -0.055944361 0
1.5778632 -0.18964888 0.4054608 0
1.5684278 -0.1885148 0.52556241 0
1.5668689 -0.18832743 0.65340924 0
1.559458 -0.16754609 -0.055995069 0
1.5766695 -0.16939527 0.40457383 0
1.5680828 -0.16847274 0.52469438 0
1.5667571 -0.1683303 0.65242696 0
1.5643868 -0.14817609 -0.056100603 0
1.5884089 -0.15045141 0.40706778 0
1.5819542 -0.14984004 0.52866256 0
1.5799793 -0.14965297 0.65709609 0
1.5754795 -0.12923387 -0.056435566 0
1.5848259 -0.13000053 0.40569788 0
1.574082 -0.12911922 0.52544683 0
1.5900594 -0.13042982 0.66055292 0
1.5567479 -0.10798291 -0.055711452 0
1.6706899 -0.11588643 0.059789106 0
1.6549653 -0.1147957 0.17828533 0
1.6796571 -0.11650843 0.30365184 0
1.6018734 -0.11111301 0.40967122 0
1.5846586 -0.10991892 0.5284735 0
1.5965488 -0.11074367 0.66261691 0
1.5614355 -0.088568777 -0.055834867 0
1.6452191 -0.093321204 0.058830857 0
1.6380835 -0.092916459 0.17632666 0
1.6681999 -0.094624735 0.30134127 0
1.5922133 -0.090314575 0.40687755 0
1.5906807 -0.090227649 0.53006089 0
1.5999411 -0.090752922 0.66349798 0
1.5507604 -0.068386912 -0.055417955 0
1.6317673 -0.071959235 0.058312815 0
1.635065 -0.072104655 0.17589007 0
1.6406603 -0.072351404 0.29617852 0
1.5944842 -0.070315085 0.40719935 0
1.5971205 -0.070431344 0.53186911 0
1.5969534 -0.070423976 0.66183871 0
1.5611113 -0.049158238 -0.055761311 0
1.6263565 -0.051212762 0.058091804 0
1.6280434 -0.05126588 0.17505141 0
1.6243124 -0.051148396 0.29308781 0
1.5984691 -0.05033461 0.40802279 0
1.6035849 -0.050495703 0.53376782 0
1.5960281 -0.050257742 0.66114056 0
1.5749259 -0.02974966 -0.056236919 0
1.6202708 -0.030606205 0.057856079 0
1.6400528 -0.030979877 0.17628677 0
1.6343729 -0.030872587 0.29480961 0
1.5939537 -0.030109085 0.40674117 0
1.6078242 -0.030371092 0.53500915 0
1.5996786 -0.030217228 0.66244262 0
1.5862741 -0.009986951 -0.056633156 0
1.6343009 -0.010289322 0.058347806 0
1.6413814 -0.010333898 0.1764016 0
1.6402853 -0.010326997 0.29582915 0
1.5897826 -0.01000904 0.40561247 0
1.5952462 -0.010043439 0.53073967 0
1.6057358 -0.01010948 0.66484553 0
1.5719857 0.0098969936 -0.056123033 0
1.637152 0.010307271 0.058449596 0
1.6400676 0.010325627 0.17626041 0
1.6673862 0.010497621 0.30071688 0
1.6111364 0.010143481 0.41106063 0
1.6025645 0.010089513 0.53317446 0
1.6107854 0.01014127 0.66693628 0
1.5592705 0.029453935 -0.055677898 0
1.6809436 0.031752288 0.060022563 0
1.6717868 0.031579319 0.17969781 0
1.6751633 0.0316431 0.30216742 0
1.6208844 0.030617794 0.41361326 0
1.5965316 0.030157782 0.53125155 0
1.6124663 0.03045878 0.66773814 0
1.5672125 0.049350362 -0.055979241 0
1.6111342 0.050733425 0.41125566 0
1.6164509 0.050900843 0.53805035 0
1.6075978 0.050622068 0.66593325 0
1.560573 0.068819635 -0.055768616 0
1.6112256 0.071053363 0.41147473 0
1.6037971 0.070725776 0.53409255 0
1.6077583 0.070900463 0.66631669 0
1.5658283 0.088817947 -0.055991948 0
1.6055902 0.091073349 0.41029593 0
1.5974739 0.09061297 0.53232455 0
1.6062009 0.091107987 0.66609389 0
1.5691317 0.1088419 -0.056154631 0
1.6119375 0.1118111 0.41224506 0
1.6098228 0.11166441 0.53686553 0
1.6056281 0.11137345 0.66638511 0
1.5762123 0.12929396 -0.056461811 0
1.5882334 0.13028003 0.40657017 0
1.6017245 0.1313867 0.53467423 0
1.5955099 0.13087691 0.66281718 0
1.5687224 0.14858674 -0.056256078 0
1.6043537 0.15196168 0.41115403 0
1.5953279 0.15110676 0.53313178 0
1.5931591 0.15090135 0.66257745 0
1.5541376 0.16697447 -0.055804029 0
1.6125195 0.17324695 0.41377297 0
1.5980921 0.17169687 0.53473568 0
1.594316 0.17129119 0.663903 0
1.5439627 0.18557426 -0.055518188 0
1.5940632 0.191596 0.40962368 0
1.6024535 0.19260447 0.536964 0
1.5927116 0.19143355 0.66418606 0
1.5570161 0.20706286 -0.056076877 0
1.5892037 0.21134339 0.40902638 0
1.5906034 0.21152952 0.53384346 0
1.5799123 0.21010774 0.65989953 0
1.5501989 0.22605523 -0.055929437 0
1.5890217 0.2317165 0.40969804 0
1.5983189 0.23307227 0.53737539 0
1.5917562 0.23211525 0.66601455 0
1.550476 0.2460714 -0.056046784 0
1.5848702 0.25153002 0.40941185 0
1.5868872 0.25185013 0.53455573 0
1.595917 0.2532832 0.66903692 0
1.5590631 0.26760107 -0.056474522 0
1.5827419 0.27166533 0.40971324 0
1.5893828 0.27280521 0.536511 0
1.5849891 0.27205107 0.66583908 0
1.5627543 0.28853679 -0.056735341 0
1.5918694 0.29391241 0.41300133 0
1.5784056 0.29142657 0.53400201 0
1.5899452 0.29355717 0.6694209 0
1.5441127 0.30524841 -0.056193653 0
1.5786358 0.31207314 0.41055498 0
1.5778487 0.31191751 0.53509998 0
1.5763857 0.31162831 0.66531134 0
1.5303324 0.32259756 -0.055835567 0
1.5674515 0.33042234 0.40869594 0
1.5518293 0.32712916 0.5276311 0
1.5703301 0.33102915 0.66446215 0
1.5359935 0.34404573 -0.056195728 0
1.569216 0.35148722 0.41027755 0
1.5560232 0.3485322 0.53050727 0
1.5602001 0.34946775 0.66198534 0
1.5297624 0.36293679 -0.056130514 0
1.560228 0.37016478 0.40911382 0
1.5706867 0.37264612 0.53706384 0
1.5508224 0.36793327 0.65991992 0
1.516549 0.38003394 -0.055816844 0
1.5494606 0.38828132 0.4075402 0
1.5494761 0.38828522 0.53144097 0
1.5483499 0.38800299 0.66089445 0
1.5125325 0.39933369 -0.055849664 0
1.5600747 0.41188562 0.41166347 0
1.5465915 0.40832585 0.53217292 0
1.5368172 0.40574524 0.65810049 0
1.5077682 0.41845313 -0.05586388 0
1.5310975 0.42492777 0.40539694 0
1.5528861 0.43097478 0.53616375 0
1.5391868 0.42717281 0.66136622 0
1.5083743 0.43914983 -0.056086782 0
1.5360711 0.44721347 0.40817249 0
1.535058 0.44691855 0.53190917 0
1.5326861 0.446228 0.66093498 0
1.4937706 0.4553774 -0.055752557 0
1.5223167 0.46407974 0.40603828 0
1.5230999 0.46431848 0.52974951 0
1.5259287 0.46518084 0.66049463 0
1.49562 0.47660393 -0.05604114 0
1.5170418 0.48343033 0.40622279 0
1.5180473 0.48375079 0.53006887 0
1.5191083 0.48408887 0.66012865 0
1.4776562 0.49145851 -0.05559551 0
1.4973726 0.49801606 0.40260324 0
1.5040889 0.50024986 0.52735263 0
1.4963661 0.49768129 0.6529175 0
1.4820836 0.51374531 -0.056001041 0
1.4891312 0.51618832 0.40210313 0
1.4995588 0.51980293 0.5280174 0
1.5066547 0.52226257 0.66022396 0
1.4740829 0.53185546 -0.055947356 0
1.480571 0.53419644 0.40157619 0
1.4996536 0.54108149 0.53040779 0
1.496369 0.53989637 0.65864366 0
1.4701041 0.55143714 -0.056055445 0
1.480266 0.55524886 0.40335789 0
1.4788634 0.55472273 0.52548349 0
1.4743372 0.55302495 0.6519596 0
1.4717475 0.57329398 -0.056388903 0
1.4712517 0.57310086 0.40283608 0
1.4703391 0.57274532 0.5249756 0
1.4667816 0.57135963 0.65174836 0
1.4591635 0.58965856 -0.056186795 0
1.4611731 0.59047055 0.40208045 0
1.4717855 0.59475917 0.52812421 0
1.4613773 0.5905531 0.65259951 0
1.4443001 0.60491717 -0.055903334 0
1.4587104 0.61095268 0.4034878 0
1.4544886 0.6091845 0.52462852 0
1.4482695 0.60657972 0.65010542 0
1.4353822 0.62254006 -0.055857159 0
1.4485675 0.62825865 0.40283859 0
1.438364 0.6238333 0.52160454 0
1.4323593 0.62122899 0.64642382 0
1.4356718 0.64426249 -0.056179672 0
1.4276689 0.64067119 0.39923868 0
1.4375197 0.64509171 0.52420253 0
1.4309294 0.64213431 0.64937621 0
1.4165241 0.65722084 -0.055749822 0
1.41952 0.65861088 0.39924741 0
1.410658 0.65449923 0.51737154 0
1.4130189 0.65559459 0.64494348 0
1.4177545 0.67961496 -0.056130607 0
1.4091126 0.67547238 0.39868093 0
1.4055458 0.67376262 0.51856714 0
1.409703 0.67575544 0.64726257 0
1.4022725 0.69404054 -0.05585923 0
1.3969072 0.69138509 0.39765933 0
1.3993798 0.69260883 0.51946878 0
1.3973024 0.69158065 0.6455161 0
1.3959906 0.71295345 -0.055962183 0
1.3782203 0.70387787 0.39483154 0
1.3936404 0.71175319 0.52062398 0
1.3869928 0.70835811 0.64482296 0
1.3784617 0.72602814 -0.055621572 0
1.3734356 0.72338092 0.39603898 0
1.3693595 0.72123408 0.51490527 0
1.3708813 0.72203559 0.64150876 0
1.3731333 0.74545652 -0.055780914 0
1.3573173 0.73687029 0.39403555 0
1.3516394 0.73378778 0.51167601 0
1.349628 0.73269582 0.63583022 0
1.3718759 0.76729417 -0.056117881 0
1.4080153 0.78750706 0.057596199 0
1.4064183 0.78661382 0.17318149 0
1.408146 0.78758019 0.29098007 0
1.3523639 0.75638103 0.39533117 0
1.3442235 0.75182807 0.51241189 0
1.3442678 0.75185293 0.63771468 0
1.3558344 0.78089476 -0.055859495 0
1.3789301 0.79419678 0.056811024 0
1.371946 0.79017431 0.17014842 0
1.3757397 0.79235929 0.28632268 0
1.3435754 0.77383423 0.39557922 0
1.3215846 0.7611686 0.50739551 0
1.3357084 0.7693032 0.63819909 0
1.3487309 0.79958606 -0.055977222 0
1.3652885 0.80940211 0.056664418 0
1.3534896 0.80240721 0.16909915 0
1.3606507 0.80665261 0.2852737 0
1.3211578 0.78323954 0.39185172 0
1.3264444 0.78637362 0.51302242 0
1.315232 0.77972645 0.63305658 0
1.3393462 0.81698662 -0.05601025 0
1.3403165 0.81757861 0.056050833 0
1.3472106 0.8217839 0.16959409 0
1.3472332 0.82179761 0.28460762 0
1.2988408 0.79227883 0.38816079 0
1.3020875 0.79425931 0.50743002 0
1.2979335 0.79172534 0.62947899 0
1.3129613 0.82375258 -0.055336259 0
1.3408074 0.8412233 0.056509867 0
1.3326916 0.83613133 0.16907836 0
1.338757 0.83993685 0.28502879 0
1.2951094 0.81255227 0.39007252 0
1.2819803 0.80431509 0.50350118 0
1.298941 0.81495625 0.63489431 0
1.316143 0.8490296 -0.055916518 0
1.3148841 0.84821743 0.055863027 0
1.3236188 0.85385215 0.16927797 0
1.34123 0.86521298 0.28785208 0
1.2919596 0.83342916 0.39225367 0
1.2693565 0.81884813 0.50255305 0
1.2797197 0.82553333 0.63053036 0
1.3199515 0.87521696 -0.056542061 0
1.3267502 0.87972498 0.056833293 0
1.3185892 0.87431371 0.17002927 0
1.3224825 0.87689519 0.28617564 0
1.2624174 0.83706796 0.3864539 0
1.2481052 0.82757801 0.49822569 0
1.2446781 0.8253057 0.6183365 0
1.2979425 0.88435143 -0.056071855 0
1.3192625 0.89887774 0.056992888 0
1.318561 0.89839971 0.17147081 0
1.3286884 0.90530008 0.28996241 0
1.2561835 0.85589892 0.38781407 0
1.2478007 0.8501873 0.50233793 0
1.2319815 0.83940893 0.61723107 0
1.2867699 0.90066963 -0.056074698 0
1.3465288 0.94249767 0.058678865 0
1.3557509 0.94895267 0.17784697 0
1.3509251 0.94557482 0.29739004 0
1.2453471 0.87167597 0.38782656 0
1.2253338 0.85766774 0.4976016 0
1.225278 0.85762864 0.61923409 0
1.2687176 0.91204876 -0.05578408 0
1.2350127 0.88781899 0.38805896 0
1.2086644 0.86887801 0.49523613 0
1.2120413 0.87130553 0.61804032 0
1.2541394 0.9257412 -0.055651229 0
1.2143458 0.89636761 0.38508126 0
1.1953439 0.88234127 0.49429139 0
1.1858696 0.87534791 0.61026716 0
1.2450731 0.94349682 -0.055771694 0
1.1887223 0.90079504 0.38052255 0
1.1834719 0.89681649 0.49401283 0
1.1804844 0.89455253 0.61324406 0
1.2432108 0.96696734 -0.056229234 0
1.1765337 0.91510606 0.38027945 0
1.1711711 0.91093493 0.49362713 0
1.1691818 0.90938777 0.61327267 0
1.2310903 0.98266661 -0.056236241 0
1.1536511 0.92085397 0.37660137 0
1.1549785 0.92191362 0.49165627 0
1.1627498 0.92811662 0.61598021 0
1.2150149 0.99513721 -0.056069888 0
1.1539531 0.94512552 0.38055485 0
1.1448835 0.93769723 0.49234626 0
1.1419623 0.93530464 0.61115867 0
1.206067 1.0134478 -0.056241419 0
1.1148192 0.93677288 0.37150982 0
1.1136155 0.93576151 0.48392871 0
1.1176885 0.93918401 0.60444909 0
1.1905332 1.026245 -0.056115206 0
1.1065453 0.95384717 0.3727257 0
1.1040835 0.95172507 0.48495594 0
1.1091521 0.95609415 0.60629541 0
1.1754233 1.0393026 -0.056015421 0
1.095986 0.96906459 0.37324965 0
1.0816687 0.95640534 0.4803623 0
1.0859489 0.96018982 0.60017353 0
1.1677331 1.0589981 -0.056279972 0
1.0735952 0.97362596 0.36977017 0
1.0640919 0.96500766 0.47791511 0
1.0652339 0.96604329 0.59540081 0
1.1427414 1.0628607 -0.055716101 0
1.0530901 0.97947633 0.36692673 0
1.0428815 0.96998125 0.47383702 0
1.0614367 0.98723942 0.60017926 0
1.1425333 1.0898181 -0.056370582 0
1.0508605 1.002375 0.37051842 0
1.0364895 0.98866701 0.4765515 0
1.0349009 0.98715168 0.59215659 0
1.1189214 1.094532 -0.055881191 0
1.0288293 1.0064037 0.36718968 0
1.0058951 0.98396945 0.46814466 0
1.0169325 0.99476618 0.58899599 0
1.1058297 1.1093148 -0.05592056 0
0.99858004 1.0017271 0.36086702 0
0.99436539 0.99749917 0.46858731 0
0.99903703 1.0021856 0.58589393 0
1.085278 1.1164675 -0.055587813 0
0.98764986 1.0160335 0.36151192 0
0.9858762 1.0142089 0.47056785 0
0.9851768 1.0134895 0.58520347 0
1.0779638 1.137249 -0.055942237 0
0.96960044 1.022926 0.35959157 0
0.96588278 1.0190037 0.46711236 0
0.97371203 1.0272636 0.58603066 0
1.0665559 1.1539742 -0.056099866 0
0.95597255 1.0343271 0.3593393 0
0.94990617 1.0277635 0.46560779 0
0.95683312 1.0352582 0.58367163 0
1.0486305 1.1636379 -0.055923298 0
0.94209999 1.0454237 0.35904455 0
0.93219692 1.0344346 0.4632754 0
0.92430079 1.0256726 0.57165998 0
1.0443065 1.1885984 -0.056486417 0
0.92723632 1.0553527 0.35841614 0
0.91570896 1.0422325 0.46156704 0
0.90990752 1.0356295 0.57077831 0
0.90715587 1.0324976 0.68766904 0
1.0167662 1.1870694 -0.05580087 0
0.90335941 1.0546675 0.35429209 0
0.88976502 1.0387961 0.45504722 0
0.88889158 1.0377764 0.56574768 0
0.89234418 1.0418073 0.68633115 0
1.0047261 1.2033552 -0.055967256 0
0.88009226 1.054082 0.45685238 0
0.87418115 1.0470023 0.56473142 0
0.8752476 1.0482795 0.68328017 0
0.98953819 1.215964 -0.055969719 0
0.85857326 1.0550317 0.45254233 0
0.8580187 1.0543503 0.56282252 0
0.86487794 1.0627789 0.68557799 0
0.96858972 1.2213169 -0.055650298 0
0.83923417 1.0582095 0.55919713 0
0.84603685 1.0667871 0.68123722 0
0.95974535 1.2419699 -0.056036245 0
0.83460045 1.0800246 0.5651266 0
0.82640272 1.0694163 0.67621726 0
0.94375259 1.2535855 -0.056019697 0
0.80499864 1.0692787 0.66966754 0
0.92569321 1.2623683 -0.055886853 0
0.78894627 1.0758865 0.66753113 0
0.90802395 1.2715417 -0.055782348 0
0.89722663 1.2904754 -0.056112867 0
0.88080436 1.3015188 -0.05610634 0
0.8706733 1.3221127 -0.056517001 0
0.83705729 1.3065909 -0.05539852 0
0.82484823 1.3239429 -0.055689428 0
0.81717181 1.3491807 -0.056313716 0
0.79210359 1.3457446 -0.055749558 0
0.77774584 1.3602456 -0.055940133 0
0.76462555 1.3772588 -0.056239381 0
0.73910344 1.371707 -0.055628221 0
0.72975463 1.3961742 -0.056243349 0
0.71103162 1.4031097 -0.056157604 0
0.68921119 1.403607 -0.055825729 0
0.66928035 1.4075404 -0.055642568 0
0.6557014 1.4249763 -0.056000996 0
0.63661391 1.4306624 -0.055904984 0
0.61572349 1.4319918 -0.055649552 0
0.60100639 1.4477302 -0.055962626 0
0.58162606 1.4524258 -0.055856604 0
0.56463385 1.4631108 -0.055989645 0
0.55228567 1.4865744 -0.056616921 0
0.52638012 1.4734133 -0.055858806 0
0.50567931 1.4737836 -0.055627026 0
0.49489808 1.5037819 -0.056519598 0
0.46898806 1.4878882 -0.055695854 0
0.45246565 1.5011371 -0.055974089 0
0.43541962 1.5132872 -0.056218237 0
0.41242343 1.5043961 -0.05569059 0
0.39747599 1.5249209 -0.056260645 0
0.37537533 1.518203 -0.055833977 0
0.35807848 1.5307128 -0.056123767 0
0.33615267 1.5232105 -0.055689078 0
0.3175292 1.530128 -0.055791382 0
0.30015254 1.543853 -0.056149557 0
0.2789588 1.5379667 -0.055803291 0
0.25997588 1.5437565 -0.055890158 0
0.23862684 1.5347476 -0.055450816 0
0.21853635 1.5323908 -0.055261858 0
0.20340535 1.5672354 -0.0564216 0
0.18255505 1.560264 -0.056083422 0
0.16225153 1.5562674 -0.055861894 0
0.14292765 1.5612922 -0.055973217 0
0.12346654 1.5656154 -0.056068029 0
0.10357756 1.5645355 -0.055978209 0
0.083335072 1.5557303 -0.055621207 0
0.063878208 1.5600331 -0.055741861 0
0.044534024 1.5714259 -0.056124456 0
0.024749869 1.5722133 -0.056136996 0
0.0049204743 1.5624408 -0.055781428 0
-0.014901603 1.5781231 -0.056343544 0
-0.034694027 1.574322 -0.056218971 0
-0.054526024 1.5741105 -0.05623148 0
-0.074034892 1.566807 -0.055999443 0
-0.093255952 1.5573827 -0.055700164 0
-0.11295135 1.5573736 -0.055746287 0
-0.13380952 1.5705928 -0.056275319 0
-0.15384635 1.5715597 -0.056374907 0
-0.17403485 1.5732299 -0.056508958 0
-0.095963553 0.8674857 0.51759887 0
-0.19075908 1.546026 -0.055613689 0
-0.10570797 0.85672086 0.51192945 0
-0.21220465 1.5581455 -0.056141321 0
-0.11399729 0.83704269 0.5009889 0
-0.23101404 1.5500311 -0.05594933 0
-0.12454951 0.83568776 0.50107694 0
-0.24818419 1.5326214 -0.055429328 0
-0.13351059 0.82447308 0.49532139 0
-0.26886499 1.5373969 -0.055720069 0
-0.14272188 0.81609803 0.49133065 0
-0.29238135 1.5561368 -0.056528218 0
-0.15054718 0.80125493 0.48349735 0
-0.30873543 1.5363266 -0.055945382 0
-0.16290249 0.81063396 0.49035585 0
-0.32733622 1.5289594 -0.055822775 0
-0.17110358 0.79921013 0.4847104 0
-0.3443549 1.5150076 -0.055467308 0
-0.17896508 0.78736633 0.47885609 0
-0.36669484 1.5242331 -0.055969693 0
-0.18805571 0.78168744 0.4768047 0
-0.38284558 1.5076336 -0.055532776 0
-0.1980862 0.78005713 0.47729388 0
-0.4057821 1.5175931 -0.0560834 0
-0.20257413 0.75761133 0.4650839 0
-0.42711025 1.5203799 -0.056380671 0
-0.44172457 1.4996206 -0.055812687 0
-0.46211308 1.4989399 -0.055999488 0
-0.48295644 1.4992313 -0.056233119 0
-0.49860996 1.4835539 -0.055876158 0
-0.51893198 1.4819611 -0.056057837 0
-0.53846723 1.4778255 -0.056153435 0
-0.55739886 1.4718968 -0.056190401 0
-0.57523924 1.4631126 -0.056127135 0
-0.58822054 1.4425222 -0.05561699 0
-0.60462201 1.4309424 -0.055459674 0
-0.61904353 1.4151059 -0.055143639 0
-0.636787 1.4071431 -0.055141445 0
-0.64800733 1.3852324 -0.054598261 0
-0.6655454 1.3772691 -0.054610383 0
-0.6803627 1.3638258 -0.054412726 0
-0.69198442 1.3444716 -0.053983919 0
-0.70538211 1.3291026 -0.053719204 0
-0.72215348 1.3202844 -0.053726073 0
-0.73859638 1.3108671 -0.053717062 0
-0.75169474 1.2956916 -0.053478837 0
-0.76409703 1.2796723 -0.05321056 0
-0.76662654 1.2479376 -0.052288245 0
-0.78754663 1.2465237 -0.052640352 0
-0.7994256 1.2307296 -0.052394323 0
-0.82200557 1.2312717 -0.052853867 0
-0.8320868 1.213015 -0.052515779 0
-0.84875232 1.204511 -0.052606158 0
-0.8573392 1.1847299 -0.05220959 0
-0.86504954 1.1642332 -0.05178225 0
-0.86601812 1.1353898 -0.050980359 0
-0.89793038 1.1469858 -0.052004606 0
-0.91488022 1.1387992 -0.052151624 0
-0.92298961 1.1197202 -0.05180604 0
-0.93536896 1.1060634 -0.051715028 0
-0.94406503 1.0882542 -0.0514341 0
-0.9609791 1.0799745 -0.051610604 0
-0.97608882 1.0695287 -0.051694691 0
-0.99390608 1.0618845 -0.051926028 0
-1.0017916 1.043654 -0.051647317 0
-1.0182205 1.0343784 -0.051818695 0
-1.0246943 1.0150669 -0.051493578 0
-1.0282393 0.99324107 -0.051039159 0
-1.0417993 0.98128515 -0.051094849 0
-1.0673263 0.9802627 -0.05173732 0
-1.069579 0.95778644 -0.05125783 0
-1.0837144 0.94612938 -0.05136022 0
-1.1004996 0.936629 -0.051592667 0
-1.1117965 0.92235875 -0.05157369 0
-1.1310166 0.9145084 -0.051926963 0
-1.1528226 0.90837473 -0.052398801 0
-1.1592758 0.89003068 -0.052178565 0
-1.1625251 0.86948073 -0.051827911 0
-1.1969522 0.87194538 -0.052869059 0
-1.1917225 0.84537464 -0.052163739 0
-1.2081738 0.83437794 -0.052419785 0
-1.2192529 0.8195492 -0.052448567 0
-1.2408725 0.81158662 -0.052934762 0
-1.2456765 0.79251581 -0.052709799 0
-1.2636801 0.78179419 -0.053050838 0
-1.2680681 0.76260012 -0.05282772 0
-1.2958976 0.75728351 -0.053585589 0
-1.2956063 0.73538738 -0.053186417 0
-1.3209946 0.72796059 -0.053848073 0
-1.3243228 0.70820415 -0.053615969 0
-1.3446218 0.69743115 -0.054077946 0
-1.3520056 0.67979628 -0.054026354 0
-1.371732 0.66821098 -0.054474071 0
-1.3975217 0.6591329 -0.055164248 0
-1.409763 0.64333355 -0.055323292 0
-1.4227487 0.62773675 -0.055518288 0
-1.4200648 0.60530782 -0.055111755 0
-1.4396698 0.5923565 -0.055578727 0
-1.4662628 0.58182025 -0.056318052 0
-1.4657007 0.560341 -0.056021009 0
-1.4761406 0.54312968 -0.056154177 0
-0.97481847 0.35867372 0.34557268 0
-1.4751434 0.52177 -0.055861875 0
-0.96855104 0.34258425 0.34179452 0
-1.4868081 0.50492477 -0.056058381 0
-0.96680737 0.32833087 0.33969325 0
-1.4899914 0.48516881 -0.055943631 0
-0.99792075 0.32494149 0.34915975 0
-1.4967829 0.46661916 -0.055973571 0
-0.98816484 0.30805847 0.34436172 0
-1.4881533 0.44344899 -0.055437647 0
-0.9928146 0.29584494 0.34465656 0
-0.747576 0.22276725 0.46261355 0
-1.5126785 0.43009534 -0.056145068 0
-0.99896652 0.28403315 0.34552318 0
-0.74819684 0.21273257 0.4613035 0
-1.5141524 0.40998003 -0.05600372 0
-1.0006745 0.27094799 0.34490651 0
-0.76057523 0.20593743 0.46729955 0
-1.5162208 0.39011741 -0.055894099 0
-0.99544823 0.25612476 0.34196642 0
-0.76270342 0.19624047 0.46705183 0
-1.5281911 0.37274635 -0.056157891 0
-0.99714857 0.24321792 0.34147134 0
-0.7751025 0.1890579 0.47314921 0
-1.5270456 0.35215643 -0.055948403 0
-1.0096341 0.23283467 0.34471565 0
-0.78439492 0.18089159 0.47739333 0
-1.5259176 0.33171836 -0.055749618 0
-0.99868578 0.21710372 0.34001723 0
-0.79859608 0.17360634 0.4089022 0
-0.79523182 0.17287497 0.48262566 0
-1.5121382 0.30883628 -0.055099733 0
-0.99541795 0.20330229 0.33800626 0
-0.79703057 0.16278403 0.40701878 0
-0.78732187 0.16080116 0.47655848 0
-1.5374578 0.2938917 -0.055883057 0
-1.009189 0.19291084 0.34183046 0
-0.81833041 0.15642738 0.34495288 0
-0.80377734 0.1536455 0.40944368 0
-0.80752641 0.15436216 0.48757288 0
-1.5446557 0.27515465 -0.056014303 0
-1.0214343 0.18195149 0.34517473 0
-0.82316661 0.1466334 0.34618571 0
-0.82012635 0.14609183 0.41680172 0
-0.81532758 0.14523701 0.49113995 0
-1.5480939 0.25569963 -0.056017779 0
-1.0283672 0.16985603 0.34676725 0
-0.83095497 0.13724935 0.34870666 0
-0.83447695 0.13783108 0.42317933 0
-0.81135613 0.13401221 0.48769245 0
-1.5569507 0.237064 -0.056225788 0
-1.0239412 0.15590705 0.34458551 0
-0.85520333 0.13021474 0.35816589 0
-0.84538895 0.12872039 0.4278571 0
-0.83583748 0.12726606 0.50140476 0
-1.5411458 0.21483918 -0.05555293 0
-1.0269536 0.14315963 0.34496522 0
-0.86752969 0.12093558 0.36266172 0
-0.85027415 0.11853012 0.4295401 0
-0.84961998 0.11843893 0.50873762 0
-1.5548897 0.19683011 -0.055954572 0
-1.0204438 0.12917577 0.34220502 0
-0.87576014 0.11086057 0.36548984 0
-0.85850972 0.10867687 0.43297487 0
-0.87049818 0.11019447 0.52036697 0
-1.5614203 0.1777118 -0.056104608 0
-1.0263101 0.11680865 0.34365177 0
-0.87757039 0.099879965 0.36569145 0
-0.85851419 0.097711101 0.43232232 0
-0.86167234 0.09807054 0.51431209 0
-1.5540651 0.15708044 -0.055764828 0
-1.0325657 0.10436877 0.34527898 0
-0.89046007 0.090005144 0.37056103 0
-0.86432856 0.087363839 0.43466184 0
-0.87926877 0.08887396 0.52410549 0
-1.5649201 0.1382958 -0.056087401 0
-1.0362498 0.091575913 0.34609786 0
-0.88932949 0.078592211 0.36964938 0
-0.89998144 0.079533555 0.45205182 0
-0.89188516 0.078818068 0.53099203 0
-1.5772791 0.11939371 -0.056471996 0
-1.032287 0.078139991 0.34441841 0
-0.91440338 0.069216676 0.37967899 0
-0.90608197 0.068586774 0.4546462 0
-0.89748293 0.067935862 0.53377306 0
-1.5710983 0.09904784 -0.056201592 0
-1.041732 0.065674633 0.3472662 0
-0.93234766 0.05877864 0.38679183 0
-0.90454572 0.057025902 0.45347908 0
-0.90364951 0.0569694 0.53697139 0
-1.5778918 0.079543836 -0.056404307 0
-1.0423949 0.052548651 0.34723908 0
-0.91643143 0.046198651 0.37991738 0
-0.92810446 0.046787106 0.46495765 0
-0.92349052 0.04655451 0.54836959 0
-1.5787582 0.059669584 -0.05640395 0
-1.0337795 0.03907197 0.34417799 0
-0.93080682 0.035180088 0.38566265 0
-0.92928541 0.035122585 0.46529081 0
-0.93044162 0.035166286 0.55219048 0
-1.5591682 0.03927711 -0.055681977 0
-1.0217588 0.025739195 0.34004104 0
-0.94613808 0.023834227 0.39185944 0
-0.9475317 0.023869334 0.4742386 0
-0.93804312 0.023630306 0.556481 0
-1.5758988 0.019848228 -0.056266081 0
-1.0446889 0.013157714 0.34758949 0
-0.93963087 0.011834522 0.38907179 0
-0.94664925 0.011922917 0.47368422 0
-0.94655174 0.011921689 0.56139505 0
-1.5586616 4.1360486e-06 -0.05564623 0
-1.0256324 2.7216076e-06 0.34122193 0
-0.96298325 2.5553625e-06 0.39870968 0
