# .PCD v0.7 - Point Cloud Data file format
VERSION 0.7
FIELDS x y z intensity
SIZE 4 4 4 4
TYPE F F F F
COUNT 1 1 1 1
WIDTH 1350
HEIGHT 1
VIEWPOINT 0 0 0 1 0 0 0
POINTS 1350
DATA ascii
-1.1791549 -1.0294532 -0.055883411 0
-1.1655357 -1.0437137 -0.055856396 0
-1.1508082 -1.0569348 -0.055784002 0
-1.1351244 -1.0691894 -0.055671964 0
-1.1249354 -1.0866461 -0.055838909 0
-1.1163424 -1.1058539 -0.056099135 0
-1.1023622 -1.1198552 -0.056100778 0
-1.0793412 -1.1244441 -0.055645384 0
-1.0684308 -1.1415063 -0.055819523 0
-1.0649835 -1.1669332 -0.056402646 0
-1.04731 -1.1769954 -0.056247111 0
-1.0304136 -1.187791 -0.056138501 0
-0.60988897 -0.70303869 0.033227678 0
-1.0090568 -1.1931984 -0.055789113 0
-0.58862096 -0.69603771 0.032543898 0
-0.99887812 -1.211784 -0.056065552 0
-0.57874429 -0.70210075 0.032484062 0
-0.98433197 -1.2252494 -0.056110635 0
-0.58284014 -0.72549158 0.033224087 0
-0.96278024 -1.2298228 -0.055760454 0
-0.57801741 -0.73833984 0.033476502 0
-0.61772966 -0.78906691 0.10769564 0
-0.60536653 -0.77327472 0.17711146 0
-0.61174232 -0.78141886 0.25319126 0
-0.60897321 -0.77788174 0.32866889 0
-0.61119139 -0.78071517 0.41051641 0
-0.94845164 -1.243464 -0.055833019 0
-0.57487899 -0.75369292 0.033841714 0
-0.59221792 -0.77642512 0.1049441 0
-0.6012814 -0.78830779 0.17880629 0
-0.60414171 -0.79205781 0.25415334 0
-0.60034174 -0.78707582 0.32933336 0
-0.59883511 -0.78510052 0.40882486 0
-0.59296077 -0.77739906 0.48919657 0
-0.93586326 -1.2595383 -0.056021191 0
-0.58357608 -0.78541005 0.034933124 0
-0.5852257 -0.78763026 0.10545419 0
-0.57917309 -0.77948427 0.17513679 0
-0.58433938 -0.78643733 0.24996899 0
-0.58300728 -0.7846446 0.3252185 0
-0.582039 -0.78334141 0.4040603 0
-0.5833059 -0.78504646 0.48934796 0
-0.91557872 -1.2652093 -0.055756215 0
-0.58184284 -0.80403024 0.035432622 0
-0.58552808 -0.80912268 0.1073361 0
-0.58652681 -0.81050283 0.18043239 0
-0.57973433 -0.80111653 0.25229442 0
-0.58144563 -0.80348134 0.32996508 0
-0.5826627 -0.8051632 0.41149917 0
-0.56249291 -0.77729118 0.4800607 0
-0.90223408 -1.2804099 -0.055920985 0
-2.0177176 -2.8634541 0.12505931 0
-0.55371732 -0.78581065 0.48097795 0
-0.89476341 -1.3043847 -0.056471508 0
-1.9873618 -2.8971729 0.12542905 0
-0.53773499 -0.78390926 0.47563189 0
-0.86836618 -1.3007146 -0.055834789 0
-1.95384 -2.9266322 0.12562932 0
-0.52171826 -0.78147519 0.4701317 0
-0.85712671 -1.3195615 -0.056176051 0
-1.9308424 -2.9725654 0.12654734 0
-0.50990719 -0.78501105 0.46835896 0
-0.84022349 -1.3299004 -0.056161322 0
-1.8969818 -3.0025306 0.12679604 0
-0.49397239 -0.7818563 0.46272895 0
-0.82227409 -1.3385223 -0.056083724 0
-1.8585788 -3.02545 0.12676553 0
-1.2131555 -1.9748106 0.24907905 0
-1.2146443 -1.9772341 0.41850284 0
-0.4759531 -0.77477062 0.4549523 0
-0.80205327 -1.3432395 -0.055853773 0
-1.8252302 -3.0568063 0.12710626 0
-1.1723708 -1.9634291 0.24576204 0
-1.1819657 -1.9794983 0.41579884 0
-0.46480522 -0.77843302 0.45363003 0
-0.78727347 -1.3570185 -0.056010064 0
-1.7926452 -3.0899715 0.12753658 0
-0.45873541 -0.79071939 0.45738739 0
-0.77149791 -1.369261 -0.056109946 0
-0.44580984 -0.7912271 0.45439783 0
-0.75135201 -1.3736669 -0.055898353 0
-0.42873326 -0.78383589 0.44701719 0
-0.7337144 -1.3824872 -0.055876881 0
-0.40900934 -0.77066791 0.43653578 0
-0.71912926 -1.397212 -0.056101579 0
-0.39926398 -0.77573872 0.43652561 0
-0.69854313 -1.4002695 -0.055866726 0
-0.40040022 -0.80262506 0.44878238 0
-0.68382245 -1.4150914 -0.05611008 0
-0.66241622 -1.4160341 -0.055812296 0
-0.64813137 -1.4322114 -0.056123786 0
-0.63206333 -1.4448686 -0.056303427 0
-0.61435509 -1.4539775 -0.056352455 0
-0.59107912 -1.4495323 -0.055887267 0
-0.57430649 -1.4607401 -0.056036122 0
-0.33688852 -0.85687101 0.38121039 0
-0.5591082 -1.4764105 -0.056362715 0
-0.32089975 -0.84738481 0.37516263 0
-0.53966522 -1.4811134 -0.056278367 0
-0.28527045 -0.78292596 0.49417379 0
-0.51628691 -1.4744072 -0.0557721 0
-0.30277026 -0.86464852 0.37930909 0
-0.27169818 -0.77591318 0.48754928 0
-0.49708939 -1.4790297 -0.055705756 0
-0.80523407 -2.3958771 0.45584461 0
-0.28980806 -0.86228901 0.37664327 0
-0.26198107 -0.77949309 0.4876872 0
-0.4813576 -1.4942681 -0.056046955 0
-0.77447176 -2.4041762 0.45553201 0
-0.27748352 -0.86138612 0.37469295 0
-0.24986577 -0.77565295 0.4832778 0
-0.4623858 -1.4998245 -0.056032538 0
-0.74544066 -2.4179597 0.4563289 0
-0.26834431 -0.87041897 0.3771224 0
-0.23947407 -0.77677363 0.48205897 0
-0.4433555 -1.5051574 -0.056018759 0
-0.71802676 -2.437645 0.45830131 0
-0.25639665 -0.87044668 0.37570578 0
-0.23002656 -0.78092229 0.48279777 0
-0.42326611 -1.506696 -0.055873226 0
-0.69460201 -2.4725676 0.46318597 0
-0.24707125 -0.87949693 0.37823924 0
-0.220264 -0.78407145 0.4829917 0
-0.40526927 -1.5156753 -0.056012522 0
-0.66678798 -2.4937348 0.46554139 0
-0.24740256 -0.92526615 0.39655167 0
-0.20767432 -0.77668566 0.47679329 0
-0.38487706 -1.5156335 -0.055827446 0
-0.64209831 -2.5285623 0.47049645 0
-0.24131246 -0.95028067 0.40593791 0
-0.1999962 -0.78757858 0.48189607 0
-0.36467567 -1.5158402 -0.055661503 0
-0.61610216 -2.5609396 0.47503975 0
-0.18968764 -0.78847086 0.48094237 0
-0.34782636 -1.5302806 -0.056026481 0
-0.58797461 -2.5868254 0.47843006 0
-0.18279591 -0.80422026 0.48910621 0
-0.3270638 -1.527687 -0.055776317 0
-0.55901861 -2.6111279 0.48158473 0
-0.17070121 -0.79733074 0.48357055 0
-0.31079426 -1.5465719 -0.056318458 0
-0.52948385 -2.6348133 0.48468503 0
-0.20824556 -1.0362699 0.43763059 0
-0.15915176 -0.79196972 0.47906575 0
-0.28939331 -1.5402337 -0.055950519 0
-0.49888721 -2.6552198 0.48724464 0
-0.19568717 -1.041503 0.43876517 0
-0.14841425 -0.78990293 0.47664729 0
-0.26957154 -1.5414371 -0.055866499 0
-0.4685207 -2.6790483 0.49049577 0
-0.181978 -1.0405685 0.43737146 0
-0.13599163 -0.77761382 0.46816126 0
-0.24872476 -1.5359596 -0.055550057 0
-0.16829205 -1.0392604 0.43589634 0
-0.12571874 -0.77635574 0.4664138 0
-0.23139375 -1.5525789 -0.056041293 0
-0.15917546 -1.0680169 0.44708157 0
-0.11682513 -0.78385961 0.47000086 0
-0.21305898 -1.5644184 -0.056367345 0
-0.37893638 -2.7823989 0.10025223 0
-0.37780699 -2.7741063 0.30088341 0
-0.14568923 -1.0697457 0.44700184 0
-0.10516935 -0.77222222 0.46219242 0
-0.19281982 -1.5627275 -0.056214474 0
-0.13286436 -1.0768125 0.44922003 0
-0.095908858 -0.77730292 0.46447366 0
-0.17255962 -1.5598943 -0.056029953 0
-0.085390806 -0.77191079 0.4605726 0
-0.15239908 -1.5567756 -0.055844571 0
-0.076319054 -0.77960861 0.46455538 0
-0.1329657 -1.5606884 -0.055920437 0
-0.066847824 -0.78462809 0.46700776 0
-0.11352178 -1.5652388 -0.056027826 0
-0.056222118 -0.77519077 0.46093282 0
-0.093833722 -1.5670316 -0.056045257 0
-0.046605647 -0.77831846 0.46240696 0
-0.073563978 -1.556841 -0.055643249 0
-0.12356581 -2.6150343 0.093464263 0
-0.03693888 -0.78174078 0.46412703 0
-0.05455083 -1.5748266 -0.056257062 0
-0.047875356 -1.3821125 0.049372792 0
-0.026922656 -0.77722955 0.46121082 0
-0.034554139 -1.5679742 -0.055992294 0
-0.029845519 -1.3543097 0.048362345 0
-0.017333372 -0.78654194 0.46657032 0
-0.014812246 -1.56866 -0.056005683 0
-0.012838781 -1.3596642 0.04854393 0
-0.01883398 -1.9945732 0.21436495 0
-0.0073336312 -0.77665287 0.46061292 0
0.0049156146 -1.5608976 -0.055726334 0
0.0042440556 -1.3476517 0.048113141 0
0.0057268664 -1.8185015 0.19543405 0
0.0057340162 -1.8207717 0.32837543 0
0.0057173413 -1.8154768 0.46318853 0
0.0024436731 -0.77596062 0.46018413 0
0.024751231 -1.5722997 -0.056140084 0
0.021157639 -1.3440201 0.047989197 0
0.030586841 -1.9430016 0.20883889 0
0.016398611 -1.041707 0.34661278 0
0.012476102 -0.79253322 0.47006842 0
0.044568073 -1.5726273 -0.056167368 0
0.039056059 -1.3781306 0.049220793 0
0.054034039 -1.906643 0.20498785 0
0.029255453 -1.0323068 0.34358034 0
0.022152036 -0.78165591 0.46374553 0
0.064188957 -1.5676221 -0.056013029 0
0.077563792 -1.8942622 0.06768427 0
0.077845596 -1.9011444 0.20448586 0
0.042162001 -1.02968 0.3428556 0
0.031983834 -0.78110886 0.46362317 0
0.083547682 -1.5596993 -0.055763107 0
0.10061027 -1.8782301 0.067151368 0
0.099890649 -1.8647959 0.20069563 0
0.05397037 -1.007539 0.33568293 0
0.041965667 -0.78343076 0.46527809 0
0.10372756 -1.5668013 -0.056059275 0
0.1221023 -1.8443509 0.065989845 0
0.12276933 -1.8544266 0.19973019 0
0.12180483 -1.8398577 0.3325423 0
0.069118664 -1.044035 0.34810472 0
0.051258326 -0.77425522 0.4601756 0
0.12388984 -1.5709831 -0.056260254 0
0.14477447 -1.8358102 0.065744281 0
0.14577137 -1.8484514 0.19926853 0
0.14448006 -1.832077 0.33143854 0
0.082019717 -1.0400497 0.34709275 0
0.085631177 -1.0858448 0.45097458 0
0.060957041 -0.77296472 0.45982838 0
0.14266679 -1.5584426 -0.055871062 0
0.16713399 -1.8257138 0.065452889 0
0.16533384 -1.8060496 0.19490647 0
0.16607611 -1.814158 0.32854912 0
0.17505215 -1.912209 0.48990574 0
0.098241419 -1.0731553 0.3585254 0
0.098943785 -1.0808277 0.44937271 0
0.16238314 -1.5575297 -0.055907208 0
0.18571155 -1.7812887 0.06393899 0
0.18600835 -1.7841355 0.19277903 0
0.18620463 -1.7860181 0.32385185 0
0.20366231 -1.9534668 0.50109327 0
0.11435627 -1.0968705 0.36690032 0
0.10863286 -1.0419734 0.43375272 0
0.1826614 -1.561173 -0.056116093 0
0.20752813 -1.7737044 0.063755497 0
0.20727617 -1.7715509 0.19168606 0
0.20700999 -1.7692759 0.32126325 0
0.23018941 -1.9673861 0.50536722 0
0.12298328 -1.0511153 0.35208541 0
0.11979914 -1.023901 0.42682368 0
0.090128735 -0.7703135 0.45994914 0
0.20068252 -1.5462559 -0.055666324 0
0.22851041 -1.7606695 0.063385367 0
0.2269306 -1.7484971 0.18948577 0
0.22712649 -1.7500064 0.31825843 0
0.13124843 -1.0112673 0.42221269 0
0.10162419 -0.78301299 0.46825886 0
0.220457 -1.5458585 -0.055747535 0
0.24889483 -1.7452664 0.062938683 0
0.24626143 -1.7268008 0.18745573 0
0.24569933 -1.7228594 0.31385919 0
0.14594813 -1.0233976 0.42801055 0
0.10983779 -0.77018952 0.46138072 0
0.24219173 -1.5576755 -0.056279205 0
0.26883483 -1.7290326 0.062470384 0
0.26438817 -1.7004337 0.18494014 0
0.26512975 -1.7052032 0.31122622 0
0.16102955 -1.0356745 0.43395865 0
0.12145992 -0.78117913 0.46884307 0
0.26091054 -1.5493065 -0.056091089 0
0.28719738 -1.7053999 0.061742291 0
0.28443259 -1.6889824 0.18406963 0
0.28746948 -1.7070156 0.31219295 0
0.13111778 -0.77858728 0.4682413 0
0.28045204 -1.5461994 -0.056102008 0
0.30836919 -1.7001132 0.061686587 0
0.30326936 -1.6719966 0.18262018 0
0.30284029 -1.6696311 0.30602896 0
0.30435395 -1.6779764 0.43509069 0
0.1404224 -0.77418232 0.4666186 0
0.29750231 -1.5302215 -0.055653777 0
0.33497176 -1.7229478 0.06266319 0
0.32174897 -1.6549356 0.1811849 0
0.32301545 -1.6614498 0.30525073 0
0.32140592 -1.6531711 0.42967418 0
0.15265901 -0.78521103 0.47438687 0
0.32006288 -1.5423374 -0.056236558 0
0.36118197 -1.7404845 0.063461378 0
0.34352404 -1.6553935 0.18169421 0
0.33971605 -1.6370432 0.30152863 0
0.33925101 -1.6348023 0.42597649 0
0.16485055 -0.79439133 0.48114914 0
0.33684775 -1.52636 -0.055804227 0
0.3895683 -1.7652531 0.064538233 0
0.358132 -1.6228056 0.17859823 0
0.35920435 -1.6276647 0.30061048 0
0.35853249 -1.6246202 0.4244661 0
0.17115936 -0.7755754 0.4710207 0
0.35641646 -1.5236081 -0.055863272 0
0.41823772 -1.7878814 0.065552883 0
0.37428465 -1.599991 0.17659205 0
0.37497908 -1.6029595 0.29689625 0
0.37386459 -1.5981953 0.41875884 0
0.1850673 -0.79112512 0.48184144 0
0.37505192 -1.5168949 -0.055785868 0
0.44829595 -1.81313 0.06668032 0
0.38991487 -1.5770081 0.17458348 0
0.39026359 -1.5784184 0.29323778 0
0.39190835 -1.5850707 0.41657999 0
0.19613545 -0.7932685 0.48461273 0
0.39426693 -1.5126094 -0.055806421 0
0.48062843 -1.8439363 0.068030439 0
0.41038677 -1.5744534 0.17485888 0
0.40882975 -1.5684798 0.29232463 0
0.40795994 -1.5651429 0.41266003 0
0.20475002 -0.78552568 0.48141947 0
0.41256037 -1.5048957 -0.055709079 0
0.3382034 -1.2336639 0.045668468 0
0.43203485 -1.5759326 0.17561345 0
0.42459461 -1.548793 0.28962901 0
0.42359143 -1.5451336 0.4087584 0
0.21072398 -0.76865745 0.47267032 0
0.43239352 -1.5027701 -0.055827528 0
0.34903082 -1.2130457 0.045064338 0
0.44619092 -1.5507225 0.17341651 0
0.44176257 -1.535332 0.28812918 0
0.43957022 -1.5277125 0.40558186 0
0.22393465 -0.77827787 0.4802821 0
0.44993219 -1.4927319 -0.055660676 0
0.36231449 -1.2020442 0.044821572 0
0.45861089 -1.521525 0.17078364 0
0.45689204 -1.5158225 0.28552496 0
0.46192709 -1.5325271 0.40837193 0
0.47251046 -1.4990631 -0.056114167 0
0.43131462 -1.3683673 0.051221851 0
0.47593629 -1.5099318 0.17014156 0
0.47278759 -1.4999423 0.28363267 0
0.47365892 -1.5027068 0.40198317 0
0.47269797 -1.4996581 0.52312577 0
0.49241191 -1.4962276 -0.056235667 0
0.45466554 -1.3815327 0.051924862 0
0.42007446 -1.2764252 0.14441426 0
0.49089232 -1.4916102 0.28320351 0
0.48888811 -1.4855202 0.39900088 0
0.4888165 -1.4853027 0.52022409 0
0.51143652 -1.4905627 -0.056260344 0
0.49681902 -1.4479605 0.054652352 0
0.42764509 -1.2463557 0.14161023 0
0.50276196 -1.465281 0.2793844 0
0.50609767 -1.4750029 0.39785615 0
0.50504625 -1.4719384 0.5177297 0
0.52970213 -1.4827121 -0.056211334 0
0.51426768 -1.439509 0.054573454 0
0.44327861 -1.2408004 0.14160202 0
0.52024221 -1.4562325 0.27888611 0
0.52020532 -1.4561292 0.39450091 0
0.52167821 -1.460252 0.51588887 0
0.54503411 -1.4670556 -0.055873536 0
0.45737019 -1.2310926 0.14114024 0
0.53368294 -1.4365019 0.27637255 0
0.53385043 -1.4369527 0.39109576 0
0.53333288 -1.4355595 0.50949752 0
0.56517208 -1.4645054 -0.056043014 0
0.44545174 -1.1542794 0.04417143 0
0.47652963 -1.2348102 0.1422431 0
0.54598331 -1.4147825 0.27349493 0
0.54876429 -1.4219887 0.38887292 0
0.55178994 -1.429829 0.5098893 0
0.58047634 -1.4495548 -0.055746187 0
0.46175298 -1.1530811 0.044344563 0
0.50394934 -1.258453 0.14568608 0
0.56547266 -1.4120879 0.2743288 0
0.5616852 -1.4026299 0.38548252 0
0.56702393 -1.4159616 0.5074501 0
0.60092556 -1.4475355 -0.055955101 0
0.47739601 -1.1499721 0.044452664 0
0.54308963 -1.3082178 0.15222678 0
0.5799647 -1.3970441 0.27280334 0
0.57954443 -1.3960316 0.38564417 0
0.5832786 -1.4050268 0.5061233 0
0.61918724 -1.4400475 -0.055962607 0
0.49161506 -1.1433522 0.044432539 0
0.57511353 -1.337545 0.15646963 0
0.5971849 -1.3888766 0.27265525 0
0.5931744 -1.3795494 0.38312405 0
0.5999487 -1.3953043 0.50530243 0
0.35789123 -0.83234984 0.45332378 0
0.63811278 -1.4340309 -0.056036614 0
0.57485163 -1.291864 0.05048126 0
0.71303678 -1.6024076 0.18848938 0
0.61352134 -1.3787665 0.27216557 0
0.60801256 -1.3663867 0.38156456 0
0.61003959 -1.3709419 0.49922201 0
0.3672463 -0.82531261 0.45197389 0
0.65568644 -1.4249438 -0.055999719 0
0.58776414 -1.2773345 0.05019873 0
0.62649024 -1.3614944 0.27029189 0
0.62407404 -1.3562435 0.38089636 0
0.6223281 -1.3524492 0.49530232 0
0.37214839 -0.80875635 0.44543803 0
0.67340702 -1.4162192 -0.055985652 0
0.64528441 -1.3570755 0.27100629 0
0.63776749 -1.3412669 0.37891564 0
0.63437158 -1.334125 0.49147803 0
0.37085822 -0.77993923 0.43210423 0
0.69093609 -1.4071198 -0.055965446 0
0.65724683 -1.3385104 0.26893029 0
0.6527558 -1.3293641 0.37784517 0
0.65094554 -1.3256774 0.49134669 0
0.64978772 -1.3233196 0.61039048 0
0.38178802 -0.77752703 0.43339697 0
0.71015865 -1.401387 -0.056088656 0
0.66700715 -1.3162342 0.26612106 0
0.66845894 -1.3190991 0.37729013 0
0.67006904 -1.3222765 0.49317437 0
0.6693188 -1.3207959 0.61306542 0
0.40086761 -0.79104948 0.44371295 0
0.7324357 -1.4013036 -0.056449983 0
0.6835044 -1.3076878 0.26611215 0
0.68111825 -1.3031225 0.37514389 0
0.67706156 -1.2953612 0.48627701 0
0.67525297 -1.291901 0.60355234 0
0.42284316 -0.80898798 0.45672533 0
0.74702859 -1.3864154 -0.056224704 0
0.6929732 -1.2860935 0.26347262 0
0.69640827 -1.2924688 0.37457168 0
0.69317782 -1.2864733 0.48617867 0
0.69622469 -1.292128 0.60770595 0
0.43336192 -0.80427921 0.45711154 0
0.76141298 -1.3714722 -0.05600309 0
0.72953224 -1.3140479 0.2710599 0
0.70366192 -1.2674499 0.36985952 0
0.70699012 -1.2734448 0.48458096 0
0.70799285 -1.2752508 0.60391349 0
0.45503038 -0.81960982 0.46904403 0
0.77864194 -1.3618128 -0.056004588 0
0.75736034 -1.3245922 0.27518037 0
0.71661621 -1.2533324 0.36834392 0
0.71787125 -1.2555274 0.4811646 0
0.72133982 -1.2615938 0.60169983 0
0.45410642 -0.79421347 0.45774642 0
0.79558778 -1.3516642 -0.055994783 0
0.78398818 -1.331957 0.27873921 0
0.72898924 -1.2385166 0.36665842 0
0.73313367 -1.2455578 0.48084369 0
0.73191881 -1.2434937 0.59741551 0
0.46131733 -0.78375524 0.45503071 0
0.81494802 -1.3455091 -0.056160469 0
0.81963867 -1.3532535 0.28533322 0
0.74950492 -1.23746 0.36911044 0
0.75263768 -1.2426324 0.48333478 0
0.74433476 -1.2289239 0.59487158 0
0.47777259 -0.78882009 0.46142754 0
0.83511347 -1.3404194 -0.056382481 0
0.84454614 -1.3555596 0.28803894 0
0.75946891 -1.2190043 0.36642894 0
0.76132429 -1.2219824 0.47899359 0
0.75188971 -1.2068391 0.58871758 0
0.49185926 -0.78947085 0.46539432 0
0.84070718 -1.3122882 -0.055640079 0
0.87543774 -1.3665003 0.29268286 0
0.76665109 -1.1966915 0.36259496 0
0.77082574 -1.2032079 0.4754014 0
0.77394438 -1.2080759 0.59402794 0
0.50294834 -0.78506905 0.46649593 0
0.85650563 -1.3005991 -0.055597354 0
0.90944439 -1.3809863 0.29821473 0
0.78571743 -1.1931077 0.36447802 0
0.79010117 -1.1997644 0.47793394 0
0.78891784 -1.1979675 0.5938952 0
0.51507074 -0.78213215 0.46856761 0
0.87655145 -1.2952344 -0.055835433 0
0.9482668 -1.4012045 0.30513507 0
0.80978924 -1.1965834 0.36862564 0
0.79744595 -1.1783444 0.47336379 0
0.79841948 -1.1797829 0.58981758 0
0.53608626 -0.79214674 0.4785735 0
0.89946944 -1.2937012 -0.056253135 0
0.8208105 -1.1805665 0.36684641 0
0.8098594 -1.1648155 0.47198829 0
0.81646526 -1.1743168 0.59217787 0
0.5581758 -0.80282074 0.48922971 0
0.9168542 -1.2839071 -0.056324814 0
0.57484788 -0.80498219 0.035314448 0
0.57935393 -0.81129217 0.1071381 0
0.58348417 -0.81707585 0.18107465 0
0.5845449 -0.81856126 0.25662467 0
0.57616436 -0.8068257 0.32984293 0
0.57910508 -0.81094372 0.4125827 0
0.55955571 -0.78356791 0.48175287 0
0.93025756 -1.2685928 -0.056162417 0
0.57762319 -0.78770506 0.03487283 0
0.58248997 -0.79434192 0.10585991 0
0.58366287 -0.79594141 0.17800564 0
0.57323468 -0.78172052 0.24731822 0
0.5820443 -0.79373419 0.32746124 0
0.57754564 -0.78759933 0.40437379 0
0.57629186 -0.78588951 0.48760319 0
0.94231844 -1.2516805 -0.055934571 0
0.57733607 -0.76687485 0.03426978 0
0.58320385 -0.77466905 0.10420859 0
0.59092277 -0.78492206 0.17719132 0
0.58675647 -0.77938795 0.24889809 0
0.58180141 -0.77280617 0.32182416 0
0.58892697 -0.78227103 0.40541351 0
0.58709121 -0.77983254 0.48839328 0
0.96078306 -1.2433128 -0.056096837 0
0.57812929 -0.74813509 0.033754993 0
0.60457015 -0.7823512 0.10625766 0
0.60680091 -0.78523791 0.17897333 0
0.60658187 -0.78495449 0.25309497 0
0.60782564 -0.78656399 0.33071455 0
0.6017642 -0.77872008 0.40746799 0
0.97192997 -1.2255286 -0.055842206 0
0.58104938 -0.73265845 0.033384178 0
0.88045013 -1.1101797 0.36150429 0
0.87463737 -1.1028502 0.46829221 0
0.87087321 -1.0981039 0.58027875 0
0.98852426 -1.2147181 -0.055912372 0
0.58307368 -0.71649235 0.032979496 0
0.89703226 -1.1022909 0.36258489 0
0.88901603 -1.0924404 0.46858832 0
0.89039081 -1.0941297 0.58405721 0
1.0074668 -1.2066379 -0.056119934 0
0.58727658 -0.70337814 0.032713655 0
0.89985478 -1.0777514 0.35821179 0
0.89437556 -1.071189 0.46426675 0
0.90082514 -1.0789136 0.58194375 0
1.019558 -1.1903287 -0.05595408 0
0.6010223 -0.70169044 0.03298454 0
0.91820323 -1.0719976 0.36011374 0
0.91160131 -1.0642899 0.46621484 0
0.91610521 -1.0695481 0.58306819 0
1.0264857 -1.1683153 -0.05552249 0
0.61858654 -0.70405674 0.033459276 0
0.92770952 -1.0558912 0.35859901 0
0.92313081 -1.0506799 0.46530807 0
0.92633873 -1.0543311 0.58108544 0
1.0465953 -1.1613796 -0.055814765 0
0.93707258 -1.039845 0.35712856 0
0.93294573 -1.0352656 0.46364754 0
0.94475865 -1.0483741 0.58431268 0
1.0643097 -1.151544 -0.055981725 0
0.96257871 -1.0414747 0.36182249 0
0.94592154 -1.0234523 0.4636547 0
0.94526309 -1.0227399 0.5766139 0
1.0765722 -1.1357808 -0.055870015 0
0.96396792 -1.0169836 0.35750267 0
0.96084398 -1.0136878 0.46467555 0
0.96382147 -1.0168291 0.58007801 0
1.0921243 -1.1235105 -0.055938479 0
0.98334908 -1.0116092 0.35993773 0
0.97514957 -1.0031741 0.46544793 0
0.97988147 -1.008042 0.58205801 0
1.1025685 -1.1060432 -0.055755641 0
0.99616402 -0.99930346 0.3599939 0
0.97766143 -0.98074251 0.46071568 0
0.99369913 -0.99683076 0.58276343 0
1.1170224 -1.0926744 -0.055786353 0
1.007113 -0.98516065 0.3594391 0
0.99812669 -0.97637028 0.46452922 0
1.0025965 -0.98074263 0.58069277 0
1.1336987 -1.0813911 -0.055934697 0
1.0117153 -0.96503586 0.35671633 0
1.0137304 -0.96695799 0.46608743 0
1.0172065 -0.97027385 0.58203214 0
1.1534554 -1.0728258 -0.05623848 0
1.0339625 -0.96168572 0.3602621 0
1.0151153 -0.94415599 0.46122137 0
1.0223703 -0.95090389 0.57808959 0
1.1610788 -1.0529635 -0.055959262 0
1.0461547 -0.94874072 0.36031911 0
1.0388869 -0.94214964 0.46659476 0
1.0382711 -0.94159114 0.58033025 0
1.1804982 -1.0437899 -0.056257274 0
1.0513228 -0.92957366 0.35803911 0
1.0445018 -0.92354256 0.46385667 0
1.041941 -0.92127836 0.57585168 0
1.1774212 -1.0149425 -0.055497181 0
1.3797778 -1.1893747 0.065035157 0
1.3649738 -1.1766137 0.19367069 0
1.319744 -1.1376253 0.31423739 0
1.0752093 -0.9268353 0.36217055 0
1.0580481 -0.91204232 0.46473542 0
1.0603688 -0.91404277 0.57962906 0
1.1903025 -1.000201 -0.055506289 0
1.3883022 -1.1665784 0.064739428 0
1.3822428 -1.1614867 0.19403036 0
1.1410524 -0.95881647 0.26879394 0
1.0821759 -0.909343 0.36063156 0
1.0728977 -0.90154672 0.46623453 0
1.0700758 -0.89917547 0.57870001 0
1.213982 -0.99429119 -0.056022223 0
1.0070288 -0.82478976 0.046471853 0
1.015005 -0.83132249 0.14099924 0
1.000091 -0.81910735 0.23313993 0
1.0131655 -0.8298158 0.3341254 0
1.0816425 -0.8859008 0.46515009 0
1.0925292 -0.89481735 0.58470291 0
1.2247996 -0.9776454 -0.055948883 0
0.91191751 -0.72790027 0.04165642 0
0.89980131 -0.718229 0.12372957 0
0.90496308 -0.72234917 0.20882684 0
0.90174836 -0.71978313 0.29436949 0
1.0967953 -0.87547129 0.46688858 0
1.0978169 -0.87628675 0.58158135 0
1.2306999 -0.95723641 -0.055663381 0
0.8807745 -0.68506497 0.039836589 0
0.88853341 -0.69109982 0.1209739 0
0.87857693 -0.68335575 0.20073648 0
0.8832348 -0.68697858 0.28547931 0
1.1120161 -0.86492425 0.46869439 0
1.1088505 -0.8624621 0.58162695 0
1.2517096 -0.94852579 -0.056068964 0
0.89646256 -0.67932522 0.040156063 0
0.88749278 -0.67252809 0.11966974 0
0.89359796 -0.67715448 0.20220421 0
0.89125383 -0.67537814 0.28529978 0
1.1246928 -0.8522746 0.46947685 0
1.1192428 -0.84814459 0.58142996 0
1.2592038 -0.92947942 -0.055875953 0
0.90287906 -0.66645885 0.040064387 0
0.90380257 -0.66714054 0.12072662 0
0.90252644 -0.66619855 0.20231028 0
0.89988095 -0.66424584 0.28536129 0
1.1356055 -0.83824551 0.46958876 0
1.1425086 -0.84334105 0.58795291 0
1.2747864 -0.91641128 -0.056050908 0
0.91445619 -0.65737921 0.040207602 0
0.91209686 -0.6556831 0.12072209 0
0.90817529 -0.65286404 0.20171772 0
0.90386063 -0.64976233 0.28400618 0
1.1461265 -0.82392108 0.46961191 0
1.1571432 -0.83184069 0.59004688 0
1.2819462 -0.89729339 -0.055864494 0
0.91736358 -0.64210516 0.039976757 0
0.91288948 -0.63897353 0.11975256 0
0.92702889 -0.64887035 0.20407435 0
0.91740549 -0.64213443 0.2856988 0
1.1671485 -0.81694108 0.47397283 0
1.1652442 -0.8156082 0.58889401 0
1.2985783 -0.88478458 -0.056099318 0
0.93317711 -0.63581896 0.04031378 0
0.93100572 -0.63433951 0.12107161 0
0.93851542 -0.63945621 0.20481415 0
0.93375909 -0.63621551 0.28827393 0
1.1790464 -0.80334169 0.47465891 0
1.1777066 -0.80242884 0.59003896 0
1.3108861 -0.86920601 -0.05615373 0
0.94564122 -0.62702399 0.040507931 0
0.93916738 -0.62273139 0.12110364 0
0.93963993 -0.62304473 0.20333129 0
0.94499159 -0.62659323 0.28928283 0
1.1900135 -0.78905934 0.47503635 0
1.1933395 -0.79126465 0.59283221 0
1.3122447 -0.84651482 -0.055750892 0
0.96128917 -0.62011719 0.040840499 0
0.96038508 -0.61953402 0.12282391 0
0.95141309 -0.61374629 0.20419036 0
0.94632751 -0.61046565 0.28731582 0
1.2020904 -0.77545547 0.4759216 0
1.2058536 -0.77788305 0.59413582 0
1.3271066 -0.83262736 -0.055932429 0
0.96526611 -0.60560846 0.040682249 0
0.96540493 -0.60569555 0.12248076 0
0.96300006 -0.60418677 0.20502806 0
0.9590649 -0.60171783 0.28885967 0
1.221555 -0.76640427 0.47976902 0
1.2198746 -0.76534998 0.59624839 0
1.3473908 -0.82189375 -0.05634667 0
0.95945847 -0.58525926 0.04012369 0
0.98070675 -0.59822053 0.12345662 0
0.97663563 -0.59573716 0.20631763 0
0.96270591 -0.58724016 0.28770632 0
1.2247168 -0.74706399 0.47727826 0
1.227815 -0.74895388 0.59547257 0
1.3437604 -0.79663932 -0.055770922 0
0.98741031 -0.58537954 0.040981106 0
0.98429435 -0.58353227 0.12297349 0
0.98912525 -0.58639622 0.20737976 0
0.97960109 -0.58074993 0.29054695 0
1.2380645 -0.73397821 0.47884014 0
1.2426974 -0.73672473 0.5981437 0
1.3543829 -0.78005874 -0.055799693 0
1.0017685 -0.57697004 0.041272212 0
1.001699 -0.57692999 0.12423047 0
1.0009494 -0.57649827 0.20832029 0
1.0059557 -0.57938164 0.29617628 0
1.2562183 -0.72352076 0.48229948 0
1.2594649 -0.72539067 0.6017701 0
1.3618259 -0.76167321 -0.05570678 0
1.0094674 -0.56459808 0.041293222 0
1.0001321 -0.55937684 0.12315282 0
1.0084304 -0.56401801 0.20838261 0
1.0010159 -0.55987114 0.29262304 0
1.2681684 -0.70929027 0.48342007 0
1.2624834 -0.70611066 0.59891647 0
1.3825711 -0.75058019 -0.056164309 0
1.0199484 -0.55371696 0.041433454 0
1.0153813 -0.55123752 0.12416597 0
1.0182904 -0.55281687 0.20896506 0
1.0158677 -0.55150157 0.29491112 0
1.2828085 -0.69642037 0.48561946 0
1.2734621 -0.69134629 0.59994727 0
1.3906947 -0.73247117 -0.05611518 0
1.2982153 -0.68376279 0.3743487 0
1.2885528 -0.67867362 0.48452041 0
1.2899914 -0.67943132 0.60365599 0
1.384679 -0.70717639 -0.055508722 0
1.3101467 -0.66911167 0.37532988 0
1.3021126 -0.66500854 0.48643184 0
1.3083299 -0.6681838 0.60825205 0
1.4050761 -0.69542819 -0.055970918 0
1.3239586 -0.65527993 0.37689298 0
1.3211943 -0.65391171 0.49044526 0
1.3239951 -0.65529794 0.61165011 0
1.4159988 -0.67877334 -0.056061096 0
1.3376437 -0.64121306 0.37846023 0
1.3309606 -0.63800943 0.49104941 0
1.3398296 -0.64226085 0.61518031 0
1.426331 -0.66177094 -0.056135792 0
1.3467759 -0.62485999 0.37878776 0
1.3527776 -0.62764454 0.49614337 0
1.3438146 -0.62348604 0.61335653 0
1.4299973 -0.64171606 -0.055957623 0
1.3602273 -0.61040652 0.38037905 0
1.3610715 -0.61078531 0.49632508 0
1.3522288 -0.60681713 0.61366075 0
1.4425838 -0.62566346 -0.056137398 0
1.3688402 -0.59368008 0.38066685 0
1.3666519 -0.592731 0.49559903 0
1.3697951 -0.59409422 0.61818862 0
1.4417124 -0.60383344 -0.055803176 0
1.3860419 -0.58051687 0.38338727 0
1.3802736 -0.57810092 0.49785945 0
1.3817934 -0.57873744 0.62026536 0
1.4553874 -0.58813256 -0.056041386 0
1.4028554 -0.56690401 0.38603282 0
1.387251 -0.56059813 0.49779052 0
1.387956 -0.56088305 0.61981219 0
1.4598333 -0.56865299 -0.055932418 0
1.4049138 -0.54726005 0.38467243 0
1.4101372 -0.54929471 0.50348091 0
1.4000362 -0.54536009 0.62209076 0
1.4682436 -0.55073923 -0.055984508 0
1.4295291 -0.53621739 0.38953257 0
1.4169129 -0.53148508 0.50347072 0
1.414777 -0.53068388 0.6256218 0
1.4758166 -0.53248101 -0.056013156 0
1.4511136 -0.52356803 0.39358643 0
1.4316572 -0.5165481 0.50635839 0
1.4213892 -0.51284337 0.62564045 0
1.4824251 -0.51386374 -0.056013949 0
1.4553921 -0.50449306 0.39299271 0
1.4398221 -0.49909592 0.50698316 0
1.4390092 -0.49881414 0.63058132 0
1.4887518 -0.49514881 -0.056012969 0
1.4579533 -0.48490548 0.39200446 0
1.451425 -0.4827342 0.50888801 0
1.452059 -0.48294508 0.6335848 0
1.4983636 -0.47747821 -0.056143939 0
1.4708685 -0.46871644 0.39385882 0
1.4486905 -0.46164906 0.50585097 0
1.4680614 -0.46782193 0.63794619 0
1.4975178 -0.45651975 -0.055892415 0
1.4757785 -0.44989249 0.39362541 0
1.4786954 -0.4507817 0.51430517 0
1.482451 -0.45192662 0.64167535 0
1.5048569 -0.43812576 -0.055955991 0
1.4726926 -0.42876142 0.39133126 0
1.4834288 -0.43188718 0.51401925 0
1.4751834 -0.42948657 0.63613826 0
1.5064573 -0.4180893 -0.055815313 0
1.498588 -0.41590533 0.39678919 0
1.4929997 -0.41435438 0.51548678 0
1.4859148 -0.41238812 0.63847601 0
1.5154641 -0.40010768 -0.055957913 0
1.5042818 -0.39715534 0.39694113 0
1.4912097 -0.39370415 0.51311642 0
1.5054349 -0.39745981 0.6446619 0
1.522241 -0.38146034 -0.056026343 0
1.513648 -0.379307 0.39812073 0
1.495541 -0.37476954 0.51294225 0
1.5173976 -0.38024664 0.64768285 0
1.5258604 -0.36201105 -0.055987339 0
1.513562 -0.35909325 0.39687735 0
1.5080445 -0.35778421 0.51564461 0
1.5134913 -0.35907647 0.64403445 0
1.5416985 -0.34532356 -0.056404449 0
1.5219589 -0.34090215 0.39792198 0
1.516475 -0.33967382 0.51702374 0
1.5333819 -0.34346077 0.65060657 0
1.5295 -0.32242209 -0.055805195 0
1.5315394 -0.32285199 0.39933226 0
1.5406212 -0.32476646 0.52382028 0
1.529214 -0.3223618 0.64706451 0
1.5224656 -0.30096909 -0.055405866 0
1.5440617 -0.30523831 0.40156326 0
1.5297064 -0.3024005 0.51877338 0
1.5416121 -0.30475411 0.65063524 0
1.5436963 -0.28501806 -0.056043446 0
1.5528822 -0.28671408 0.40288636 0
1.5534776 -0.28682402 0.52556843 0
1.538571 -0.28407174 0.64779061 0
1.5448016 -0.2651532 -0.055957925 0
1.5642396 -0.2684896 0.40492371 0
1.5456064 -0.26529133 0.52173388 0
1.5501271 -0.2660673 0.65119392 0
1.5486801 -0.24578637 -0.055981863 0
1.5521396 -0.24633545 0.40095672 0
1.5549949 -0.24678859 0.52381259 0
1.5599072 -0.2475682 0.65394098 0
1.5600083 -0.22748567 -0.056283347 0
1.5502774 -0.22606666 0.39970857 0
1.5603274 -0.22753219 0.52460212 0
1.5703617 -0.22899546 0.65706277 0
1.5484523 -0.20592397 -0.055768441 0
1.5658504 -0.20823769 0.40301576 0
1.5745407 -0.2093934 0.52845246 0
1.5663116 -0.20829903 0.65421879 0
1.5552247 -0.18692787 -0.055923149 0
1.5799106 -0.18989496 0.40598693 0
1.5655185 -0.18816513 0.52458751 0
1.5852184 -0.19053294 0.66106129 0
1.5509158 -0.16662833 -0.055688344 0
1.5843493 -0.17022038 0.40654448 0
1.5875098 -0.17055993 0.53119475 0
1.570649 -0.16874844 0.65404767 0
1.5621884 -0.14796786 -0.056021765 0
1.5812799 -0.14977616 0.4052408 0
1.58619 -0.15024124 0.53007811 0
1.5760647 -0.1492822 0.65546811 0
1.5688318 -0.12868856 -0.056197435 0
1.591229 -0.13052575 0.40733698 0
1.5787575 -0.12950274 0.52700758 0
1.5993602 -0.13119276 0.66441673 0
1.5520737 -0.10765868 -0.055544175 0
1.6702214 -0.11585393 0.059772339 0
1.6714586 -0.11593974 0.1800621 0
1.6795971 -0.11650427 0.30364099 0
1.5844769 -0.10990632 0.40522215 0
1.5976347 -0.11081899 0.53280091 0
1.5929148 -0.1104916 0.66110873 0
1.5592246 -0.088443369 -0.055755813 0
1.6375027 -0.092883505 0.058554929 0
1.6437348 -0.093237013 0.17693499 0
1.6505321 -0.09362258 0.29814979 0
1.5890161 -0.09013322 0.40606055 0
1.5938116 -0.090405241 0.53110421 0
1.6027688 -0.090913311 0.66467059 0
1.5655717 -0.069040075 -0.055947252 0
1.6236522 -0.071601361 0.058022816 0
1.6396598 -0.072307281 0.17638434 0
1.6301627 -0.071888469 0.29428345 0
1.5919173 -0.070201889 0.40654382 0
1.5929058 -0.070245482 0.53046554 0
1.5876809 -0.070015073 0.65799588 0
1.5558113 -0.048991345 -0.055571999 0
1.6308801 -0.051355205 0.058253385 0
1.6339971 -0.051453359 0.17569156 0
1.6266738 -0.051222753 0.29351389 0
1.6004436 -0.050396785 0.40852681 0
1.6010067 -0.050414518 0.53290963 0
1.587311 -0.049983252 0.65752959 0
1.5639342 -0.029542031 -0.055844426 0
1.6396009 -0.030971341 0.058546308 0
1.62862 -0.030763919 0.17505789 0
1.6289265 -0.030769706 0.29382718 0
1.6030535 -0.030280976 0.40906322 0
1.6000423 -0.030224096 0.53241974 0
1.5959686 -0.030147146 0.66090626 0
1.5612569 -0.0098294467 -0.055739991 0
1.6378818 -0.010311866 0.058475651 0
1.6436806 -0.010348374 0.17664871 0
1.6467087 -0.010367438 0.29698765 0
1.5989991 -0.010067066 0.40796396 0
1.6005167 -0.010076621 0.53249311 0
1.5978575 -0.010059879 0.66158354 0
1.56352 0.009843695 -0.055820785 0
1.6484923 0.010378668 0.058854468 0
1.6499383 0.010387773 0.17732124 0
1.6435915 0.010347813 0.29642546 0
1.6022024 0.010087234 0.40878123 0
1.6013796 0.010082053 0.53278023 0
1.6043167 0.010100544 0.66425794 0
1.5730127 0.029713519 -0.056168601 0
1.6825143 0.031781957 0.060078647 0
1.6781242 0.031699028 0.180379 0
1.6698357 0.031542461 0.30120641 0
1.607542 0.030365761 0.41020858 0
1.6069783 0.030355114 0.53472769 0
1.5980601 0.030186653 0.66177237 0
1.5714697 0.049484417 -0.056131303 0
1.607883 0.050631046 0.41042578 0
1.6026269 0.050465535 0.53344893 0
1.6004027 0.0503955 0.66295272 0
1.5713367 0.069294304 -0.056153268 0
1.6182373 0.07136257 0.41326538 0
1.6128327 0.071124233 0.53710157 0
1.6129375 0.071128853 0.66846311 0
1.5676479 0.08892116 -0.056057014 0
1.608157 0.091218948 0.41095185 0
1.5962869 0.090545639 0.53192902 0
1.6154253 0.091631226 0.66991931 0
1.5770823 0.10939339 -0.056439158 0
1.6042246 0.1112761 0.41027251 0
1.5998763 0.11097448 0.53354847 0
1.5971621 0.11078621 0.66287148 0
1.5672777 0.12856108 -0.056141764 0
1.6032044 0.13150808 0.41040257 0
1.6041387 0.13158472 0.53548008 0
1.606003 0.13173765 0.66717631 0
1.5580126 0.14757232 -0.055872016 0
1.5975507 0.15131731 0.4094106 0
1.5956601 0.15113825 0.53324288 0
1.5902934 0.15062991 0.66138566 0
1.5642959 0.16806586 -0.05616878 0
1.5908368 0.17091738 0.40820917 0
1.5907687 0.17091006 0.53228521 0
1.5915937 0.17099871 0.66276938 0
1.5504304 0.18635163 -0.055750754 0
1.5937508 0.19155847 0.40954342 0
1.595506 0.19176942 0.53463602 0
1.5991414 0.19220637 0.66686738 0
1.554078 0.20667212 -0.055971056 0
1.5928727 0.21183132 0.40997073 0
1.5941495 0.2120011 0.53503358 0
1.5934907 0.21191351 0.66557103 0
1.54615 0.22546479 -0.055783354 0
1.5908908 0.23198906 0.41017994 0
1.5930564 0.23230486 0.53560603 0
1.5916502 0.2320998 0.66597021 0
1.548975 0.24583319 -0.055992525 0
1.5855318 0.25163502 0.40958273 0
1.5877403 0.25198552 0.53484309 0
1.5943488 0.25303432 0.66837955 0
1.5400109 0.26433092 -0.055784389 0
1.5787047 0.2709724 0.40866819 0
1.5924313 0.27332848 0.53754008 0
1.5875731 0.27249458 0.6669246 0
1.5331731 0.28307512 -0.055661403 0
1.5790942 0.29155371 0.40968689 0
1.5757461 0.29093552 0.53310221 0
1.5779377 0.29134017 0.66436535 0
1.5366775 0.30377859 -0.055923074 0
1.5754188 0.31143716 0.4097183 0
1.5668246 0.30973819 0.53136134 0
1.5683969 0.31004906 0.66193968 0
1.5372694 0.32405987 -0.056088667 0
1.567011 0.33032948 0.40858108 0
1.5758146 0.3321853 0.53578627 0
1.5719768 0.33137628 0.66515893 0
1.5372076 0.3443177 -0.056240153 0
1.5573525 0.34882993 0.40717578 0
1.5753993 0.35287219 0.53711325 0
1.5595051 0.34931207 0.66169047 0
1.5261272 0.36207435 -0.05599713 0
1.5546941 0.36885184 0.40766275 0
1.564907 0.37127486 0.53508753 0
1.5559587 0.36915189 0.66210562 0
1.51477 0.37958816 -0.055751372 0
1.5615836 0.39131925 0.41072881 0
1.5530363 0.38917738 0.53266209 0
1.5415685 0.38630363 0.65799993 0
1.5175772 0.40066555 -0.056035936 0
1.5482669 0.40876818 0.4085477 0
1.5450339 0.40791461 0.53163695 0
1.544401 0.40774751 0.6613481 0
1.5067425 0.41816846 -0.055825878 0
1.539197 0.42717561 0.40754148 0
1.5394667 0.42725047 0.53153044 0
1.5404261 0.42751676 0.66189879 0
1.5048714 0.43812996 -0.055956524 0
1.5381567 0.44782072 0.40872672 0
1.5341016 0.4466401 0.53157777 0
1.526705 0.44448665 0.65835577 0
1.5054266 0.45893076 -0.056187604 0
1.534078 0.46766517 0.40917531 0
1.5171244 0.46249685 0.52767116 0
1.5284798 0.46595854 0.66159886 0
1.4918009 0.47538692 -0.055898037 0
1.509907 0.48115674 0.40431231 0
1.517894 0.48370188 0.53001529 0
1.5145286 0.48262948 0.65813851 0
1.4815916 0.49276739 -0.055743575 0
1.5077744 0.50147557 0.40539998 0
1.4992657 0.49864566 0.52566153 0
1.5104752 0.50237387 0.65907383 0
1.4774281 0.51213157 -0.055825133 0
1.5016054 0.52051228 0.40547144 0
1.4980572 0.5192824 0.52748865 0
1.4956403 0.5184446 0.65539742 0
1.4732078 0.53153974 -0.055914145 0
1.4899653 0.53758591 0.40412423 0
1.4821718 0.53477395 0.5242247 0
1.4821676 0.53477246 0.65239275 0
1.4635559 0.54898089 -0.055805761 0
1.478494 0.55458421 0.40287504 0
1.4765272 0.55384642 0.52465338 0
1.4766164 0.55387986 0.65296745 0
1.4599017 0.56867969 -0.055935044 0
1.4592663 0.56843209 0.39955443 0
1.4695772 0.57244855 0.52470356 0
1.4630206 0.56989455 0.65007716 0
1.4585809 0.58942306 -0.056164354 0
1.4639716 0.59160149 0.40285057 0
1.46193 0.5907765 0.52458775 0
1.4609578 0.59038359 0.65241218 0
1.4418299 0.60388261 -0.055807725 0
1.4512275 0.60781866 0.40141803 0
1.4492663 0.60699719 0.52274483 0
1.4451431 0.60527027 0.64870203 0
1.4356008 0.62263483 -0.05586566 0
1.4399035 0.62450093 0.40042913 0
1.4332677 0.62162292 0.51975638 0
1.4335927 0.62176389 0.64698046 0
1.4320164 0.64262211 -0.056036629 0
1.429247 0.6413793 0.39967996 0
1.4304723 0.64192915 0.52163261 0
1.4299641 0.6417011 0.64893812 0
1.4172596 0.65756214 -0.055778772 0
1.413489 0.65581268 0.39755115 0
1.4224609 0.65997535 0.52170038 0
1.4094014 0.65391618 0.64329231 0
1.4192935 0.68035269 -0.056191538 0
1.4083014 0.67508352 0.39845139 0
1.4053497 0.67366856 0.51849478 0
1.4040338 0.67303777 0.64465952 0
1.4110626 0.69839114 -0.056209385 0
1.3829904 0.68449706 0.39369759 0
1.3975672 0.69171172 0.51879591 0
1.3894804 0.68770921 0.64190257 0
1.3903292 0.71006209 -0.05573523 0
1.3759737 0.70273048 0.39418796 0
1.3807567 0.70517325 0.51581103 0
1.3759512 0.70271897 0.63968962 0
1.3914959 0.73289323 -0.056147512 0
1.3656886 0.71930063 0.39380506 0
1.3782963 0.72594094 0.5182656 0
1.3632971 0.71804106 0.63795966 0
1.3904591 0.75486249 -0.05648474 0
1.3529019 0.73447317 0.39275372 0
1.3542372 0.73519808 0.51265943 0
1.3584552 0.73748797 0.63998878 0
1.3673847 0.76478219 -0.055934165 0
1.4184692 0.79335392 0.058023825 0
1.4152732 0.79156643 0.17427187 0
1.4163671 0.79217821 0.29267886 0
1.343532 0.7514413 0.39274937 0
1.3388969 0.74884892 0.5103814 0
1.3454747 0.75252795 0.63828719 0
1.3636906 0.78541964 -0.056183171 0
1.3902371 0.80070913 0.057276867 0
1.3811325 0.79546529 0.17128773 0
1.3827091 0.79637337 0.28777319 0
1.3402478 0.7719177 0.3945995 0
1.3218642 0.76132965 0.50750291 0
1.3364646 0.76973879 0.63856041 0
1.3522272 0.80165881 -0.056122329 0
1.3748764 0.81508625 0.057062354 0
1.3600618 0.80630344 0.16992025 0
1.3498496 0.80024928 0.28300914 0
1.3164406 0.78044295 0.39045262 0
1.3198587 0.78246933 0.51047528 0
1.3224047 0.78397876 0.636509 0
1.3356774 0.81474876 -0.055856828 0
1.353807 0.82580763 0.056614991 0
1.3436785 0.81962937 0.16914944 0
1.3467255 0.82148796 0.28450039 0
1.307724 0.79769748 0.39081556 0
1.299504 0.79268336 0.50642323 0
1.3044275 0.79568666 0.63262856 0
1.3457249 0.84430856 -0.05671712 0
1.3348416 0.83748031 0.056258429 0
1.3368605 0.83874702 0.16960728 0
1.3381031 0.83952653 0.28488955 0
1.2979422 0.81432956 0.39092574 0
1.2841102 0.80565143 0.50433773 0
1.289928 0.8093015 0.63048893 0
1.3134499 0.84729224 -0.055802096 0
1.3219459 0.85277295 0.05616305 0
1.3258501 0.8552916 0.16956334 0
1.3314738 0.85891932 0.28575823 0
1.283111 0.827721 0.38956711 0
1.2841257 0.82837558 0.50840032 0
1.2722222 0.82069671 0.62683624 0
1.3014315 0.86293703 -0.055748731 0
1.3192902 0.87477845 0.05651373 0
1.3305237 0.88222706 0.1715682 0
1.3179846 0.87391281 0.28520235 0
1.2692739 0.84161431 0.38855281 0
1.2647563 0.83861887 0.50487262 0
1.2601501 0.83556461 0.6260227 0
1.2958243 0.88290817 -0.055980343 0
1.331526 0.90723354 0.057522681 0
1.3234431 0.90172613 0.17210568 0
1.3259192 0.90341324 0.28935805 0
1.2609247 0.85912931 0.38927779 0
1.2376899 0.84329826 0.49826747 0
1.2367084 0.84262961 0.61959928 0
1.2876358 0.90127575 -0.056112435 0
1.3596612 0.95168966 0.059251148 0
1.3495022 0.94457895 0.17702727 0
1.3559064 0.94906151 0.29848662 0
1.2442333 0.87089628 0.38747966 0
1.2246841 0.85721296 0.49733776 0
1.2348077 0.86429894 0.62405026 0
1.279045 0.91947275 -0.05623816 0
1.2381213 0.89005375 0.38903576 0
1.2176247 0.8753193 0.49890748 0
1.2225046 0.87882733 0.62337577 0
1.2607813 0.93064392 -0.055945955 0
1.2123464 0.89489174 0.38444722 0
1.200264 0.88597316 0.49632597 0
1.2036102 0.88844305 0.61939675 0
1.2531883 0.94964635 -0.0561352 0
1.1985939 0.9082756 0.38368258 0
1.1863227 0.89897668 0.49520278 0
1.1871413 0.89959699 0.6167022 0
1.2384992 0.96330261 -0.056016132 0
1.1736869 0.91289175 0.37935928 0
1.1736244 0.91284317 0.49466115 0
1.1686264 0.90895575 0.61298138 0
1.2270437 0.97943664 -0.056051396 0
1.15413 0.92123622 0.37675771 0
1.1534264 0.92067468 0.49099556 0
1.1487252 0.91692203 0.60855049 0
1.2182491 0.99778605 -0.056219134 0
1.1416607 0.9350577 0.37650105 0
1.1460022 0.93861347 0.49282736 0
1.1421772 0.93548065 0.61127365 0
1.19927 1.0077363 -0.05592446 0
1.1278957 0.94776106 0.37586755 0
1.1236712 0.94421118 0.48829845 0
1.1203026 0.94138062 0.6058628 0
1.1942575 1.0294554 -0.056290749 0
1.1066276 0.95391804 0.37275341 0
1.1016723 0.94964659 0.48389685 0
1.1072304 0.95443773 0.60524505 0
1.1802607 1.0435797 -0.056245949 0
1.0908483 0.96452194 0.37149996 0
1.0884248 0.96237904 0.48336262 0
1.0856297 0.95990765 0.59999716 0
1.1600343 1.0520161 -0.055908922 0
1.0811809 0.98050535 0.37238288 0
1.066431 0.96712893 0.47896564 0
1.0673704 0.96798086 0.59659499 0
1.1476597 1.0674351 -0.055955898 0
1.0600414 0.98594171 0.36934876 0
1.0494058 0.97604954 0.4768014 0
1.0557852 0.98198301 0.59698373 0
1.1323154 1.0800717 -0.05586645 0
1.0425166 0.99441612 0.36757648 0
1.0357794 0.98798966 0.47622499 0
1.0319188 0.98430717 0.59045023 0
1.1223972 1.097932 -0.056054778 0
1.0243909 1.0020621 0.36560562 0
1.0175244 0.99534512 0.47355688 0
1.0201223 0.99788642 0.5908435 0
1.1050854 1.1085681 -0.05588292 0
0.99963653 1.0027869 0.36124882 0
1.0020469 1.0052049 0.47220722 0
1.0020808 1.0052389 0.58767897 0
1.0899132 1.1212358 -0.055825226 0
0.98961264 1.0180528 0.36223039 0
0.98947388 1.01791 0.47228506 0
0.98243243 1.0106661 0.58357328 0
1.0714397 1.1303661 -0.055603661 0
0.97469461 1.0283003 0.36148083 0
0.96654254 1.0196999 0.46743146 0
0.9692589 1.0225656 0.58335054 0
1.069471 1.1571283 -0.056253206 0
0.95301974 1.0311323 0.35822937 0
0.94856429 1.0263116 0.46495005 0
0.9488166 1.0265846 0.57878155 0
1.0483305 1.1633052 -0.055907305 0
0.94254291 1.0459154 0.35921338 0
0.93255043 1.0348269 0.46345112 0
0.93142337 1.0335763 0.57606512 0
1.0327038 1.1753925 -0.055858824 0
0.91924423 1.0462563 0.35532683 0
0.91570723 1.0422306 0.46156618 0
0.91104865 1.0369283 0.5714941 0
0.91931581 1.0463377 0.69688684 0
1.0142547 1.1841372 -0.055663034 0
0.90144765 1.0524355 0.35354233 0
0.89343381 1.0430794 0.45692351 0
0.89312547 1.0427195 0.5684424 0
0.88524902 1.0335237 0.68087405 0
1.0016587 1.1996815 -0.055796396 0
0.87678105 1.0501161 0.45513353 0
0.87469542 1.0476182 0.56506366 0
0.87851858 1.0521972 0.68583369 0
0.99113506 1.2179263 -0.056060042 0
0.85687679 1.052947 0.45164818 0
0.85512424 1.0507935 0.56092387 0
0.85680747 1.0528618 0.67918062 0
0.97322649 1.2271636 -0.055916701 0
0.827829 1.0438285 0.5515976 0
0.83819216 1.0568956 0.67492062 0
0.95098758 1.2306367 -0.055524908 0
0.82812089 1.0716397 0.56073916 0
0.82828611 1.0718534 0.67775834 0
0.94298393 1.2525645 -0.055974074 0
0.80715889 1.0721482 0.67146462 0
0.92324245 1.2590263 -0.055738896 0
0.78607279 1.071968 0.6650998 0
0.91152883 1.2764498 -0.055997662 0
0.89093006 1.281419 -0.055719078 0
0.88324422 1.305124 -0.056261756 0
0.86378503 1.3116529 -0.05606987 0
0.8486656 1.3247107 -0.056166787 0
0.83073223 1.3333871 -0.056086686 0
0.80742818 1.3330935 -0.055642251 0
0.791098 1.3440362 -0.055678785 0
0.77715933 1.3592198 -0.055897947 0
0.76845199 1.384151 -0.05652082 0
0.74340308 1.3796866 -0.05595183 0
0.72622561 1.3894224 -0.055971362 0
0.70828152 1.3976828 -0.055940397 0
0.69355136 1.412446 -0.056177285 0
0.67125177 1.4116865 -0.055806469 0
0.65273392 1.4185274 -0.055747557 0
0.63883013 1.435643 -0.056099605 0
0.62283546 1.4485323 -0.05629234 0
0.60181993 1.4496899 -0.056038383 0
0.5767383 1.4402202 -0.055387203 0
0.56341815 1.4599606 -0.055869095 0
0.54912257 1.4780602 -0.056292657 0
0.52589631 1.4720591 -0.055807468 0
0.50987494 1.4860116 -0.056088567 0
0.48630258 1.477664 -0.055537954 0
0.46830341 1.4857161 -0.055614546 0
0.45312625 1.5033288 -0.056055807 0
0.43346375 1.5064896 -0.055965707 0
0.41434792 1.5114161 -0.055950455 0
0.39657968 1.5214823 -0.056133781 0
0.37568051 1.5194373 -0.055879366 0
0.35798112 1.5302967 -0.056108508 0
0.3387695 1.5350682 -0.056122597 0
0.31628081 1.5241122 -0.055572033 0
0.2994602 1.540292 -0.056020044 0
0.27971086 1.5421131 -0.055953737 0
0.26012817 1.5446608 -0.055922896 0
0.24165066 1.5541955 -0.056153473 0
0.22142364 1.5526366 -0.055991974 0
0.20279908 1.562564 -0.056253426 0
0.18161663 1.5522436 -0.055795129 0
0.16202968 1.5541394 -0.055785511 0
0.14296952 1.5617496 -0.055989616 0
0.12367963 1.5683174 -0.056164794 0
0.1039989 1.5708998 -0.056205921 0
0.084062546 1.569311 -0.05610675 0
0.06432531 1.5709522 -0.056132015 0
0.044382624 1.5660836 -0.055933651 0
0.024735657 1.5713104 -0.056104761 0
0.004928472 1.5649803 -0.05587209 0
-0.014851883 1.5728576 -0.056155551 0
-0.034749951 1.5768597 -0.056309592 0
-0.054664291 1.5781021 -0.056374069 0
-0.074641012 1.5796344 -0.056457911 0
-0.09392681 1.5685861 -0.056100857 0
-0.11329545 1.5621182 -0.055916119 0
-0.13317235 1.5631139 -0.056007348 0
-0.1533004 1.5659827 -0.056174852 0
-0.1724034 1.5584821 -0.055979226 0
-0.095884718 0.86677307 0.51717365 0
-0.1918276 1.554686 -0.055925202 0
-0.10452297 0.84711689 0.50619066 0
-0.21119052 1.550699 -0.055873018 0
-0.11517673 0.84570295 0.5061723 0
-0.23037404 1.5457369 -0.055794328 0
-0.12482479 0.83753484 0.50218445 0
-0.2517598 1.5547019 -0.0562279 0
-0.13333261 0.82337403 0.49466109 0
-0.27056417 1.5471131 -0.056072213 0
-0.14390337 0.82285386 0.49539798 0
-0.29027897 1.5449474 -0.056121752 0
-0.15218753 0.80998534 0.48876551 0
-0.30917472 1.5385126 -0.056024984 0
-0.16163088 0.80430627 0.48652819 0
-0.3294591 1.5388752 -0.056184806 0
-0.16994184 0.79378378 0.48141938 0
-0.34925202 1.5365527 -0.056256115 0
-0.17780761 0.78227401 0.47575909 0
-0.36608031 1.5216788 -0.055875897 0
-0.18591851 0.77280384 0.47138599 0
-0.38605809 1.5202843 -0.055998757 0
-0.19581099 0.77109736 0.47181168 0
-0.40362385 1.5095215 -0.055785105 0
-0.2047693 0.76582104 0.47012371 0
-0.42340669 1.5071964 -0.055891782 0
-0.2113165 0.75222117 0.46337172 0
-0.43979737 1.4930779 -0.055569183 0
-0.46429491 1.506017 -0.056263883 0
-0.48173395 1.4954364 -0.05609078 0
-0.50379771 1.4989895 -0.056457516 0
-0.51505023 1.4708756 -0.055638507 0
-0.5399164 1.4818028 -0.056304559 0
-0.55550003 1.4668827 -0.055998985 0
-0.56991976 1.4495826 -0.055608105 0
-0.59371048 1.4559853 -0.056136068 0
-0.60598445 1.4341669 -0.055584647 0
-0.62316436 1.4245259 -0.055510715 0
-0.64133197 1.4171865 -0.055535007 0
-0.64965433 1.3887532 -0.054737031 0
-0.66449177 1.3750887 -0.054523926 0
-0.67721945 1.3575249 -0.05416134 0
-0.69394493 1.3482808 -0.054136865 0
-0.70579809 1.3298864 -0.053750884 0
-0.72283059 1.3215222 -0.053776443 0
-0.73701161 1.3080546 -0.053601805 0
-0.74983507 1.2924862 -0.053346533 0
-0.76762486 1.2855805 -0.053456232 0
-0.77638882 1.2638289 -0.052954089 0
-0.79173207 1.2531484 -0.052920111 0
-0.80439299 1.2383771 -0.052719887 0
-0.80841559 1.2109153 -0.051980045 0
-0.82926583 1.2089025 -0.052337736 0
-0.84807491 1.2035497 -0.05256417 0
-0.85759795 1.1850874 -0.052225344 0
-0.86661881 1.1663452 -0.051876187 0
-0.88381755 1.1587257 -0.052028172 0
-0.89354014 1.1413779 -0.05175034 0
-0.91103137 1.1340083 -0.051932223 0
-0.90875322 1.1024493 -0.051006973 0
-0.93458784 1.1051396 -0.051671844 0
-0.95198715 1.0973864 -0.051865708 0
-0.95862556 1.0773295 -0.051484201 0
-0.97383684 1.0670612 -0.051575426 0
-0.98598218 1.0534186 -0.051512048 0
-0.99751943 1.0392033 -0.051427066 0
-1.0125847 1.028653 -0.051531874 0
-1.027616 1.0179613 -0.051640406 0
-1.0346074 0.99939257 -0.051355258 0
-1.0531132 0.99194193 -0.051649742 0
-1.065448 0.97853768 -0.051646277 0
-1.0779636 0.96529472 -0.051659647 0
-1.0818437 0.94449627 -0.051271565 0
-1.1068012 0.94199228 -0.051888093 0
-1.1180263 0.92752695 -0.051862668 0
-1.1271728 0.91140038 -0.051750485 0
-1.1415851 0.8995201 -0.051888026 0
-1.1542796 0.88619488 -0.051953688 0
-1.1611692 0.86846668 -0.051767465 0
-1.1758142 0.85654694 -0.051935397 0
-1.1878122 0.84260076 -0.051992577 0
-1.2147539 0.8389222 -0.052705277 0
-1.2183774 0.81896067 -0.052410904 0
-1.2318408 0.80567944 -0.052549474 0
-1.2467357 0.79318964 -0.052754618 0
