# .PCD v0.7 - Point Cloud Data file format
VERSION 0.7
FIELDS x y z intensity
SIZE 4 4 4 4
TYPE F F F F
COUNT 1 1 1 1
WIDTH 1359
HEIGHT 1
VIEWPOINT 0 0 0 1 0 0 0
POINTS 1359
DATA ascii
-0.67910784 -0.45647815 0.40941155 0
-0.68211782 -0.45850137 0.48742199 0
-1.2889934 -0.89019287 -0.055926356 0
-0.84680551 -0.58481312 0.34238189 0
-0.69207758 -0.4779563 0.34823686 0
-0.68322504 -0.47184268 0.41544268 0
-0.68893462 -0.47578576 0.49653485 0
-1.2798988 -0.90792441 -0.056023363 0
-0.84914452 -0.60235935 0.34636694 0
-0.69115144 -0.49028349 0.35084954 0
-0.67932558 -0.48189458 0.41672832 0
-0.68441671 -0.48550609 0.49764547 0
-1.272191 -0.92675477 -0.056192338 0
-0.83953029 -0.61157376 0.34555918 0
-0.68969899 -0.50242597 0.35329583 0
-0.68615377 -0.49984339 0.42474446 0
-0.68311715 -0.49763128 0.50121707 0
-1.2576669 -0.94063973 -0.056069549 0
-0.82852119 -0.61967117 0.34421223 0
-0.69700789 -0.5213092 0.36037382 0
-0.68153393 -0.50973582 0.42582422 0
-0.68658626 -0.51351458 0.50846654 0
-1.2483741 -0.95843577 -0.056188852 0
-0.82179582 -0.63093144 0.34469154 0
-0.69491607 -0.53351986 0.36273703 0
-0.68776202 -0.52802736 0.43383548 0
-0.68107927 -0.52289671 0.50922412 0
-1.2309921 -0.96996891 -0.055951804 0
-0.80701053 -0.63588965 0.34182146 0
-0.69944 -0.55112869 0.36869177 0
-0.68245983 -0.53774905 0.43472782 0
-0.69033808 -0.54395676 0.52122658 0
-1.2266443 -0.99183029 -0.056317396 0
-0.80251771 -0.64889336 0.3433522 0
-0.68593591 -0.55462861 0.36522594 0
-0.68219668 -0.55160517 0.43894997 0
-0.68254507 -0.55188686 0.52054846 0
-1.2030333 -0.9980498 -0.055805951 0
-0.79539508 -0.6598686 0.34383261 0
-0.70069742 -0.58130634 0.37695327 0
-0.68111473 -0.56506032 0.44279695 0
-0.68195343 -0.56575614 0.52548879 0
-1.1959329 -1.0178518 -0.056066688 0
-0.78802657 -0.67068499 0.34427086 0
-0.69448823 -0.59107506 0.37758708 0
-0.67450029 -0.57406342 0.44316119 0
-0.68120402 -0.5797689 0.53049481 0
-1.1796162 -1.0298558 -0.055905275 0
-0.77382702 -0.67558438 0.34175685 0
-0.68876535 -0.60132188 0.37856239 0
-0.68355757 -0.59677523 0.45401335 0
-0.68400168 -0.59716296 0.53848684 0
-1.165608 -1.0437784 -0.055859864 0
-0.76363343 -0.68381834 0.34103075 0
-0.68434507 -0.61281723 0.38034406 0
-0.68730325 -0.61546618 0.46161214 0
-0.68166542 -0.61041766 0.54265589 0
-1.157315 -1.0629109 -0.056099411 0
-0.75589925 -0.69423926 0.34145379 0
-0.70054007 -0.64339584 0.39381644 0
-0.68397814 -0.62818485 0.4646548 0
-0.68410808 -0.62830418 0.55085504 0
-1.1449103 -1.0784068 -0.056151908 0
-0.75349414 -0.70972657 0.34437707 0
-0.69455534 -0.65421122 0.39505181 0
-0.68425512 -0.64450932 0.47031909 0
-0.67556828 -0.63632709 0.55038702 0
-1.1223124 -1.0841123 -0.05570871 0
-0.74135292 -0.71611953 0.34292221 0
-0.68706131 -0.66367584 0.39551136 0
-0.68050712 -0.6573447 0.47339481 0
-0.68277901 -0.65953934 0.56298316 0
-1.1055158 -1.095129 -0.055555072 0
-0.73072791 -0.72386241 0.34219664 0
-0.6820057 -0.67559797 0.39746684 0
-0.68109274 -0.67469358 0.47967434 0
-0.68218899 -0.67577952 0.56946802 0
-1.099486 -1.1169333 -0.055954408 0
-0.72704601 -0.73858327 0.34480041 0
-0.68742543 -0.69833392 0.40571806 0
-0.67399406 -0.68468946 0.4807089 0
-0.69057286 -0.70153135 0.58379453 0
-1.0861542 -1.1315417 -0.055996627 0
-0.84357363 -0.87882441 0.043490395 0
-0.84634155 -0.88170797 0.1313459 0
-0.8421008 -0.87729007 0.21931259 0
-0.84183174 -0.87700975 0.31015354 0
-0.7072373 -0.7367909 0.3397792 0
-0.68155831 -0.7100389 0.40749991 0
-0.68236244 -0.71087658 0.49302277 0
-0.68100709 -0.70946461 0.58321393 0
-1.0743934 -1.1478769 -0.056131043 0
-0.81045777 -0.86588925 0.042341881 0
-0.81202292 -0.86756152 0.1277052 0
-0.80900401 -0.86433607 0.21351063 0
-0.81844485 -0.87442261 0.30556965 0
-0.6992631 -0.74708939 0.34044084 0
-0.68590397 -0.73281658 0.41558245 0
-0.68587005 -0.73278034 0.50218427 0
-0.68323094 -0.72996074 0.59294331 0
-1.0546914 -1.1556559 -0.055857569 0
-0.79615617 -0.87237126 0.042165268 0
-0.79299706 -0.86890978 0.12642376 0
-0.79259574 -0.86847001 0.21204959 0
-0.79398531 -0.86999255 0.30050391 0
-0.69208008 -0.75833207 0.3415657 0
-0.67346871 -0.73793906 0.41364536 0
-0.68506914 -0.75064999 0.5084784 0
-0.68267506 -0.74802673 0.60058779 0
-1.0455248 -1.1749893 -0.056151241 0
-0.78092229 -0.87762171 0.041940425 0
-0.78526825 -0.88250577 0.12695317 0
-0.77483112 -0.8707763 0.21021375 0
-0.77829564 -0.87466985 0.29871061 0
-0.69710749 -0.78342837 0.34888801 0
-0.68197858 -0.76642609 0.42476609 0
-0.68699175 -0.77206004 0.51708031 0
-0.68430591 -0.7690416 0.61049372 0
-1.0275726 -1.1845162 -0.055983722 0
-0.76623142 -0.88325971 0.041745454 0
-0.76490676 -0.8817327 0.12544641 0
-0.76884097 -0.88626778 0.21159959 0
-0.76405793 -0.88075423 0.29747918 0
-0.69212115 -0.7978304 0.35139263 0
-0.67948288 -0.78326184 0.42932078 0
-0.68110269 -0.78512907 0.5200479 0
-0.68264759 -0.78690988 0.61780536 0
-1.010056 -1.19438 -0.055844359 0
-0.74538457 -0.88140893 0.041211102 0
-0.75088328 -0.88791108 0.12497029 0
-0.75590569 -0.89385003 0.21112056 0
-0.76262361 -0.9017939 0.30131805 0
-0.69204021 -0.81832981 0.35655493 0
-0.6752736 -0.79850346 0.43297991 0
-0.68276173 -0.80735809 0.52903509 0
-0.68140781 -0.80575716 0.62581623 0
-0.99975759 -1.2128509 -0.056114916 0
-0.74357182 -0.90206039 0.041735586 0
-0.73609126 -0.8929854 0.12437004 0
-0.73684049 -0.89389431 0.20892295 0
-0.74614275 -0.90517926 0.29928613 0
-0.69410115 -0.84204531 0.363051 0
-0.68330884 -0.82895273 0.44478977 0
-0.68771565 -0.83429873 0.54097098 0
-0.68490392 -0.83088773 0.63858563 0
-0.98420864 -1.2250959 -0.056103602 0
-0.73048657 -0.90927482 0.04164049 0
-0.73836172 -0.91907734 0.12669902 0
-0.73451197 -0.91428542 0.21151032 0
-0.73542297 -0.91541934 0.29958621 0
-0.69336396 -0.86306632 0.3683207 0
-0.67954129 -0.84586048 0.44923496 0
-0.68102157 -0.8477031 0.54405892 0
-0.68381613 -0.85118169 0.64751351 0
-0.96663517 -1.2347471 -0.055983718 0
-0.72204798 -0.92231965 0.041818187 0
-0.71741903 -0.91640675 0.12507559 0
-0.72202837 -0.92229456 0.21124308 0
-0.71953106 -0.91910458 0.29780346 0
-0.69353873 -0.88590282 0.37430975 0
-0.6792497 -0.86765057 0.45622885 0
-0.67883956 -0.86712664 0.55099517 0
-0.67757887 -0.8655163 0.65187585 0
-0.94872558 -1.2438232 -0.055849146 0
-0.71665889 -0.93957299 0.042187952 0
-0.71133775 -0.93259674 0.12605275 0
-0.72049636 -0.94460404 0.21425787 0
-0.71681672 -0.93977988 0.30155399 0
-0.68773764 -0.90165591 0.37727672 0
-0.68054569 -0.89222693 0.46460873 0
-0.67945534 -0.89079738 0.5605551 0
-0.68052524 -0.89220011 0.66546631 0
-0.93639439 -1.2602531 -0.056052983 0
-0.71034563 -0.95602375 0.042521603 0
-0.71837878 -0.9668352 0.12944758 0
-0.71713269 -0.96515816 0.21685456 0
-0.71779293 -0.96604675 0.30705783 0
-0.68767345 -0.92551029 0.38360432 0
-0.678101 -0.91262716 0.47074801 0
-0.68341458 -0.91977847 0.57333136 0
-0.68518573 -0.92216218 0.68132472 0
-0.92372859 -1.2764714 -0.056252521 0
-0.71856362 -0.99296033 0.043758538 0
-0.71428967 -0.98705429 0.13094003 0
-0.71954423 -0.99431545 0.22135237 0
-0.71675724 -0.99046415 0.31192538 0
-0.69231075 -0.95668232 0.39288002 0
-0.67703545 -0.93557388 0.47814885 0
-0.67608213 -0.93425655 0.5770036 0
-0.68201596 -0.94245631 0.68991882 0
-0.89969611 -1.2768083 -0.05576368 0
-0.61913413 -0.87864727 0.03837429 0
-0.61453366 -0.87211853 0.11465732 0
-0.77392554 -1.0983202 0.34279606 0
-0.6779393 -0.96210092 0.39156842 0
-0.68064201 -0.96593648 0.48924735 0
-0.68503004 -0.9721638 0.59504074 0
-0.88604265 -1.2916716 -0.055921111 0
-0.59722716 -0.87063682 0.037693001 0
-0.60554105 -0.88275683 0.11504435 0
-0.68284184 -0.99544579 0.4016082 0
-0.6822083 -0.99452221 0.60341996 0
-0.86446369 -1.2948692 -0.055583864 0
-0.58432609 -0.87525457 0.037571389 0
-0.57974058 -0.86838609 0.11221121 0
-0.85237718 -1.3122494 -0.055864766 0
-0.56739193 -0.87350976 0.037186846 0
-0.83575761 -1.3228317 -0.055862818 0
-0.55155939 -0.87300462 0.036866743 0
-0.82082033 -1.3361558 -0.055984568 0
-0.53541762 -0.8715688 0.036518496 0
-0.80383545 -1.3462242 -0.055977881 0
-0.51811308 -0.86771041 0.03608061 0
-0.52109522 -0.87270468 0.10923628 0
-0.79200393 -1.3651724 -0.05634661 0
-0.50752473 -0.87481719 0.036107518 0
-0.50593424 -0.87207574 0.10835152 0
-0.77122903 -1.3687838 -0.056090392 0
-0.75295299 -1.3765938 -0.056017458 0
-0.74040705 -1.3950976 -0.056386568 0
-0.71988255 -1.3986756 -0.056160346 0
-0.44699234 -0.86847121 0.17615594 0
-0.70118272 -1.4055606 -0.056077827 0
-0.43732452 -0.87664187 0.17668225 0
-0.68419474 -1.4158617 -0.056140628 0
-0.66823906 -1.4284813 -0.056302898 0
-0.64829189 -1.4325662 -0.056137692 0
-0.62998402 -1.4401153 -0.056118205 0
-0.6095922 -1.4427053 -0.055915572 0
-0.59199828 -1.4517864 -0.055974178 0
-0.57370371 -1.4592069 -0.055977307 0
-0.55531216 -1.4663866 -0.055980045 0
-0.53623796 -1.4717072 -0.055920955 0
-0.52098638 -1.487828 -0.056279764 0
-0.4991301 -1.4851016 -0.055934448 0
-0.4798224 -1.4895023 -0.055868205 0
-0.45920241 -1.4894986 -0.05564677 0
-0.44280648 -1.5032936 -0.05594939 0
-0.42265609 -1.5045245 -0.055792697 0
-0.40725461 -1.5231001 -0.056286912 0
-0.38870728 -1.5307168 -0.056383032 0
-0.36743838 -1.5273238 -0.056083184 0
-0.34830916 -1.5324045 -0.056104243 0
-0.32851088 -1.5344461 -0.056023099 0
-0.30918437 -1.5385607 -0.056026734 0
-0.29054502 -1.5463634 -0.056173187 0
-0.26927531 -1.5397432 -0.055805106 0
-0.24995935 -1.5435836 -0.055825792 0
-0.23096745 -1.5497184 -0.055938043 0
-0.21172655 -1.5546349 -0.056014832 0
-0.19179508 -1.5544225 -0.055915724 0
-0.17212366 -1.5559534 -0.055888396 0
-0.15281509 -1.5610251 -0.055997014 0
-0.13293931 -1.5603787 -0.055909343 0
-0.11405108 -1.5725368 -0.056289054 0
-0.094016038 -1.5700762 -0.056154151 0
-0.074064396 -1.5674314 -0.056021765 0
-0.054432996 -1.5714248 -0.056135543 0
-0.034612603 -1.5706272 -0.056087032 0
-0.014788025 -1.5660949 -0.0559141 0
0.0049387366 -1.5682397 -0.055988457 0
0.024597706 -1.5625472 -0.055791862 0
0.044293344 -1.5629332 -0.055821136 0
0.064089626 -1.5651963 -0.055926353 0
0.083907194 -1.5664109 -0.056003064 0
0.10402897 -1.571354 -0.056222167 0
0.12380882 -1.5699557 -0.056223463 0
0.14311796 -1.5633711 -0.056047745 0
0.16217819 -1.5555638 -0.05583664 0
0.18304846 -1.564481 -0.056235 0
0.11633165 -0.99426502 0.25539926 0
0.11563639 -0.98832273 0.33105221 0
0.11589361 -0.99052113 0.41290894 0
0.20182484 -1.5550576 -0.055983193 0
0.12767787 -0.98375618 0.25309274 0
0.12922893 -0.99570715 0.33404431 0
0.12986131 -1.0005796 0.41775048 0
0.12604579 -0.97118104 0.48999634 0
0.22103731 -1.5499277 -0.055894282 0
0.13738857 -0.96337748 0.24827528 0
0.136895 -0.95991647 0.32258984 0
0.13684095 -0.95953751 0.40130267 0
0.13879408 -0.97323292 0.4918744 0
0.2418451 -1.5554461 -0.056198657 0
0.15199511 -0.97756869 0.035319801 0
0.1517331 -0.97588354 0.10613765 0
0.15314117 -0.98493969 0.17976688 0
0.15176277 -0.97607434 0.25201994 0
0.14946003 -0.96126413 0.32364956 0
0.15083754 -0.97012365 0.4064922 0
0.14872724 -0.95655113 0.48435149 0
0.26193592 -1.5553954 -0.056311529 0
0.16549951 -0.98274869 0.035579432 0
0.16487892 -0.97906351 0.10670086 0
0.16612937 -0.98648882 0.18041714 0
0.16648628 -0.98860818 0.25577718 0
0.16631298 -0.98757911 0.33318827 0
0.16661429 -0.98936838 0.41540208 0
0.16003217 -0.95028317 0.48215988 0
0.27973926 -1.5422696 -0.055959418 0
0.62840307 -3.4645367 0.1257066 0
0.17288403 -0.95315105 0.48468116 0
0.30104023 -1.5484189 -0.056315616 0
0.67141473 -3.4534628 0.1256016 0
0.18173602 -0.93477041 0.47646043 0
0.31751016 -1.5300362 -0.055788033 0
0.71768534 -3.4584236 0.1261007 0
0.19074874 -0.91919106 0.46970654 0
0.33890003 -1.5356596 -0.056144223 0
0.76130372 -3.4496996 0.12612216 0
0.19762592 -0.8955034 0.45883745 0
0.35645482 -1.5237721 -0.055869285 0
0.80676955 -3.448776 0.12644978 0
0.20974353 -0.89661103 0.46072167 0
0.3749049 -1.5163004 -0.055764005 0
0.85302389 -3.4500494 0.12688024 0
0.55368108 -2.2393594 0.24790943 0
0.55272031 -2.2354736 0.41530517 0
0.21801919 -0.88177711 0.45447397 0
0.39446875 -1.5133837 -0.05583499 0
0.90163767 -3.4591427 0.1276221 0
0.23140283 -0.88777953 0.4590331 0
0.4142074 -1.5109035 -0.055931482 0
0.94286764 -3.4392962 0.12731782 0
0.2389787 -0.8717221 0.4522506 0
0.43231121 -1.502484 -0.055816896 0
0.25617632 -0.89033282 0.46354267 0
0.44997698 -1.4928805 -0.055666216 0
0.25524151 -0.84681016 0.44252133 0
0.4726643 -1.4995513 -0.056132436 0
0.26563978 -0.84275562 0.44211549 0
0.49218401 -1.4955351 -0.056209642 0
0.27223673 -0.82721007 0.43572405 0
0.50949442 -1.4849025 -0.056046706 0
0.29561955 -0.86157215 0.45574853 0
0.52798098 -1.4778945 -0.05602869 0
0.54573017 -1.4689291 -0.05594489 0
0.56141418 -1.4547677 -0.055670377 0
0.58159423 -1.4523463 -0.055853542 0
0.60168767 -1.4493712 -0.05602606 0
0.62081742 -1.4438388 -0.056109946 0
0.63692218 -1.4313552 -0.055932056 0
0.36984411 -0.83115071 0.37665808 0
0.6596427 -1.4335417 -0.05633761 0
0.67195916 -1.4131743 -0.05586528 0
0.39700434 -0.83492619 0.38277933 0
0.35323012 -0.7428661 0.48782349 0
0.6966902 -1.4188384 -0.056431524 0
1.113217 -2.2671125 0.45550278 0
0.39589751 -0.8062616 0.37189385 0
0.3621949 -0.73762482 0.48733804 0
0.70634222 -1.3938559 -0.055787235 0
1.1501843 -2.2697089 0.45889801 0
0.40020725 -0.7897464 0.36657155 0
0.37452886 -0.73907411 0.49137247 0
0.72884965 -1.3944427 -0.056173597 0
1.1721568 -2.2425826 0.45636162 0
0.4198955 -0.80334842 0.37530959 0
0.38294473 -0.73265386 0.49027109 0
0.74427289 -1.3813009 -0.056017295 0
1.2061323 -2.2384689 0.4585788 0
0.43204024 -0.8018263 0.37711021 0
0.38425502 -0.71314144 0.48041371 0
0.7616145 -1.3718352 -0.056017913 0
1.2375538 -2.2291067 0.45981687 0
0.44803891 -0.80701661 0.3821744 0
0.3990702 -0.71881324 0.48758116 0
0.78154051 -1.3668823 -0.056213073 0
1.2755716 -2.2309225 0.46346799 0
0.47732466 -0.83482128 0.39815652 0
0.40436596 -0.70721948 0.48313251 0
0.79135144 -1.3444668 -0.055696622 0
1.3188227 -2.2406144 0.46889433 0
0.49442464 -0.84000289 0.4035652 0
0.40437815 -0.68701839 0.47277337 0
0.80954784 -1.3365932 -0.055788323 0
1.3592407 -2.2441561 0.47317985 0
0.49688122 -0.82036912 0.39710698 0
0.42305073 -0.69847226 0.48428288 0
0.83057451 -1.3331341 -0.056076039 0
1.3983089 -2.24439 0.47690395 0
0.43489033 -0.69803143 0.48773548 0
0.84225714 -1.3147075 -0.055742655 0
1.4315724 -2.2345896 0.478614 0
0.43706989 -0.68223709 0.48050702 0
0.858908 -1.304247 -0.055753291 0
1.4726967 -2.2362819 0.4829101 0
0.58224785 -0.88414025 0.43831459 0
0.44417462 -0.67447674 0.47894263 0
0.88368124 -1.3057698 -0.056289595 0
1.5116404 -2.2336724 0.48641849 0
0.58754683 -0.86818737 0.43403935 0
0.45530421 -0.67277932 0.48177031 0
0.88710517 -1.2759176 -0.055479869 0
1.5478959 -2.2263288 0.48902512 0
0.6005733 -0.8638007 0.43559256 0
0.45446992 -0.65366119 0.47214058 0
0.90693259 -1.2700135 -0.055715304 0
0.61629748 -0.86302567 0.43908036 0
0.45795357 -0.64129043 0.46733338 0
0.92526102 -1.261779 -0.055860762 0
0.62800997 -0.8564176 0.43970689 0
0.46910614 -0.63972032 0.4704566 0
0.9378249 -1.2457118 -0.05566784 0
1.6839421 -2.2367783 0.099956207 0
1.6842542 -2.2371929 0.30094752 0
0.65308481 -0.86749184 0.44957933 0
0.47376084 -0.629296 0.46714064 0
0.96429658 -1.2478595 -0.056301977 0
0.65867656 -0.85236824 0.44600466 0
0.48418856 -0.62656999 0.46960577 0
0.97261095 -1.2263874 -0.055881336 0
0.68338823 -0.86169976 0.45535409 0
0.49277499 -0.62135124 0.47030777 0
0.98496044 -1.2103387 -0.055710796 0
0.4962807 -0.6098395 0.46628758 0
1.0058644 -1.2047186 -0.056030668 0
0.49656281 -0.59473068 0.45947984 0
1.0191209 -1.1898185 -0.055930097 0
0.50719017 -0.59214193 0.46237734 0
1.0344462 -1.1773758 -0.055953078 0
0.51587582 -0.58715445 0.46351853 0
1.0541244 -1.1697344 -0.056216288 0
1.7640409 -1.9575104 0.09407603 0
0.52324349 -0.58062965 0.46353233 0
1.0587993 -1.1455818 -0.055691879 0
1.768526 -1.9134799 0.093022861 0
0.53561062 -0.57951099 0.46798649 0
1.0686151 -1.1273861 -0.055457074 0
0.93913156 -0.99078131 0.048737369 0
0.53599733 -0.56547582 0.4620662 0
1.0930719 -1.1244854 -0.055987019 0
0.94744831 -0.97467667 0.048528191 0
1.3917912 -1.4317894 0.21459183 0
0.54778123 -0.56352371 0.4660705 0
1.1042163 -1.1076963 -0.055838976 0
0.95275831 -0.95576096 0.048179913 0
1.3999032 -1.404315 0.21309917 0
0.55055016 -0.55228525 0.46247262 0
1.1209073 -1.0964746 -0.055980373 0
0.96619141 -0.94513112 0.048253547 0
1.3044627 -1.276029 0.19610932 0
1.2938849 -1.2656817 0.32643056 0
1.2976201 -1.2693355 0.46312124 0
0.5585776 -0.54640216 0.46339941 0
1.1351645 -1.0827893 -0.056007016 0
0.98489219 -0.93945038 0.048592847 0
1.3987597 -1.3342226 0.20774344 0
0.74723899 -0.71276224 0.3435615 0
0.56769019 -0.54149759 0.4652656 0
1.1515212 -1.0710268 -0.056144178 0
1.0224973 -0.95102197 0.049853414 0
1.4004761 -1.302579 0.20554596 0
0.748622 -0.69629133 0.34013918 0
0.57048261 -0.53060436 0.46204159 0
1.1633629 -1.0550349 -0.056069348 0
1.3939954 -1.2641917 0.067184895 0
1.398484 -1.2682623 0.20289357 0
0.76180977 -0.69087291 0.34215125 0
0.58553869 -0.53101552 0.46878293 0
1.1658853 -1.0308691 -0.055560883 0
1.3939949 -1.2325624 0.066431575 0
1.3970224 -1.2352393 0.200409 0
1.4037507 -1.2411884 0.3379344 0
0.76880002 -0.67976862 0.34141925 0
0.58503878 -0.51728797 0.46313101 0
1.1897602 -1.0255787 -0.056078769 0
1.3977102 -1.2048326 0.065880395 0
1.4008648 -1.207552 0.19876313 0
1.4008924 -1.2075757 0.33355919 0
0.7942751 -0.68466878 0.34887615 0
0.592529 -0.51076275 0.46393225 0
1.2022812 -1.0102667 -0.056064881 0
1.3888305 -1.1670223 0.064764068 0
1.3960036 -1.1730498 0.19596201 0
1.4028374 -1.1787922 0.3304618 0
1.4851243 -1.2479372 0.49491283 0
0.81922412 -0.68838698 0.35599905 0
0.8373853 -0.70364761 0.45286033 0
0.59584141 -0.50068039 0.4615528 0
1.2065942 -0.98824036 -0.055681292 0
1.4024295 -1.1486359 0.064718597 0
1.4011774 -1.1476104 0.19464432 0
1.4072847 -1.1526124 0.32806441 0
1.5035634 -1.2314678 0.49585062 0
0.84345955 -0.69082111 0.36272177 0
0.80848014 -0.66217184 0.43268475 0
0.60692918 -0.49709496 0.46525598 0
1.2258327 -0.97846997 -0.055996075 0
1.4018008 -1.1189291 0.064034298 0
1.3995941 -1.1171677 0.1924549 0
1.4024429 -1.1194417 0.32362396 0
1.546845 -1.2347046 0.50495678 0
0.83238626 -0.66441768 0.35433376 0
0.80430484 -0.64200288 0.42608985 0
0.61068821 -0.48745644 0.46339548 0
1.2346997 -0.96034747 -0.055844288 0
1.3987585 -1.0879521 0.063264512 0
1.3968745 -1.0864867 0.19018458 0
1.3919061 -1.0826223 0.31802148 0
0.80430835 -0.62558973 0.42188504 0
0.62159032 -0.48347196 0.46701145 0
1.2444757 -0.94304413 -0.055744931 0
1.4189179 -1.0752337 0.063558884 0
1.3989965 -1.0601376 0.18864101 0
1.3972948 -1.058848 0.31618121 0
0.81996673 -0.62135792 0.42596051 0
0.62121588 -0.47074762 0.46223986 0
1.2655326 -0.93415105 -0.056156788 0
1.4133681 -1.0432756 0.062716849 0
1.3976713 -1.031689 0.18669578 0
1.4002233 -1.0335728 0.31387398 0
0.8417666 -0.6213488 0.43318635 0
0.64052439 -0.47280213 0.47213966 0
1.2731189 -0.91521263 -0.055977594 0
1.4137098 -1.0162798 0.062159214 0
1.4020441 -1.0078937 0.18556987 0
1.3937881 -1.0019586 0.30957875 0
0.6430819 -0.46229517 0.46969664 0
1.2817416 -0.89715016 -0.05585558 0
1.4123089 -0.98854017 0.06154542 0
1.3956515 -0.97688091 0.18308112 0
1.3979883 -0.97851664 0.30775046 0
1.397916 -0.97846597 0.43533963 0
0.64834487 -0.45380649 0.46932968 0
1.3047256 -0.88897306 -0.056364886 0
1.4314559 -0.97532052 0.061839703 0
1.3948501 -0.95037925 0.18139175 0
1.4019784 -0.95523608 0.30595663 0
1.4033763 -0.95618856 0.43325606 0
0.66643286 -0.45407313 0.47824645 0
1.3178753 -0.87384033 -0.056453124 0
1.475733 -0.97851068 0.063215196 0
1.3928214 -0.92353469 0.17960137 0
1.4019872 -0.92961216 0.30337989 0
1.4040663 -0.93099082 0.42981577 0
0.68461919 -0.45394877 0.48715663 0
1.3218595 -0.85271722 -0.056159381 0
1.5088573 -0.97334743 0.064104006 0
1.4019569 -0.90438718 0.17929666 0
1.394475 -0.89956069 0.29927939 0
1.4029824 -0.90504873 0.42596143 0
0.68302941 -0.44061488 0.48203912 0
1.3326125 -0.8360818 -0.056164484 0
1.5584706 -0.97778529 0.065683529 0
1.4034809 -0.8805446 0.17805938 0
1.3991312 -0.8778156 0.29788277 0
1.3913546 -0.87293655 0.4190605 0
0.68896097 -0.43225449 0.48234567 0
1.3265443 -0.80917764 -0.055474889 0
1.5898814 -0.96981049 0.066487409 0
1.4021875 -0.8553192 0.17651488 0
1.3928013 -0.8495937 0.29423407 0
1.3969231 -0.85210794 0.41747287 0
0.70420098 -0.429555 0.48918962 0
1.353413 -0.80236179 -0.056171544 0
1.633018 -0.96812373 0.067776166 0
1.3960391 -0.82763237 0.17441511 0
1.3978654 -0.82871515 0.29307616 0
1.4025137 -0.83147085 0.41598165 0
0.69151866 -0.40996218 0.47675559 0
1.3507819 -0.7779848 -0.055651341 0
1.4032228 -0.80818826 0.17402737 0
1.3912222 -0.8012765 0.28954494 0
1.402449 -0.8077426 0.41291296 0
0.69562531 -0.40064639 0.47607088 0
1.3716979 -0.76719463 -0.056110602 0
1.3998594 -0.78294545 0.17237386 0
1.3926799 -0.77892995 0.28778416 0
1.3979425 -0.78187335 0.40865502 0
0.70228964 -0.39279267 0.477209 0
1.3813329 -0.74990803 -0.056114011 0
1.400702 -0.76042324 0.17128494 0
1.3939105 -0.75673628 0.28604668 0
1.3890349 -0.7540893 0.40324327 0
1.3940891 -0.73425901 -0.056252148 0
1.4070953 -0.74110931 0.17091201 0
1.3955816 -0.73504508 0.28446764 0
1.3884015 -0.73126334 0.40035447 0
1.3899746 -0.70988095 -0.055721015 0
1.4021373 -0.71609259 0.16920111 0
1.3988695 -0.71442372 0.28328165 0
1.396538 -0.71323299 0.40007919 0
1.3907629 -0.71028358 0.51954907 0
1.401132 -0.69347608 -0.055813801 0
1.4118415 -0.69877666 0.16929691 0
1.3987366 -0.69229048 0.28146705 0
1.39525 -0.69056487 0.39718756 0
1.4035212 -0.69465864 0.52100611 0
1.4106456 -0.67620718 -0.055849154 0
1.434164 -0.68748105 0.17092204 0
1.3937906 -0.66812766 0.27875671 0
1.401144 -0.67165256 0.39642638 0
1.4089243 -0.67538214 0.51981366 0
1.4159287 -0.65694457 -0.055726387 0
1.464744 -0.67959332 0.17353287 0
1.3969908 -0.64815807 0.27774239 0
1.3961977 -0.64779007 0.39268789 0
1.3950591 -0.6472618 0.5116505 0
1.4286858 -0.64112753 -0.0559063 0
1.4878556 -0.66768014 0.17526102 0
1.3954459 -0.62621099 0.27584565 0
1.398347 -0.62751281 0.39103895 0
1.4081752 -0.63192332 0.51350182 0
1.4385362 -0.62390792 -0.055979885 0
1.5190169 -0.65881324 0.17794032 0
1.3989264 -0.60672873 0.27500159 0
1.395553 -0.60526568 0.38809553 0
1.4069574 -0.61021191 0.51021534 0
1.4427073 -0.60425007 -0.055841684 0
1.5631033 -0.6546756 0.18212454 0
1.3934256 -0.5836094 0.27245396 0
1.3941139 -0.58389765 0.38562003 0
1.394188 -0.58392876 0.50287837 0
1.4532834 -0.5872823 -0.055960372 0
1.5939113 -0.64411104 0.18475446 0
1.4021666 -0.56662565 0.27274635 0
1.398412 -0.56510836 0.38481009 0
1.3902102 -0.56179398 0.49885234 0
1.4564716 -0.56734353 -0.055803619 0
1.6291056 -0.63459015 0.18789278 0
1.4170649 -0.55199331 0.27427053 0
1.4040004 -0.54690427 0.38442236 0
1.3944846 -0.54319751 0.49789223 0
0.83358401 -0.32470834 0.44760117 0
1.4629953 -0.54877061 -0.055784386 0
1.4139454 -0.53037196 0.27235255 0
1.4001342 -0.52519137 0.38152277 0
1.3921604 -0.52220035 0.49467537 0
0.83467913 -0.31308874 0.44603688 0
1.4702065 -0.53045684 -0.055800233 0
1.3999299 -0.50510079 0.26840651 0
1.398119 -0.50444734 0.37921268 0
1.4042737 -0.50666803 0.49667323 0
0.82456976 -0.29750833 0.43859792 0
1.4744042 -0.51108342 -0.055710878 0
1.3973637 -0.48437828 0.26672393 0
1.3943534 -0.48333478 0.37651071 0
1.3915578 -0.48236573 0.48998857 0
1.3919628 -0.4825061 0.60996538 0
0.81761533 -0.28341591 0.43296614 0
1.4886528 -0.49511594 -0.056009248 0
1.4010601 -0.46598315 0.26628834 0
1.403567 -0.4668169 0.37738138 0
1.3978127 -0.46490309 0.49009082 0
1.3991572 -0.46535024 0.61050177 0
0.86105508 -0.28638113 0.45402393 0
1.4925264 -0.47561812 -0.055925224 0
1.4089093 -0.44897217 0.26668453 0
1.4023103 -0.44686925 0.3755008 0
1.4017423 -0.44668826 0.48945767 0
1.4017216 -0.44668165 0.60911822 0
0.86385369 -0.27528119 0.45363584 0
1.505087 -0.45882723 -0.056174926 0
1.4095459 -0.42970145 0.26575977 0
1.3887078 -0.4233489 0.37040156 0
1.4050547 -0.42833227 0.48869219 0
1.4006647 -0.426994 0.60627437 0
0.87784773 -0.26761276 0.45917857 0
1.5044233 -0.43799949 -0.055939864 0
1.4263656 -0.41527373 0.2679238 0
1.4002705 -0.40767634 0.37208688 0
1.3977429 -0.40694046 0.48432842 0
1.3946496 -0.40603989 0.60140997 0
0.87539458 -0.25486338 0.45618051 0
1.5118378 -0.41958258 -0.056014664 0
1.4552239 -0.40387043 0.2723676 0
1.4019079 -0.38907358 0.3711907 0
1.3971038 -0.38774028 0.4823769 0
1.3966508 -0.38761455 0.60012054 0
0.88339043 -0.24516866 0.45870209 0
1.5117784 -0.39913461 -0.055821821 0
1.4726526 -0.38880473 0.27469152 0
1.389797 -0.36692947 0.36673155 0
1.3947731 -0.36824328 0.47993314 0
1.3827422 -0.36506686 0.59212202 0
0.86716437 -0.22894579 0.44874415 0
1.5197216 -0.38082898 -0.055933617 0
1.5100889 -0.37841514 0.28076339 0
1.4058937 -0.35230473 0.36977914 0
1.3985974 -0.35047629 0.4796924 0
1.3940551 -0.34933805 0.59503561 0
0.87466687 -0.21918389 0.45116255 0
1.5202049 -0.36066926 -0.055779826 0
1.5449538 -0.36654097 0.28636479 0
1.3973508 -0.33152208 0.36640513 0
1.3946886 -0.33089048 0.4768849 0
1.388006 -0.32930502 0.59063679 0
0.88168263 -0.2091796 0.45338672 0
1.5188607 -0.34020817 -0.055568911 0
1.5775127 -0.3533456 0.29155192 0
1.4057021 -0.31486189 0.36752617 0
1.3938661 -0.31221074 0.47522172 0
1.391854 -0.31176007 0.59055692 0
0.90524346 -0.20276463 0.46415263 0
1.5414019 -0.32493103 -0.056239448 0
1.6089935 -0.33917952 0.29655725 0
1.3960824 -0.29429734 0.36401331 0
1.3958972 -0.2942583 0.47461328 0
1.398591 -0.29482618 0.5917933 0
0.91022575 -0.19187766 0.46543148 0
1.538142 -0.30406809 -0.055976365 0
1.6488478 -0.32595301 0.30312234 0
1.4103913 -0.27881366 0.36679971 0
1.3970298 -0.27617228 0.47377837 0
1.3936113 -0.27549648 0.58817166 0
0.9223237 -0.18232985 0.47040632 0
1.5342283 -0.28326994 -0.055699714 0
1.4146755 -0.26119649 0.36702943 0
1.3965247 -0.25784525 0.47246853 0
1.3936701 -0.2573182 0.58678246 0
0.94035399 -0.17362085 0.47844923 0
1.5495145 -0.26596212 -0.05612864 0
1.4119241 -0.24234581 0.36549485 0
1.3916564 -0.23886701 0.46976662 0
1.3901186 -0.23860307 0.58397585 0
0.94123751 -0.16155611 0.47782579 0
1.5502714 -0.24603893 -0.056039389 0
0.98267847 -0.15595795 0.035521973 0
0.9886744 -0.15690956 0.10758196 0
0.98679632 -0.15661149 0.18019481 0
0.99239075 -0.15749936 0.25635949 0
0.99055845 -0.15720856 0.33367759 0
0.99585491 -0.15804915 0.41748017 0
0.94422328 -0.14985485 0.47834566 0
1.5583024 -0.22723691 -0.056221802 0
0.97059917 -0.14153604 0.035018127 0
0.95545691 -0.13932794 0.10376828 0
0.96037877 -0.14004567 0.1750349 0
0.95865905 -0.1397949 0.24717142 0
0.98179245 -0.14316829 0.33009124 0
0.96445549 -0.14064015 0.40354255 0
0.95973712 -0.13995211 0.48527375 0
1.5598602 -0.20744109 -0.056179311 0
0.93901402 -0.12487663 0.033819158 0
0.98533714 -0.131037 0.10682578 0
0.99719816 -0.13261436 0.18142673 0
0.99352139 -0.13212541 0.25571075 0
0.98426193 -0.13089401 0.33034116 0
0.98535061 -0.13103878 0.41156235 0
0.97322172 -0.12942581 0.491229 0
1.5635667 -0.18793052 -0.056223113 0
0.93362981 -0.11221622 0.03357169 0
0.99198991 -0.11923072 0.10737576 0
0.99471825 -0.11955865 0.18068731 0
0.9854427 -0.11844379 0.25322753 0
0.97219479 -0.11685149 0.32577148 0
0.97120333 -0.11673231 0.40500721 0
1.553654 -0.16692251 -0.055786662 0
0.91971987 -0.098813482 0.033024151 0
1.4079057 -0.15126351 0.361269 0
1.3920053 -0.14955521 0.46577728 0
1.3992543 -0.15033402 0.5826757 0
1.5680171 -0.14851995 -0.056230787 0
0.90915167 -0.086113311 0.03260316 0
1.4012687 -0.13272581 0.35910863 0
1.4025552 -0.13284767 0.46871042 0
1.3948438 -0.13211726 0.5801003 0
1.5658997 -0.12844805 -0.056092408 0
0.91733307 -0.075247243 0.03285997 0
1.4065148 -0.11537398 0.36005223 0
1.4093531 -0.1156068 0.47045839 0
1.4003386 -0.11486736 0.58173788 0
1.5702285 -0.10891798 -0.056193881 0
0.93131322 -0.064599998 0.033328973 0
1.4174778 -0.098322518 0.36251295 0
1.3971992 -0.096915901 0.46595696 0
1.3922486 -0.096572511 0.57782608 0
1.5713556 -0.089131467 -0.056189597 0
1.4123437 -0.080111891 0.36091331 0
1.4047316 -0.079680115 0.46809727 0
1.3956695 -0.079166085 0.57878619 0
1.5667844 -0.069093548 -0.055990584 0
1.4010481 -0.061784755 0.35779962 0
1.3980988 -0.061654698 0.4655914 0
1.4011854 -0.061790809 0.58070493 0
1.5595098 -0.049107809 -0.055704109 0
1.4084716 -0.044351727 0.35952431 0
1.397993 -0.044021763 0.46533465 0
1.3864664 -0.0436588 0.57433146 0
1.5653824 -0.029569386 -0.055896141 0
1.4132382 -0.026695449 0.36062664 0
1.4071021 -0.026579542 0.46821818 0
1.3918676 -0.026291769 0.57638603 0
1.5780925 -0.0099354405 -0.056341052 0
1.4030684 -0.0088335155 0.35797477 0
1.3911964 -0.0087587703 0.46285209 0
1.4033626 -0.0088353669 0.58105409 0
1.5605136 0.0098247677 -0.055713456 0
1.4033335 0.0088351835 0.35804239 0
1.3984909 0.0088046947 0.46527898 0
1.4045349 0.0088427477 0.58153951 0
1.5716001 0.029686835 -0.056118157 0
1.4006112 0.02645693 0.3574045 0
1.3899311 0.026255187 0.46250445 0
1.394053 0.026333049 0.57729101 0
1.5642298 0.04925644 -0.055872705 0
1.4059978 0.044273831 0.35889286 0
1.4021717 0.044153348 0.46672556 0
1.3931944 0.043870661 0.57711846 0
1.568503 0.069169343 -0.056052007 0
1.4177278 0.062520318 0.3620593 0
1.4001188 0.061743774 0.46626407 0
1.4025667 0.061851721 0.58127737 0
1.5702821 0.089070581 -0.056151211 0
1.4027922 0.079570107 0.35847253 0
1.3900243 0.078845881 0.46319637 0
1.4045827 0.079671666 0.58248252 0
1.5634927 0.10845075 -0.055952825 0
1.8654276 0.12939429 0.066758193 0
1.8597746 0.12900217 0.20034891 0
1.8610402 0.12908997 0.33644265 0
1.4129844 0.098010831 0.36136377 0
1.4032899 0.097338386 0.46798819 0
1.4002901 0.097130306 0.58116359 0
1.5618058 0.12811223 -0.055945758 0
1.8030548 0.14790146 0.064587586 0
1.8019077 0.14780736 0.19430016 0
1.5713214 0.12889278 0.28433755 0
1.4018744 0.11499333 0.35886431 0
1.3872188 0.11379117 0.46306974 0
1.384536 0.11357109 0.57517302 0
1.5462784 0.14646088 -0.055451211 0
1.8007976 0.17056851 0.064578548 0
1.8034319 0.17081803 0.19468103 0
1.4550465 0.13781956 0.26359025 0
1.4076663 0.13333178 0.36074817 0
1.3869339 0.13136804 0.46349007 0
1.3962469 0.13225016 0.58068383 0
1.5645709 0.16809542 -0.056178659 0
1.1979963 0.12871112 0.043016154 0
1.1937132 0.12825096 0.12902582 0
1.1853082 0.12734793 0.21499902 0
1.2026603 0.12921222 0.30860299 0
1.4025683 0.15069006 0.46931174 0
1.396714 0.15006109 0.58161783 0
1.5555627 0.18696851 -0.055935301 0
1.1001281 0.13222823 0.039558671 0
1.0983057 0.13200919 0.11888368 0
1.1022365 0.13248165 0.20021766 0
1.1132712 0.13380796 0.28607541 0
1.3977462 0.16799998 0.46836895 0
1.4050047 0.16887242 0.58590931 0
1.5560756 0.20693778 -0.056043003 0
1.1058711 0.14706644 0.039828617 0
1.1136396 0.14809954 0.12073575 0
1.1101153 0.14763087 0.20197049 0
1.1076542 0.14730358 0.28508604 0
1.3883338 0.1846303 0.46595705 0
1.3999985 0.18618156 0.58475298 0
1.5441327 0.22517064 -0.055710576 0
1.1114959 0.16208208 0.040101521 0
1.1055689 0.16121779 0.12007134 0
1.1024766 0.16076685 0.2009331 0
1.10669 0.16138127 0.28533831 0
1.3929694 0.2031275 0.4683342 0
1.3889617 0.20254308 0.58116227 0
1.5515856 0.2462475 -0.05608689 0
1.0993807 0.17447942 0.03974054 0
1.1116768 0.1764309 0.12096639 0
1.10605 0.17553788 0.20197122 0
1.108528 0.17593117 0.28636068 0
1.394945 0.22138755 0.46989846 0
1.3865592 0.22005667 0.5812704 0
1.5512259 0.26625589 -0.056190629 0
1.1062871 0.1898856 0.040073451 0
1.1161231 0.19157386 0.12170305 0
1.1025457 0.18924342 0.20175049 0
1.1071131 0.19002739 0.28659061 0
1.3976991 0.23990421 0.47180644 0
1.3964132 0.23968348 0.58662009 0
1.5504745 0.28626955 -0.056289528 0
1.1108751 0.20510477 0.04033 0
1.1139873 0.20567937 0.12174293 0
1.1014919 0.20337231 0.20201023 0
1.1101032 0.20496224 0.28800988 0
1.3988401 0.25827277 0.47325188 0
1.4004656 0.25857288 0.58964354 0
1.5370282 0.30384791 -0.055935837 0
1.1142167 0.22026427 0.040548794 0
1.1147159 0.22036296 0.12211612 0
1.1139122 0.22020409 0.20478038 0
1.1125417 0.21993315 0.28933811 0
1.3919302 0.27516419 0.47204897 0
1.3972272 0.27621129 0.58969772 0
1.5349679 0.32357472 -0.056004696 0
1.1071801 0.23339608 0.040396471 0
1.1102122 0.23403527 0.12193593 0
1.1176674 0.23560685 0.20599982 0
1.1083546 0.23364368 0.28899142 0
1.4022938 0.29560673 0.47678816 0
1.3943686 0.2939361 0.59000665 0
1.527343 0.34210813 -0.055879243 0
1.1050736 0.24752438 0.040430129 0
1.1023123 0.24690591 0.12140013 0
1.1074286 0.24805187 0.20467214 0
1.1182593 0.25047785 0.29237318 0
1.4025356 0.31415263 0.47817749 0
1.4081032 0.31539971 0.59745139 0
1.5319524 0.36345637 -0.056210868 0
1.1011151 0.26124004 0.040402453 0
1.1138563 0.26426288 0.12302821 0
1.1075721 0.26277196 0.20529394 0
1.1101508 0.26338378 0.29109722 0
1.4000349 0.33215889 0.47871295 0
1.3975697 0.33157402 0.59470642 0
1.518075 0.38041636 -0.055873014 0
1.10715 0.27744213 0.040748842 0
1.0969416 0.27488402 0.12153263 0
1.113607 0.27906021 0.20704746 0
1.1079057 0.27763152 0.29140213 0
1.3982818 0.35039726 0.47958422 0
1.3926394 0.34898329 0.59443134 0
1.5194119 0.40114999 -0.056103688 0
1.1077547 0.29246563 0.040903408 0
1.1085131 0.29266587 0.1232132 0
1.1015865 0.29083711 0.20547716 0
1.1094339 0.29290897 0.29275098 0
1.3965893 0.36872277 0.48055807 0
1.3915207 0.36738455 0.59588122 0
1.5084667 0.41864699 -0.055889763 0
1.1093565 0.30788136 0.04110245 0
1.1082935 0.30758634 0.1236095 0
1.1121237 0.30864936 0.20815112 0
1.1180164 0.31028473 0.29602322 0
1.4032049 0.3894335 0.48448342 0
1.4013597 0.38892141 0.60214388 0
1.4991921 0.43647653 -0.055745352 0
1.104776 0.32164577 0.041079544 0
1.1195502 0.32594714 0.12531281 0
1.1170176 0.32520977 0.2098169 0
1.106524 0.32215467 0.29403111 0
1.3898941 0.40465537 0.48160875 0
1.3963935 0.40654761 0.602162 0
1.4943135 0.45554292 -0.055772822 0
1.4066745 0.42882609 0.37519374 0
1.3961136 0.42560658 0.48558241 0
1.396075 0.42559484 0.60428774 0
1.4985342 0.4775326 -0.056150336 0
1.4021885 0.44683048 0.37546819 0
1.3976877 0.44539618 0.48804191 0
1.3946143 0.44441679 0.60602975 0
1.4903808 0.49569061 -0.056074262 0
1.3908507 0.46258757 0.37396234 0
1.3969756 0.4646247 0.48979738 0
1.4021432 0.4663434 0.61180472 0
1.4845014 0.51458341 -0.0560924 0
1.3981397 0.48464727 0.37753311 0
1.3897839 0.48175082 0.48936397 0
1.3972542 0.48434034 0.61228412 0
1.4733657 0.53159666 -0.055920135 0
1.3962759 0.50378233 0.37871277 0
1.3869096 0.50040299 0.49053174 0
1.3917392 0.50214553 0.61258966 0
1.4649442 0.54950166 -0.055858701 0
1.3922637 0.52223909 0.37937811 0
1.3960205 0.52364832 0.49604702 0
1.3859769 0.51988095 0.61288619 0
1.4709563 0.57298583 -0.056358591 0
1.399861 0.54529184 0.38328898 0
1.3927758 0.54253191 0.49728212 0
1.3861892 0.53996623 0.61593801 0
1.4458694 0.58428627 -0.055674884 0
1.3971786 0.56461 0.3844707 0
1.3790166 0.55727059 0.49483573 0
1.39691 0.5645014 0.62381071 0
1.4466141 0.6058864 -0.055992905 0
1.3914835 0.58279604 0.38489246 0
1.3774594 0.5769223 0.49684438 0
1.3888139 0.58167785 0.62341672 0
1.4409866 0.62497073 -0.056075249 0
1.3875189 0.60178125 0.38586128 0
1.3808826 0.598903 0.50075966 0
1.3831517 0.59988713 0.62421644 0
1.4277114 0.64069021 -0.055868171 0
1.3870296 0.6224342 0.38787416 0
1.3806528 0.61957252 0.50346559 0
1.3830898 0.62066609 0.62766588 0
1.4280034 0.66254687 -0.056201611 0
1.3806531 0.64057791 0.38831589 0
1.3730917 0.63706964 0.5035938 0
1.3827506 0.64155108 0.63112807 0
1.4166186 0.67907047 -0.056085635 0
1.3796587 0.66135335 0.39034751 0
1.3815933 0.66228074 0.50973004 0
1.369017 0.65625215 0.62858158 0
1.4050568 0.69541866 -0.055970147 0
1.375778 0.68092734 0.39164445 0
1.3682501 0.67720151 0.50791299 0
1.3647451 0.67546678 0.63047558 0
1.3947994 0.712345 -0.055914428 0
1.3762473 0.70287025 0.39426634 0
1.3680247 0.69867086 0.51105469 0
1.3579358 0.69351822 0.63131416 0
1.3747633 0.7240802 -0.055472337 0
1.3548175 0.71357489 0.39067033 0
1.3542954 0.71329987 0.50924087 0
1.3640599 0.7184428 0.63831663 0
1.3864425 0.75268191 -0.056321576 0
1.3520898 0.73403227 0.39251795 0
1.3526254 0.73432302 0.51204926 0
1.3548801 0.73554713 0.63830453 0
1.3648398 0.76335883 -0.055830061 0
1.3515042 0.75590026 0.39507988 0
1.3464584 0.7530781 0.51326388 0
1.3410403 0.75004774 0.6361835 0
1.3555484 0.78073013 -0.055847716 0
1.3416811 0.77274317 0.3950215 0
1.3348737 0.76882249 0.5124976 0
1.337989 0.77061671 0.63928872 0
1.3523003 0.80170214 -0.056125361 0
1.3260888 0.78616279 0.39331424 0
1.3276424 0.78708386 0.51348579 0
1.3304329 0.78873819 0.64037317 0
1.3429277 0.81917137 -0.056160033 0
1.3210434 0.80582213 0.39479607 0
1.3238858 0.80755597 0.51592493 0
1.3363712 0.81517196 0.64812076 0
1.3275967 0.8329348 -0.055953082 0
1.3194693 0.82783574 0.39740947 0
1.323632 0.83044744 0.51986003 0
1.3236102 0.83043373 0.64695209 0
1.3127383 0.84683323 -0.055771865 0
1.3162736 0.84911382 0.39963564 0
1.3162165 0.84907699 0.52110547 0
1.3170294 0.84960139 0.6489132 0
1.3079553 0.86726266 -0.056028184 0
1.3065779 0.8663494 0.39997241 0
1.3139397 0.87123072 0.52450585 0
1.3051271 0.86538744 0.64836657 0
1.3053727 0.88941389 -0.056392837 0
1.2908276 0.87950361 0.39850956 0
1.2956737 0.88280559 0.52161062 0
1.3022118 0.8872602 0.65241688 0
1.2856457 0.89988279 -0.05602571 0
1.2919923 0.90432507 0.40235281 0
1.2822747 0.89752328 0.52072501 0
1.2890046 0.90223378 0.65144032 0
1.2685927 0.91195887 -0.055778585 0
1.2791094 0.91951901 0.40191481 0
1.2750803 0.9166227 0.52244925 0
1.2769461 0.91796392 0.6511364 0
1.2576782 0.92835331 -0.055808257 0
1.2674235 0.93554682 0.40191272 0
1.2624375 0.93186635 0.52203554 0
1.2629508 0.93224525 0.64993435 0
1.2446357 0.94316536 -0.055752099 0
1.2605101 0.95519471 0.40350261 0
1.2603406 0.95506626 0.5260998 0
1.2590451 0.95408458 0.65405518 0
1.2308775 0.95737457 -0.055671412 0
1.2454603 0.96871698 0.40255788 0
1.2454827 0.96873444 0.52494812 0
1.2467723 0.96973747 0.65397131 0
1.2257136 0.97837496 -0.055990636 0
1.2345343 0.98541558 0.40300512 0
1.2388779 0.98888278 0.52737093 0
1.2387228 0.98875898 0.65622783 0
1.210212 0.99120343 -0.055848245 0
1.2355865 1.011986 0.40747625 0
1.2181866 0.99773484 0.52386957 0
1.2270904 1.0050274 0.65671778 0
1.1997373 1.0081289 -0.05594625 0
1.2180089 1.0234823 0.40589747 0
1.2186991 1.0240624 0.52959347 0
1.2245649 1.0289913 0.66224819 0
1.1899607 1.0257516 -0.056088224 0
1.2809037 1.1041448 0.060374778 0
1.2833306 1.1062368 0.18208665 0
1.2725523 1.0969459 0.30300081 0
1.2119906 1.0447414 0.40824357 0
1.2078824 1.0412002 0.53054839 0
1.2111816 1.0440441 0.66206783 0
1.179322 1.0427498 -0.056201216 0
1.2396207 1.0960655 0.059074786 0
1.2345222 1.0915575 0.17709763 0
1.2478523 1.103344 0.30040392 0
1.1961132 1.0575964 0.40734902 0
1.1935126 1.055297 0.53003144 0
1.193194 1.0550154 0.65944499 0
1.162142 1.0539277 -0.056010507 0
1.2113769 1.098578 0.058383424 0
1.2205205 1.1068702 0.17707445 0
1.214715 1.1016053 0.29574251 0
1.1905537 1.0796937 0.41005331 0
1.173519 1.0642452 0.527062 0
1.1841977 1.0739295 0.66189426 0
1.1508801 1.0704305 -0.056112915 0
1.1962729 1.1126502 0.05832611 0
1.1992747 1.1154422 0.17601591 0
1.187202 1.1042134 0.29240611 0
1.1707021 1.0888669 0.40790612 0
1.162904 1.0816139 0.52836972 0
1.172492 1.0905317 0.66297448 0
1.1362929 1.0838656 -0.056062695 0
1.1738406 1.119681 0.057915233 0
1.1796521 1.1252244 0.17520162 0
1.1785334 1.1241572 0.29373428 0
1.1555408 1.1022255 0.40742719 0
1.1622274 1.1086035 0.53436261 0
1.1533754 1.10016 0.65994614 0
1.116612 1.0922729 -0.055765852 0
1.1741923 1.1485982 0.058641534 0
1.1687071 1.1432326 0.17570022 0
1.1748456 1.1492372 0.29639846 0
1.1403644 1.1155077 0.40699661 0
1.1491288 1.124081 0.53480577 0
1.1402544 1.1154001 0.66042268 0
1.1110469 1.1145483 -0.056184385 0
1.1564845 1.1601292 0.058482111 0
1.1550589 1.158699 0.17582794 0
1.1595219 1.1631762 0.29620427 0
1.1367012 1.1402836 0.41078126 0
1.1343639 1.1379389 0.53456056 0
1.1278944 1.131449 0.66146338 0
1.0895338 1.1208456 -0.055805795 0
1.149897 1.1829435 0.058897588 0
1.1569616 1.1902111 0.17838489 0
1.1567471 1.1899905 0.29929957 0
1.1205726 1.1527764 0.41016597 0
1.1163135 1.1483948 0.53282678 0
1.1222056 1.1544563 0.66659981 0
1.0843872 1.1440257 -0.056275591 0
1.1772227 1.2419668 0.061093397 0
1.173843 1.2384013 0.18337756 0
1.1773628 1.2421147 0.30865625 0
1.1025496 1.1631869 0.40889785 0
1.1081114 1.1690546 0.53589582 0
1.1028439 1.1634974 0.66374892 0
1.0737702 1.1617798 -0.056479335 0
1.0946847 1.1844087 0.41147965 0
1.087931 1.1771014 0.53326231 0
1.0936383 1.1832764 0.66712326 0
1.0484827 1.163474 -0.055915419 0
1.0760806 1.1940986 0.41010603 0
1.0719528 1.1895182 0.53273016 0
1.0801008 1.1985598 0.66801888 0
1.0294251 1.1716609 -0.055681486 0
1.0615345 1.2082068 0.41032806 0
1.0587614 1.2050505 0.53367317 0
1.0636708 1.2106382 0.66723281 0
1.0209996 1.1920118 -0.056033198 0
1.0490491 1.2247596 0.41143075 0
1.0376985 1.2115078 0.53070396 0
1.0469335 1.2222896 0.6663357 0
1.0088353 1.2082769 -0.056196161 0
1.0283916 1.2316993 0.40937939 0
1.033855 1.2382427 0.53666997 0
1.0282991 1.2315885 0.66429347 0
0.98887914 1.2151542 -0.055932444 0
1.0191249 1.2523206 0.41193533 0
1.0183815 1.2514073 0.53677511 0
1.010898 1.2422113 0.66310459 0
0.97099322 1.2243476 -0.05578839 0
1.0031817 1.2649347 0.41189665 0
1.0048462 1.2670336 0.53800774 0
1.0008811 1.2620338 0.6669054 0
0.95621508 1.2374015 -0.055830125 0
0.98263395 1.2715892 0.41000187 0
0.98265105 1.2716113 0.53465497 0
0.9789927 1.2668772 0.66289783 0
0.94208783 1.2513742 -0.05592088 0
0.96308362 1.2792628 0.40853348 0
0.96996212 1.2883996 0.53653574 0
0.96905404 1.2871933 0.66709048 0
0.9283697 1.2660184 -0.056048442 0
0.95161831 1.2977225 0.41056925 0
0.95058197 1.2963092 0.5348025 0
0.94626617 1.2904238 0.66253686 0
0.90463215 1.2667921 -0.055573981 0
0.93530405 1.3097432 0.41061363 0
0.93361735 1.3073813 0.53447783 0
0.93134171 1.3041946 0.66353327 0
0.89596337 1.2886584 -0.056033861 0
0.91873407 1.3214093 0.41061157 0
0.91765183 1.3198527 0.53481001 0
0.91376966 1.3142691 0.66275221 0
0.87801892 1.2974029 -0.055928908 0
0.89871347 1.3279821 0.40910497 0
0.89703715 1.325505 0.53248107 0
0.9024151 1.3334519 0.66664249 0
0.86009657 1.306052 -0.055830449 0
0.88047993 1.3370041 0.40843639 0
0.88456595 1.3432087 0.5350759 0
0.88071668 1.3373635 0.66300112 0
0.84356034 1.3167418 -0.055828907 0
0.8650254 1.3502473 0.40912202 0
0.86380178 1.3483373 0.53274369 0
0.86429268 1.3491036 0.66337323 0
0.82927263 1.3310444 -0.05598814 0
0.83945918 1.3473946 0.40502268 0
0.84580773 1.3575845 0.53214705 0
0.85032523 1.3648355 0.66579103 0
0.81493646 1.3454899 -0.056159668 0
0.83197594 1.3736228 0.40972513 0
0.83034128 1.3709239 0.53323507 0
0.83150673 1.372848 0.66453934 0
0.79794097 1.3556621 -0.056160405 0
0.81368434 1.3824093 0.40925732 0
0.80452412 1.3668466 0.52766687 0
0.81168705 1.379016 0.66252494 0
0.7832936 1.3699484 -0.05633916 0
0.79272872 1.3864501 0.40746608 0
0.79340917 1.3876401 0.53179508 0
0.79052168 1.3825901 0.65940726 0
0.75862741 1.3664548 -0.05579821 0
0.76960313 1.3862245 0.40451962 0
0.7751624 1.396238 0.53130722 0
0.77308542 1.3924968 0.65943706 0
0.74661064 1.3856395 -0.056193244 0
0.75956398 1.4096798 0.40854076 0
0.75765663 1.40614 0.53140259 0
0.75497717 1.401167 0.6589886 0
0.72619897 1.3893714 -0.055969305 0
0.73950517 1.414829 0.40730202 0
0.74039727 1.4165359 0.53176582 0
0.73818403 1.4123014 0.65980119 0
0.70685565 1.3948691 -0.055827785 0
0.7194525 1.419727 0.40607181 0
0.72149873 1.4237648 0.5310269 0
0.71988714 1.4205846 0.65938365 0
0.69404298 1.4134471 -0.056217104 0
0.69649518 1.4184412 0.40316355 0
0.70355362 1.432816 0.53105634 0
0.69439721 1.4141686 0.65229523 0
0.67444044 1.4183925 -0.056071572 0
0.68105882 1.4323114 0.40463626 0
0.67845237 1.4268298 0.52562952 0
0.67706078 1.4239032 0.65280116 0
0.65674144 1.4272366 -0.056089822 0
0.65709192 1.4279983 0.40104845 0
0.66384006 1.4426633 0.52834111 0
0.65972543 1.4337214 0.65344197 0
0.63702214 1.4315798 -0.055940833 0
0.64202994 1.4428339 0.40291253 0
0.64005786 1.4384021 0.52378726 0
0.64347535 1.4460821 0.6553306 0
0.62046427 1.4430176 -0.056078032 0
0.6237312 1.4506154 0.40286031 0
0.62087798 1.4439797 0.52292997 0
0.62187588 1.4463005 0.65182918 0
0.60198325 1.4500834 -0.05605359 0
0.6053673 1.4582349 0.40282741 0
0.60574901 1.4591544 0.52562135 0
0.60386014 1.4546044 0.65209293 0
0.58448058 1.4595542 -0.056130737 0
0.58183521 1.4529482 0.39931142 0
0.58477288 1.4602841 0.52333426 0
0.58091134 1.450641 0.64698565 0
0.56614757 1.4670331 -0.056139745 0
0.56496459 1.4639679 0.40035301 0
0.56552231 1.4654131 0.5225789 0
0.56300545 1.4588912 0.64745194 0
0.54804772 1.4751673 -0.056182474 0
0.54210305 1.459166 0.39714158 0
0.54333574 1.462484 0.51905334 0
0.54596406 1.4695586 0.64908361 0
0.52818102 1.4784545 -0.056049917 0
0.52549398 1.470933 0.39851162 0
0.52429283 1.4675708 0.51847446 0
0.52635574 1.4733452 0.64777726 0
0.51288193 1.4947753 -0.056419346 0
0.50626421 1.4754882 0.39798704 0
0.50825781 1.4812983 0.5210219 0
0.50316989 1.4664699 0.64191782 0
0.49385315 1.5006069 -0.056400262 0
0.48733696 1.4808069 0.39773491 0
0.48583001 1.476228 0.51704568 0
0.48289126 1.4672984 0.63956809 0
0.47211137 1.497797 -0.05606677 0
0.46476308 1.4744842 0.39443347 0
0.46596095 1.4782846 0.51567006 0
0.4679088 1.4844642 0.64443105 0
0.45319617 1.5035608 -0.05606446 0
0.44587657 1.4792767 0.39418229 0
0.44321659 1.4704516 0.51095033 0
0.44447592 1.4746298 0.63768148 0
0.43174848 1.5005282 -0.055744246 0
0.4495067 1.5622464 0.058037058 0
0.4520072 1.5709368 0.17567708 0
0.45171794 1.5699315 0.29462233 0
0.42601252 1.4805931 0.39307246 0
0.42485183 1.4765592 0.51117313 0
0.42499042 1.4770409 0.63635945 0
0.4119435 1.5026455 -0.055625781 0
0.42641574 1.5554359 0.057580009 0
0.42287052 1.542504 0.17188834 0
0.42459214 1.5487839 0.28962731 0
0.40900204 1.4919159 0.39467987 0
0.40562606 1.4796014 0.51041758 0
0.40641388 1.482475 0.6364454 0
0.39624882 1.520213 -0.05608695 0
0.40202549 1.5423752 0.056904607 0
0.40093488 1.5381911 0.17083159 0
0.4017064 1.541151 0.28723124 0
0.38909784 1.4927781 0.39358062 0
0.38567379 1.4796417 0.50871581 0
0.3846263 1.475623 0.63137436 0
0.37982833 1.5362132 -0.056496322 0
0.37956887 1.5351638 0.056457732 0
0.38114589 1.5415421 0.17065719 0
0.38145426 1.5427892 0.28661862 0
0.3671743 1.485034 0.39028886 0
0.367356 1.4857689 0.50919163 0
0.36602435 1.480383 0.6313889 0
0.35581657 1.5210437 -0.055769246 0
0.35965377 1.5374469 0.056370672 0
0.36084169 1.5425251 0.17024949 0
0.35988969 1.5384554 0.28494897 0
0.34912574 1.4924418 0.39104933 0
0.34652841 1.4813386 0.50613779 0
0.34636289 1.4806311 0.62958461 0
0.33859777 1.53429 -0.056094147 0
0.34196779 1.5495607 0.056652445 0
0.34283271 1.5534798 0.17096855 0
0.34014276 1.5412908 0.28465825 0
0.32897657 1.4906934 0.3894749 0
0.32562569 1.4755094 0.50270522 0
0.32709521 1.4821683 0.62843704 0
0.31869805 1.5357605 -0.055996753 0
0.32229987 1.5531172 0.056629609 0
0.32144621 1.5490035 0.17001696 0
0.32251674 1.5541623 0.28626272 0
0.30851576 1.4866935 0.38738415 0
0.30490363 1.4692872 0.49923763 0
0.30788812 1.483669 0.62737978 0
0.2991915 1.5389099 -0.055969778 0
0.30435917 1.5654901 0.056936491 0
0.30379879 1.5626078 0.1710767 0
0.30402651 1.5637791 0.28730613 0
0.28811413 1.4819329 0.38516778 0
0.28743434 1.4784362 0.50107676 0
0.28753006 1.4789286 0.62379479 0
0.27952483 1.5410875 -0.055916525 0
0.28912377 1.5940086 0.057836708 0
0.28956556 1.5964444 0.17436816 0
0.28964549 1.5968851 0.29269522 0
0.27054122 1.4915586 0.3867535 0
0.26711932 1.4726928 0.4979507 0
0.26757494 1.4752047 0.62075371 0
0.25995114 1.5436097 -0.055884842 0
0.2500298 1.4846959 0.38412723 0
0.24903254 1.4787742 0.49890709 0
0.24970502 1.4827673 0.62256354 0
0.24108458 1.5505548 -0.056021933 0
0.23099872 1.4856868 0.38360059 0
0.22807913 1.4669092 0.49389595 0
0.22907326 1.473303 0.61732966 0
0.22170563 1.5546141 -0.056063283 0
0.21225813 1.4883676 0.38357225 0
0.21085672 1.4785407 0.49687886 0
0.21059527 1.4767075 0.61759609 0
0.20114686 1.5498338 -0.055795129 0
0.19307524 1.4876419 0.38272837 0
0.19117524 1.4730026 0.4941695 0
0.1900492 1.4643264 0.61136866 0
0.18278971 1.5622697 -0.056155514 0
0.17330733 1.4812255 0.38048598 0
0.17028105 1.4553604 0.48749286 0
