# .PCD v0.7 - Point Cloud Data file format
VERSION 0.7
FIELDS x y z intensity
SIZE 4 4 4 4
TYPE F F F F
COUNT 1 1 1 1
WIDTH 1342
HEIGHT 1
VIEWPOINT 0 0 0 1 0 0 0
POINTS 1342
DATA ascii
-1.0853175 -0.12352453 0.45226151 0
-1.085583 -0.12355475 0.54666746 0
-1.0902507 -0.12408601 0.65074521 0
-1.5538996 -0.19670478 -0.055918943 0
-1.1611331 -0.14698531 0.041784767 0
-1.1689823 -0.14797893 0.12663229 0
-1.1636902 -0.14730901 0.21154486 0
-1.1755298 -0.14880776 0.30230874 0
-1.1113323 -0.14068113 0.37268439 0
-1.1127104 -0.14085558 0.46437868 0
-1.1034105 -0.13967833 0.55648643 0
-1.101107 -0.13938674 0.65822047 0
-1.5444489 -0.21529962 -0.055671994 0
-1.1693841 -0.16301477 0.042152219 0
-1.1577053 -0.16138673 0.12562087 0
-1.175947 -0.16392964 0.21413127 0
-1.1690997 -0.16297513 0.30115902 0
-1.1434025 -0.15939286 0.38408172 0
-1.1174186 -0.15577066 0.46712521 0
-1.1174427 -0.15577401 0.56450784 0
-1.1085662 -0.15453662 0.66379011 0
-1.5544523 -0.23668361 -0.056135565 0
-1.1925656 -0.18158209 0.043066837 0
-1.1894249 -0.18110389 0.12929991 0
-1.198718 -0.18251885 0.21867885 0
-1.1820656 -0.17998336 0.30505866 0
-1.1572472 -0.17620446 0.38944679 0
-1.1411062 -0.17374681 0.47790429 0
-1.1381804 -0.17330132 0.57604086 0
-1.1482103 -0.17482848 0.68879187 0
-1.5429738 -0.25485393 -0.055832509 0
-1.0722885 -0.17711057 0.038800765 0
-1.0555838 -0.17435144 0.11497988 0
-1.0703088 -0.17678356 0.19564411 0
-1.3336035 -0.22027212 0.34485489 0
-1.1680089 -0.19292076 0.39385471 0
-1.1468403 -0.18942434 0.48126659 0
-1.1473156 -0.18950284 0.58182579 0
-1.5504051 -0.27617884 -0.056222796 0
-1.0448447 -0.18612167 0.037889514 0
-1.0490453 -0.18686993 0.11451491 0
-1.0437381 -0.18592454 0.1912 0
-1.322951 -0.23566166 0.34284046 0
-1.1782441 -0.20988454 0.39816567 0
-1.1781269 -0.20986366 0.49546558 0
-1.1784092 -0.20991395 0.59888697 0
-1.5406122 -0.29449466 -0.055997711 0
-1.0342607 -0.19770339 0.037593 0
-1.0361497 -0.19806449 0.11337048 0
-1.0385072 -0.19851513 0.19068457 0
-1.3091226 -0.25024444 0.3400465 0
-1.2032635 -0.230009 0.40756696 0
-1.1777487 -0.22513175 0.49645936 0
-1.1935463 -0.22815152 0.60799176 0
-1.5451978 -0.31558833 -0.056304365 0
-1.0077409 -0.2058191 0.036720354 0
-1.0360702 -0.21160503 0.11364431 0
-1.0049754 -0.2052543 0.18498756 0
-1.3035793 -0.2662406 0.33945054 0
-1.2120705 -0.24755099 0.41157323 0
-1.2164555 -0.24844658 0.51405352 0
-1.2130328 -0.24774757 0.61945826 0
-1.5355608 -0.33381468 -0.056101929 0
-1.0232514 -0.22244404 0.037384637 0
-1.0131673 -0.22025184 0.11142752 0
-1.0010906 -0.21762651 0.18476225 0
-1.3007487 -0.28276899 0.33961374 0
-1.2405716 -0.26968715 0.42237082 0
-1.2491665 -0.27155557 0.52927971 0
-1.2285666 -0.26707739 0.62905842 0
-1.5328774 -0.35350135 -0.056162074 0
-1.0026094 -0.23121467 0.036733937 0
-1.0090663 -0.23270375 0.11128995 0
-0.99916768 -0.23042096 0.18492821 0
-1.2903414 -0.29756939 0.33784801 0
-1.269246 -0.29270452 0.43335396 0
-1.2463911 -0.28743386 0.52959532 0
-1.2504286 -0.28836498 0.6420607 0
-1.5264486 -0.37232131 -0.056093853 0
-0.99705505 -0.24319512 0.036639728 0
-0.98224539 -0.23958284 0.10865597 0
-0.98543876 -0.24036175 0.18293291 0
-1.3123316 -0.3200953 0.3446337 0
-1.2832088 -0.31299186 0.43943205 0
-1.2905984 -0.31479427 0.55001986 0
-1.2795954 -0.31211048 0.65900278 0
-1.5179353 -0.39055851 -0.055957295 0
-0.97264212 -0.25025684 0.035855565 0
-0.98100221 -0.25240785 0.10886142 0
-0.9799819 -0.25214532 0.18249485 0
-1.3237885 -0.34060535 0.34874111 0
-1.3087733 -0.33674198 0.44960299 0
-1.3060898 -0.33605155 0.55838102 0
-1.2914075 -0.33227384 0.66718805 0
-1.5235724 -0.41253066 -0.056352139 0
-0.9600563 -0.25994998 0.035509452 0
-0.97069865 -0.26283157 0.10807674 0
-0.96822393 -0.26216149 0.18090567 0
-1.3425988 -0.36352926 0.35487434 0
-1.3295647 -0.36000007 0.45826644 0
-1.3214924 -0.3578144 0.56684732 0
-1.5102437 -0.42940304 -0.056054696 0
-0.93519598 -0.26590148 0.034711041 0
-0.96090806 -0.27321211 0.10736119 0
-0.96113008 -0.27327523 0.18020891 0
-1.3531724 -0.38474345 0.35892123 0
-1.3453799 -0.38252786 0.46534091 0
-1.3423767 -0.38167393 0.57782125 0
-1.5103644 -0.45006761 -0.056265071 0
-0.94857061 -0.28266084 0.035336763 0
-0.95033139 -0.28318554 0.10656945 0
-0.95040256 -0.28320673 0.17885199 0
-1.3955269 -0.4158476 0.37151504 0
-1.3776689 -0.41052616 0.47825912 0
-1.3684993 -0.40779373 0.59122914 0
-1.4910346 -0.46482718 -0.05575861 0
-0.94125426 -0.2934342 0.035199068 0
-0.93675178 -0.29203057 0.10545065 0
-0.93000984 -0.28992876 0.17568749 0
-1.412824 -0.44044518 0.3775664 0
-1.3921121 -0.43398827 0.48513177 0
-1.4067705 -0.43855795 0.61010081 0
-1.4922771 -0.48591307 -0.056029446 0
-0.93283957 -0.30374986 0.03502465 0
-0.92128098 -0.29998615 0.10412607 0
-0.92765355 -0.30206117 0.17594695 0
-1.4290487 -0.4653247 0.38343778 0
-1.4365854 -0.46777883 0.50264293 0
-1.4244375 -0.46382323 0.62024659 0
-1.4848887 -0.50427294 -0.055986017 0
-0.91598195 -0.31107038 0.034536041 0
-0.91169834 -0.30961567 0.10347545 0
-0.93318546 -0.31691277 0.17773899 0
-1.4415706 -0.489562 0.38842097 0
-1.4563478 -0.49458039 0.51169604 0
-1.470221 -0.49929175 0.64286894 0
-1.4820576 -0.52421564 -0.056123707 0
-0.91127825 -0.32232639 0.034508992 0
-0.91415548 -0.32334408 0.10420819 0
-0.90939176 -0.32165912 0.1739648 0
-1.4852796 -0.52535528 0.40194863 0
-1.493818 -0.52837539 0.52715737 0
-1.4602897 -0.53729749 -0.05555119 0
-0.9072513 -0.3338131 0.034512941 0
-0.91728407 -0.33750457 0.10504097 0
-0.90371388 -0.33251157 0.17366584 0
-1.5337542 -0.56432796 0.4169569 0
-1.5141764 -0.5571245 0.53677475 0
-1.4657508 -0.56036013 -0.056022923 0
-0.89141798 -0.34079129 0.034071166 0
-0.88526082 -0.33843738 0.10185383 0
-0.88477594 -0.33825201 0.17083153 0
-1.5612701 -0.5968774 0.42644665 0
-1.5617769 -0.59707111 0.5562703 0
-1.4610798 -0.57976365 -0.056118976 0
-0.89149165 -0.35374826 0.034241524 0
-0.88463426 -0.35102719 0.1022822 0
-0.89821148 -0.35641471 0.17427838 0
-1.6000794 -0.63491935 0.43919599 0
-1.6014149 -0.63544929 0.57319313 0
-1.43848 -0.59186691 -0.055532794 0
-0.86694777 -0.35670826 0.033468682 0
-0.87453657 -0.35983071 0.10163053 0
-0.87535679 -0.36016816 0.17071036 0
-1.6422569 -0.67571151 0.45307261 0
-1.43695 -0.6125052 -0.055767056 0
-0.86292386 -0.36782447 0.033489492 0
-0.88082218 -0.37545368 0.10290224 0
-0.86241233 -0.3676064 0.16907528 0
-1.6758448 -0.71433496 0.46478376 0
-1.4435637 -0.63692063 -0.056330528 0
-0.8570177 -0.37812826 0.033442415 0
-0.84233767 -0.37165123 0.098945163 0
-0.86721039 -0.38262543 0.17094697 0
-1.7317868 -0.76408875 0.48292908 0
-1.4311469 -0.65309197 -0.056162458 0
-0.84402978 -0.38516596 0.033122238 0
-0.84589398 -0.38601667 0.099925965 0
-0.84277886 -0.3845951 0.16707237 0
-1.4218427 -0.67060369 -0.056124266 0
-0.82880235 -0.39089972 0.032715239 0
-0.83373398 -0.3932257 0.099066578 0
-0.83578497 -0.39419305 0.1666567 0
-1.416091 -0.68981951 -0.056235649 0
-0.8308754 -0.40474382 0.03299563 0
-0.82505125 -0.4019067 0.098628402 0
-0.83407521 -0.40630254 0.1673227 0
-1.3978219 -0.702833 -0.055857178 0
-0.82619321 -0.41541475 0.033014808 0
-0.83119351 -0.41792893 0.099983841 0
-0.82380879 -0.41421586 0.16629633 0
-1.3906831 -0.72132236 -0.055930436 0
-0.80841511 -0.41931039 0.032512806 0
-0.80271769 -0.41635525 0.097181454 0
-0.81935102 -0.42498267 0.16646354 0
-1.3879441 -0.74222666 -0.056191713 0
-0.8104521 -0.43340304 0.032811619 0
-0.79561579 -0.42546907 0.096962586 0
-0.81107092 -0.43373394 0.16587777 0
-1.3647292 -0.75206137 -0.055630833 0
-0.80192673 -0.44191781 0.032689162 0
-0.79178309 -0.43632796 0.097157396 0
-0.79173207 -0.43629983 0.16303335 0
-1.3693413 -0.77723938 -0.056213338 0
-0.79979646 -0.45396522 0.032832742 0
-0.80155426 -0.45496294 0.099051513 0
-0.78882653 -0.44773868 0.16358304 0
-1.3525715 -0.790402 -0.055929061 0
-0.78439897 -0.45837912 0.097637095 0
-0.78443277 -0.45839885 0.16385593 0
-1.3415461 -0.80678886 -0.055888817 0
-0.77114439 -0.4637565 0.096706472 0
-0.76715612 -0.46135801 0.16144782 0
-1.3312989 -0.82362759 -0.055889562 0
-0.76739168 -0.47475809 0.16274261 0
-1.3233945 -0.84196103 -0.055998374 0
-1.3095831 -0.85652637 -0.055865906 0
-0.74616975 -0.48802868 0.16079795 0
-1.2932318 -0.86927587 -0.055630919 0
-0.74244207 -0.49904972 0.16133608 0
-1.2939048 -0.89358473 -0.056139451 0
-1.2728308 -0.90291065 -0.055713989 0
-1.2683817 -0.9239797 -0.056024078 0
-1.2495824 -0.93459308 -0.05570912 0
-1.2255225 -0.9408915 -0.05516031 0
-1.2278877 -0.96752286 -0.055810709 0
-1.2225978 -0.98855841 -0.056131616 0
-1.2099025 -1.0037487 -0.056124602 0
-1.1936398 -1.0159 -0.05595918 0
-1.1858395 -1.035289 -0.056200214 0
-1.1618464 -1.04041 -0.055679593 0
-1.1608489 -1.0661564 -0.056270707 0
-1.1495714 -1.0827972 -0.05638051 0
-1.1336927 -1.0951053 -0.056273598 0
-1.1139491 -1.1034831 -0.055978864 0
-1.0989959 -1.1164355 -0.055929471 0
-1.090333 -1.1358953 -0.056212064 0
-1.0719078 -1.1452211 -0.056001175 0
-1.0545881 -1.1555425 -0.055852089 0
-1.042888 -1.1720259 -0.056009624 0
-1.0294938 -1.1867307 -0.056088388 0
-0.60022831 -0.69190252 0.032701351 0
-1.0133141 -1.1982327 -0.056024496 0
-0.59932041 -0.70868975 0.033135455 0
-1.000882 -1.2142149 -0.056178026 0
-0.59248155 -0.71876597 0.033255115 0
-0.97661662 -1.2156457 -0.055670828 0
-0.57877845 -0.72043574 0.032992553 0
-0.96775508 -1.2361776 -0.05604858 0
-0.58502024 -0.74728501 0.033882078 0
-0.60471535 -0.77244288 0.10542671 0
-0.61200428 -0.78175354 0.17905346 0
-0.6086868 -0.77751583 0.25192663 0
-0.61058092 -0.77993542 0.32953662 0
-0.61187541 -0.78158891 0.41097581 0
-0.93748677 -1.2290885 -0.055187542 0
-0.59218174 -0.77637768 0.034860283 0
-0.60557657 -0.79393893 0.10731132 0
-0.59409499 -0.77888602 0.17666923 0
-0.59392548 -0.77866381 0.24985552 0
-0.59904075 -0.78537011 0.32861969 0
-0.59626806 -0.78173506 0.40707237 0
-0.59555846 -0.78080475 0.49133968 0
-0.93501496 -1.2583966 -0.055970412 0
-0.57968438 -0.78017241 0.034700166 0
-0.58324057 -0.78495854 0.10509649 0
-0.57900202 -0.77925402 0.17508507 0
-0.57349885 -0.77184755 0.24533163 0
-0.57815701 -0.77811676 0.32251287 0
-0.57743794 -0.77714896 0.40086615 0
-0.57827598 -0.77827692 0.48512828 0
-0.92049599 -1.2720042 -0.056055661 0
-0.58534759 -0.8088733 0.035646047 0
-0.58146363 -0.80350626 0.10659103 0
-0.58443397 -0.80761081 0.17978857 0
-0.57971114 -0.80108452 0.25228435 0
-0.58111137 -0.8030194 0.32977539 0
-0.58267772 -0.80518395 0.41150978 0
-0.56336588 -0.77849746 0.4808057 0
-0.90218037 -1.2803338 -0.055917658 0
-2.0210373 -2.8681653 0.12526505 0
-0.54933685 -0.77959412 0.47717294 0
-0.87990671 -1.2827266 -0.055533852 0
-1.9970554 -2.9113042 0.12604083 0
-0.54358464 -0.79243684 0.48080596 0
-0.87484026 -1.310412 -0.056251064 0
-1.9515796 -2.9232461 0.12548397 0
-0.52187735 -0.78171337 0.47027501 0
-0.84986371 -1.3083799 -0.055700034 0
-1.9255078 -2.9643528 0.12619771 0
-0.50890106 -0.78346205 0.46743479 0
-0.83676898 -1.3244325 -0.055930417 0
-1.891932 -2.9945376 0.1264585 0
-0.49477693 -0.78312969 0.46348259 0
-0.81331015 -1.3239305 -0.055472329 0
-1.8659337 -3.0374224 0.12726718 0
-1.1850296 -1.9290265 0.24330439 0
-1.2116106 -1.9722959 0.41745761 0
-0.47876903 -0.77935445 0.45764399 0
-0.80615985 -1.350117 -0.056139749 0
-1.8306352 -3.0658581 0.12748265 0
-1.1727556 -1.9640737 0.24584271 0
-1.181861 -1.9793229 0.41576201 0
-0.47131589 -0.78933674 0.45998415 0
-0.79231417 -1.3657072 -0.056368683 0
-1.7952139 -3.0943992 0.12771933 0
-1.1553023 -1.9913875 0.24742103 0
-0.46286973 -0.79784572 0.46150959 0
-0.76827627 -1.3635433 -0.05587564 0
-0.44800287 -0.79511929 0.45663309 0
-0.75890559 -1.3874768 -0.056460317 0
-0.43331462 -0.79221183 0.45179394 0
-0.73306668 -1.3812667 -0.055827554 0
-0.40771109 -0.76822174 0.43515018 0
-0.71293259 -1.3851722 -0.055618152 0
-0.40306756 -0.78312874 0.44068417 0
-0.70321357 -1.4096317 -0.056240249 0
-0.40599993 -0.81384999 0.45505869 0
-0.68449819 -1.4164897 -0.056165528 0
-0.66519785 -1.4219803 -0.056046661 0
-0.64665824 -1.4289562 -0.055996224 0
-0.62883627 -1.4374917 -0.056015965 0
-0.61166894 -1.4476203 -0.056106064 0
-0.59091306 -1.4491251 -0.055871569 0
-0.57579505 -1.4645262 -0.056181364 0
-0.33844954 -0.86084145 0.38297677 0
-0.55545533 -1.4667647 -0.055994477 0
-0.32258162 -0.85182601 0.3771289 0
-0.53952533 -1.4807296 -0.056263778 0
-0.28471115 -0.78139096 0.49320492 0
-0.51610297 -1.473882 -0.055752229 0
-0.30100262 -0.85960042 0.37709457 0
-0.27074593 -0.77319372 0.4858405 0
-0.49979389 -1.4870765 -0.056008834 0
-0.80076593 -2.3825827 0.45331517 0
-0.28608528 -0.85121232 0.37180504 0
-0.25945774 -0.77198523 0.48298994 0
-0.48436567 -1.503606 -0.056397203 0
-0.77063912 -2.3922787 0.45327771 0
-0.27638769 -0.85798436 0.37321323 0
-0.24919741 -0.77357817 0.48198512 0
-0.46411765 -1.505442 -0.056242406 0
-0.7458058 -2.4191442 0.45655242 0
-0.26541317 -0.86091131 0.37300307 0
-0.23896354 -0.77511764 0.4810313 0
-0.44614264 -1.5146196 -0.056370918 0
-0.71985704 -2.4438586 0.45946956 0
-0.25514108 -0.86618418 0.37386596 0
-0.23049419 -0.78250986 0.48377928 0
-0.42458278 -1.5113829 -0.056047034 0
-0.69664454 -2.4798384 0.46454799 0
-0.24526091 -0.87305272 0.37546781 0
-0.21717116 -0.77306193 0.47620976 0
-0.40676856 -1.5212824 -0.056219738 0
-0.66719908 -2.4952722 0.46582839 0
-0.24393119 -0.91228348 0.39098755 0
-0.21028888 -0.78646392 0.48279595 0
-0.38632417 -1.5213321 -0.056037355 0
-0.64260048 -2.53054 0.47086442 0
-0.2379383 -0.93699336 0.40026188 0
-0.20107533 -0.79182816 0.48449624 0
-0.36679724 -1.5246588 -0.055985324 0
-0.61708623 -2.5650303 0.47579852 0
-0.19004522 -0.78995723 0.48184901 0
-0.34734598 -1.528167 -0.055949099 0
-0.59229845 -2.6058483 0.48194838 0
-0.18198663 -0.80065978 0.48694083 0
-0.32702029 -1.5274837 -0.055768896 0
-0.55682838 -2.6008976 0.47969791 0
-0.16832677 -0.78623986 0.4768441 0
-0.30798072 -1.532571 -0.055808619 0
-0.5282461 -2.6286538 0.48355198 0
-0.20696709 -1.0299078 0.43494385 0
-0.1620951 -0.80661625 0.4879255 0
-0.28722224 -1.5286785 -0.055530764 0
-0.49876276 -2.6545575 0.4871231 0
-0.19463347 -1.0358948 0.43640256 0
-0.14938302 -0.79505897 0.47975856 0
-0.26823598 -1.5338002 -0.055589713 0
-0.47090665 -2.6926913 0.49299362 0
-0.18033443 -1.0311704 0.43342125 0
-0.13793282 -0.78871369 0.47484395 0
-0.24951014 -1.5408096 -0.055725466 0
-0.1701238 -1.050572 0.44064084 0
-0.12602 -0.77821618 0.46753147 0
-0.23235482 -1.5590273 -0.056274056 0
-0.15850367 -1.0635095 0.44519469 0
-0.11498383 -0.77150512 0.46259311 0
-0.21050748 -1.5456837 -0.055692315 0
-0.37921253 -2.7844267 0.10032529 0
-0.38031465 -2.7925191 0.30288047 0
-0.14582786 -1.0707636 0.44742718 0
-0.10549952 -0.77464652 0.4636434 0
-0.19257578 -1.5607497 -0.056143329 0
-0.13347751 -1.0817817 0.45129311 0
-0.095802367 -0.77643991 0.46395797 0
-0.17245673 -1.5589641 -0.055996545 0
-0.086169809 -0.77895278 0.46477428 0
-0.15244555 -1.5572503 -0.055861603 0
-0.07659249 -0.7824018 0.46621978 0
-0.13342358 -1.5660628 -0.056113008 0
-0.06637086 -0.77902973 0.46367565 0
-0.11349006 -1.5648013 -0.056012165 0
-0.057254463 -0.78942478 0.46939641 0
-0.093743593 -1.5655265 -0.055991426 0
-0.046484102 -0.77628869 0.46120101 0
-0.074076749 -1.5676928 -0.056031104 0
-0.12353484 -2.6143789 0.093440838 0
-0.037130222 -0.78579021 0.46653119 0
-0.053788383 -1.5528154 -0.055470765 0
-0.047878552 -1.3822048 0.049376089 0
-0.027408747 -0.79126245 0.469538 0
-0.034778509 -1.5781556 -0.056355868 0
-0.029900439 -1.3568019 0.048451338 0
-0.014714065 -1.5582623 -0.055634454 0
-0.012758653 -1.3511784 0.048240963 0
-0.018945282 -2.0063605 0.21563178 0
0.0049480465 -1.571196 -0.056093998 0
0.0042064297 -1.335704 0.047686592 0
0.0057616662 -1.8295517 0.19662163 0
0.0057495683 -1.8257102 0.32926607 0
0.0057194997 -1.8161622 0.46336344 0
0.024763016 -1.5730484 -0.056166813 0
0.021365078 -1.3571974 0.048459705 0
0.030625271 -1.9454428 0.20910129 0
0.016419448 -1.0430307 0.34705323 0
0.044793975 -1.5805985 -0.056452062 0
0.038905084 -1.3728033 0.049030527 0
0.054416016 -1.9201214 0.20643696 0
0.029106043 -1.0270348 0.34182563 0
0.021975065 -0.77541131 0.46004069 0
0.064753309 -1.5814047 -0.056505498 0
0.077159248 -1.8843825 0.067331262 0
0.077994272 -1.9047754 0.20487641 0
0.04140573 -1.0112103 0.33670571 0
0.084316611 -1.574054 -0.056276321 0
0.10089634 -1.8835707 0.067342311 0
0.10052837 -1.876701 0.2019769 0
0.054378215 -1.0151528 0.33821964 0
0.041801147 -0.78035945 0.46345404 0
0.10355325 -1.5641682 -0.055965066 0
0.12268847 -1.8532051 0.066306643 0
0.12300135 -1.8579313 0.20010766 0
0.12281913 -1.8551786 0.33531144 0
0.067320302 -1.0168709 0.33904758 0
0.051486138 -0.77769631 0.46222082 0
0.1226652 -1.555454 -0.055704124 0
0.14408311 -1.8270435 0.065430328 0
0.14554785 -1.8456172 0.198963 0
0.14397985 -1.825734 0.33029103 0
0.081691213 -1.035884 0.34570259 0
0.085221097 -1.0806447 0.4488149 0
0.061911434 -0.7850669 0.46702781 0
0.14318053 -1.5640546 -0.056072254 0
0.16582121 -1.8113735 0.064938776 0
0.16711912 -1.8255513 0.19701108 0
0.16682442 -1.8223321 0.33002946 0
0.17699806 -1.9334655 0.49535161 0
0.097923875 -1.0696865 0.35736656 0
0.099226274 -1.0839134 0.45065567 0
0.071696401 -0.78318661 0.46640936 0
0.16303733 -1.5638044 -0.056132436 0
0.1874243 -1.7977169 0.064528674 0
0.18696509 -1.7933123 0.1937706 0
0.18626904 -1.786636 0.32396391 0
0.2019347 -1.9368961 0.49684259 0
0.11405023 -1.0939351 0.36591846 0
0.10881874 -1.0437562 0.43449488 0
0.080643706 -0.77350986 0.46121478 0
0.18369511 -1.5700079 -0.056433666 0
0.20734107 -1.7721056 0.063698031 0
0.20431869 -1.7462738 0.18895103 0
0.20665129 -1.7662101 0.32070658 0
0.2296645 -1.9628998 0.50421482 0
0.12182502 -1.0412158 0.34876946 0
0.11863317 -1.0139356 0.4226695 0
0.091973826 -0.78608316 0.46936509 0
0.20220359 -1.5579758 -0.056088246 0
0.22882073 -1.7630605 0.063471444 0
0.22980994 -1.7706823 0.19188999 0
0.22761658 -1.7537825 0.31894514 0
0.13201334 -1.0171609 0.42467329 0
0.10191493 -0.78525311 0.4695985 0
0.22298385 -1.5635769 -0.056386508 0
0.24824679 -1.7407223 0.062774815 0
0.24688853 -1.7311982 0.18793309 0
0.24722412 -1.7335514 0.31580698 0
0.14555994 -1.0206755 0.4268721 0
0.11213534 -0.78630012 0.47103173 0
0.24034023 -1.5457674 -0.055848964 0
0.26664498 -1.7149484 0.061961517 0
0.26724496 -1.7188073 0.18693846 0
0.26454404 -1.7014363 0.31053871 0
0.1608045 -1.034227 0.43335217 0
0.11967782 -0.76971745 0.46196407 0
0.26112092 -1.5505558 -0.056136318 0
0.28552818 -1.6954881 0.061383445 0
0.28581023 -1.697163 0.18496118 0
0.28456947 -1.6897953 0.30904356 0
0.13084841 -0.77698773 0.46727934 0
0.27987948 -1.5430425 -0.055987466 0
0.30772629 -1.6965687 0.061557978 0
0.30320585 -1.6716465 0.18258195 0
0.30407065 -1.6764144 0.30727226 0
0.30476177 -1.6802247 0.43567365 0
0.14377055 -0.79264146 0.47774434 0
0.3000738 -1.5434481 -0.056134827 0
0.33363998 -1.7160977 0.062414054 0
0.32063448 -1.6492032 0.1805573 0
0.32380727 -1.6655227 0.30599901 0
0.32107005 -1.6514436 0.42922515 0
0.15322229 -0.78810829 0.47613725 0
0.31809592 -1.5328591 -0.055890959 0
0.36061525 -1.7377535 0.063361801 0
0.33663103 -1.622177 0.1780484 0
0.34017637 -1.6392616 0.30193725 0
0.33764845 -1.6270798 0.42396426 0
0.16540715 -0.79707354 0.48277372 0
0.33830196 -1.5329494 -0.056045137 0
0.38988593 -1.7666923 0.064590856 0
0.35863981 -1.6251066 0.17885144 0
0.35981289 -1.6304221 0.30111974 0
0.35407698 -1.604431 0.41919124 0
0.17465426 -0.79141182 0.48063847 0
0.35675541 -1.525057 -0.055916391 0
0.41967279 -1.794016 0.065777808 0
0.37694055 -1.6113443 0.17784512 0
0.37504154 -1.6032264 0.29694572 0
0.37296423 -1.5943464 0.41775036 0
0.18296093 -0.78212088 0.47635731 0
0.3766124 -1.5232062 -0.056017976 0
0.44806829 -1.8122092 0.066646449 0
0.39080781 -1.5806196 0.17498329 0
0.39076588 -1.5804501 0.29361522 0
0.39107278 -1.5816913 0.41569182 0
0.19577616 -0.79181534 0.48372498 0
0.39472049 -1.5143496 -0.055870622 0
0.48060489 -1.843846 0.068027109 0
0.40795207 -1.5651127 0.17382151 0
0.41300166 -1.5844854 0.29530767 0
0.40684247 -1.5608556 0.41152969 0
0.20176138 -0.77405977 0.47439244 0
0.41553834 -1.5157584 -0.056111202 0
0.42599985 -1.5539188 0.17316034 0
0.42351246 -1.5448456 0.28889084 0
0.42591763 -1.5536189 0.41100314 0
0.21261153 -0.77554262 0.47690421 0
0.43113583 -1.498399 -0.055665143 0
0.44546676 -1.5482057 0.17313507 0
0.44382176 -1.5424886 0.28947222 0
0.4427208 -1.5386622 0.40848884 0
0.21977055 -0.76380563 0.47135118 0
0.45530748 -1.5105654 -0.056325648 0
0.46051615 -1.5278461 0.17149314 0
0.45994076 -1.5259371 0.2874302 0
0.46097326 -1.5293627 0.4075287 0
0.46938103 -1.4891349 -0.055742525 0
0.47381476 -1.5032011 0.16938314 0
0.47171712 -1.4965463 0.28299049 0
0.47215989 -1.4979509 0.40071097 0
0.47207755 -1.4976897 0.52243918 0
0.49055195 -1.490576 -0.056023251 0
0.49493837 -1.5039043 0.17015117 0
0.49042141 -1.4901793 0.28293183 0
0.48804027 -1.482944 0.3983089 0
0.49119657 -1.4925346 0.52275705 0
0.50735676 -1.4786724 -0.05581155 0
0.50940466 -1.484641 0.16868408 0
0.50155342 -1.4617587 0.27871281 0
0.50760174 -1.4793863 0.39903849 0
0.50671792 -1.4768105 0.51944333 0
0.52819097 -1.4784822 -0.056050975 0
0.53523713 -1.4982054 0.17097749 0
0.52160037 -1.4600343 0.27961418 0
0.5190888 -1.453004 0.3936542 0
0.5216223 -1.4600955 0.51583362 0
0.55213618 -1.486172 -0.056601595 0
0.56228679 -1.5134941 0.17351653 0
0.53704619 -1.4455546 0.27811423 0
0.53331721 -1.4355173 0.39070511 0
0.53775609 -1.4474654 0.51372308 0
0.56514251 -1.4644289 -0.056040086 0
0.58772022 -1.5229335 0.17543328 0
0.54800624 -1.4200245 0.27450827 0
0.55698001 -1.4432777 0.39469486 0
0.54796177 -1.4199091 0.50635177 0
0.58129108 -1.4515893 -0.055824429 0
0.6212523 -1.5513798 0.17959705 0
0.56443465 -1.4094957 0.2738252 0
0.56287616 -1.405604 0.38629991 0
0.56751192 -1.4171804 0.50788683 0
0.60119528 -1.4481851 -0.055980213 0
0.65268296 -1.5722109 0.18294552 0
0.58037126 -1.3980234 0.27299455 0
0.57338691 -1.3811991 0.3815468 0
0.57580209 -1.3870169 0.49963576 0
0.62078488 -1.4437631 -0.056107003 0
0.68421787 -1.5912896 0.18615337 0
0.59619319 -1.3865702 0.27220249 0
0.59350395 -1.3803158 0.38333693 0
0.60069937 -1.3970501 0.50593466 0
0.35842615 -0.8335939 0.45400134 0
0.64086103 -1.440207 -0.056277953 0
0.71146083 -1.598866 0.18807277 0
0.61034048 -1.3716182 0.27075449 0
0.61601698 -1.3843751 0.38658783 0
0.60608017 -1.362044 0.49598184 0
0.36427617 -0.81863785 0.44831851 0
0.65731484 -1.4284828 -0.056138799 0
0.6251089 -1.3584925 0.26969597 0
0.62515146 -1.358585 0.38155395 0
0.62863141 -1.3661476 0.50031906 0
0.37874895 -0.82310081 0.4533385 0
0.67285073 -1.4150493 -0.055939406 0
0.64186507 -1.3498844 0.26957026 0
0.64080614 -1.3476574 0.380721 0
0.63659257 -1.338796 0.49319875 0
0.37439454 -0.78737628 0.43622455 0
0.69211698 -1.4095248 -0.056061096 0
0.65995353 -1.3440226 0.2700378 0
0.65102118 -1.3258314 0.3768411 0
0.64457601 -1.3127056 0.48653886 0
0.65280503 -1.3294643 0.6132248 0
0.37839046 -0.77060777 0.42954016 0
0.70777339 -1.3966801 -0.055900268 0
0.61007392 -1.2038854 0.048183918 0
0.669572 -1.3212955 0.26714435 0
0.65868127 -1.2998044 0.37177145 0
0.67054135 -1.3232085 0.49352199 0
0.66941774 -1.3209912 0.61315602 0
0.40386942 -0.79697311 0.44703561 0
0.72765362 -1.3921546 -0.056081418 0
0.60708374 -1.1614789 0.046788905 0
0.62937027 -1.2041178 0.1460162 0
0.68615991 -1.3127683 0.26714602 0
0.68104464 -1.3029817 0.37510335 0
0.67362988 -1.2887958 0.48381236 0
0.67964667 -1.300307 0.60747951 0
0.42516828 -0.81343639 0.45923677 0
0.74501687 -1.3826816 -0.056073289 0
0.63861209 -1.1852044 0.048064794 0
0.65976483 -1.2244618 0.14947881 0
0.69713813 -1.2938232 0.26505613 0
0.69491833 -1.2897035 0.37377027 0
0.69632226 -1.292309 0.48838413 0
0.68455404 -1.2704684 0.59751916 0
0.43351907 -0.80457091 0.4572773 0
0.76227254 -1.3730204 -0.056066312 0
0.73101676 -1.3167219 0.053767402 0
0.67521018 -1.216202 0.14949656 0
0.72645742 -1.3085096 0.26991743 0
0.70486563 -1.269618 0.37049225 0
0.70019585 -1.2612067 0.47992408 0
0.70624471 -1.272102 0.6024223 0
0.45343074 -0.81672847 0.46739513 0
0.77908993 -1.3625963 -0.056036808 0
0.74186498 -1.2974914 0.053359367 0
0.7059989 -1.2347631 0.15285876 0
0.75464517 -1.3198435 0.27419385 0
0.71585149 -1.2519948 0.36795083 0
0.71933013 -1.2580789 0.48214245 0
0.71882051 -1.2571876 0.59959835 0
0.45131966 -0.78933954 0.45493731 0
0.79381847 -1.3486581 -0.055870254 0
0.77660757 -1.3194177 0.054658927 0
0.67841309 -1.1525902 0.14373225 0
0.78996342 -1.3421086 0.28086364 0
0.7288155 -1.2382214 0.36657101 0
0.73511118 -1.2489175 0.48214069 0
0.73778987 -1.2534683 0.60220766 0
0.46215349 -0.7851758 0.45585549 0
0.82400423 -1.3604612 -0.056784555 0
0.81348878 -1.3430998 0.056059904 0
0.69647038 -1.1498981 0.14447874 0
0.80753177 -1.3332645 0.28111854 0
0.74867743 -1.2360939 0.36870292 0
0.75128335 -1.2403964 0.48246503 0
0.74514127 -1.2302556 0.59551615 0
0.4733322 -0.78148884 0.45713907 0
0.82768178 -1.328491 -0.055880733 0
0.67538905 -1.0840498 0.04559873 0
0.67163795 -1.078029 0.13650057 0
0.84133238 -1.3504013 0.28694287 0
0.76089388 -1.2212914 0.36711648 0
0.76290452 -1.2245187 0.4799878 0
0.75898069 -1.2182207 0.59426969 0
0.49207979 -0.78982478 0.46560299 0
0.84734726 -1.3226529 -0.056079537 0
0.72109038 -1.1255742 0.047723539 0
0.68940926 -1.0761222 0.13734744 0
0.87325847 -1.3630985 0.29195428 0
0.77477545 -1.2093731 0.36643746 0
0.76908553 -1.2004915 0.47432816 0
0.7658388 -1.1954236 0.58780658 0
0.50484562 -0.78803051 0.46825567 0
0.85940754 -1.3050057 -0.055785719 0
0.70542878 -1.0711898 0.045790676 0
0.90571463 -1.3753227 0.29699174 0
0.78257287 -1.1883327 0.36301932 0
0.78108823 -1.1860782 0.472482 0
0.78127384 -1.1863601 0.58814085 0
0.50717193 -0.77013785 0.46138194 0
0.88190168 -1.3031403 -0.056176238 0
0.72890556 -1.0770658 0.046430539 0
0.94630373 -1.3983037 0.30450338 0
0.80640787 -1.1915869 0.36708638 0
0.79314446 -1.1719882 0.47081041 0
0.80560052 -1.190394 0.59512252 0
0.52552831 -0.77654582 0.46914825 0
0.88981491 -1.2798151 -0.055649336 0
0.74176997 -1.066883 0.046390552 0
0.81667155 -1.1746135 0.36499658 0
0.80880082 -1.1632931 0.47137135 0
0.80682468 -1.1604508 0.58518559 0
0.55019736 -0.79134536 0.48223674 0
0.90996087 -1.2742541 -0.055901337 0
0.58167636 -0.81454438 0.035733938 0
0.57255393 -0.80176985 0.1058806 0
0.56662315 -0.79346478 0.17584212 0
0.57819802 -0.80967343 0.25383827 0
0.57784581 -0.80918032 0.33080554 0
0.57808328 -0.80951279 0.41185468 0
0.55431932 -0.77623522 0.47724459 0
0.9262284 -1.2630982 -0.055919163 0
0.59026146 -0.80493987 0.03563584 0
0.57064104 -0.77818352 0.10370653 0
0.5866462 -0.80000973 0.17891549 0
0.58370531 -0.79599929 0.25183567 0
0.57778776 -0.78792948 0.32506648 0
0.58359551 -0.79584956 0.40860969 0
0.56797463 -0.77454734 0.48056597 0
0.93668813 -1.2442018 -0.055600364 0
0.57782173 -0.76751989 0.034298606 0
0.57846421 -0.76837337 0.1033617 0
0.58731461 -0.78012931 0.17610939 0
0.58618093 -0.77862346 0.24865395 0
0.58156192 -0.77248806 0.32169172 0
0.58953154 -0.78307408 0.4058297 0
0.58663815 -0.77923077 0.48801637 0
0.9647938 -1.2485029 -0.056331005 0
0.57929116 -0.74963862 0.033822831 0
0.60978609 -0.78910089 0.10717439 0
0.60611624 -0.78435194 0.17877139 0
0.58936346 -0.76267278 0.2459106 0
0.59887475 -0.77498102 0.32584444 0
0.60839349 -0.7872988 0.41195685 0
0.9741739 -1.2283581 -0.055971134 0
0.57659495 -0.72704172 0.033128247 0
0.88082898 -1.1106573 0.36165982 0
0.87686104 -1.1056541 0.46948278 0
0.87909204 -1.1084672 0.58575511 0
0.98654109 -1.2122811 -0.0558002 0
0.57390088 -0.7052207 0.032460671 0
0.8916629 -1.0956929 0.36041453 0
0.89350086 -1.0979514 0.47095221 0
0.89419061 -1.098799 0.5865497 0
1.0045078 -1.2030939 -0.055955105 0
0.58885884 -0.70527321 0.032801792 0
0.90765756 -1.0870968 0.36131787 0
0.89537799 -1.0723896 0.46478713 0
0.90413862 -1.0828822 0.58408433 0
1.0148906 -1.1848795 -0.055697929 0
0.60501039 -0.70634651 0.033203408 0
0.92918265 -1.084816 0.36441982 0
0.91240656 -1.06523 0.46662664 0
0.90224516 -1.0533667 0.57424676 0
1.0303153 -1.1726741 -0.055729631 0
0.60514867 -0.68876207 0.03273242 0
0.92389351 -1.051548 0.357124 0
0.92075652 -1.0479776 0.4641113 0
0.92964631 -1.0580956 0.58316028 0
1.0557599 -1.1715493 -0.056303512 0
0.94032252 -1.0434514 0.35836717 0
0.93320531 -1.0355536 0.46377656 0
0.94110239 -1.0443168 0.5820514 0
1.0642269 -1.1514543 -0.055977367 0
0.9555003 -1.0338162 0.35916179 0
0.94798315 -1.0256828 0.4646652 0
0.95056188 -1.028473 0.57984614 0
1.0825931 -1.1421329 -0.056182478 0
0.96856195 -1.0218303 0.35920644 0
0.96586895 -1.0189892 0.46710566 0
0.95566523 -1.0082244 0.57516915 0
1.090414 -1.1217511 -0.055850882 0
0.97196466 -0.99989766 0.35577065 0
0.97019643 -0.99807853 0.46308374 0
0.9707514 -0.99864954 0.57663471 0
1.1072066 -1.110696 -0.055990186 0
1.0026082 -1.0057679 0.36232272 0
0.98835927 -0.99147409 0.46575698 0
0.98685062 -0.98996073 0.57874709 0
1.1317106 -1.1070426 -0.056519914 0
1.010559 -0.98853159 0.36066899 0
0.99526811 -0.97357398 0.46319884 0
0.9982124 -0.97645408 0.57815349 0
1.1373607 -1.0848842 -0.056115374 0
1.0288773 -0.98140609 0.36276743 0
1.0098654 -0.96327138 0.46431044 0
1.0060786 -0.95965922 0.57566482 0
1.1397742 -1.0601009 -0.055571429 0
1.0286552 -0.95674938 0.35841289 0
1.01538 -0.94440222 0.46134165 0
1.0257481 -0.95404565 0.57999957 0
1.1634743 -1.0551358 -0.056074716 0
1.0386927 -0.94197351 0.35774902 0
1.0469818 -0.94949073 0.4702304 0
1.0356345 -0.9392001 0.57885659 0
1.1613088 -1.0268226 -0.055342786 0
1.0542179 -0.9321335 0.35902506 0
1.0620924 -0.93909609 0.47166857 0
1.0298194 -0.91056049 0.56915236 0
1.1911552 -1.0267813 -0.056144528 0
1.3721967 -1.1828398 0.064677827 0
1.3733442 -1.1838289 0.19485833 0
1.3151541 -1.1336688 0.31314451 0
1.0621253 -0.91555685 0.35776338 0
1.0618775 -0.91534323 0.46641743 0
1.0623608 -0.9157598 0.58071792 0
1.199952 -1.0083094 -0.055956263 0
1.3981938 -1.1748902 0.065200686 0
1.3900194 -1.1680213 0.19512199 0
1.141283 -0.9590103 0.2688483 0
1.0891029 -0.91516376 0.36293995 0
1.0706823 -0.89968508 0.4652718 0
1.0706309 -0.89964193 0.57900023 0
1.2134926 -0.9938904 -0.05599964 0
0.99571878 -0.81552643 0.045949921 0
1.0027682 -0.82130009 0.13929935 0
1.0035315 -0.82192528 0.23394197 0
1.0094337 -0.82675946 0.33289477 0
1.0878431 -0.89097929 0.46781659 0
1.0928998 -0.89512086 0.58490127 0
1.2268614 -0.97929102 -0.056043059 0
0.89781499 -0.71664351 0.041012216 0
0.90308756 -0.72085208 0.12418146 0
0.89862007 -0.71728611 0.20736314 0
0.90064418 -0.71890175 0.29400903 0
1.0948361 -0.87390739 0.46605459 0
1.1062136 -0.88298893 0.58602953 0
1.24347 -0.96716893 -0.056240957 0
0.88154137 -0.68566144 0.039871272 0
0.88286686 -0.68669242 0.1202024 0
0.88296247 -0.6867668 0.20173848 0
0.878824 -0.68354791 0.28405365 0
1.1114142 -0.86445618 0.46844071 0
1.1185325 -0.86999279 0.58670551 0
1.2499841 -0.94721836 -0.055991679 0
0.8913511 -0.67545182 0.039927099 0
0.89137095 -0.6754669 0.12019266 0
0.89571512 -0.6787588 0.2026833 0
0.89246154 -0.67629331 0.28568637 0
1.1204036 -0.84902424 0.46768641 0
1.1225601 -0.85065848 0.58315331 0
1.2662215 -0.93465954 -0.056187358 0
0.90004903 -0.66436988 0.039938807 0
0.89666253 -0.66187012 0.11977287 0
0.90106881 -0.66512263 0.20198354 0
0.89781773 -0.66272289 0.28470701 0
1.121498 -0.8278321 0.4637551 0
1.14363 -0.84416884 0.58853006 0
1.2806468 -0.92062426 -0.056308586 0
0.92109829 -0.66215402 0.04049965 0
0.91917819 -0.66077369 0.12165935 0
0.9021436 -0.64852798 0.200378 0
0.91877931 -0.66048694 0.28869385 0
1.1571229 -0.83182609 0.47411755 0
1.147549 -0.82494366 0.58515465 0
1.2932956 -0.90523732 -0.056359079 0
0.93164378 -0.6521005 0.040599059 0
0.9342472 -0.65392274 0.12255425 0
0.91933745 -0.64348674 0.20238116 0
0.9301334 -0.65104336 0.28966257 0
1.158379 -0.81080294 0.47041157 0
1.1602647 -0.81212282 0.5863775 0
1.3072313 -0.89068025 -0.056473132 0
0.93117219 -0.63445294 0.040227167 0
0.93452185 -0.6367352 0.12152886 0
0.92236871 -0.62845469 0.20129041 0
0.93155086 -0.63471091 0.28759217 0
1.1637534 -0.79292178 0.46850225 0
1.169292 -0.79669547 0.58582318 0
1.3015101 -0.86298907 -0.055752095 0
0.95163804 -0.63100028 0.040764812 0
0.9437291 -0.62575614 0.12169186 0
0.94063038 -0.62370145 0.20354562 0
0.94054371 -0.62364399 0.28792122 0
1.1862905 -0.7865907 0.47355017 0
1.1824659 -0.78405476 0.58743042 0
1.3051198 -0.84191865 -0.055448189 0
0.96298999 -0.62121439 0.040912759 0
0.96200931 -0.62058181 0.12303163 0
0.94593167 -0.61021024 0.20301394 0
0.95115268 -0.61357826 0.28878078 0
1.2081409 -0.77935857 0.47831705 0
1.2023996 -0.77565497 0.59243399 0
1.3254707 -0.83160096 -0.055863481 0
0.96825981 -0.60748672 0.040808421 0
0.96618766 -0.60618663 0.12258007 0
0.96051979 -0.60263062 0.20449997 0
0.96383369 -0.60470974 0.29029599 0
1.2145694 -0.76202148 0.47702542 0
1.221652 -0.76646513 0.59711713 0
1.350449 -0.82375926 -0.056474566 0
0.97913301 -0.59726053 0.040946465 0
0.96770489 -0.59028947 0.12181987 0
0.9734087 -0.59376878 0.20563594 0
0.97229457 -0.59308916 0.2905719 0
1.215202 -0.74126005 0.47357032 0
1.232509 -0.75181717 0.59774911 0
1.3494151 -0.79999161 -0.056005612 0
0.9800036 -0.58098853 0.040673699 0
0.99097043 -0.58749014 0.12380758 0
0.97842133 -0.58005053 0.2051356 0
0.97478467 -0.57789457 0.28911841 0
1.2432258 -0.73703802 0.48083636 0
1.2477268 -0.73970646 0.60056454 0
1.3558584 -0.78090864 -0.055860486 0
1.0007404 -0.57637793 0.041229855 0
1.0004144 -0.57619011 0.12407115 0
0.98908621 -0.56966567 0.2058513 0
0.99119925 -0.57088268 0.29183167 0
1.2456483 -0.71743292 0.47824129 0
1.2427121 -0.71574187 0.59376562 0
1.3668691 -0.76449388 -0.055913076 0
1.0051259 -0.56216979 0.041115623 0
1.0117106 -0.56585276 0.12457856 0
1.0060502 -0.56268686 0.20789078 0
0.99335134 -0.55558431 0.29038247 0
1.2634684 -0.70666158 0.48162845 0
1.2659914 -0.70807272 0.60058069 0
1.3839093 -0.75130665 -0.056218669 0
1.0100007 -0.54831648 0.041029345 0
1.0204761 -0.55400342 0.12478899 0
1.0258042 -0.55689597 0.21050698 0
1.0106678 -0.54867864 0.29340157 0
1.284907 -0.6975596 0.48641384 0
1.2936481 -0.70230508 0.60945725 0
1.3855052 -0.72973788 -0.055905778 0
1.2969365 -0.68308932 0.37397999 0
1.2924064 -0.68070328 0.48596942 0
1.2903177 -0.67960316 0.60380864 0
1.3978065 -0.71388084 -0.056034982 0
1.3111551 -0.66962659 0.37561876 0
1.2977468 -0.66277879 0.48480088 0
1.3069128 -0.66746002 0.60759318 0
1.3923492 -0.68912911 -0.05546394 0
1.3196512 -0.653148 0.37566677 0
1.3246043 -0.65559947 0.49171108 0
1.3218683 -0.65424532 0.61066765 0
1.436409 -0.68855721 -0.056869164 0
1.338268 -0.64151233 0.37863684 0
1.3463149 -0.64536965 0.49671426 0
1.3287975 -0.63697249 0.61011487 0
1.4193863 -0.65854883 -0.055862468 0
1.3652121 -0.63341379 0.383973 0
1.3506215 -0.62664419 0.4953526 0
1.3515996 -0.62709802 0.61690986 0
1.4312468 -0.6422767 -0.056006514 0
1.3722196 -0.6157881 0.38373259 0
1.3525064 -0.60694176 0.49320179 0
1.3540097 -0.60761636 0.61446899 0
1.4402146 -0.62463593 -0.056045204 0
1.3640237 -0.59159112 0.37932742 0
1.3697134 -0.59405881 0.49670926 0
1.3706012 -0.59444386 0.61855239 0
1.4410111 -0.60353971 -0.055776034 0
1.3941206 -0.58390051 0.38562191 0
1.3855079 -0.58029324 0.49974746 0
1.3800008 -0.57798672 0.6194607 0
1.4512717 -0.58646935 -0.055882905 0
1.407048 -0.56859827 0.38718653 0
1.3931015 -0.56296235 0.49988982 0
1.3760953 -0.55609006 0.6145156 0
1.4527233 -0.5658834 -0.055660002 0
1.4176295 -0.55221325 0.38815406 0
1.4097247 -0.54913408 0.50333363 0
1.40343 -0.54668206 0.62359875 0
1.4736364 -0.55276209 -0.056190133 0
1.4117252 -0.52953911 0.38468117 0
1.4187685 -0.53218114 0.50413007 0
1.4111747 -0.52933264 0.6240288 0
1.4806235 -0.53421533 -0.056195598 0
1.4392294 -0.5192802 0.39036307 0
1.4329752 -0.51702362 0.50682455 0
1.4237396 -0.51369137 0.62667501 0
1.4831872 -0.51412785 -0.056042742 0
1.4462756 -0.50133294 0.390531 0
1.4327245 -0.49663565 0.504484 0
1.4449124 -0.50086045 0.63316822 0
1.4711933 -0.48930901 -0.055352353 0
1.4730488 -0.4899261 0.39606321 0
1.4589942 -0.48525161 0.51154184 0
1.4545417 -0.48377079 0.63466805 0
1.4818891 -0.47222835 -0.055526637 0
1.4755576 -0.47021073 0.39511445 0
1.4690752 -0.46814501 0.5129689 0
1.4539692 -0.46333122 0.63182241 0
1.5037224 -0.45841125 -0.056123994 0
1.4847379 -0.45262375 0.39601508 0
1.4769751 -0.45025727 0.51370686 0
1.4619762 -0.44568485 0.63281292 0
1.5134494 -0.4406274 -0.056275491 0
1.4558955 -0.4238711 0.38686785 0
1.4846957 -0.43225601 0.51445824 0
1.4707663 -0.4282006 0.63423353 0
1.5044467 -0.41753131 -0.055740818 0
1.4860575 -0.41242772 0.39347145 0
1.4912231 -0.41386133 0.51487339 0
1.4896997 -0.41343856 0.64010233 0
1.508298 -0.39821571 -0.055693313 0
1.4980658 -0.39551425 0.39530092 0
1.4901787 -0.3934319 0.51276159 0
1.4876339 -0.39276007 0.63703912 0
1.5208563 -0.38111332 -0.055975378 0
1.4967121 -0.375063 0.39366627 0
1.5048563 -0.37710389 0.51613724 0
1.4942418 -0.37444398 0.63779908 0
1.5294635 -0.36286587 -0.056119546 0
1.5287473 -0.36269596 0.40085912 0
1.4985498 -0.35553157 0.51239806 0
1.5090499 -0.35802275 0.6421445 0
1.5214176 -0.34078091 -0.055662461 0
1.5408366 -0.34513053 0.4028576 0
1.5338064 -0.34355587 0.52293271 0
1.530254 -0.34276015 0.64927936 0
1.5295259 -0.32242754 -0.055806141 0
1.53424 -0.32342127 0.40003639 0
1.5410235 -0.32485127 0.52395707 0
1.5297979 -0.32248488 0.64731157 0
1.5405523 -0.30454457 -0.056064084 0
1.5259048 -0.30164897 0.3968412 0
1.5353562 -0.30351737 0.52068937 0
1.5148686 -0.2994673 0.63934815 0
1.5497644 -0.28613842 -0.056263745 0
1.5358753 -0.28357404 0.39847401 0
1.5380437 -0.28397441 0.52034688 0
1.5446779 -0.28519928 0.65036184 0
1.5585272 -0.2675091 -0.056455113 0
1.5490222 -0.26587763 0.4009845 0
1.5270026 -0.26209813 0.51545399 0
1.5437174 -0.26496708 0.64850122 0
1.5358893 -0.2437564 -0.055519503 0
1.5533702 -0.24653074 0.40127462 0
1.5478492 -0.24565451 0.52140546 0
1.5541942 -0.24666151 0.651546 0
1.5546089 -0.22669832 -0.056088544 0
1.5583771 -0.2272478 0.40179694 0
1.5681281 -0.22866972 0.52722478 0
1.5622916 -0.22781864 0.65368611 0
1.5546223 -0.20674449 -0.055990659 0
1.5633546 -0.20790578 0.4023734 0
1.5681013 -0.20853704 0.52629119 0
1.5749538 -0.20944832 0.65782845 0
1.558826 -0.18736072 -0.056052644 0
1.575833 -0.18940485 0.40493909 0
1.5672095 -0.18836837 0.52515417 0
1.5818617 -0.19012947 0.65966153 0
1.5612444 -0.16773801 -0.056059208 0
1.5659845 -0.16824728 0.40183207 0
1.5806754 -0.16982566 0.5289079 0
1.5697927 -0.16865644 0.65369105 0
1.570817 -0.14878513 -0.056331195 0
1.5891553 -0.15052211 0.40725908 0
1.5871807 -0.15033509 0.53040922 0
1.5910881 -0.15070519 0.66171616 0
1.5798458 -0.12959202 -0.056591969 0
1.5986434 -0.13113396 0.409235 0
1.5929824 -0.13066959 0.53175598 0
1.5739957 -0.12911215 0.65387964 0
1.5787185 -0.10950688 -0.056497715 0
1.6712121 -0.11592264 0.059807789 0
1.6726369 -0.11602148 0.18018904 0
1.6645851 -0.11546297 0.3009271 0
1.5926421 -0.11047269 0.40731034 0
1.5876776 -0.11012833 0.52948028 0
1.5995239 -0.11095004 0.66385168 0
1.5631469 -0.088665858 -0.055896066 0
1.6481053 -0.093484916 0.058934066 0
1.6402394 -0.093038738 0.17655872 0
1.6457285 -0.093350098 0.29728207 0
1.5909753 -0.090244353 0.40656123 0
1.5971559 -0.090594932 0.53221858 0
1.5868841 -0.090012297 0.6580832 0
1.5669712 -0.069101788 -0.055997264 0
1.6455131 -0.072565407 0.058804031 0
1.6297991 -0.071872436 0.17532359 0
1.644558 -0.072523288 0.29688212 0
1.5879613 -0.070027433 0.40553352 0
1.5946299 -0.070321508 0.53103966 0
1.5970367 -0.070427649 0.66187328 0
1.5635509 -0.049235065 -0.055848457 0
1.637862 -0.051575061 0.058502767 0
1.6448739 -0.051795859 0.17686106 0
1.6264108 -0.051214471 0.29346645 0
1.5996696 -0.050372411 0.40832922 0
1.6056087 -0.050559431 0.53444147 0
1.5997103 -0.050373692 0.66266584 0
1.5636178 -0.029536055 -0.055833131 0
1.6236181 -0.030669434 0.057975601 0
1.6221483 -0.030641668 0.17436223 0
1.6454499 -0.031081825 0.29680768 0
1.6011384 -0.030244799 0.40857452 0
1.6017407 -0.030256178 0.53298485 0
1.5893849 -0.030022783 0.65817988 0
1.5598816 -0.0098207882 -0.055690888 0
1.6344121 -0.01029002 0.058351774 0
1.6316271 -0.010272487 0.17535329 0
1.6523561 -0.010402994 0.29800618 0
1.5992632 -0.010068729 0.40803131 0
1.6072712 -0.010119146 0.53474039 0
1.6036364 -0.010096261 0.66397625 0
1.5705739 0.009888106 -0.056072626 0
1.6392879 0.010320718 0.058525853 0
1.6401991 0.010326454 0.17627454 0
1.6560394 0.010426183 0.29867044 0
1.5766666 0.0099264635 0.40226611 0
1.6073521 0.010119656 0.53476733 0
1.6081551 0.010124711 0.66584724 0
1.5626904 0.029518535 -0.055800017 0
1.6643296 0.031438459 0.059429318 0
1.6798973 0.031732522 0.18056959 0
1.6719966 0.031583279 0.30159619 0
1.6101544 0.030415108 0.4108752 0
1.6136101 0.030480389 0.53693449 0
1.6081439 0.030377131 0.66594815 0
1.5717897 0.049494494 -0.056142736 0
1.6229354 0.051105034 0.41426802 0
1.6107082 0.05072001 0.53613883 0
1.6126482 0.050781097 0.66802526 0
1.5691684 0.06919869 -0.056075785 0
1.6053963 0.070796296 0.40998605 0
1.6042469 0.07074561 0.53424227 0
1.6042275 0.07074476 0.66485339 0
1.5684153 0.088964686 -0.056084454 0
1.6080685 0.091213927 0.41092923 0
1.5990885 0.09070456 0.5328626 0
1.5985496 0.090673983 0.66292089 0
1.5656043 0.10859723 -0.056028396 0
1.5982586 0.11086227 0.40874672 0
1.5914806 0.11039212 0.53074855 0
1.5969397 0.11077079 0.66277915 0
1.5503377 0.12717152 -0.055534955 0
1.6088068 0.13196765 0.41183674 0
1.6073827 0.13185081 0.53656292 0
1.5995573 0.13120891 0.66449857 0
1.5650204 0.1482361 -0.05612332 0
1.6167397 0.15313487 0.41432825 0
1.5952199 0.15109654 0.53309572 0
1.6029682 0.15183045 0.66665697 0
1.5665637 0.16830951 -0.056250211 0
1.5997254 0.17187236 0.41049001 0
1.5921658 0.17106017 0.53275269 0
1.5953184 0.17139888 0.66432041 0
1.5628158 0.18784028 -0.056196112 0
1.6121159 0.19376582 0.41426265 0
1.5849383 0.19049925 0.53109485 0
1.5885866 0.19093776 0.66246587 0
1.5543512 0.20670846 -0.055980898 0
1.5940758 0.21199131 0.41028038 0
1.5873518 0.21109711 0.5327521 0
1.5787388 0.2099517 0.6594094 0
1.5565253 0.22697778 -0.056157686 0
1.5975279 0.2329569 0.41189119 0
1.5892639 0.23175181 0.5343309 0
1.5823241 0.23073985 0.66206801 0
1.5586095 0.24736224 -0.056340791 0
1.5919758 0.25265771 0.4112474 0
1.5821283 0.25109485 0.53295267 0
1.5886136 0.2521241 0.66597521 0
1.5545708 0.26683003 -0.056311797 0
1.5965166 0.27402967 0.41327903 0
1.5843978 0.27194959 0.53482831 0
1.5793478 0.27108279 0.66346925 0
1.5508276 0.28633472 -0.056302346 0
1.5831593 0.29230425 0.41074157 0
1.571671 0.29018313 0.53172356 0
1.583915 0.29244378 0.66688204 0
1.5367435 0.30379164 -0.055925474 0
1.5686417 0.31009743 0.40795577 0
1.5757972 0.31151196 0.53440428 0
1.5774443 0.31183758 0.66575813 0
1.5395877 0.3245486 -0.056173254 0
1.567281 0.3303864 0.4086515 0
1.5690701 0.33076355 0.53349304 0
1.5683485 0.33061144 0.66362369 0
1.539529 0.34483764 -0.056325078 0
1.5636314 0.35023633 0.40881741 0
1.5628628 0.35006416 0.53283906 0
1.571817 0.35206982 0.6669144 0
1.525112 0.36183348 -0.05595988 0
1.5467069 0.36695689 0.40556839 0
1.5693079 0.37231898 0.53659236 0
1.5657557 0.37147623 0.66627449 0
1.5336635 0.3843227 -0.05644675 0
1.5583401 0.39050645 0.40987566 0
1.548739 0.38810048 0.53118813 0
1.5489564 0.38815498 0.66115338 0
1.5158798 0.40021741 -0.055973262 0
1.5481498 0.40873724 0.40851679 0
1.5388513 0.40628228 0.52950954 0
1.5429903 0.40737504 0.66074395 0
1.4988614 0.41598123 -0.055533882 0
1.5428345 0.42818516 0.40850461 0
1.5451622 0.42883116 0.53349692 0
1.5407062 0.42759445 0.66201907 0
1.5108979 0.43988451 -0.056180611 0
1.5339701 0.44660184 0.40761423 0
1.5388265 0.44801569 0.53321493 0
1.5275742 0.4447397 0.65873057 0
1.5037956 0.45843357 -0.056126729 0
1.5201988 0.46343407 0.40547338 0
1.523957 0.46457976 0.53004766 0
1.5325855 0.46721017 0.66337597 0
1.5025879 0.47882438 -0.056302227 0
1.5186591 0.48394573 0.40665585 0
1.5124242 0.48195887 0.52810538 0
1.5130489 0.48215792 0.6574955 0
1.4884597 0.49505168 -0.056001984 0
1.5107626 0.50246948 0.40620342 0
1.4979087 0.49819434 0.52518576 0
1.5009425 0.49920338 0.65491438 0
1.4889925 0.51614022 -0.056262098 0
1.4906487 0.51671433 0.40251291 0
1.5024338 0.52079946 0.52902967 0
1.4804068 0.5131641 0.64872199 0
1.4674331 0.5294562 -0.055694971 0
1.4784952 0.5334475 0.4010132 0
1.4816505 0.53458589 0.52404034 0
1.491361 0.53808945 0.6564393 0
1.4607724 0.5479368 -0.055699628 0
1.4875194 0.55796963 0.40533438 0
1.4839129 0.55661684 0.52727777 0
1.4719362 0.55212432 0.65089792 0
1.4743937 0.57432479 -0.056490291 0
1.467033 0.57145756 0.40168101 0
1.4766629 0.57520866 0.52723348 0
1.4697371 0.57251084 0.65306157 0
1.4379958 0.58110452 -0.055371705 0
1.4578739 0.58913738 0.40117264 0
1.4509664 0.58634597 0.52065361 0
1.4542643 0.58767873 0.64942312 0
1.4423442 0.60409802 -0.055827629 0
1.4390867 0.60273367 0.39805979 0
1.4501241 0.60735649 0.52305424 0
1.4452415 0.60531151 0.64874625 0
1.4487077 0.62831944 -0.056375708 0
1.4498447 0.62881261 0.40319377 0
1.4416851 0.62527364 0.52280885 0
1.448212 0.62810445 0.65357816 0
1.4301823 0.64179903 -0.055964861 0
1.4395752 0.64601409 0.40256816 0
1.4260786 0.63995749 0.52003044 0
1.428409 0.64100325 0.6482324 0
1.4194698 0.65858763 -0.055865757 0
1.4228966 0.66017753 0.40019709 0
1.4146283 0.65634125 0.51882768 0
1.4162412 0.65708959 0.64641416 0
1.4163786 0.67895544 -0.056076132 0
1.4101439 0.67596668 0.39897269 0
1.4060185 0.67398918 0.51874155 0
1.416103 0.67882329 0.65020108 0
1.3993999 0.69261879 -0.055744801 0
1.3904673 0.68819773 0.39582607 0
1.3816441 0.68383074 0.51288503 0
1.3993753 0.69260669 0.64647377 0
1.4022163 0.716133 -0.056211758 0
1.3899299 0.70985812 0.39818612 0
1.3904461 0.71012175 0.5194307 0
1.3870424 0.70838344 0.64484602 0
1.3828318 0.72832984 -0.055797908 0
1.3720706 0.72266197 0.39564535 0
1.3812145 0.72747797 0.51936293 0
1.370703 0.72194171 0.64142525 0
1.3906623 0.75497282 -0.056492995 0
1.3608011 0.73876154 0.39504686 0
1.3591294 0.737854 0.51451147 0
1.3434186 0.72932476 0.63290483 0
1.3740405 0.76850486 -0.056206428 0
1.4115528 0.78948557 0.057740904 0
1.405409 0.78604937 0.17305721 0
1.409179 0.78815788 0.29119352 0
1.3514607 0.75587589 0.39506716 0
1.3423344 0.75077152 0.51169181 0
1.3460201 0.75283295 0.63854593 0
1.3615141 0.78416604 -0.056093499 0
1.388191 0.79953063 0.057192568 0
1.3821687 0.79606205 0.17141622 0
1.3868985 0.79878622 0.28864509 0
1.3370646 0.77008438 0.39366233 0
1.3178138 0.75899678 0.50594777 0
1.3384428 0.77087814 0.63950562 0
1.3412796 0.79516858 -0.055667963 0
1.3691382 0.81168437 0.056824196 0
1.3583062 0.80526263 0.16970092 0
1.3588684 0.80559599 0.28490004 0
1.3218074 0.78362459 0.3920444 0
1.3130442 0.77842939 0.50783968 0
1.3253304 0.7857132 0.63791722 0
1.3521363 0.82478851 -0.056545127 0
1.3575732 0.82810491 0.056772485 0
1.3535279 0.82563734 0.17038934 0
1.3434055 0.81946284 0.28379902 0
1.3138864 0.80145651 0.39265722 0
1.3036357 0.79520369 0.50803339 0
1.3146175 0.80190247 0.63757056 0
1.3236848 0.83048058 -0.055788215 0
1.3369247 0.83878726 0.056346223 0
1.3322583 0.83585954 0.16902339 0
1.3397796 0.84057844 0.28524649 0
1.2923117 0.81079704 0.38922989 0
1.2775297 0.80152279 0.50175321 0
1.2898169 0.80923176 0.63043463 0
1.319845 0.85141766 -0.056073792 0
1.3306926 0.85841537 0.056534655 0
1.342036 0.86573291 0.17163336 0
1.3291662 0.8574307 0.28526297 0
1.2820377 0.82702863 0.38924125 0
1.2683179 0.81817818 0.50214189 0
1.2705265 0.81960285 0.62600076 0
1.3097006 0.86841995 -0.05610295 0
1.314469 0.87158173 0.056307208 0
1.3322731 0.88338703 0.17179377 0
1.3209336 0.87586814 0.28584045 0
1.2713462 0.84298843 0.38918722 0
1.2685928 0.84116274 0.5064041 0
1.2552855 0.83233905 0.62360603 0
1.2900461 0.87897122 -0.055730723 0
1.3161418 0.89675146 0.05685807 0
1.3338873 0.90884238 0.17346391 0
1.3253489 0.90302467 0.2892336 0
1.2442056 0.84773779 0.38411623 0
1.2463733 0.84921473 0.50176328 0
1.2357097 0.84194911 0.6190989 0
1.2893522 0.90247709 -0.056187227 0
1.352832 0.94690955 0.058953542 0
1.3545609 0.9481197 0.17769086 0
1.3522707 0.94651669 0.29768625 0
1.2307079 0.86142927 0.38326761 0
1.226348 0.85837764 0.49801347 0
1.235412 0.86472195 0.62435561 0
1.2779006 0.91865009 -0.056187842 0
1.2163539 0.87440574 0.38219613 0
