# .PCD v0.7 - Point Cloud Data file format
VERSION 0.7
FIELDS x y z intensity
SIZE 4 4 4 4
TYPE F F F F
COUNT 1 1 1 1
WIDTH 1344
HEIGHT 1
VIEWPOINT 0 0 0 1 0 0 0
POINTS 1344
DATA ascii
-0.917472 -0.31157643 0.17474614 0
-1.4676278 -0.49841106 0.39544186 0
-1.4608606 -0.49611291 0.51328164 0
-1.4592414 -0.49556303 0.63806796 0
-1.4739567 -0.52135026 -0.055816937 0
-0.9157216 -0.32389805 0.034677256 0
-0.90783209 -0.32110745 0.10348736 0
-0.91851276 -0.32488531 0.17570962 0
-1.4903116 -0.52713513 0.40331039 0
-1.4864475 -0.52576834 0.52455634 0
-1.4707789 -0.54115689 -0.055950213 0
-0.89887482 -0.33073106 0.034194287 0
-0.90186572 -0.33183154 0.10327537 0
-0.90490246 -0.33294889 0.17389424 0
-1.5338806 -0.56437445 0.41699126 0
-1.5203111 -0.55938172 0.53894955 0
-1.4693325 -0.56172943 -0.05615982 0
-0.8845219 -0.33815488 0.033807591 0
-0.89023346 -0.34033844 0.10242596 0
-0.89071554 -0.34052274 0.17197834 0
-1.5625709 -0.59737468 0.42680195 0
-1.5692943 -0.59994513 0.55894792 0
-1.4637461 -0.58082163 -0.056221385 0
-0.90167236 -0.357788 0.034632556 0
-0.87977135 -0.34909758 0.10171995 0
-0.87170684 -0.34589753 0.16913572 0
-1.5946692 -0.63277256 0.437711 0
-1.5978351 -0.63402879 0.57191181 0
-1.446956 -0.59535438 -0.055860013 0
-0.87929118 -0.36178699 0.033945203 0
-0.86524564 -0.3560079 0.10055082 0
-0.88023132 -0.3621738 0.17166097 0
-1.6456243 -0.67709702 0.45400164 0
-1.4364945 -0.61231107 -0.055749383 0
-0.85998827 -0.36657315 0.033375565 0
-0.86907589 -0.37044677 0.10152998 0
-0.86381227 -0.36820313 0.16934974 0
-1.6789925 -0.71567672 0.46565676 0
-1.4370098 -0.63402897 -0.056074783 0
-0.85520226 -0.37732729 0.033371575 0
-0.8557229 -0.37755701 0.10051747 0
-0.86735028 -0.38268715 0.17097455 0
-1.7143674 -0.75640303 0.47807145 0
-1.4329895 -0.65393281 -0.056234766 0
-0.84616023 -0.38613817 0.033205841 0
-0.85009617 -0.3879343 0.10042237 0
-0.84464258 -0.38544559 0.16744183 0
-1.4074965 -0.66383737 -0.055557977 0
-0.84595299 -0.39898875 0.033392224 0
-0.84964794 -0.40073144 0.10095751 0
-0.84164149 -0.39695525 0.16782451 0
-1.411971 -0.68781257 -0.056072034 0
-0.83104122 -0.40482461 0.033002216 0
-0.83189386 -0.40523997 0.099446379 0
-0.8351357 -0.40681916 0.16753544 0
-1.4088005 -0.7083531 -0.056295883 0
-0.82176435 -0.41318789 0.03283783 0
-0.82411885 -0.41437176 0.099132836 0
-0.82916588 -0.41690943 0.16737773 0
-1.396397 -0.72428602 -0.056160238 0
-0.81804657 -0.42430606 0.032900162 0
-0.81192774 -0.42113233 0.098296471 0
-0.80521101 -0.41764849 0.16359079 0
-1.3872997 -0.74188209 -0.056165621 0
-0.80658436 -0.4313347 0.03265503 0
-0.80120307 -0.42845696 0.097643517 0
-0.804717 -0.43033612 0.1645783 0
-1.3806272 -0.7608223 -0.056278888 0
-0.79695237 -0.43917659 0.032486394 0
-0.79251778 -0.43673283 0.097247548 0
-0.80087763 -0.4413397 0.1649166 0
-1.3667097 -0.77574575 -0.056105312 0
-0.78589457 -0.44607452 0.032262053 0
-0.78778154 -0.44714555 0.097349562 0
-0.7826364 -0.44422516 0.16229936 0
-1.3632967 -0.79666954 -0.056372557 0
-0.78847927 -0.46076351 0.098144986 0
-0.78814512 -0.46056825 0.16463138 0
-1.3406916 -0.80627501 -0.055853222 0
-0.77067167 -0.46347222 0.096647188 0
-0.78912395 -0.4745692 0.16607094 0
-1.3284342 -0.82185525 -0.055769295 0
-1.3183593 -0.83875751 -0.055785313 0
-0.75165439 -0.47821239 0.16066948 0
-1.3054774 -0.85384113 -0.055690762 0
-0.75598109 -0.49444574 0.16291228 0
-1.3040369 -0.87653875 -0.056095716 0
-0.74188393 -0.49867454 0.16121478 0
-1.2903661 -0.89114082 -0.055985913 0
-1.2793076 -0.90750504 -0.055997487 0
-1.2751987 -0.92894572 -0.056325182 0
-1.2489003 -0.93408293 -0.05567871 0
-1.2331072 -0.94671458 -0.055501692 0
-1.225611 -0.96572882 -0.05570722 0
-1.2210641 -0.98731822 -0.056061197 0
-1.2203404 -1.0124079 -0.056608789 0
-1.199682 -1.0210426 -0.056242447 0
-1.1777742 -1.0282477 -0.055817973 0
-1.1637017 -1.0420713 -0.055768505 0
-1.1556281 -1.0613616 -0.056017641 0
-1.1467224 -1.0801136 -0.056240782 0
-1.1309407 -1.0924469 -0.056136996 0
-1.1231923 -1.1126394 -0.05644336 0
-1.0976239 -1.1150417 -0.05585964 0
-1.0956422 -1.1414263 -0.05648578 0
-1.0694366 -1.142581 -0.055872072 0
-1.073077 -1.1758014 -0.056831285 0
-1.0425709 -1.1716696 -0.0559926 0
-1.0217756 -1.1778337 -0.055667888 0
-0.608073 -0.70094538 0.033128742 0
-1.0159875 -1.2013938 -0.0561723 0
-0.59214497 -0.70020479 0.032738734 0
-0.99944162 -1.2124676 -0.056097183 0
-0.57754326 -0.70064372 0.032416649 0
-0.97802955 -1.2174045 -0.055751372 0
-0.58590835 -0.72931075 0.033398986 0
-0.96101582 -1.2275691 -0.055658266 0
-0.57028514 -0.72846287 0.033028677 0
-0.61672944 -0.78778929 0.10752126 0
-0.60286885 -0.7700842 0.17638069 0
-0.61241406 -0.78227693 0.25346929 0
-0.61659884 -0.78762239 0.3327845 0
-0.60875714 -0.77760571 0.40888137 0
-0.94706875 -1.2416509 -0.055751611 0
-0.58222145 -0.76331931 0.034273949 0
-0.59170818 -0.77575678 0.10485376 0
-0.59187776 -0.77597916 0.17600988 0
-0.59823686 -0.78431624 0.25166926 0
-0.58875424 -0.77188408 0.32297674 0
-0.59766573 -0.78356743 0.40802652 0
-0.59242773 -0.7767002 0.48875678 0
-0.93304801 -1.2557495 -0.05585267 0
-0.5878709 -0.79119027 0.035190213 0
-0.59027785 -0.79442972 0.10636456 0
-0.57333314 -0.77162457 0.17337085 0
-0.58362669 -0.78547823 0.24966414 0
-0.5848552 -0.78713155 0.3262493 0
-0.58764291 -0.79088348 0.40795061 0
-0.57438612 -0.77304167 0.48186496 0
-0.92653853 -1.2803543 -0.056423634 0
-0.58416164 -0.80723453 0.035573829 0
-0.58706713 -0.81124949 0.10761824 0
-0.57791871 -0.79860759 0.17778431 0
-0.57554877 -0.79533267 0.2504729 0
-0.58174753 -0.80389857 0.33013642 0
-0.58462721 -0.80787784 0.41288656 0
-0.55566877 -0.76786113 0.47423661 0
-0.90442419 -1.2835181 -0.05605673 0
-2.0126774 -2.8563013 0.12474691 0
-0.54968584 -0.78008938 0.47747609 0
-0.88464963 -1.2896409 -0.055833194 0
-1.992564 -2.9047565 0.12575737 0
-0.54632628 -0.79643357 0.48323095 0
-0.86924118 -1.3020253 -0.055891052 0
-1.9562483 -2.9302394 0.12578416 0
-0.51816505 -0.77615285 0.46692982 0
-0.86109972 -1.325678 -0.056436446 0
-1.9193314 -2.954844 0.12579291 0
-0.50229877 -0.77329767 0.46137047 0
-0.84140062 -1.3317635 -0.056240004 0
-1.8936146 -2.997201 0.12657097 0
-0.49299231 -0.78030503 0.46181086 0
-0.81488609 -1.3264959 -0.055579819 0
-1.8576924 -3.0240068 0.12670508 0
-1.1915536 -1.9396465 0.24464387 0
-1.2149439 -1.9777219 0.41860607 0
-0.47312391 -0.77016521 0.45224795 0
-0.80072868 -1.3410212 -0.055761531 0
-1.8238654 -3.0545204 0.12701122 0
-1.1638362 -1.9491359 0.24397297 0
-1.1795084 -1.9753829 0.4149344 0
-0.46949637 -0.78628951 0.45820838 0
-0.78209972 -1.3481004 -0.055641979 0
-1.7944586 -3.0930972 0.12766559 0
-1.1507772 -1.9835876 0.24645193 0
-0.45731989 -0.78827947 0.45597601 0
-0.77142346 -1.3691288 -0.05610453 0
-0.45215917 -0.80249596 0.46086946 0
-0.75717056 -1.3843046 -0.056331236 0
-0.43391874 -0.7933163 0.45242381 0
-0.7334159 -1.3819247 -0.055854153 0
-0.40820265 -0.76914793 0.43567479 0
-0.71547776 -1.3901174 -0.055816714 0
-0.40037265 -0.77789277 0.43773776 0
-0.69602799 -1.3952277 -0.055665571 0
-0.40150598 -0.80484158 0.45002174 0
-0.68491739 -1.4173572 -0.056199923 0
-0.66059494 -1.4121408 -0.055658843 0
-0.64475441 -1.4247491 -0.055831365 0
-0.62336713 -1.4249895 -0.055528779 0
-0.61051756 -1.4448953 -0.056000452 0
-0.58956826 -1.4458272 -0.055744417 0
-0.56942415 -1.4483219 -0.055559743 0
-0.3344067 -0.85055858 0.37840205 0
-0.5573923 -1.4718795 -0.056189742 0
-0.31728756 -0.83784622 0.37093964 0
-0.53679883 -1.4732466 -0.055979446 0
-0.28378278 -0.77884299 0.4915967 0
-0.51627451 -1.4743719 -0.055770762 0
-0.30603915 -0.87398374 0.38340431 0
-0.27356604 -0.78124732 0.49090105 0
-0.5042451 -1.5003207 -0.056507654 0
-0.80237073 -2.3873575 0.45422366 0
-0.28892994 -0.8596763 0.37550205 0
-0.26132581 -0.77754349 0.48646745 0
-0.47782716 -1.4833086 -0.055635888 0
-0.77406335 -2.4029083 0.45529178 0
-0.27665007 -0.85879892 0.37356755 0
-0.25024128 -0.77681863 0.48400411 0
-0.46233425 -1.4996573 -0.056026291 0
-0.74187034 -2.4063787 0.45414329 0
-0.26812202 -0.86969799 0.37681001 0
-0.23703498 -0.76886201 0.47714913 0
-0.44254056 -1.5023909 -0.055915792 0
-0.71922326 -2.4417071 0.45906505 0
-0.25828487 -0.8768571 0.37847266 0
-0.22969776 -0.77980602 0.48210767 0
-0.42355633 -1.5077291 -0.055911534 0
-0.69314617 -2.4673851 0.46221513 0
-0.24527696 -0.87310982 0.37549239 0
-0.21924472 -0.78044313 0.48075661 0
-0.40556666 -1.5167874 -0.056053624 0
-0.66713953 -2.4950495 0.46578681 0
-0.24825107 -0.9284395 0.3979117 0
-0.20983014 -0.7847482 0.48174274 0
-0.38366327 -1.5108535 -0.055651382 0
-0.63935983 -2.5177784 0.46848983 0
-0.23759767 -0.93565202 0.3996889 0
-0.19970061 -0.78641456 0.48118383 0
-0.3645297 -1.5152334 -0.055639222 0
-0.61674231 -2.5636005 0.47553334 0
-0.19158685 -0.79636526 0.48575771 0
-0.34801257 -1.5310997 -0.056056473 0
-0.59033746 -2.5972209 0.48035273 0
-0.17999385 -0.79189253 0.48160878 0
-0.32649553 -1.5250326 -0.055679407 0
-0.55586791 -2.5964112 0.47887045 0
-0.16950451 -0.79174101 0.48018047 0
-0.30653045 -1.5253543 -0.055545818 0
-0.52764142 -2.6256447 0.48299843 0
-0.20954601 -1.0427412 0.44036353 0
-0.15856427 -0.78904623 0.47729734 0
-0.28710103 -1.5280335 -0.055507336 0
-0.50338626 -2.6791649 0.49163869 0
-0.19550858 -1.0405524 0.43836471 0
-0.14990227 -0.79782259 0.48142621 0
-0.27304751 -1.561313 -0.056586862 0
-0.46818966 -2.6771553 0.4901492 0
-0.18004364 -1.0295075 0.43272233 0
-0.13628766 -0.77930653 0.46918038 0
-0.2522026 -1.5574365 -0.056326799 0
-0.1715761 -1.0595405 0.44440243 0
-0.12470184 -0.7700761 0.46264115 0
-0.22907948 -1.5370508 -0.055480801 0
-0.15858421 -1.0640498 0.44542089 0
-0.11679292 -0.78364354 0.46987131 0
-0.21147618 -1.5527966 -0.055948596 0
-0.37973839 -2.7882879 0.10046441 0
-0.37721467 -2.769757 0.3004117 0
-0.14650454 -1.0757322 0.44950336 0
-0.10590903 -0.77765346 0.46544313 0
-0.19354215 -1.5685817 -0.056425061 0
-0.13275108 -1.0758944 0.44883704 0
-0.097237445 -0.78807062 0.47090787 0
-0.17430361 -1.5756595 -0.056596223 0
-0.085713044 -0.77482373 0.46231064 0
-0.15294413 -1.5623434 -0.056044299 0
-0.076292425 -0.77933663 0.46439329 0
-0.13272007 -1.5578052 -0.055817135 0
-0.066607177 -0.78180349 0.46532658 0
-0.11281261 -1.5554607 -0.055677816 0
-0.057141792 -0.78787124 0.46847269 0
-0.094094306 -1.5713834 -0.056200899 0
-0.074436046 -1.5752966 -0.056302872 0
-0.12359624 -2.6156781 0.093487278 0
-0.0370791 -0.78470826 0.46588886 0
-0.053854287 -1.5547181 -0.055538733 0
-0.047773875 -1.3791828 0.049268138 0
-0.034592006 -1.5696927 -0.056053661 0
-0.029908288 -1.3571581 0.048464056 0
-0.01478857 -1.5661526 -0.05591616 0
-0.012727255 -1.3478534 0.04812225 0
-0.018762996 -1.987056 0.21355703 0
-0.0074274102 -0.78658432 0.46650302 0
0.0049257902 -1.5641288 -0.055841692 0
0.0042444333 -1.3477716 0.048117425 0
0.0057595833 -1.8288903 0.19655053 0
0.0057479381 -1.8251925 0.3291727 0
0.0056977938 -1.8092697 0.46160489 0
0.0024519963 -0.77860361 0.46175155 0
0.024699014 -1.5689827 -0.056021649 0
0.021168279 -1.3446959 0.048013326 0
0.030686107 -1.9493074 0.20951666 0
0.016293989 -1.0350611 0.34440145 0
0.01225087 -0.77822554 0.46158221 0
0.04445539 -1.5686513 -0.05602536 0
0.039192267 -1.3829368 0.049392451 0
0.054351442 -1.9178429 0.20619199 0
0.029371412 -1.0363985 0.34494218 0
0.02215226 -0.78166384 0.46375024 0
0.064186804 -1.5675695 -0.056011152 0
0.077772476 -1.8993586 0.067866378 0
0.077745937 -1.8987105 0.20422408 0
0.041783996 -1.0204483 0.3397817 0
0.083952241 -1.5672518 -0.056033127 0
0.10079135 -1.8816106 0.067272231 0
0.10023704 -1.8712624 0.20139158 0
0.054683447 -1.020851 0.34011811 0
0.041958179 -0.78329092 0.46519506 0
0.1037365 -1.5669363 -0.056064103 0
0.12299923 -1.8578991 0.066474594 0
0.12250639 -1.8504547 0.19930241 0
0.12220728 -1.8459367 0.33364102 0
0.068652831 -1.0369986 0.34575865 0
0.051940594 -0.78456086 0.46630073 0
0.12272659 -1.5562326 -0.055732008 0
0.14451315 -1.8324965 0.065625608 0
0.14368427 -1.8219861 0.1964155 0
0.14414544 -1.8278339 0.33067092 0
0.083729364 -1.0617288 0.35432768 0
0.086217448 -1.0932789 0.45406213 0
0.14327727 -1.5651114 -0.05611014 0
0.16633143 -1.8169469 0.065138586 0
0.1646986 -1.7991104 0.19415762 0
0.16612816 -1.8147265 0.32865205 0
0.17607419 -1.9233735 0.49276605 0
0.098119467 -1.0718231 0.35808036 0
0.099325895 -1.0850017 0.45110813 0
0.072229862 -0.78901398 0.46987969 0
0.16243668 -1.5580432 -0.055925641 0
0.18587649 -1.7828708 0.063995779 0
0.1875429 -1.7988545 0.19436945 0
0.18701938 -1.793833 0.32526889 0
0.20297439 -1.9468685 0.49940071 0
0.11328708 -1.0866151 0.36346993 0
0.10822554 -1.0380665 0.43212634 0
0.080489844 -0.77203405 0.46033478 0
0.18215592 -1.5568527 -0.055960804 0
0.20843101 -1.7814211 0.064032875 0
0.20564304 -1.7575928 0.19017577 0
0.20744552 -1.7729982 0.32193917 0
0.23025353 -1.967934 0.50550795 0
0.12096316 -1.0338496 0.34630203 0
0.11808769 -1.0092735 0.42072606 0
0.091610961 -0.78298181 0.46751332 0
0.20401245 -1.5719131 -0.056589998 0
0.2269728 -1.7488222 0.062958859 0
0.22743857 -1.7524109 0.18990992 0
0.22612177 -1.742265 0.31685057 0
0.13109693 -1.0101 0.4217253 0
0.22323629 -1.5653472 -0.056450345 0
0.24758953 -1.7361135 0.062608607 0
0.24682534 -1.7307551 0.18788499 0
0.24746236 -1.7352219 0.31611133 0
0.1460793 -1.0243174 0.42839521 0
0.24207948 -1.5569535 -0.05625312 0
0.26568434 -1.7087702 0.06173829 0
0.2645216 -1.7012918 0.18503347 0
0.26443529 -1.7007366 0.31041101 0
0.16038166 -1.0315075 0.43221265 0
0.12036806 -0.77415681 0.46462843 0
0.2605595 -1.5472221 -0.056015626 0
0.28615156 -1.6991897 0.061517458 0
0.28591147 -1.6977642 0.18502669 0
0.28501093 -1.6924165 0.30952296 0
0.13147265 -0.78069454 0.46950859 0
0.28047141 -1.546306 -0.056105874 0
0.30871314 -1.7020096 0.061755393 0
0.30362618 -1.6739639 0.18283507 0
0.30602622 -1.6871959 0.30924842 0
0.30312335 -1.6711917 0.43333146 0
0.14141457 -0.77965242 0.46991554 0
0.29711956 -1.5282527 -0.055582177 0
0.33498719 -1.7230272 0.062666081 0
0.3187969 -1.6397516 0.17952251 0
0.32204393 -1.6564528 0.30433264 0
0.32231376 -1.6578406 0.43088782 0
0.15404212 -0.7923252 0.4786849 0
0.31747639 -1.5298736 -0.055782102 0
0.36050865 -1.73724 0.06334307 0
0.33859208 -1.6316271 0.17908563 0
0.34121698 -1.6442761 0.30286086 0
0.33783081 -1.6279587 0.42419323 0
0.16381134 -0.78938353 0.47811601 0
0.33944172 -1.5381142 -0.056233961 0
0.38956881 -1.7652553 0.064538315 0
0.35614255 -1.6137906 0.17760608 0
0.36023527 -1.6323361 0.30147326 0
0.35798144 -1.6221234 0.42381376 0
0.17503433 -0.79313403 0.48168439 0
0.35666883 -1.5246869 -0.055902828 0
0.41862953 -1.7895563 0.065614291 0
0.37249821 -1.5923543 0.17574918 0
0.37685284 -1.6109694 0.29837984 0
0.37786356 -1.61529 0.42323801 0
0.18322395 -0.78324521 0.47704211 0
0.37754425 -1.5269752 -0.056156583 0
0.44962212 -1.8184937 0.066877574 0
0.3903304 -1.5786887 0.17476954 0
0.39295882 -1.5893193 0.29526296 0
0.39304191 -1.5896554 0.4177849 0
0.19572242 -0.79159802 0.48359221 0
0.39385411 -1.5110257 -0.05574799 0
0.48203626 -1.8493375 0.068229713 0
0.40859506 -1.5675795 0.17409547 0
0.40109858 -1.5388191 0.28679663 0
0.40680373 -1.560707 0.4114905 0
0.20695633 -0.79399025 0.48660707 0
0.41353709 -1.5084584 -0.055840969 0
0.42892128 -1.5645753 0.17434785 0
0.4238826 -1.5461957 0.28914332 0
0.42237702 -1.5407038 0.40758651 0
0.21526548 -0.78522348 0.48285723 0
0.43516511 -1.5124027 -0.056185376 0
0.44091156 -1.5323743 0.17136464 0
0.43886694 -1.5252683 0.28624058 0
0.4395175 -1.5275292 0.40553322 0
0.22394188 -0.77830297 0.4802976 0
0.45253262 -1.5013593 -0.055982374 0
0.45802093 -1.5195677 0.17056394 0
0.45944294 -1.5242856 0.28711909 0
0.46190113 -1.532441 0.40834898 0
0.47109517 -1.4945731 -0.055946093 0
0.47213158 -1.4978611 0.16878143 0
0.47479302 -1.5063047 0.28483576 0
0.47049269 -1.4926617 0.39929605 0
0.47181794 -1.4968661 0.52215183 0
0.49197227 -1.4948916 -0.056185458 0
0.49470133 -1.5031841 0.17006968 0
0.48900962 -1.4858894 0.28211737 0
0.49206311 -1.4951677 0.40159211 0
0.4925943 -1.4967817 0.52424461 0
0.50879884 -1.4828752 -0.055970185 0
0.50639856 -1.4758797 0.16768862 0
0.50205296 -1.4632148 0.27899042 0
0.50493896 -1.4716258 0.39694521 0
0.50689393 -1.4773235 0.51962382 0
0.53171802 -1.4883549 -0.056425259 0
0.53893405 -1.5085536 0.17215845 0
0.52031296 -1.4564306 0.27892402 0
0.52206516 -1.4613352 0.39591134 0
0.51906049 -1.4529246 0.51330018 0
0.54921025 -1.4782963 -0.056301646 0
0.56859422 -1.5304718 0.17546295 0
0.5371663 -1.4458779 0.2781764 0
0.53698444 -1.4453884 0.39339173 0
0.53668213 -1.4445747 0.51269716 0
0.56416893 -1.4619061 -0.055943545 0
0.58888036 -1.5259397 0.17577958 0
0.55111837 -1.4280888 0.2760672 0
0.54901844 -1.4226474 0.38905305 0
0.54879355 -1.4220645 0.50712043 0
0.58439314 -1.4593358 -0.05612234 0
0.62449801 -1.559485 0.18053535 0
0.56588048 -1.4131063 0.27452663 0
0.56932068 -1.4216971 0.39072272 0
0.56582224 -1.4129609 0.50637466 0
0.59975362 -1.4447124 -0.055845976 0
0.64641356 -1.5571089 0.18118823 0
0.58370978 -1.4060653 0.27456492 0
0.58285815 -1.4040139 0.38784921 0
0.57322162 -1.3808011 0.49739665 0
0.62720311 -1.4586902 -0.056687091 0
0.68271255 -1.5877888 0.18574382 0
0.59347522 -1.3802489 0.27096152 0
0.59120709 -1.374974 0.3818534 0
0.59532911 -1.3845606 0.50141162 0
0.35303181 -0.82104832 0.44716862 0
0.63736731 -1.4323556 -0.055971149 0
0.71588981 -1.6088191 0.18924356 0
0.61744922 -1.3875936 0.27390802 0
0.61004591 -1.3709562 0.3828406 0
0.61261302 -1.3767253 0.50132799 0
0.36298144 -0.81572825 0.4467251 0
0.65489358 -1.4232208 -0.055932004 0
0.62823755 -1.3652917 0.27104577 0
0.62231934 -1.3524301 0.37982538 0
0.62141466 -1.3504641 0.49457532 0
0.37325644 -0.81116444 0.44676432 0
0.67372531 -1.4168886 -0.056012116 0
0.64436293 -1.3551376 0.2706193 0
0.63115942 -1.3273697 0.3749896 0
0.63714617 -1.3399602 0.49362767 0
0.37460461 -0.78781807 0.43646932 0
0.6940462 -1.4134537 -0.056217365 0
0.65125382 -1.3263053 0.26647806 0
0.65129948 -1.3263983 0.37700221 0
0.65282363 -1.3295022 0.49276429 0
0.65463686 -1.333195 0.61494559 0
0.38697267 -0.78808582 0.43928248 0
0.70853925 -1.3981913 -0.055960756 0
0.6631074 -1.3085387 0.26456514 0
0.66991377 -1.3219701 0.37811127 0
0.65944952 -1.3013204 0.48535833 0
0.66798443 -1.3181627 0.61184317 0
0.40363258 -0.79650575 0.44677344 0
0.72028291 -1.3780528 -0.055513348 0
0.68277526 -1.3062927 0.26582825 0
0.67767972 -1.296544 0.37325001 0
0.67336518 -1.2882893 0.48362222 0
0.67107821 -1.2839139 0.59982091 0
0.42746016 -0.81782126 0.4617123 0
0.74524176 -1.3830991 -0.056090217 0
0.70579618 -1.3098918 0.26834798 0
0.69103742 -1.2825009 0.37168288 0
0.69204235 -1.2843659 0.48538226 0
0.6934998 -1.2870709 0.60532755 0
0.42955938 -0.79722208 0.45310062 0
0.75132835 -1.3533076 -0.055261347 0
0.72726077 -1.3099566 0.27021593 0
0.7087661 -1.2766436 0.37254238 0
0.70709562 -1.2736347 0.48465326 0
0.70911604 -1.2772739 0.60487157 0
0.45590901 -0.82119244 0.46994972 0
0.78116924 -1.366233 -0.056186367 0
0.75144076 -1.314239 0.27302954 0
0.72166473 -1.2621621 0.37093887 0
0.71569604 -1.2517231 0.47970662 0
0.71604276 -1.2523295 0.59728128 0
0.44877172 -0.78488332 0.45236894 0
0.7904675 -1.342965 -0.055634409 0
0.77805984 -1.321885 0.27663144 0
0.7312817 -1.2424113 0.36781144 0
0.73065311 -1.2413434 0.47921675 0
0.72844857 -1.2375979 0.59458297 0
0.46226713 -0.78536892 0.45596761 0
0.80972672 -1.3368884 -0.055800647 0
0.81170094 -1.340148 0.28256992 0
0.74769801 -1.2344768 0.3682206 0
0.75060797 -1.2392813 0.48203132 0
0.75408578 -1.2450233 0.60266459 0
0.47089207 -0.77746004 0.4547824 0
0.82908273 -1.3307396 -0.055975318 0
0.84212625 -1.3516755 0.28721362 0
0.7532357 -1.2089995 0.36342153 0
0.75328511 -1.2090788 0.47393566 0
0.75981969 -1.2195673 0.59492666 0
0.48554859 -0.7793417 0.45942318 0
0.84877527 -1.3248819 -0.056174044 0
0.77123523 -1.2038471 0.36476308 0
0.76943797 -1.2010416 0.47454551 0
0.77178276 -1.2047018 0.59236884 0
0.50128901 -0.78247893 0.46495685 0
0.86643314 -1.3156739 -0.056241766 0
0.79417586 -1.2059518 0.36840171 0
0.78666919 -1.1945529 0.47585794 0
0.78699481 -1.1950474 0.59244752 0
0.51647007 -0.78425699 0.46984062 0
0.87913442 -1.2990512 -0.055999964 0
0.80308634 -1.1866789 0.36557439 0
0.80234593 -1.1855848 0.4762724 0
0.80098885 -1.1835796 0.59171569 0
0.53574425 -0.79164141 0.47826818 0
0.88796866 -1.2771597 -0.055533871 0
0.81718212 -1.1753478 0.36522478 0
0.81768864 -1.1760764 0.4765512 0
0.81005114 -1.1650914 0.58752573 0
0.55298698 -0.79535764 0.48468181 0
0.91244382 -1.2777311 -0.056053873 0
0.5897308 -0.82582331 0.25890136 0
0.58271641 -0.81600082 0.33359385 0
0.58635122 -0.82109076 0.4177452 0
0.56094378 -0.78551173 0.48294795 0
0.92855 -1.2662642 -0.056059323 0
0.57753736 -0.78758806 0.32492563 0
0.58346516 -0.79567182 0.40851843 0
0.57409793 -0.78289771 0.48574695 0
0.94304478 -1.2526453 -0.055977684 0
0.58921462 -0.78265309 0.32592478 0
0.58294231 -0.77432162 0.40129367 0
0.58132523 -0.77217364 0.48359665 0
0.95876497 -1.2407012 -0.055979006 0
0.60223061 -0.7793237 0.40778381 0
0.97977316 -1.2354183 -0.056292839 0
0.86937124 -1.09621 0.57927799 0
0.9800207 -1.2042687 -0.055431396 0
0.5848735 -0.71870404 0.033081297 0
0.88196266 -1.083773 0.5785287 0
1.0056711 -1.2044871 -0.056019906 0
0.58469659 -0.70028812 0.032569937 0
1.0212166 -1.1922653 -0.056045111 0
0.59878522 -0.69907868 0.032861765 0
1.0337069 -1.1765343 -0.055913083 0
0.62091148 -0.70670289 0.033585031 0
1.0438695 -1.1583549 -0.055669401 0
1.0646678 -1.1519314 -0.056000561 0
1.0872358 -1.1470309 -0.056423422 0
1.0959063 -1.1274011 -0.05613219 0
1.1014956 -1.104967 -0.055701386 0
1.1250983 -1.1005743 -0.056189682 0
1.1330625 -1.0807843 -0.055903308 0
1.1425817 -1.0627122 -0.055708311 0
1.1647421 -1.0562857 -0.056135822 0
1.1607269 -1.0263082 -0.055315059 0
1.1879972 -1.0240591 -0.055995677 0
1.3732917 -1.1837838 0.19485089 0
1.1843493 -0.99519849 -0.055228677 0
1.2084817 -0.98978621 -0.055768393 0
1.2255098 -0.97821224 -0.055981323 0
1.2410613 -0.96529555 -0.056132019 0
1.2569422 -0.95249104 -0.056303352 0
1.2593586 -0.92959374 -0.055882826 0
1.2774574 -0.9183315 -0.056168355 0
1.2808782 -0.89654577 -0.055817951 0
1.1704745 -0.81926912 0.5915373 0
1.2920669 -0.88034809 -0.055818025 0
1.183313 -0.80624872 0.59284782 0
1.3091879 -0.86807996 -0.056080982 0
0.94436687 -0.62617898 0.28909159 0
1.1964161 -0.79330468 0.47759217 0
1.1847304 -0.78555626 0.5885554 0
1.3153033 -0.84848791 -0.055880841 0
0.95661342 -0.61710095 0.20530644 0
0.94154066 -0.60737765 0.28586248 0
1.1978753 -0.77273631 0.47425276 0
1.2019244 -0.77534842 0.59219986 0
1.327597 -0.83293504 -0.055953097 0
0.96799976 -0.60732359 0.20609251 0
0.9629913 -0.60418123 0.29004228 0
1.2212582 -0.76621801 0.4796524 0
1.225124 -0.76864338 0.59881413 0
1.3296255 -0.81105715 -0.055603743 0
0.98387384 -0.60015237 0.041144721 0
0.98386538 -0.60014725 0.12385424 0
0.97370356 -0.5939486 0.20569822 0
0.97219503 -0.59302843 0.29054216 0
1.2150102 -0.74114305 0.47349557 0
1.2355709 -0.75368488 0.59923404 0
1.3460121 -0.79797423 -0.055864379 0
0.97813267 -0.57987934 0.040596049 0
0.98264843 -0.58255649 0.12276786 0
0.98706377 -0.58517408 0.20694757 0
0.97085094 -0.57556248 0.28795168 0
1.2420042 -0.73631382 0.48036388 0
1.2423934 -0.73654455 0.59799737 0
1.3623656 -0.78465647 -0.05612858 0
0.99574107 -0.57349855 0.041023888 0
1.0016941 -0.57692719 0.12422986 0
1.0028652 -0.57760167 0.20871902 0
0.99379551 -0.57237798 0.29259604 0
1.2558041 -0.72328216 0.48214042 0
1.2525195 -0.72139043 0.59845155 0
1.3685794 -0.76545042 -0.055983033 0
1.0121003 -0.56607062 0.041400921 0
1.0130224 -0.56658638 0.12474008 0
1.0022349 -0.56055295 0.20710239 0
0.99698734 -0.5576179 0.29144534 0
1.2601225 -0.70479023 0.48035303 0
1.2688257 -0.70965791 0.60192525 0
1.3716465 -0.74464941 -0.055720519 0
1.0222851 -0.55498552 0.041528378 0
1.0101684 -0.54840755 0.12352853 0
1.0243024 -0.5560807 0.21019879 0
1.0151185 -0.55109483 0.29469362 0
1.2819657 -0.69596285 0.48530039 0
1.2680718 -0.68842 0.59740788 0
1.4054813 -0.74025923 -0.056711826 0
1.292771 -0.68089527 0.3727788 0
1.2944213 -0.68176454 0.48672709 0
1.2975712 -0.68342358 0.60720301 0
1.3964648 -0.71319562 -0.055981193 0
1.3199053 -0.67409551 0.37812549 0
1.3068047 -0.66740477 0.48818463 0
1.3047301 -0.6663453 0.60657841 0
1.4116938 -0.69870359 -0.056234531 0
1.328795 -0.6576736 0.3782697 0
1.3378553 -0.66215795 0.49663004 0
1.3163147 -0.65149659 0.60810196 0
1.4289554 -0.68498421 -0.056574065 0
1.3545053 -0.64929581 0.38323087 0
1.3387038 -0.64172119 0.4939062 0
1.3285336 -0.63684607 0.60999376 0
1.4334388 -0.66506875 -0.056415528 0
1.3487724 -0.62578624 0.37934926 0
1.3410182 -0.62218863 0.49183053 0
1.3325877 -0.61827713 0.60823226 0
1.4237875 -0.63892937 -0.055714622 0
1.3632317 -0.61175472 0.38121918 0
1.3483202 -0.6050632 0.49167529 0
1.3557655 -0.60840422 0.61526573 0
1.4348869 -0.62232524 -0.055837881 0
1.3768195 -0.59714079 0.38288584 0
1.3632689 -0.59126377 0.49437222 0
1.3659828 -0.59244078 0.61646813 0
1.4447137 -0.60509044 -0.055919345 0
1.3989868 -0.58593857 0.3869679 0
1.3845085 -0.57987463 0.49938694 0
1.3902849 -0.58229399 0.62407708 0
1.4544882 -0.58776915 -0.056006759 0
1.3946891 -0.56360394 0.38378564 0
1.3866839 -0.56036901 0.49758703 0
1.4086133 -0.56923085 0.62903702 0
1.4583205 -0.56806374 -0.055874459 0
1.4213502 -0.5536626 0.38917282 0
1.4008485 -0.54567647 0.50016439 0
1.4038504 -0.54684585 0.62378556 0
1.4713717 -0.55191261 -0.056103781 0
1.4311981 -0.53684348 0.38998738 0
1.4170872 -0.53155041 0.50353259 0
1.4191281 -0.53231597 0.62754583 0
1.4741008 -0.53186196 -0.055948038 0
1.4466654 -0.52196312 0.39237997 0
1.4286921 -0.51547831 0.5053097 0
1.428183 -0.51529455 0.62863082 0
1.4819716 -0.51370651 -0.055996813 0
1.4458827 -0.50119674 0.39042491 0
1.4402978 -0.49926084 0.50715071 0
1.4461199 -0.501279 0.63369733 0
1.4815444 -0.49275169 -0.055741802 0
1.4618318 -0.48619542 0.39304727 0
1.4620409 -0.48626494 0.51261002 0
1.4432905 -0.48002869 0.62975872 0
1.4996403 -0.47788507 -0.05619178 0
1.4737495 -0.46963453 0.39463028 0
1.4514655 -0.46253338 0.50681996 0
1.4535538 -0.46319887 0.63164192 0
1.4961648 -0.45610729 -0.055841919 0
1.4802856 -0.4512665 0.39482757 0
1.4783286 -0.45066988 0.51417762 0
1.4697655 -0.44805947 0.63618451 0
1.4945152 -0.43511486 -0.055571448 0
1.489637 -0.43369463 0.39583379 0
1.4815406 -0.43133742 0.51336491 0
1.4800496 -0.43090335 0.63823676 0
1.5166388 -0.42091498 -0.056192543 0
1.486925 -0.4126685 0.39370114 0
1.482808 -0.41152588 0.5119679 0
1.4772525 -0.40998405 0.63475394 0
1.5131048 -0.39948478 -0.055870797 0
1.50124 -0.39635229 0.39613852 0
1.5080048 -0.39813828 0.51889545 0
1.484319 -0.39188483 0.63561952 0
1.5152869 -0.37971768 -0.055770397 0
1.5155799 -0.37979114 0.39862889 0
1.5004565 -0.3760013 0.51462817 0
1.5042278 -0.37694639 0.64206147 0
1.536332 -0.36449543 -0.056371566 0
1.5199025 -0.36059752 0.3985399 0
1.5153838 -0.35952547 0.51815414 0
1.5141796 -0.35923979 0.64432734 0
1.5365582 -0.34417221 -0.056216389 0
1.5134728 -0.33900136 0.39570326 0
1.5185367 -0.3401356 0.51772666 0
1.5276291 -0.34217221 0.64816564 0
1.5199386 -0.3204065 -0.055456337 0
1.5276415 -0.32203031 0.39831591 0
1.5397996 -0.32459328 0.52354091 0
1.5355211 -0.32369134 0.64973325 0
1.5472692 -0.30587241 -0.056308527 0
1.5378482 -0.30401 0.39994735 0
1.5333492 -0.30312061 0.52000874 0
1.5471963 -0.30585799 0.65299201 0
1.5403191 -0.28439453 -0.055920839 0
1.5371126 -0.28380248 0.39879501 0
1.5670825 -0.28933594 0.53017116 0
1.540832 -0.28448921 0.64874262 0
1.5459757 -0.26535472 -0.056000452 0
1.5401144 -0.26434869 0.3986786 0
1.5556625 -0.26701739 0.52512842 0
1.5446799 -0.26513231 0.64890558 0
1.5545536 -0.24671856 -0.056194182 0
1.550548 -0.24608281 0.40054554 0
1.5494994 -0.24591641 0.52196133 0
1.5613884 -0.24780327 0.65456188 0
1.5583649 -0.22724602 -0.056224056 0
1.5565459 -0.22698076 0.40132478 0
1.5638299 -0.22804296 0.52577972 0
1.5713511 -0.22913972 0.65747672 0
1.5445131 -0.20540011 -0.055626571 0
1.5561602 -0.20694904 0.40052173 0
1.5734429 -0.20924741 0.52808398 0
1.5522711 -0.20643184 0.64835435 0
1.5705471 -0.18876952 -0.056474116 0
1.5730102 -0.18906558 0.40421376 0
1.574711 -0.18927 0.52766782 0
1.5758617 -0.1894083 0.65715939 0
1.5586396 -0.16745816 -0.055965684 0
1.5739858 -0.16910693 0.40388522 0
1.5739596 -0.16910411 0.52666074 0
1.5711147 -0.16879846 0.6542415 0
1.5607687 -0.14783338 -0.055970851 0
1.5893235 -0.15053804 0.40730217 0
1.5863578 -0.15025714 0.5301342 0
1.5999291 -0.15154259 0.66539305 0
1.5563586 -0.1276654 -0.055750631 0
1.591875 -0.13057874 0.40750235 0
1.5806482 -0.12965783 0.52763867 0
1.583056 -0.12985533 0.6576435 0
1.5569794 -0.10799897 -0.055719737 0
1.6647826 -0.11547668 0.0595777 0
1.661404 -0.11524231 0.17897895 0
1.6656213 -0.11553484 0.30111441 0
1.5866512 -0.11005713 0.4057782 0
1.5870645 -0.1100858 0.52927583 0
1.5832802 -0.1098233 0.65711004 0
1.5634588 -0.088683546 -0.05590722 0
1.6436769 -0.093233719 0.058775708 0
1.6527419 -0.093747921 0.17790453 0
1.6479896 -0.093478359 0.29769051 0
1.5912806 -0.090261668 0.40663922 0
1.5837132 -0.089832425 0.52773905 0
1.593514 -0.09038835 0.66083258 0
1.5624387 -0.068901911 -0.055835288 0
1.6265142 -0.071727574 0.05812509 0
1.6502051 -0.072772324 0.17751876 0
1.6247128 -0.071648136 0.29329962 0
1.6025709 -0.0706717 0.40926453 0
1.5973852 -0.070443012 0.53195721 0
1.594003 -0.070293866 0.66061598 0
1.5750275 -0.049596447 -0.056258384 0
1.6195122 -0.050997242 0.057847332 0
1.6290598 -0.051297888 0.17516069 0
1.620996 -0.051043965 0.29248941 0
1.6031333 -0.050481483 0.40921339 0
1.5907052 -0.050090127 0.52948064 0
1.5905261 -0.05008449 0.6588614 0
1.5519097 -0.029314892 -0.055415064 0
1.647791 -0.031126048 0.058838759 0
1.6300333 -0.030790612 0.17520979 0
1.6419926 -0.031016517 0.29618403 0
1.5996152 -0.030216029 0.40818587 0
1.6043161 -0.030304829 0.53384185 0
1.5952597 -0.030133756 0.6606127 0
1.5568419 -0.0098016504 -0.055582363 0
1.643635 -0.010348087 0.058681052 0
1.6411089 -0.010332183 0.17637232 0
1.6468853 -0.01036855 0.29701948 0
1.600778 -0.010078265 0.40841779 0
1.5933644 -0.01003159 0.53011352 0
1.5964674 -0.010051127 0.66100794 0
1.5730819 0.0099038947 -0.056162164 0
1.6426773 0.010342058 0.058646861 0
1.6480206 0.010375699 0.17711514 0
1.6590571 0.010445183 0.29921472 0
1.604704 0.010102984 0.40941948 0
1.5882618 0.0099994661 0.52841592 0
1.5964736 0.010051166 0.66101056 0
1.5593516 0.029455466 -0.055680793 0
1.6816803 0.031766202 0.060048867 0
1.6848613 0.031826291 0.18110317 0
1.6648645 0.031448562 0.30030972 0
1.6075401 0.030365728 0.41020814 0
1.605271 0.030322863 0.53415954 0
1.6058865 0.030334489 0.66501331 0
1.5661652 0.049317382 -0.055941831 0
1.6090748 0.050668575 0.41073 0
1.6229546 0.051105641 0.54021519 0
1.6032553 0.05048532 0.66413432 0
1.5614692 0.06885916 -0.055800647 0
1.6156743 0.071249545 0.41261086 0
1.5981069 0.070474841 0.53219759 0
1.6148146 0.071211636 0.66924107 0
1.5809639 0.089676477 -0.056533176 0
1.6114271 0.091404431 0.41178748 0
1.6010119 0.090813652 0.53350353 0
1.5933011 0.090376273 0.66074431 0
1.5519911 0.10765295 -0.055541221 0
1.6080844 0.11154383 0.41125962 0
1.6017085 0.11110158 0.53415948 0
1.5963837 0.11073222 0.66254842 0
1.5707042 0.12884216 -0.056264512 0
1.5983038 0.13110609 0.40914807 0
1.6082205 0.13191955 0.53684264 0
1.6002113 0.13126256 0.66477025 0
1.5573027 0.14750509 -0.055846561 0
1.5916365 0.15075713 0.40789494 0
1.6017556 0.15171559 0.53527987 0
1.6081222 0.15231863 0.66880047 0
1.5608178 0.16769218 -0.056043897 0
1.6035084 0.17227879 0.4114607 0
1.5890805 0.17072868 0.53172034 0
1.5877079 0.17058122 0.66115123 0
1.5388025 0.18495405 -0.055332638 0
1.6042325 0.1928183 0.41223687 0
1.5911229 0.19124261 0.53316724 0
1.5884237 0.19091819 0.66239798 0
1.5461299 0.20561513 -0.055684801 0
1.5768362 0.20969866 0.40584326 0
1.6000794 0.21278971 0.53702378 0
1.5885472 0.21125609 0.66350621 0
1.5522429 0.22635329 -0.056003179 0
1.5876623 0.23151828 0.40934759 0
1.5860878 0.23128869 0.53326309 0
1.598671 0.23312359 0.66890776 0
1.5373249 0.24398424 -0.0555714 0
1.5895447 0.25227186 0.41061935 0
1.5930557 0.2528291 0.53663361 0
1.5983045 0.25366214 0.67003781 0
1.5459936 0.26535779 -0.056001101 0
1.5689888 0.26930475 0.40615308 0
1.5763985 0.27057657 0.53212804 0
1.5813116 0.27141985 0.66429424 0
1.5514716 0.28645363 -0.05632573 0
1.5683515 0.28957021 0.40689975 0
1.5921695 0.29396784 0.53865856 0
1.5784281 0.29143074 0.66457188 0
1.5492567 0.30626529 -0.056380857 0
1.5628375 0.30895001 0.40644628 0
1.5620686 0.30879802 0.52974844 0
1.5652765 0.30943218 0.66062272 0
1.5209897 0.32062808 -0.055494685 0
1.5740013 0.33180305 0.41040373 0
1.5631076 0.32950667 0.53146583 0
1.5578321 0.32839456 0.65917379 0
1.5295949 0.3426125 -0.055961631 0
1.5518638 0.34760052 0.40574071 0
1.5648265 0.35050401 0.5335086 0
1.5694456 0.35153863 0.66590816 0
1.5139805 0.35919255 -0.05555144 0
1.5481201 0.36729217 0.40593898 0
1.5484601 0.36737284 0.52946389 0
1.5588373 0.36983484 0.6633305 0
1.5112386 0.37870324 -0.055621397 0
1.5434602 0.3867777 0.40596199 0
1.537746 0.38534573 0.52741772 0
1.5575689 0.39031321 0.66482949 0
1.4998456 0.39598414 -0.055381209 0
1.5408757 0.40681675 0.40659735 0
1.5288188 0.40363356 0.52605748 0
1.5302726 0.40401736 0.65529794 0
1.5128839 0.41987291 -0.056053422 0
1.5339851 0.42572916 0.40616149 0
1.5277292 0.42399293 0.5274778 0
1.5332545 0.42552638 0.65881717 0
1.5272808 0.44465429 -0.056789789 0
1.5205011 0.44268042 0.40403518 0
1.5253215 0.44408384 0.52853537 0
1.5431764 0.44928217 0.66545868 0
1.4970683 0.45638272 -0.05587564 0
1.5323404 0.46713546 0.40871182 0
1.534068 0.4676621 0.53356433 0
1.5279453 0.46579558 0.66136748 0
1.4814258 0.47208071 -0.055509277 0
1.5154268 0.48291567 0.4057903 0
1.5338825 0.48879689 0.53559816 0
1.5204154 0.48450539 0.66069663 0
1.4963794 0.49768573 -0.056299955 0
1.4993099 0.49866039 0.40312412 0
1.5126634 0.50310165 0.53035891 0
1.4992166 0.49862933 0.65416127 0
1.47682 0.51192081 -0.055802159 0
1.4979678 0.51925141 0.40448925 0
1.4974371 0.51906747 0.52727032 0
1.4976982 0.51915795 0.65629917 0
1.4689589 0.53000671 -0.055752881 0
1.4931127 0.5387215 0.40497789 0
1.4943174 0.5391562 0.52852046 0
1.4773797 0.53304499 0.6502853 0
1.4774638 0.55419773 -0.056336075 0
1.476282 0.55375445 0.40227228 0
1.4715712 0.55198747 0.52289236 0
1.4744273 0.55305874 0.65199947 0
1.4651425 0.57072109 -0.056135837 0
1.4721073 0.57343411 0.40307036 0
1.4897588 0.58030999 0.53190935 0
1.4724132 0.57355326 0.65425068 0
1.4641011 0.59165382 -0.056376915 0
1.4608334 0.59033334 0.40198702 0
1.4618075 0.59072697 0.52454376 0
1.4633521 0.59135115 0.65348142 0
1.4340423 0.60062093 -0.055506296 0
1.4367145 0.60174012 0.39740363 0
1.4535073 0.60877347 0.52427459 0
1.4450001 0.60521036 0.64863789 0
1.445529 0.62694085 -0.056252014 0
1.4271281 0.61896014 0.39687636 0
1.4393026 0.62424034 0.52194488 0
1.437374 0.62340391 0.64868695 0
1.4158045 0.63534695 -0.055402238 0
1.4384804 0.64552283 0.402262 0
1.4229634 0.63855952 0.51889443 0
1.4232798 0.6387015 0.64590466 0
1.4176387 0.65773797 -0.055793688 0
1.4223571 0.65992719 0.40004534 0
1.4070165 0.65280968 0.51603603 0
1.4166144 0.65726274 0.64658451 0
1.4169339 0.67922157 -0.056098115 0
1.4051565 0.67357594 0.39756161 0
1.4056296 0.67380279 0.51859808 0
1.4026527 0.67237574 0.64402539 0
1.4146578 0.70017058 -0.0563526 0
1.3935602 0.6897285 0.39670652 0
1.3825357 0.68427205 0.51321602 0
1.3859643 0.68596894 0.64027822 0
1.3975775 0.71376389 -0.056025799 0
1.3726246 0.70102006 0.3932285 0
1.3908765 0.71034157 0.51959151 0
1.3740926 0.70176977 0.63882554 0
1.3823001 0.72804981 -0.055776458 0
1.361565 0.71712875 0.392616 0
1.3519303 0.71205413 0.5083515 0
1.3716154 0.72242218 0.6418522 0
1.380055 0.74921417 -0.056062091 0
1.3545575 0.73537195 0.39323434 0
1.3644099 0.74072069 0.51651043 0
1.3438425 0.72955489 0.63310456 0
1.3813473 0.77259159 -0.056505319 0
1.40663 0.78673226 0.057539534 0
1.4151103 0.7914753 0.17425179 0
1.4106615 0.78898704 0.29149985 0
1.3460441 0.75284636 0.39348373 0
1.3512348 0.75574958 0.51508462 0
1.3438685 0.75162959 0.63752526 0
1.3545439 0.78015155 -0.055806331 0
1.3802626 0.79496425 0.056865923 0
1.3839471 0.79708636 0.17163679 0
1.3822376 0.79610175 0.28767502 0
1.3354174 0.76913559 0.39317733 0
1.3329034 0.76768768 0.51174116 0
1.3180424 0.75912845 0.6297583 0
1.3458788 0.79789525 -0.05585885 0
1.3440912 0.79683542 0.055784654 0
1.3563273 0.80408949 0.16945368 0
1.3659978 0.80982256 0.28639477 0
1.3212264 0.78328013 0.39187205 0
1.3179781 0.78135443 0.50974792 0
1.3225893 0.78408813 0.63659781 0
1.3353873 0.81457186 -0.055844702 0
1.3424432 0.81887585 0.056139771 0
1.3666528 0.83364344 0.17204158 0
1.3625996 0.83117098 0.28785387 0
1.3112882 0.79987162 0.39188075 0
1.3083545 0.79808211 0.50987232 0
1.3032819 0.79498786 0.63207299 0
1.3126231 0.82354045 -0.055322006 0
1.3335752 0.83668578 0.056205057 0
1.3401842 0.84083229 0.17002895 0
1.3399287 0.84067202 0.28527826 0
1.2911203 0.81004953 0.38887107 0
1.2785357 0.80215394 0.50214833 0
1.2865887 0.80720639 0.62885678 0
1.3046565 0.84161979 -0.055428512 0
1.3361399 0.86192936 0.056766085 0
1.3250054 0.85474664 0.1694553 0
1.332037 0.85928267 0.28587911 0
1.2835847 0.82802659 0.38971093 0
1.2710394 0.81993371 0.50321931 0
1.2697582 0.81910729 0.62562227 0
1.3160747 0.87264645 -0.056375995 0
1.3238204 0.87778229 0.056707788 0
1.3237503 0.87773585 0.17069478 0
1.3264909 0.87955308 0.28704304 0
1.2605368 0.83582097 0.38587818 0
1.2647692 0.83862734 0.50487775 0
1.2539889 0.83147931 0.62296188 0
1.2877533 0.87740904 -0.055631675 0
1.315712 0.89645857 0.0568395 0
1.3258954 0.90339708 0.1724246 0
1.330249 0.90636337 0.29030296 0
1.2401261 0.84495825 0.38285679 0
1.2380162 0.8435207 0.4983989 0
1.2329636 0.84007812 0.61772311 0
1.2864152 0.90042138 -0.056059241 0
1.3572699 0.9500159 0.059146941 0
1.3696976 0.95871454 0.17967649 0
1.3468775 0.94274175 0.29649901 0
1.2411889 0.86876541 0.38653159 0
1.2268826 0.85875177 0.49823052 0
1.2330614 0.86307663 0.62316763 0
1.2777269 0.91852522 -0.056180201 0
1.2336498 0.88683933 0.38763073 0
1.2072111 0.86783326 0.49464065 0
1.2103429 0.87008458 0.61717433 0
1.2607642 0.93063128 -0.055945195 0
1.2198422 0.90042472 0.38682419 0
1.2003827 0.88606077 0.49637505 0
1.2039586 0.88870037 0.6195761 0
1.2410656 0.94046003 -0.055592179 0
1.1881999 0.90039921 0.38035536 0
1.1881427 0.90035582 0.4959625 0
1.1868292 0.89936048 0.61654007 0
1.242846 0.96668363 -0.056212738 0
1.1752933 0.91414124 0.37987852 0
1.1756563 0.91442364 0.49551761 0
1.1735561 0.91279006 0.61556715 0
1.2232084 0.97637528 -0.055876199 0
1.1574025 0.92384845 0.37782601 0
1.1529213 0.92027152 0.49078053 0
1.1576747 0.92406565 0.61329162 0
1.2119143 0.9925977 -0.055926803 0
1.1396112 0.93337905 0.37582517 0
1.1349564 0.92956656 0.48807719 0
1.1457505 0.9384073 0.61318606 0
1.2032597 1.0110887 -0.056110509 0
1.1191018 0.94037157 0.37293699 0
1.1268963 0.94692117 0.48969993 0
1.1138043 0.93592024 0.60234857 0
1.1888381 1.0247838 -0.05603531 0
1.1061944 0.95354462 0.37260747 0
1.103515 0.95123506 0.48470625 0
1.1098869 0.95672756 0.60669708 0
1.1796024 1.0429977 -0.056214582 0
1.0875356 0.96159279 0.37037176 0
1.0852578 0.95957869 0.48195612 0
1.0911031 0.96474719 0.60302216 0
1.1564326 1.0487499 -0.055735338 0
1.0849468 0.98392057 0.37367994 0
1.0645276 0.96540278 0.47811076 0
1.0666305 0.96730983 0.59618145 0
1.1451546 1.0651052 -0.055833757 0
1.0627586 0.98846895 0.37029549 0
1.0444652 0.97145426 0.4745566 0
1.0558935 0.98208374 0.59704494 0
1.140933 1.0882918 -0.056291632 0
1.0449723 0.99675852 0.36844233 0
1.033313 0.98563713 0.47509104 0
1.0400203 0.99203497 0.59508586 0
1.118804 1.0944172 -0.055875327 0
1.0314727 1.0089895 0.3681331 0
1.0297034 1.0072588 0.47922507 0
1.0081898 0.98621404 0.58393234 0
1.0994536 1.1029185 -0.055598125 0
1.0133604 1.016554 0.36620834 0
0.99140197 0.99452639 0.46719083 0
1.0065513 1.0097234 0.59030068 0
1.0914102 1.1227758 -0.055901904 0
0.99400282 1.0225691 0.36383733 0
0.98871374 1.0171281 0.47192225 0
0.99354798 1.0221012 0.59017605 0
1.0779971 1.1372842 -0.055943966 0
0.96586466 1.0189847 0.35820609 0
0.96366405 1.0166631 0.46603939 0
0.97022164 1.0235813 0.58392996 0
1.0632437 1.1503906 -0.05592566 0
0.95534068 1.0336435 0.35910177 0
0.94650483 1.0240834 0.46394059 0
0.95284933 1.0309479 0.58124149 0
1.059602 1.1758127 -0.056508411 0
0.93761432 1.0404462 0.35733503 0
0.93337971 1.0357472 0.46386325 0
0.92669052 1.0283242 0.57313794 0
1.043154 1.1872866 -0.056424078 0
0.92147017 1.0487899 0.35618725 0
0.9124912 1.0385702 0.45994511 0
0.9143694 1.0407079 0.57357717 0
0.91957879 1.0466371 0.69708616 0
1.0233783 1.1947889 -0.056163743 0
0.90307361 1.0543338 0.35418001 0
0.90341234 1.0547293 0.4620268 0
0.88974923 1.0387777 0.56629354 0
0.89439148 1.0441974 0.68790579 0
1.0051528 1.2038664 -0.055991031 0
0.88277751 1.0572981 0.45824626 0
0.87749511 1.0509714 0.5668723 0
0.86947393 1.0413644 0.67877281 0
0.98490536 1.2102711 -0.055707682 0
0.85794497 1.0542597 0.45221117 0
0.85731983 1.0534915 0.5623641 0
0.85807711 1.054422 0.68018705 0
0.97390234 1.2280157 -0.055955529 0
0.83911115 1.0580544 0.55911511 0
0.84843332 1.069809 0.68316692 0
0.95456815 1.2352703 -0.055733968 0
0.82367074 1.0658809 0.55772585 0
0.8226642 1.0645784 0.67315817 0
0.94073969 1.2495835 -0.055840857 0
0.80430067 1.0683516 0.66908687 0
0.92918307 1.2671275 -0.056097545 0
0.79321134 1.0817028 0.67113978 0
0.91336083 1.2790152 -0.056110207 0
0.89052355 1.2808343 -0.055693656 0
0.87383503 1.2912205 -0.055662397 0
0.85491908 1.29819 -0.055494368 0
0.84188461 1.3141261 -0.055718005 0
0.82729375 1.3278682 -0.05585454 0
0.81023407 1.3377262 -0.055835616 0
0.79661453 1.3534086 -0.05606705 0
0.78248769 1.3685389 -0.056281194 0
0.76138622 1.3714241 -0.056001123 0
0.738437 1.37047 -0.05557806 0
0.7298854 1.3964243 -0.056253422 0
0.71232706 1.405666 -0.056259919 0
0.6933918 1.4121209 -0.056164358 0
0.66852218 1.405946 -0.055579539 0
0.66285896 1.4405313 -0.056612302 0
0.63249612 1.4214085 -0.055543378 0
0.6167199 1.4343092 -0.055739608 0
0.59975821 1.4447235 -0.055846401 0
0.57844359 1.4444786 -0.055550974 0
0.56751114 1.4705666 -0.056274962 0
0.55029655 1.4812202 -0.056413006 0
0.52996719 1.4834542 -0.056239467 0
0.50893849 1.4832822 -0.055985548 0
0.49040815 1.490139 -0.05600683 0
0.46678582 1.4809015 -0.05543432 0
0.45140111 1.4976053 -0.055842396 0
0.43127137 1.4988701 -0.055682644 0
0.41393042 1.5098932 -0.055894081 0
0.39709517 1.52346 -0.056206748 0
0.37539458 1.5182809 -0.055836841 0
0.36052507 1.5411716 -0.056507237 0
0.33557862 1.5206093 -0.055593975 0
0.3195979 1.5400969 -0.056154862 0
0.30181554 1.5524068 -0.056460653 0
0.27970797 1.5420971 -0.055953156 0
0.26219621 1.556941 -0.056367487 0
0.23931022 1.5391428 -0.055609614 0
0.22151004 1.5532424 -0.056013823 0
0.20252772 1.5604732 -0.056178156 0
0.1821484 1.5567884 -0.055958491 0
0.16258819 1.5594964 -0.055977803 0
0.14284025 1.5603374 -0.055938989 0
0.1231012 1.5609827 -0.05590212 0
0.10311705 1.5575794 -0.055729322 0
0.08368177 1.5622025 -0.055852603 0
0.063364737 1.547493 -0.055293791 0
0.04439624 1.566564 -0.055950809 0
0.024915813 1.5827547 -0.056513388 0
0.0049216608 1.5628176 -0.05579488 0
-0.014828608 1.5703928 -0.056067549 0
-0.034719858 1.5754942 -0.056260832 0
-0.054262396 1.5664998 -0.055959608 0
-0.074231528 1.5709684 -0.056148175 0
-0.093711831 1.564996 -0.055972457 0
-0.11341574 1.5637767 -0.055975486 0
-0.13300458 1.5611447 -0.055936787 0
-0.15110527 1.5435591 -0.055370472 0
-0.17257184 1.5600048 -0.05603392 0
-0.094252907 0.85202193 0.50837213 0
-0.19321901 1.5659627 -0.056330852 0
-0.10462126 0.8479135 0.50666666 0
-0.2122722 1.5586414 -0.056159191 0
-0.11491763 0.84380043 0.50503361 0
-0.23326616 1.565142 -0.056494772 0
-0.12620315 0.84678316 0.50772971 0
-0.25052932 1.5471033 -0.055953085 0
-0.13590422 0.83925456 0.50420171 0
-0.26982036 1.5428598 -0.05591806 0
-0.14257276 0.81524533 0.49081725 0
-0.28956249 1.5411341 -0.055983227 0
-0.15452252 0.82241291 0.49626464 0
-0.30890048 1.5371479 -0.055975288 0
-0.160109 0.79673308 0.48194712 0
-0.33092991 1.5457451 -0.056435626 0
-0.16981702 0.79320067 0.48106575 0
-0.34583354 1.521513 -0.055705484 0
-0.17979959 0.7910378 0.48108897 0
-0.36716035 1.5261682 -0.056040745 0
-0.18832166 0.78279293 0.47747904 0
-0.38722038 1.5248613 -0.056167349 0
-0.19598201 0.77177083 0.47222376 0
-0.40734991 1.5234567 -0.056300089 0
-0.20841715 0.77946377 0.47849873 0
-0.4246068 1.5114684 -0.056050204 0
-0.21085151 0.75056589 0.4623521 0
-0.44069317 1.496119 -0.055682369 0
-0.22136578 0.75151956 0.46461985 0
-0.4637059 1.5041065 -0.05619251 0
-0.48194149 1.4960806 -0.056114942 0
-0.49870679 1.483842 -0.055887006 0
-0.51438785 1.468984 -0.055566955 0
-0.53692424 1.4735909 -0.055992525 0
-0.55418885 1.4634203 -0.055866808 0
-0.57417798 1.4604132 -0.056023587 0
-0.59345156 1.4553504 -0.056111589 0
-0.6036579 1.4286608 -0.05537124 0
-0.62111366 1.4198382 -0.055328045 0
-0.6364283 1.4063505 -0.05511038 0
-0.6489296 1.3872039 -0.054675967 0
-0.65515149 1.35576 -0.053757522 0
-0.67857206 1.3602363 -0.054269519 0
-0.69258958 1.3456475 -0.05403113 0
-0.70591271 1.3301023 -0.053759612 0
-0.7243489 1.3242981 -0.053889405 0
-0.73754776 1.309006 -0.053640798 0
-0.74545085 1.284929 -0.053034618 0
-0.76130748 1.2750005 -0.053016298 0
-0.77107841 1.2551844 -0.05259189 0
-0.78963578 1.2498304 -0.052779991 0
-0.79875934 1.2297039 -0.052350655 0
-0.82024413 1.2286333 -0.052740607 0
-0.82716465 1.2058394 -0.052205127 0
-0.841645 1.1944246 -0.052165639 0
-0.85466975 1.1810411 -0.052047025 0
-0.87025154 1.1712344 -0.052093644 0
-0.89421135 1.1723524 -0.052640028 0
-0.90114379 1.1510905 -0.052190714 0
-0.90977573 1.1324453 -0.051860645 0
-0.92055988 1.1167725 -0.051669665 0
-0.93753624 1.1086261 -0.051834855 0
-0.94102466 1.0847495 -0.051268455 0
-0.95888424 1.0776201 -0.051498096 0
-0.97318053 1.066342 -0.051540665 0
-0.98949498 1.0571718 -0.051695574 0
-1.000659 1.042474 -0.051588926 0
-1.0146179 1.0307186 -0.051635351 0
-1.0215948 1.0119965 -0.05133782 0
-1.0370011 1.0017048 -0.051474079 0
-1.0524684 0.9913345 -0.051618114 0
-1.0563676 0.97019792 -0.051206112 0
-1.0738065 0.96157211 -0.051460426 0
-1.087886 0.9497714 -0.051557925 0
-1.1107867 0.94538426 -0.052074935 0
-1.1218857 0.93072879 -0.052041698 0
-1.1304058 0.91401452 -0.051898919 0
-1.1323283 0.8922261 -0.051467277 0
-1.1609927 0.89134896 -0.05225585 0
-1.1642487 0.87076986 -0.051904753 0
-1.1716477 0.85351175 -0.05175136 0
-1.2035854 0.85378981 -0.052682992 0
-1.208342 0.83449411 -0.05242708 0
-1.229712 0.82657951 -0.052898485 0
-1.239678 0.81080532 -0.052883804 0
-1.2502093 0.79539961 -0.0529016 0
-1.2632004 0.78149736 -0.053030696 0
-1.2656918 0.76117104 -0.052728727 0
-1.2814023 0.74881291 -0.052986208 0
-1.3019071 0.73896366 -0.053445075 0
-1.3100824 0.72194719 -0.053403255 0
-1.3325413 0.7125991 -0.0539487 0
-1.3548671 0.7027452 -0.054489989 0
-1.3486431 0.67810559 -0.053891983 0
-1.3847629 0.6745587 -0.054991551 0
-1.3841823 0.65284145 -0.054637704 0
-1.4018381 0.6397171 -0.055012293 0
-1.4109688 0.62253928 -0.05505861 0
-1.4377729 0.61285597 -0.055798996 0
-1.4360516 0.59086776 -0.055439044 0
-1.4575195 0.5783509 -0.055982232 0
-1.4685239 0.56142026 -0.056128912 0
-1.4660699 0.5394243 -0.055771079 0
-0.96954811 0.35673454 0.34370431 0
-1.4730911 0.52104408 -0.055784158 0
-0.98190629 0.3473081 0.34650749 0
-1.4813321 0.50306511 -0.055851918 0
-0.98262495 0.33370256 0.34525084 0
-1.4992101 0.48817059 -0.056289755 0
-0.97601771 0.31780943 0.34149617 0
-1.4827799 0.46225375 -0.055449914 0
-0.98581517 0.30732599 0.3435429 0
-1.5013094 0.44736931 -0.055927746 0
-0.98587549 0.29377717 0.34224764 0
-1.4953922 0.42518038 -0.055503465 0
-0.99079198 0.2817089 0.34269577 0
-0.76058877 0.21625592 0.46894377 0
-1.5094435 0.40870503 -0.055829555 0
-0.99430895 0.26922444 0.34271249 0
-0.74997312 0.20306675 0.46078557 0
-1.5170542 0.39033183 -0.055924822 0
-0.9992407 0.25710052 0.34326926 0
-0.77330792 0.19896895 0.47354561 0
-1.5322886 0.37374577 -0.056308463 0
-0.99833691 0.24350777 0.34187829 0
-0.77956581 0.19014657 0.47587377 0
