# .PCD v0.7 - Point Cloud Data file format
VERSION 0.7
FIELDS x y z intensity
SIZE 4 4 4 4
TYPE F F F F
COUNT 1 1 1 1
WIDTH 1354
HEIGHT 1
VIEWPOINT 0 0 0 1 0 0 0
POINTS 1354
DATA ascii
-0.67667753 -0.60595107 0.45447558 0
-0.67801595 -0.6071496 0.53975058 0
-1.1568792 -1.0625106 -0.056078285 0
-0.76084399 -0.69878066 0.34368742 0
-0.69763774 -0.64073026 0.39218488 0
-0.67891592 -0.62353557 0.46121582 0
-0.67893612 -0.62355411 0.54669046 0
-1.1455086 -1.0789704 -0.056181256 0
-0.74928546 -0.70576233 0.34245354 0
-0.69198942 -0.65179437 0.39359236 0
-0.6773116 -0.63796914 0.46554649 0
-0.68084663 -0.64129883 0.55468732 0
-1.124248 -1.0859821 -0.055804793 0
-0.74730128 -0.72186548 0.34567374 0
-0.68793702 -0.66452175 0.3960155 0
-0.68189418 -0.65868461 0.47435972 0
-0.68509394 -0.66177541 0.56489187 0
-1.1122501 -1.1018001 -0.055893485 0
-0.7340222 -0.72712576 0.34373933 0
-0.68180054 -0.67539477 0.3973473 0
-0.67744207 -0.67107719 0.47710326 0
-0.68467915 -0.67824632 0.57154673 0
-1.0950167 -1.1123931 -0.05572696 0
-0.72664237 -0.73817325 0.34460899 0
-0.68201667 -0.69283938 0.40252581 0
-0.68295652 -0.69379413 0.48710114 0
-0.68854666 -0.69947296 0.58208162 0
-1.0814263 -1.1266164 -0.055752877 0
-0.85021043 -0.88573855 0.043832555 0
-0.8400929 -0.87519819 0.13037616 0
-0.84312809 -0.87836027 0.21958013 0
-0.84758544 -0.88300383 0.31227335 0
-0.71287739 -0.74266672 0.34248891 0
-0.68513215 -0.7137621 0.40963671 0
-0.6797542 -0.70815939 0.49113825 0
-0.68682253 -0.71552306 0.58819425 0
-1.0695274 -1.142678 -0.055876821 0
-0.81549019 -0.87126589 0.042604797 0
-0.81516391 -0.87091726 0.12819918 0
-0.80800557 -0.86326933 0.21324714 0
-0.81335396 -0.86898351 0.30366895 0
-0.70528525 -0.75352341 0.34337276 0
-0.68128264 -0.72787917 0.41278243 0
-0.68925929 -0.73640138 0.50466579 0
-0.67810678 -0.72448611 0.58849633 0
-1.051703 -1.1523813 -0.055699296 0
-0.79769146 -0.87405354 0.04224658 0
-0.79985386 -0.87642294 0.12751691 0
-0.79828435 -0.87470317 0.2135715 0
-0.80274665 -0.87959266 0.30381986 0
-0.69580156 -0.76240981 0.34340236 0
-0.68300062 -0.74838346 0.41949987 0
-0.68326688 -0.74867523 0.5071407 0
-0.67815185 -0.74307048 0.59660846 0
-1.039837 -1.1685971 -0.055845767 0
-0.78660911 -0.8840127 0.042245843 0
-0.78777713 -0.88532537 0.12735878 0
-0.77756774 -0.87385178 0.21095622 0
-0.78364342 -0.88067985 0.3007631 0
-0.68952602 -0.77490813 0.34509364 0
-0.68673754 -0.77177435 0.4277302 0
-0.67918086 -0.76328194 0.51120126 0
-0.67752349 -0.76141936 0.60444283 0
-1.0222331 -1.1783611 -0.055692814 0
-0.76181799 -0.87817222 0.041505005 0
-0.76017076 -0.87627339 0.1246697 0
-0.75788629 -0.87364 0.20858467 0
-0.76504576 -0.88189298 0.29786378 0
-0.6920535 -0.79775238 0.35135826 0
-0.68476075 -0.7893458 0.43265548 0
-0.69017082 -0.79558223 0.52697176 0
-0.68930387 -0.79458284 0.62382942 0
-1.0121549 -1.196862 -0.055960406 0
-0.75323552 -0.89069265 0.041645169 0
-0.74737197 -0.88375902 0.1243859 0
-0.75458246 -0.89228535 0.210751 0
-0.75170821 -0.88888657 0.2970053 0
-0.69109613 -0.81721348 0.35606852 0
-0.68303108 -0.80767661 0.43795395 0
-0.68539536 -0.81047237 0.53107578 0
-0.68267024 -0.80724996 0.62697572 0
-0.99493885 -1.207005 -0.055844445 0
-0.7410326 -0.89897996 0.041593064 0
-0.73954296 -0.89717281 0.12495324 0
-0.73985726 -0.89755404 0.20977832 0
-0.74332869 -0.90176541 0.29815736 0
-0.69200104 -0.83949757 0.36195254 0
-0.67614496 -0.82026184 0.44012654 0
-0.6870091 -0.83344162 0.54041523 0
-0.68571609 -0.831873 0.6393429 0
-0.98086917 -1.220939 -0.055913243 0
-0.7385729 -0.91934019 0.042101439 0
-0.72250748 -0.89934278 0.12397852 0
-0.72844833 -0.90673769 0.20976423 0
-0.73730016 -0.91775596 0.3003509 0
-0.68930864 -0.85801846 0.3661665 0
-0.68098599 -0.84765881 0.45019007 0
-0.68909341 -0.85775054 0.55050743 0
-0.68579996 -0.85365099 0.64939195 0
-0.96384615 -1.2311844 -0.05582219 0
-0.71970236 -0.91932338 0.041682336 0
-0.72331429 -0.92393714 0.12610337 0
-0.72520339 -0.92635024 0.212172 0
-0.72050422 -0.92034763 0.29820624 0
-0.69084948 -0.88246769 0.37285835 0
-0.68154687 -0.87058479 0.45777175 0
-0.68118882 -0.8701275 0.55290198 0
-0.68232894 -0.87158382 0.65644568 0
-0.95546764 -1.2526623 -0.056246035 0
-0.71343052 -0.93534046 0.041997902 0
-0.71935123 -0.94310278 0.12747277 0
-0.71825176 -0.9416613 0.21359038 0
-0.72347504 -0.94850928 0.30435506 0
-0.69257617 -0.9079994 0.379931 0
-0.68237782 -0.89462888 0.4658595 0
-0.67852157 -0.88957322 0.55978477 0
-0.68919748 -0.90356982 0.67394662 0
-0.9359774 -1.259692 -0.056028023 0
-0.71163243 -0.95775568 0.042598635 0
-0.71157604 -0.95767975 0.12822178 0
-0.71351087 -0.96028376 0.21575935 0
-0.71278262 -0.95930368 0.30491453 0
-0.6957705 -0.9364078 0.3881211 0
-0.68510109 -0.92204821 0.47560754 0
-0.6783731 -0.91299331 0.56910193 0
-0.67895836 -0.91378099 0.67513245 0
-0.91561961 -1.2652657 -0.055758704 0
-0.7148543 -0.98783457 0.043532651 0
-0.7182309 -0.99250054 0.13166252 0
-0.71480286 -0.98776352 0.2198938 0
-0.71858221 -0.99298602 0.31271958 0
-0.70189351 -0.96992445 0.39831814 0
-0.68486488 -0.94639313 0.48367831 0
-0.68319237 -0.94408196 0.58307189 0
-0.68637484 -0.94847971 0.69432825 0
-0.90114117 -1.278859 -0.055853248 0
-0.6101315 -0.86587119 0.037816301 0
-0.60924917 -0.86461902 0.11367136 0
-0.61247528 -0.86919731 0.19176672 0
-0.7765668 -1.1020687 0.34396595 0
-0.6927852 -0.98316956 0.40014324 0
-0.68011349 -0.96518648 0.48886746 0
-0.68666559 -0.97448486 0.59646142 0
-0.88771075 -1.2941034 -0.056026392 0
-0.59986097 -0.87447643 0.037859231 0
-0.60010761 -0.87483597 0.11401207 0
-0.59818798 -0.87203753 0.19071637 0
-0.75598109 -1.1020681 0.34096763 0
-0.67756319 -0.98775059 0.39850363 0
-0.67938024 -0.99039948 0.49726537 0
-0.68131679 -0.99322253 0.60263139 0
-0.87032187 -1.3036441 -0.055960536 0
-0.5842182 -0.87509304 0.037564453 0
-0.5768078 -0.86399299 0.11164354 0
-0.57862562 -0.86671591 0.18794411 0
-0.74035484 -1.108968 0.3401911 0
-0.68113482 -1.0202632 0.40812799 0
-0.68438673 -1.0251342 0.51033777 0
-0.68305469 -1.0231389 0.61551547 0
-0.85223114 -1.3120247 -0.055855196 0
-0.56738478 -0.87349868 0.037186377 0
-0.56708205 -0.87303269 0.11188003 0
-0.5712952 -0.87951893 0.18914543 0
-0.72062355 -1.1094126 0.33751705 0
-0.6794582 -1.0460377 0.41498291 0
-0.67958719 -1.0462363 0.51654184 0
-0.68373537 -1.0526224 0.62802321 0
-0.83882797 -1.3276914 -0.056068044 0
-0.55091685 -0.87198758 0.036823794 0
-0.54731649 -0.86628902 0.11012389 0
-0.55158019 -0.87303758 0.18624313 0
-0.71058816 -1.1247144 0.33942321 0
-0.68238211 -1.08007 0.42504159 0
-0.68305242 -1.0811309 0.52948135 0
-0.6806556 -1.0773373 0.63760453 0
-0.81617075 -1.3285871 -0.055667438 0
-0.53957635 -0.87833846 0.036802143 0
-0.535689 -0.87201047 0.10998499 0
-0.53169185 -0.86550385 0.18319318 0
-0.6923939 -1.1270994 0.33748502 0
-0.68276131 -1.1114192 0.43396071 0
-0.68780404 -1.119628 0.54405034 0
-0.67777067 -1.1032952 0.64786494 0
-0.80494905 -1.3480892 -0.05605543 0
-0.52219993 -0.87455481 0.036365211 0
-0.52250075 -0.87505865 0.10953092 0
-0.51617295 -0.86446118 0.18158236 0
-0.69282073 -1.1603022 0.34478727 0
-0.68687707 -1.1503481 0.44574821 0
-0.68313313 -1.1440779 0.55170739 0
-0.68535143 -1.1477931 0.66887373 0
-0.78508091 -1.3532392 -0.055854075 0
-0.50512737 -0.87068498 0.035936963 0
-0.51001751 -0.87911409 0.10922601 0
-0.50501084 -0.87048411 0.18149734 0
-0.69451994 -1.1971397 0.35310692 0
-0.68102241 -1.1738741 0.4515056 0
-0.68478256 -1.1803555 0.56499851 0
-0.68148661 -1.1746743 0.67948401 0
-0.76985854 -1.3663515 -0.055990715 0
-0.49359542 -0.8760373 0.035898492 0
-0.49256882 -0.8742153 0.10783817 0
-0.4955745 -0.8795498 0.18207198 0
-0.6908524 -1.2261307 0.35906363 0
-0.68356723 -1.2132009 0.46328431 0
-0.6837793 -1.2135773 0.57673347 0
-0.75218523 -1.3751903 -0.055960342 0
-0.47832865 -0.87450916 0.035586227 0
-0.47517419 -0.86874199 0.10641649 0
-0.47855029 -0.87491435 0.17985074 0
-0.69099236 -1.2633138 0.36737522 0
-0.68287188 -1.2484674 0.47343034 0
-0.68082118 -1.2447181 0.58741188 0
-0.7335465 -1.3821708 -0.055864092 0
-0.47045621 -0.88644803 0.035828147 0
-0.45906189 -0.86497849 0.10523904 0
-0.46416226 -0.87458873 0.17856817 0
-0.68189985 -1.2848566 0.37111351 0
-0.68364495 -1.2881448 0.48517343 0
-0.6829977 -1.2869252 0.60322386 0
-0.71227103 -1.3838869 -0.055566546 0
-0.4568674 -0.88765764 0.035641689 0
-0.45436206 -0.88278997 0.10670154 0
-0.4489719 -0.87231731 0.17693606 0
-0.68211502 -1.3252963 0.38028291 0
-0.68477535 -1.330465 0.49782592 0
-0.68273675 -1.3265041 0.61769706 0
-0.69951737 -1.4022224 -0.05594464 0
-0.43532911 -0.87264198 0.034815904 0
-0.43777722 -0.87754935 0.10539346 0
-0.43359759 -0.86917108 0.17517655 0
-0.68139833 -1.3659017 0.38944137 0
-0.68261111 -1.3683329 0.50873852 0
-0.68217707 -1.3674628 0.63271958 0
-0.68423998 -1.4159553 -0.056144338 0
-0.41958117 -0.86827463 0.034428135 0
-0.42263913 -0.87460268 0.10439212 0
-0.42056239 -0.87030512 0.17432395 0
-0.6772632 -1.4015176 0.39713305 0
-0.68145794 -1.4101982 0.52107215 0
-0.66794705 -1.4278573 -0.0562783 0
-0.40893307 -0.87416816 0.034454912 0
-0.40346971 -0.86248922 0.10233174 0
-0.40933019 -0.87501711 0.17422152 0
-0.6862843 -1.4670564 0.41322258 0
-0.68431139 -1.4628389 0.53729641 0
-0.64764047 -1.4311267 -0.056081284 0
-0.39625788 -0.87563276 0.03431325 0
-0.39420557 -0.87109768 0.10275601 0
-0.3924281 -0.86716992 0.1716616 0
-0.68197906 -1.5070066 0.42202294 0
-0.68421054 -1.5119376 0.55212194 0
-0.62929732 -1.4385456 -0.056057036 0
-0.38633016 -0.88313353 0.034413818 0
-0.38103378 -0.87102622 0.10217348 0
-0.37947983 -0.86747396 0.1707623 0
-0.68372166 -1.5629573 0.43524584 0
-0.68237805 -1.5598857 0.56644869 0
-0.60951579 -1.4425244 -0.055908564 0
-0.36669791 -0.86785394 0.033635803 0
-0.36733261 -0.8693561 0.10142695 0
-0.36558929 -0.8652302 0.16940099 0
-0.68463701 -1.6203119 0.44878137 0
-0.58987832 -1.4465876 -0.055773731 0
-0.35701686 -0.87553 0.03375639 0
-0.35497639 -0.87052596 0.10103393 0
-0.35490543 -0.87035197 0.16951534 0
-0.68300939 -1.6749774 0.46150351 0
-0.57409501 -1.4602022 -0.056015488 0
-0.34237733 -0.87083173 0.033406377 0
-0.3434118 -0.87346286 0.10086491 0
-0.34007338 -0.86497164 0.16762011 0
-0.68280232 -1.7366978 0.47610247 0
-0.55574512 -1.4675298 -0.056023687 0
-0.33139706 -0.87510449 0.033407554 0
-0.32978645 -0.87085146 0.10007587 0
-0.33309802 -0.87959617 0.16962786 0
-0.68631864 -1.8123291 0.4944278 0
-0.53783274 -1.4760841 -0.056087267 0
-0.31959793 -0.87713778 0.033328898 0
-0.31712398 -0.87034804 0.099551231 0
-0.31812432 -0.87309349 0.16758803 0
-0.51830375 -1.480167 -0.055989973 0
-0.306151 -0.87430316 0.033072084 0
-0.30450177 -0.86959332 0.099018477 0
-0.30462283 -0.86993903 0.16623308 0
-0.50028104 -1.488526 -0.056063425 0
-0.28675449 -0.85320348 0.032134816 0
-0.29244646 -0.87013918 0.098653488 0
-0.29321274 -0.87241924 0.16598831 0
-0.47918135 -1.4875124 -0.055793565 0
-0.28060436 -0.87107414 0.032672219 0
-0.28278199 -0.87783408 0.099114336 0
-0.27923065 -0.86680979 0.16423905 0
-0.46270698 -1.5008663 -0.056071457 0
-0.27013451 -0.87622577 0.032735266 0
-0.26736119 -0.86723006 0.097529203 0
-0.26726234 -0.86690944 0.1636073 0
-0.44393122 -1.5071119 -0.056091502 0
-0.25677478 -0.87173045 0.032443952 0
-0.25551432 -0.86745125 0.097184539 0
-0.25811863 -0.87629265 0.16475166 0
-0.4238579 -1.5088025 -0.055951342 0
-0.24578831 -0.87493008 0.032445278 0
-0.25023013 -0.89074165 0.099432968 0
-0.24510977 -0.87251467 0.16344813 0
-0.40326557 -1.5081816 -0.055735588 0
-0.23339953 -0.87289584 0.032258295 0
-0.23168242 -0.86647409 0.096390679 0
-0.23112203 -0.86437821 0.16136594 0
-0.38582143 -1.5193523 -0.055964429 0
-0.22351038 -0.88017666 0.032420781 0
-0.2231029 -0.87857205 0.097416267 0
-0.22266398 -0.87684357 0.16315666 0
-0.36660266 -1.52385 -0.055955622 0
-0.2132459 -0.88639498 0.16442123 0
-0.34878108 -1.5344808 -0.056180261 0
-0.19786611 -0.87052244 0.16100203 0
-0.32915887 -1.5374728 -0.056133606 0
-0.18573594 -0.86755669 0.16000827 0
-0.31165203 -1.5508404 -0.056473896 0
-0.17574129 -0.87452233 0.16087207 0
-0.28895053 -1.537877 -0.055864912 0
-0.16480331 -0.87713021 0.16095729 0
-0.27037045 -1.5460054 -0.056032065 0
-0.25090393 -1.5494168 -0.056036755 0
-0.23128539 -1.5518517 -0.056015048 0
-0.20963559 -1.5392816 -0.055461641 0
-0.19317482 -1.5656047 -0.056317974 0
-0.1723135 -1.5576695 -0.055950042 0
-0.15351799 -1.5682054 -0.056254584 0
-0.13312837 -1.5625976 -0.055988852 0
-0.11317085 -1.5604001 -0.055854622 0
-0.094066158 -1.5709133 -0.056184087 0
-0.074319072 -1.5728213 -0.056214396 0
-0.05407026 -1.5609531 -0.055761464 0
-0.034477133 -1.5644799 -0.055867512 0
-0.014894589 -1.5773803 -0.05631702 0
0.0049288161 -1.5650896 -0.055875994 0
0.024559695 -1.5601326 -0.055705648 0
0.044612899 -1.5742091 -0.056223858 0
0.064032838 -1.5638094 -0.055876795 0
0.084109016 -1.5701785 -0.056137767 0
0.10345831 -1.5627342 -0.055913758 0
0.061645374 -0.93115121 0.033316072 0
0.1231583 -1.5617068 -0.055928051 0
0.07340499 -0.93081075 0.033334319 0
0.14227967 -1.5542139 -0.055719458 0
0.082430333 -0.90044039 0.032281306 0
0.16305387 -1.5639631 -0.056138132 0
0.096198149 -0.92270339 0.033120245 0
0.182265 -1.557785 -0.055994313 0
0.10778661 -0.9212321 0.033113528 0
0.11608767 -0.99217969 0.10735623 0
0.11681288 -0.99837798 0.18128443 0
0.11516774 -0.98431724 0.25284395 0
0.11421531 -0.97617698 0.32698381 0
0.11516796 -0.98431909 0.41032356 0
0.20315075 -1.5652736 -0.056350973 0
0.12315577 -0.94891346 0.034161568 0
0.12871858 -0.99177486 0.10747929 0
0.12797731 -0.98606342 0.17932676 0
0.12723188 -0.98031986 0.25220868 0
0.12741974 -0.9817673 0.3293677 0
0.12874132 -0.99195015 0.41414759 0
0.12629521 -0.97310281 0.49096593 0
0.2212252 -1.5512452 -0.055941794 0
0.13868411 -0.97246182 0.035069413 0
0.13886313 -0.97371709 0.10570347 0
0.13598123 -0.95350903 0.17370401 0
0.13743059 -0.96367204 0.24835119 0
0.13908841 -0.9752968 0.32775855 0
0.13938449 -0.977373 0.40876192 0
0.13760075 -0.96486521 0.48764533 0
0.24325635 -1.5645226 -0.056526594 0
0.1520825 -0.97813082 0.035340112 0
0.1496805 -0.96268201 0.10470185 0
0.15157902 -0.97489262 0.17793314 0
0.15114947 -0.97212988 0.25100151 0
0.15120162 -0.97246528 0.32742086 0
0.15122552 -0.972619 0.40753776 0
0.14833552 -0.95403171 0.4830758 0
0.26024714 -1.5453674 -0.055948474 0
0.16661446 -0.98936933 0.035819124 0
0.16745725 -0.99437392 0.10836942 0
0.1671651 -0.99263906 0.18154193 0
0.16512969 -0.98055261 0.25369301 0
0.16583414 -0.98473579 0.33222899 0
0.16677478 -0.99032128 0.41580221 0
0.15888049 -0.94344443 0.47868997 0
0.2809934 -1.549184 -0.056210298 0
0.62677151 -3.4555416 0.12538022 0
0.17222311 -0.94950724 0.48282823 0
0.29962444 -1.5411367 -0.056050766 0
0.67358387 -3.4646201 0.12600739 0
0.18345594 -0.94361699 0.48096958 0
0.31858999 -1.5352398 -0.055977769 0
0.71753824 -3.4577146 0.12607485 0
0.18710624 -0.90163833 0.46073711 0
0.33792979 -1.5312631 -0.055983484 0
0.76199996 -3.4528549 0.12623751 0
0.20119318 -0.91166782 0.46711972 0
0.3571611 -1.5267913 -0.055979982 0
0.80928999 -3.4595504 0.12684482 0
0.20746811 -0.88688403 0.45572349 0
0.374944 -1.5164585 -0.05576982 0
0.85476136 -3.4570765 0.12713867 0
0.55124307 -2.2294989 0.2468178 0
0.55416155 -2.2413025 0.41638806 0
0.21687715 -0.87715822 0.45209336 0
0.39599574 -1.519242 -0.056051128 0
0.89866525 -3.4477391 0.12720136 0
0.2300546 -0.88260704 0.45635861 0
0.4130035 -1.506512 -0.055768915 0
0.94698006 -3.4542973 0.12787314 0
0.24070828 -0.87803108 0.4555237 0
0.43500158 -1.5118343 -0.056164261 0
0.25596741 -0.88960665 0.4631646 0
0.45333734 -1.5040292 -0.056081925 0
0.25386283 -0.84223604 0.44013104 0
0.47096121 -1.4941481 -0.055930182 0
0.26693878 -0.84687668 0.44427741 0
0.49245018 -1.4963439 -0.056240041 0
0.27211034 -0.8268261 0.43552175 0
0.50340605 -1.4671581 -0.055376954 0
0.29613602 -0.86307746 0.45654479 0
0.525581 -1.4711765 -0.055774007 0
0.54654562 -1.4711241 -0.056028489 0
0.56541938 -1.4651463 -0.056067541 0
0.58004647 -1.4484813 -0.055704907 0
0.60176522 -1.4495581 -0.056033287 0
0.61835009 -1.4381006 -0.055886947 0
0.64124745 -1.4410754 -0.056311887 0
0.3666389 -0.82394761 0.3733938 0
0.65584469 -1.4252878 -0.056013238 0
0.67666364 -1.423068 -0.056256402 0
0.3936187 -0.827806 0.37951505 0
0.3545624 -0.74566805 0.48966345 0
0.69212997 -1.4095513 -0.056062154 0
1.1089453 -2.2584128 0.45375484 0
0.39503509 -0.80450523 0.37108371 0
0.36463174 -0.74258757 0.49061683 0
0.70414954 -1.389529 -0.055614054 0
1.1461793 -2.2618055 0.4573001 0
0.40854084 -0.80619144 0.37420473 0
0.36847299 -0.7271238 0.48342732 0
0.72521377 -1.3874866 -0.055893376 0
1.1674645 -2.2336051 0.45453471 0
0.42212254 -0.80760926 0.37730017 0
0.38260472 -0.73200333 0.4898358 0
0.74254352 -1.3780913 -0.055887137 0
1.203721 -2.2339938 0.45766205 0
0.43514603 -0.80759037 0.37982112 0
0.39000571 -0.72381413 0.48760349 0
0.75576591 -1.3613006 -0.055587739 0
1.2418555 -2.236855 0.46141517 0
0.44411823 -0.79995459 0.37883008 0
0.39507267 -0.71161276 0.48269698 0
0.77628499 -1.3576907 -0.055835065 0
1.2736138 -2.2274983 0.46275666 0
0.47334245 -0.82785654 0.39483479 0
0.40217155 -0.70338154 0.48051065 0
0.79415876 -1.3492362 -0.055894203 0
1.3173304 -2.2380788 0.46836373 0
0.49434236 -0.83986312 0.40349802 0
0.41130808 -0.69879198 0.4808754 0
0.81181961 -1.340344 -0.055944875 0
1.3593816 -2.2443888 0.4732289 0
0.5015009 -0.82799631 0.40079901 0
0.41890606 -0.69162929 0.47953832 0
0.83165151 -1.3348627 -0.056148753 0
1.3978753 -2.2436941 0.4767561 0
0.43294573 -0.69491017 0.48555461 0
0.84638506 -1.3211509 -0.056015853 0
1.4414872 -2.250066 0.48192877 0
0.43965042 -0.68626517 0.48334402 0
0.86050302 -1.3066691 -0.055856828 0
1.4701576 -2.2324264 0.48207754 0
0.57761097 -0.8770991 0.43482393 0
0.44194788 -0.67109549 0.47654161 0
0.87835801 -1.2979039 -0.055950508 0
1.5141399 -2.2373657 0.48722273 0
0.58942091 -0.8709566 0.43542379 0
0.45272037 -0.66896135 0.4790363 0
0.89639282 -1.2892761 -0.056060724 0
1.5498683 -2.2291658 0.48964825 0
0.60455346 -0.86952543 0.43847936 0
0.44991159 -0.64710498 0.46740505 0
0.91199058 -1.2770964 -0.05602603 0
0.61175692 -0.85666734 0.43584543 0
0.45835125 -0.64184731 0.46773922 0
0.92490536 -1.261294 -0.055839289 0
0.6279043 -0.85627347 0.43963289 0
0.46574372 -0.63513499 0.46708453 0
0.94304109 -1.2526404 -0.055977464 0
1.6886497 -2.2430313 0.10023563 0
1.688301 -2.2425683 0.30167061 0
0.65261191 -0.86686367 0.44925377 0
0.46910742 -0.62311482 0.46255222 0
0.96512938 -1.2489371 -0.0563506 0
0.66459394 -0.8600257 0.45001143 0
0.48392853 -0.62623346 0.46935359 0
0.97435796 -1.2285903 -0.055981711 0
0.68024945 -0.85774207 0.45326269 0
0.4855358 -0.61222315 0.46339864 0
0.98647422 -1.2121989 -0.055796415 0
0.49621376 -0.60975724 0.46622467 0
1.0000002 -1.1976951 -0.055704016 0
0.50314569 -0.602615 0.46557111 0
1.0153264 -1.1853884 -0.055721849 0
1.0424435 -1.186478 -0.056385648 0
0.52202523 -0.59415352 0.46904382 0
1.0486771 -1.1636896 -0.055925786 0
1.7672786 -1.961103 0.09424869 0
0.52279621 -0.58013332 0.46313608 0
1.0655036 -1.1528356 -0.056044519 0
1.759005 -1.9031787 0.092522062 0
0.53014296 -0.57359523 0.46320918 0
1.0750489 -1.1341738 -0.055790965 0
0.93244994 -0.98373222 0.048390619 0
0.5399884 -0.56968635 0.46550673 0
1.0900669 -1.121394 -0.055833101 0
0.94521624 -0.97238046 0.048413865 0
1.4019854 -1.4422765 0.21616361 0
0.54457283 -0.5602231 0.46334067 0
1.1036421 -1.1071202 -0.05580993 0
0.95407945 -0.95708621 0.048246719 0
1.3984118 -1.4028189 0.21287215 0
0.55323654 -0.5549801 0.46472925 0
1.1257216 -1.1011839 -0.056220807 0
0.96601897 -0.94496244 0.048244935 0
1.2924461 -1.2642744 0.1943028 0
1.3033189 -1.2749102 0.32881063 0
1.298691 -1.2703831 0.46350345 0
0.55511439 -0.54301441 0.46052632 0
1.1365615 -1.0841218 -0.056075945 0
0.98326302 -0.93789637 0.048512466 0
1.3913393 -1.3271445 0.20664136 0
0.74464142 -0.71028453 0.34236717 0
0.56447506 -0.53843081 0.46263054 0
1.1453184 -1.0652577 -0.055841748 0
1.0206673 -0.94931996 0.049764194 0
1.4054925 -1.3072449 0.20628223 0
0.73882985 -0.68718368 0.33569005 0
1.1556665 -1.0480552 -0.055698413 0
1.3945514 -1.2646959 0.067211688 0
1.389269 -1.2599055 0.20155665 0
0.74494511 -0.67557859 0.33457682 0
0.57987636 -0.52588046 0.46424967 0
1.1669682 -1.0318266 -0.055612493 0
1.4013873 -1.2390987 0.06678386 0
1.3997782 -1.237676 0.20080434 0
1.4010838 -1.2388303 0.33729237 0
0.76495391 -0.67636788 0.33971122 0
0.58664697 -0.5187099 0.46440411 0
1.1894045 -1.025272 -0.056062005 0
1.4005547 -1.2072846 0.066014469 0
1.3958288 -1.2032108 0.19804858 0
1.3964423 -1.2037396 0.33249962 0
0.78630286 -0.67779666 0.34537446 0
0.59172028 -0.51006562 0.46329904 0
1.2115867 -1.0180858 -0.056498814 0
1.3935717 -1.1710063 0.064985156 0
1.400581 -1.1768961 0.19660455 0
1.4000893 -1.176483 0.32981443 0
1.4874256 -1.2498709 0.49567968 0
0.82497531 -0.6932196 0.35849828 0
0.83083832 -0.69814628 0.44931972 0
0.60599625 -0.50921345 0.46941897 0
1.2162695 -0.99616474 -0.056127783 0
1.3942401 -1.1419286 0.064340681 0
1.3897295 -1.1382341 0.19305402 0
1.3931469 -1.1410331 0.3247686 0
1.5032071 -1.231176 0.49573314 0
0.8503117 -0.69643325 0.36566848 0
0.80121183 -0.65621883 0.42879486 0
0.60565186 -0.49604881 0.46427685 0
1.228554 -0.98064214 -0.056120384 0
1.407889 -1.1237888 0.064312406 0
1.4097074 -1.1252403 0.19384557 0
1.3957644 -1.1141108 0.32208282 0
1.5408541 -1.2299228 0.50300115 0
0.82306033 -0.65697372 0.35036388 0
0.80284089 -0.64083433 0.42531431 0
0.61729544 -0.49273041 0.46840912 0
1.2379947 -0.96291029 -0.055993319 0
1.4137781 -1.0996343 0.063943826 0
1.3987243 -1.0879256 0.19043644 0
1.4024905 -1.0908548 0.32043979 0
0.81861496 -0.63671738 0.4293893 0
0.62802708 -0.48847845 0.4718475 0
1.2528583 -0.94939637 -0.056120422 0
1.4127895 -1.0705897 0.06328436 0
1.3929225 -1.0555347 0.18782198 0
1.3916534 -1.0545731 0.31490469 0
0.82591456 -0.62586504 0.4290503 0
0.62979895 -0.47725177 0.46862644 0
1.262164 -0.93166453 -0.056007311 0
1.4085613 -1.0397274 0.062503546 0
1.3986166 -1.0323868 0.18682204 0
1.3972082 -1.0313472 0.31319812 0
0.85292488 -0.62958527 0.43892857 0
0.63764346 -0.47067559 0.47001609 0
1.2747872 -0.916412 -0.056050949 0
1.4056582 -1.0104917 0.0618052 0
1.4043914 -1.0095811 0.18588054 0
1.3957349 -1.0033581 0.31001115 0
0.64855266 -0.46622792 0.47369239 0
1.2813816 -0.89689815 -0.055839889 0
1.4110163 -0.98763549 0.061489094 0
1.3966008 -0.97754544 0.18320566 0
1.3958112 -0.97699273 0.30727118 0
1.3942934 -0.97593039 0.43421149 0
0.64704949 -0.45289981 0.46839198 0
1.3005838 -0.88615108 -0.056185961 0
1.445646 -0.98498893 0.062452726 0
1.4001359 -0.95398074 0.18207912 0
1.3902513 -0.94724578 0.30339739 0
1.3997014 -0.95368469 0.43212152 0
0.66810107 -0.45520976 0.47944355 0
1.3044106 -0.86491233 -0.055876341 0
1.4767554 -0.9791885 0.063258983 0
1.4004515 -0.92859393 0.18058524 0
1.3996146 -0.92803901 0.30286649 0
1.3991038 -0.92770028 0.42829663 0
0.67328531 -0.4464336 0.47909173 0
1.3183706 -0.85046661 -0.056011155 0
1.5081744 -0.97290701 0.064074993 0
1.3975657 -0.90155447 0.17873506 0
1.3883727 -0.89562416 0.29796973 0
1.3891823 -0.89614648 0.42177159 0
0.67951745 -0.43834937 0.47956064 0
1.3239831 -0.83066767 -0.055800784 0
1.544585 -0.96907341 0.065098301 0
1.3923022 -0.8735311 0.17664115 0
1.4070296 -0.88277113 0.29956442 0
1.4054717 -0.88179368 0.42331246 0
0.68597752 -0.43038267 0.48025694 0
1.3322968 -0.81268668 -0.055715457 0
1.5931021 -0.971775 0.066622093 0
1.3964717 -0.85183263 0.17579533 0
1.3945421 -0.85065556 0.2946018 0
1.4032965 -0.85599566 0.41937754 0
0.69588447 -0.42448199 0.48341233 0
1.3426926 -0.79600632 -0.05572661 0
1.6248744 -0.96329582 0.06743817 0
1.3979788 -0.82878232 0.17465745 0
1.3862475 -0.82182753 0.29064035 0
1.4014511 -0.83084089 0.41566649 0
0.69698656 -0.41320381 0.48052534 0
1.3626345 -0.78481138 -0.056139659 0
1.4167038 -0.8159526 0.17569926 0
1.3988338 -0.80566031 0.29112905 0
1.4008182 -0.80680329 0.41243282 0
0.6990689 -0.40262973 0.47842762 0
1.3656962 -0.76383787 -0.055865098 0
1.4075005 -0.78721917 0.17331477 0
1.3955388 -0.7805289 0.2883749 0
1.3977833 -0.78178424 0.40860847 0
0.71376467 -0.39921066 0.4850063 0
1.3748778 -0.74640357 -0.05585178 0
1.4023452 -0.76131523 0.17148587 0
1.3920506 -0.75572652 0.28566501 0
1.4041196 -0.76227856 0.40762243 0
1.3896359 -0.73191351 -0.056072459 0
1.4054443 -0.74023968 0.17071147 0
1.3940506 -0.73423874 0.28415558 0
1.3914511 -0.73286957 0.40123385 0
1.395506 -0.71270597 -0.055942759 0
1.4080117 -0.71909279 0.16991 0
1.4097425 -0.71997672 0.28548351 0
1.409232 -0.71971601 0.40371576 0
1.401693 -0.71586567 0.52363217 0
1.399231 -0.69253522 -0.055738077 0
1.4083122 -0.69702989 0.1688737 0
1.400735 -0.69327962 0.2818692 0
1.4040647 -0.69492757 0.39969686 0
1.4036821 -0.69473827 0.52106583 0
1.4084524 -0.67515588 -0.055762324 0
1.4315983 -0.6862511 0.17061625 0
1.3899691 -0.66629577 0.27799243 0
1.4034926 -0.67277837 0.39709085 0
1.3959987 -0.66918612 0.51504481 0
1.426214 -0.66171664 -0.056131184 0
1.4521028 -0.67372823 0.17203523 0
1.3950981 -0.64727992 0.2773661 0
1.4045131 -0.65164816 0.39502662 0
1.4032512 -0.65106267 0.51465505 0
1.4321294 -0.64267278 -0.056041051 0
1.4931015 -0.67003423 0.17587896 0
1.399073 -0.62783867 0.27656263 0
1.407017 -0.63140351 0.39346346 0
1.3887849 -0.62322181 0.50643098 0
1.4429967 -0.62584257 -0.056153473 0
1.5252447 -0.66151434 0.17866985 0
1.3829211 -0.59978712 0.27185526 0
1.3928523 -0.60409439 0.38734445 0
1.390726 -0.60317212 0.50432914 0
1.4545748 -0.60922062 -0.056301031 0
1.5542196 -0.65095484 0.18108946 0
1.3918521 -0.58295035 0.27214631 0
1.3984021 -0.58569372 0.38680619 0
1.3918679 -0.58295697 0.50204146 0
1.4405408 -0.58213294 -0.055469703 0
1.5890728 -0.64215583 0.18419361 0
1.4019232 -0.56652731 0.27269903 0
1.3967984 -0.56445628 0.38436607 0
1.4064244 -0.56834626 0.5046705 0
1.459621 -0.56857032 -0.055924285 0
1.6299902 -0.63493472 0.18799481 0
1.4117514 -0.54992354 0.27324215 0
1.3984275 -0.54473341 0.38289645 0
1.4032837 -0.54662508 0.5010339 0
0.83071876 -0.32359225 0.44606265 0
1.4609996 -0.54802203 -0.055708293 0
1.4118539 -0.52958745 0.27194971 0
1.3995557 -0.52497435 0.38136512 0
1.3942344 -0.52297831 0.49541232 0
0.84155905 -0.31566942 0.44971341 0
1.4768438 -0.53285164 -0.056052145 0
1.4003664 -0.50525826 0.26849023 0
1.3971846 -0.50411022 0.37895924 0
1.405045 -0.50694633 0.49694601 0
0.81030661 -0.29236212 0.43101117 0
1.484347 -0.51452994 -0.056086566 0
1.4104308 -0.48890784 0.26921815 0
1.3849843 -0.4800871 0.37398082 0
1.3872832 -0.48088399 0.48848343 0
1.4007401 -0.4855487 0.61381167 0
0.82205778 -0.28495583 0.43531865 0
1.4977015 -0.49812543 -0.056349695 0
1.4104936 -0.46912071 0.26808131 0
1.3881024 -0.4616735 0.37322339 0
1.3918034 -0.46290445 0.48798391 0
1.3890313 -0.46198246 0.60608351 0
0.84766454 -0.28192753 0.44696325 0
1.4937164 -0.4759973 -0.055969805 0
1.4085758 -0.44886586 0.26662138 0
1.3985982 -0.44568631 0.37450677 0
1.3974375 -0.44531643 0.4879545 0
1.3907895 -0.44319797 0.60436767 0
0.86168802 -0.27459106 0.45249858 0
1.500164 -0.45732647 -0.055991184 0
1.4050841 -0.42834124 0.26491851 0
1.4008889 -0.42706236 0.37365058 0
1.4022709 -0.42748365 0.48772398 0
1.3997754 -0.42672288 0.60588944 0
0.88700992 -0.27040583 0.46397105 0
1.497443 -0.43596727 -0.055680312 0
1.4203751 -0.41352963 0.26679859 0
1.3980427 -0.40702772 0.37149489 0
1.4074781 -0.40977478 0.48770174 0
1.4077271 -0.40984726 0.60704929 0
0.87666273 -0.25523257 0.45684135 0
1.5119468 -0.41961282 -0.056018703 0
1.4501249 -0.40245527 0.27141324 0
1.406251 -0.39027891 0.37234062 0
1.4044262 -0.38977247 0.48490512 0
1.4016421 -0.38899979 0.60226524 0
0.87512499 -0.24287474 0.45441025 0
1.5183969 -0.40088198 -0.056066208 0
1.4869959 -0.3925916 0.27736697 0
1.3994735 -0.36948425 0.36928496 0
1.4002731 -0.36969534 0.48182565 0
1.3984749 -0.36922058 0.59885913 0
0.87738705 -0.23164473 0.45403421 0
1.5192206 -0.38070345 -0.055915177 0
1.5139848 -0.3793914 0.28148773 0
1.3962646 -0.34989172 0.36724648 0
1.4014581 -0.35119322 0.48067364 0
1.4037888 -0.35177726 0.59919029 0
0.88215458 -0.22106026 0.45502478 0
1.5262054 -0.36209291 -0.056000002 0
1.5411489 -0.36563826 0.28565952 0
1.3942972 -0.33079761 0.36560443 0
1.3977472 -0.33161613 0.47793072 0
1.4039996 -0.33309948 0.59744251 0
0.89222145 -0.21167992 0.4588061 0
1.5267227 -0.34196919 -0.055856548 0
1.581416 -0.35421988 0.29227331 0
1.4038807 -0.3144539 0.36704996 0
1.3927685 -0.3119649 0.47484753 0
1.3982291 -0.31318802 0.59326184 0
0.89804971 -0.20115331 0.46046415 0
1.5325447 -0.32306391 -0.055916287 0
1.6001797 -0.33732152 0.29493275 0
1.4027857 -0.29571041 0.36576113 0
1.3866622 -0.29231158 0.47147337 0
1.400196 -0.2951645 0.59247237 0
0.90706176 -0.19121069 0.46381363 0
1.5425371 -0.30493695 -0.056136318 0
1.6395937 -0.32412359 0.30142108 0
1.4168221 -0.28008491 0.36847213 0
1.3969016 -0.27614695 0.47373492 0
1.3919246 -0.27516305 0.5874598 0
0.92557347 -0.1829723 0.47206381 0
1.5506657 -0.28630483 -0.056296468 0
1.4139338 -0.26105952 0.36683697 0
1.3965734 -0.25785425 0.47248504 0
1.4014755 -0.25875935 0.59006882 0
0.94861925 -0.17514689 0.48265454 0
1.5394533 -0.2642352 -0.055764187 0
1.4067489 -0.24145752 0.3641552 0
1.4032584 -0.24085842 0.47368303 0
1.3969197 -0.23977043 0.58683288 0
0.94871628 -0.16283979 0.48162243 0
1.5561444 -0.24697101 -0.056251682 0
0.98632318 -0.1565364 0.035653722 0
0.98793447 -0.15679212 0.10750145 0
0.98433071 -0.15622018 0.17974457 0
0.97220069 -0.15429506 0.2511439 0
0.98133689 -0.15574504 0.33057123 0
0.98396397 -0.15616196 0.41249526 0
0.95030844 -0.15082061 0.48142841 0
1.5548265 -0.22673005 -0.056096397 0
0.96632159 -0.14091228 0.0348638 0
0.96171927 -0.14024115 0.10444842 0
0.97232765 -0.1417881 0.17721266 0
0.97011244 -0.14146507 0.25012445 0
0.95909524 -0.13985851 0.32246014 0
0.96589786 -0.14085048 0.40414608 0
0.96802497 -0.14116067 0.48946434 0
1.5649698 -0.20812058 -0.056363333 0
0.95405972 -0.1268775 0.034361038 0
0.9873566 -0.13130556 0.10704472 0
0.9881947 -0.13141702 0.17978866 0
0.98054409 -0.13039958 0.25237069 0
0.98643279 -0.1311827 0.33106974 0
0.97970045 -0.13028739 0.4092024 0
0.97970825 -0.13028842 0.49450302 0
1.5560586 -0.18702811 -0.055953138 0
0.93121189 -0.1119256 0.033484746 0
0.99007523 -0.11900059 0.10716851 0
0.98010153 -0.11780182 0.17803223 0
0.99551439 -0.11965435 0.25581563 0
0.97750747 -0.11749003 0.32755169 0
0.9779914 -0.1175482 0.40783796 0
1.5548142 -0.16704716 -0.055828325 0
0.92477924 -0.099357054 0.033205818 0
1.4011621 -0.150539 0.35953861 0
1.4007822 -0.15049818 0.46871409 0
1.4078711 -0.15125979 0.5862639 0
1.5601934 -0.14777888 -0.055950221 0
0.90620786 -0.085834481 0.032497592 0
1.4095087 -0.13350628 0.36122033 0
1.3952681 -0.13215744 0.46627519 0
1.3925173 -0.1318969 0.57913274 0
1.5667839 -0.12852058 -0.05612408 0
0.91990292 -0.075458042 0.032952026 0
1.4080759 -0.11550204 0.36045185 0
1.408327 -0.11552263 0.47011587 0
1.3934233 -0.11430011 0.57886505 0
1.5700058 -0.10890253 -0.056185912 0
0.92681468 -0.064287961 0.033167984 0
1.4076672 -0.097642004 0.36000392 0
1.3982297 -0.096987382 0.46630061 0
1.405031 -0.097459145 0.58313113 0
1.5625632 -0.08863274 -0.055875193 0
1.3958405 -0.079175793 0.35669607 0
1.4056274 -0.079730928 0.46839574 0
1.400194 -0.079422727 0.58066255 0
1.5750208 -0.069456771 -0.056284923 0
1.4106135 -0.062206581 0.36024246 0
1.3885027 -0.061231516 0.46239573 0
1.4051522 -0.061965745 0.58234894 0
1.5631902 -0.049223702 -0.055835567 0
1.4042126 -0.044217616 0.35843718 0
1.393201 -0.043870866 0.46373957 0
1.3932648 -0.043872874 0.5771476 0
1.5627251 -0.029519191 -0.055801254 0
1.4032189 -0.026506187 0.35806993 0
1.3914918 -0.026284669 0.46302378 0
1.4068152 -0.02657412 0.58257598 0
1.5619217 -0.009833632 -0.055763725 0
1.4018883 -0.0088260844 0.35767367 0
1.4013127 -0.0088224607 0.46621779 0
1.3950027 -0.0087827342 0.57759273 0
1.5585593 0.0098124631 -0.055643678 0
1.4040494 0.0088396911 0.35822505 0
1.3993036 0.0088098114 0.46554935 0
1.4041573 0.00884037 0.58138311 0
1.5755688 0.029761802 -0.056259871 0
1.4117796 0.026667899 0.36025444 0
1.4007999 0.026460495 0.46612111 0
1.401419 0.02647219 0.58034134 0
1.5697739 0.049431019 -0.05607073 0
1.4124631 0.044477414 0.36054316 0
1.397985 0.04402151 0.46533197 0
1.396847 0.043985676 0.57863152 0
1.5551274 0.068579488 -0.055574011 0
1.3987603 0.061683871 0.35721537 0
1.4026299 0.061854511 0.46710032 0
1.40529 0.061971821 0.58240604 0
1.5697606 0.089041002 -0.056132562 0
1.3980485 0.079301029 0.35726029 0
1.3938097 0.079060592 0.46445772 0
1.4020746 0.079529397 0.58144236 0
1.5620016 0.10834733 -0.055899467 0
1.8576499 0.1288548 0.066479854 0
1.8567891 0.12879509 0.2000273 0
1.8630152 0.12922695 0.33679968 0
1.4167051 0.098268926 0.36231536 0
1.3821557 0.095872417 0.46094006 0
1.4024016 0.097276762 0.58203983 0
1.5637145 0.12826879 -0.056014128 0
1.7945572 0.14720441 0.064283192 0
1.8127151 0.14869387 0.19546552 0
1.5677475 0.12859961 0.28369084 0
1.4085702 0.11554258 0.36057836 0
1.4034402 0.11512177 0.46848461 0
1.401943 0.11499896 0.58240432 0
1.5581247 0.14758295 -0.055876035 0
1.7951062 0.17002943 0.064374447 0
1.8073446 0.17118864 0.19510341 0
1.4603895 0.13832563 0.26455817 0
1.411618 0.13370608 0.36176088 0
1.391187 0.13177089 0.46491137 0
1.3950835 0.13213997 0.58020002 0
1.5579995 0.16738938 -0.055942696 0
1.205083 0.12947251 0.043270614 0
1.1937402 0.12825386 0.12902874 0
1.1970576 0.12861027 0.2171302 0
1.1986531 0.12878169 0.30757472 0
1.3931412 0.14967723 0.46615732 0
1.4001797 0.15043344 0.58306104 0
1.559673 0.18746252 -0.056083098 0
1.1057138 0.1328996 0.039759528 0
1.1140842 0.13390566 0.1205916 0
1.1107135 0.13350053 0.20175748 0
1.1089685 0.13329078 0.28496972 0
1.3986262 0.16810577 0.46866381 0
1.392733 0.16739742 0.58079177 0
1.5568551 0.20704144 -0.05607108 0
1.092485 0.14528626 0.039346509 0
1.105881 0.14706776 0.11989459 0
1.1097 0.14757563 0.20189491 0
1.108954 0.14747642 0.28542057 0
1.3952497 0.18555003 0.4682782 0
1.3997405 0.18614724 0.58464515 0
1.5611032 0.22764534 -0.056322854 0
1.1097909 0.16183345 0.040040009 0
1.1130737 0.16231216 0.12088641 0
1.106759 0.16139132 0.20171358 0
1.1081551 0.16159491 0.28571606 0
1.3950771 0.20343485 0.46904287 0
1.3970325 0.20371999 0.58453923 0
1.547332 0.24557243 -0.055933136 0
1.1076515 0.17579204 0.04003951 0
1.1162767 0.17716093 0.12146692 0
1.1078641 0.17582579 0.20230249 0
1.1008934 0.17471948 0.28438845 0
1.3975354 0.22179867 0.47077107 0
1.3950357 0.22140194 0.58482391 0
1.5436649 0.26495808 -0.055916745 0
1.1099631 0.19051655 0.040206604 0
1.1038857 0.18947339 0.12036867 0
1.104643 0.18960339 0.20213424 0
1.1116287 0.19080243 0.28775948 0
1.4044477 0.24106254 0.47408444 0
1.3986195 0.24006218 0.587547 0
1.539391 0.28422317 -0.055887148 0
1.1024144 0.20354262 0.040022835 0
1.1013484 0.20334582 0.12036168 0
1.1104486 0.20502602 0.20365287 0
1.1135485 0.20559835 0.28890374 0
1.3936534 0.2573151 0.47149712 0
1.3940936 0.2573964 0.58696073 0
1.5378084 0.30400214 -0.055964228 0
1.1117923 0.21978502 0.040460568 0
1.1067073 0.2187798 0.12123879 0
1.1089547 0.21922405 0.20386899 0
1.1083977 0.21911396 0.2882604 0
1.3957647 0.27592221 0.47334936 0
1.3962899 0.27602604 0.58930218 0
1.5346479 0.32350728 -0.055993021 0
1.1139491 0.23482299 0.040643442 0
1.1120074 0.23441368 0.12213308 0
1.1098118 0.23395084 0.20455192 0
1.1023338 0.23237447 0.28742155 0
1.4041144 0.2959905 0.47740713 0
1.3899088 0.29299593 0.58811951 0
1.5323302 0.34322518 -0.056061704 0
1.1065792 0.24786164 0.040485214 0
1.0984675 0.2460447 0.12097668 0
1.1155846 0.24987875 0.20617954 0
1.1086659 0.24832906 0.28986496 0
1.4071709 0.31519088 0.47975785 0
1.4020554 0.31404507 0.59488535 0
1.5311835 0.36327395 -0.056182656 0
1.109149 0.26314607 0.040697236 0
1.1133876 0.26415169 0.12297644 0
1.112301 0.26389387 0.20617045 0
1.1056029 0.26230475 0.28990468 0
1.3985466 0.3318058 0.47820407 0
1.3936625 0.33064702 0.5930438 0
1.5087749 0.37808585 -0.055530719 0
1.1058517 0.27711681 0.040701061 0
1.1031051 0.27642852 0.12221549 0
1.1086699 0.27782303 0.20612952 0
1.1126034 0.27880871 0.29263771 0
1.4023386 0.35141385 0.48097563 0
1.3956053 0.34972653 0.59569728 0
1.5211997 0.40162197 -0.0561697 0
1.1036743 0.29138833 0.040752739 0
1.0991106 0.29018345 0.12216809 0
1.1176499 0.29507813 0.20847344 0
1.1167017 0.29482779 0.29466876 0
1.3990287 0.36936679 0.48139745 0
1.393164 0.36781842 0.59658492 0
1.5045019 0.41754666 -0.055742867 0
1.104234 0.3064597 0.040912654 0
1.1088088 0.30772933 0.12366696 0
1.1113794 0.30844277 0.20801181 0
1.1208037 0.31105831 0.29676124 0
1.3943281 0.38696992 0.48141855 0
1.3962877 0.38751379 0.59996456 0
1.5057466 0.43838477 -0.055989072 0
1.0960742 0.3191123 0.04075598 0
1.1081356 0.32262385 0.12403515 0
1.1111927 0.32351393 0.20872277 0
1.1103022 0.32325464 0.29503506 0
1.3873243 0.40390721 0.48071831 0
1.3989737 0.40729883 0.60327464 0
1.4951676 0.45580328 -0.0558047 0
1.4119767 0.43044245 0.37660795 0
1.3964926 0.42572212 0.48571423 0
1.4014561 0.42723528 0.60661697 0
1.4930594 0.47578794 -0.055945192 0
1.4116604 0.44984883 0.37800449 0
1.4004595 0.44627947 0.48900974 0
1.4071349 0.4484067 0.61147058 0
1.4859662 0.49422237 -0.05590817 0
1.4022722 0.46638632 0.37703329 0
1.3911017 0.46267104 0.48773786 0
1.3957006 0.46420062 0.60899359 0
1.4872409 0.51553303 -0.056195915 0
1.4024644 0.48614636 0.37870088 0
1.3900586 0.48184606 0.48946071 0
1.395009 0.48356208 0.61130029 0
1.4728215 0.53140038 -0.055899482 0
1.4120407 0.5094704 0.38298869 0
1.3919959 0.50223815 0.4923307 0
1.3816844 0.49851772 0.60816395 0
1.4620004 0.54839742 -0.055746451 0
1.4011722 0.5255807 0.3818056 0
1.383013 0.5187692 0.49142507 0
1.3986243 0.524625 0.61847901 0
1.4691476 0.57228118 -0.056289289 0
1.39145 0.54201549 0.38098601 0
1.3829011 0.53868538 0.49375641 0
1.3889556 0.54104382 0.61716723 0
1.4601771 0.5900681 -0.056225818 0
1.3965844 0.56436986 0.38430718 0
1.3926415 0.56277651 0.49972481 0
1.386077 0.56012374 0.61897308 0
1.4518189 0.60806632 -0.056194361 0
1.389397 0.58192211 0.38431534 0
1.382316 0.57895637 0.49859613 0
1.3829925 0.57923973 0.62080365 0
1.4381552 0.6237427 -0.055965066 0
1.3950188 0.60503405 0.38794699 0
1.3816526 0.59923697 0.50103885 0
1.3901837 0.60293698 0.62738997 0
1.4272788 0.64049608 -0.055851243 0
1.3901474 0.6238333 0.38874602 0
1.3717875 0.61559421 0.50023282 0
1.3795556 0.61908013 0.62606204 0
1.4182994 0.65804452 -0.055819694 0
1.3889592 0.64443165 0.390652 0
1.3731331 0.63708884 0.50360894 0
1.3796557 0.64011514 0.6297155 0
1.4119644 0.67683941 -0.055901367 0
1.375795 0.65950125 0.38925436 0
1.3784192 0.66075915 0.50855893 0
1.3726163 0.65797752 0.63023424 0
1.3968234 0.69134361 -0.055642173 0
1.3821408 0.68407655 0.39345574 0
1.3662652 0.67621911 0.50717616 0
1.3719455 0.67903054 0.63380194 0
1.4038256 0.71695489 -0.056276273 0
1.3578924 0.69349611 0.38900802 0
1.3563505 0.69270867 0.5066936 0
1.366273 0.6977762 0.63519019 0
1.3909452 0.73260313 -0.056125291 0
1.5957443 0.84046966 0.46014309 0
1.3568716 0.71465671 0.51020956 0
1.3561304 0.71426636 0.63460594 0
1.3891253 0.75413841 -0.05643056 0
1.3577679 0.73711491 0.39416635 0
1.3532504 0.73466235 0.51228589 0
1.3561071 0.73621327 0.63888264 0
1.3763283 0.76978445 -0.056300014 0
1.3397268 0.74931312 0.39163703 0
1.3414634 0.75028443 0.51135981 0
1.3527714 0.75660896 0.64174873 0
1.3545287 0.78014272 -0.055805702 0
1.3413846 0.7725724 0.39493421 0
1.3410882 0.77240175 0.51488358 0
1.3361162 0.7695381 0.63839394 0
1.3491046 0.79980767 -0.055992734 0
1.3328867 0.7901929 0.39533049 0
1.3335283 0.79057324 0.51576221 0
1.3383981 0.79346031 0.644207 0
1.3329686 0.81309646 -0.055743549 0
1.3267455 0.80930036 0.39650017 0
1.3305216 0.81160378 0.51851094 0
1.329394 0.81091595 0.64473695 0
1.3293633 0.8340432 -0.056027539 0
1.3265946 0.83230615 0.39955553 0
1.3188329 0.82743645 0.51797515 0
1.3218257 0.82931417 0.6460799 0
1.3077667 0.84362608 -0.055560645 0
1.3188242 0.85075915 0.40041003 0
1.3223822 0.8530544 0.52354652 0
1.3209757 0.8521471 0.65085757 0
1.3123755 0.8701936 -0.056217533 0
1.3015442 0.86301166 0.39843145 0
1.3088064 0.86782706 0.52245677 0
1.3109177 0.86922699 0.65124321 0
1.2943565 0.881908 -0.055916931 0
1.2997504 0.88558322 0.40126425 0
1.3024194 0.8874017 0.52432626 0
1.294283 0.88185805 0.64844459 0
1.28845 0.90184569 -0.056147918 0
1.2931292 0.90512085 0.40270689 0
1.2846141 0.89916074 0.52167499 0
1.2852156 0.89958173 0.64952546 0
1.2743068 0.91606659 -0.056029826 0
1.2835351 0.92270058 0.40330544 0
1.2844667 0.9233703 0.52629519 0
1.2771097 0.91808158 0.65121984 0
1.2703308 0.93769282 -0.056369707 0
1.2649915 0.9337517 0.40114152 0
1.2675883 0.93566835 0.52416545 0
1.2666769 0.93499571 0.65185189 0
1.2493104 0.94670779 -0.055961493 0
1.2604939 0.95518243 0.4034974 0
1.2620132 0.95633376 0.52679807 0
1.2614179 0.95588261 0.6552878 0
1.2354733 0.96094918 -0.055879276 0
1.2494282 0.97180325 0.40384039 0
1.2488425 0.97134769 0.52636421 0
1.2489172 0.9714058 0.65509641 0
1.2240726 0.97706503 -0.055915672 0
1.2401236 0.98987716 0.40482977 0
1.2371482 0.9875021 0.52663457 0
1.2384338 0.98852825 0.65607476 0
1.218935 0.99834782 -0.056250788 0
1.2229792 1.0016602 0.40331855 0
1.236521 1.0127515 0.53175414 0
1.2325631 1.0095098 0.65964669 0
1.2082807 1.0153079 -0.056344647 0
1.2140435 1.0201503 0.40457603 0
1.2208546 1.0258737 0.53053015 0
1.2157365 1.0215729 0.65747374 0
1.1834409 1.0201315 -0.055780917 0
1.2760673 1.0999758 0.060146816 0
1.2827407 1.1057284 0.18200296 0
1.2788435 1.102369 0.30449879 0
1.207342 1.0407343 0.40667775 0
1.208064 1.0413566 0.53062814 0
1.2058135 1.0394168 0.65913343 0
1.1824932 1.0455538 -0.056352343 0
1.2352531 1.0922037 0.058866646 0
1.2379086 1.0945518 0.17758343 0
1.2404217 1.0967737 0.2986151 0
1.1930432 1.054882 0.40630352 0
1.1997218 1.0607872 0.53278887 0
1.2021915 1.0629709 0.66441762 0
1.1588445 1.0509372 -0.055851579 0
1.2205057 1.1068568 0.058823399 0
1.2080379 1.0955499 0.17526345 0
1.2108488 1.0980991 0.29480127 0
1.1868806 1.0763627 0.40878823 0
1.1816767 1.0716435 0.5307259 0
1.1876097 1.0770239 0.66380137 0
1.1535527 1.0729163 -0.056243218 0
1.1953676 1.1118082 0.058281973 0
1.1825064 1.0998461 0.17355487 0
1.1879282 1.1048888 0.29258499 0
1.1617125 1.0805057 0.40477386 0
1.1726521 1.0906806 0.53279877 0
1.1777123 1.0953871 0.66592622 0
1.1328299 1.0805624 -0.055891834 0
1.171491 1.1174399 0.057799309 0
1.1808923 1.1264074 0.17538582 0
1.1851835 1.1305006 0.29539177 0
1.1547793 1.1014991 0.40715867 0
1.1523364 1.0991689 0.52981496 0
1.1589215 1.1054502 0.66311949 0
1.1238885 1.0993909 -0.056129262 0
1.1723607 1.1468065 0.058550056 0
1.1683021 1.1428363 0.17563932 0
1.1725357 1.1469777 0.29581571 0
1.1416965 1.1168107 0.40747201 0
1.1478052 1.1227863 0.53418976 0
1.1385456 1.1137285 0.65943295 0
1.107584 1.1110746 -0.056009274 0
1.1670134 1.1706913 0.059014551 0
1.1572775 1.1609247 0.17616567 0
1.1568609 1.1605068 0.29552451 0
1.1396695 1.1432612 0.41185394 0
1.1306049 1.134168 0.53278917 0
1.1334971 1.1370693 0.66474915 0
1.0907059 1.1220512 -0.055865824 0
1.1640608 1.1975144 0.059623059 0
1.1595343 1.1928577 0.17878155 0
1.1592253 1.1925399 0.29994079 0
1.1140431 1.1460592 0.40777597 0
1.1178298 1.1499548 0.53355056 0
1.1080317 1.1398752 0.65818042 0
1.0842283 1.143858 -0.05626734 0
1.1722958 1.236769 0.060837712 0
1.1712016 1.2356145 0.18296491 0
1.1749618 1.2395817 0.30802679 0
1.1071343 1.1680238 0.41059819 0
1.105945 1.1667691 0.53484815 0
1.107052 1.1679369 0.66628158 0
1.0544275 1.1408517 -0.055461928 0
1.1007061 1.1909235 0.41374299 0
1.0925525 1.1821016 0.53552759 0
1.0915016 1.1809645 0.66581988 0
1.0540469 1.1696483 -0.056212153 0
1.0804199 1.1989138 0.41175982 0
1.0724043 1.190019 0.53295445 0
1.0741364 1.1919411 0.66433001 0
1.0339596 1.1768219 -0.055926755 0
1.0643606 1.2114234 0.41142046 0
1.0603449 1.2068529 0.53447145 0
1.0678492 1.2153939 0.66985387 0
1.0225385 1.1938087 -0.056117661 0
1.0461519 1.221377 0.41029444 0
1.0431012 1.2178154 0.53346705 0
1.0432205 1.2179546 0.6639725 0
1.003468 1.2018485 -0.055897184 0
1.0336765 1.238029 0.41148317 0
1.0279529 1.2311739 0.53360623 0
1.0280737 1.2313186 0.66414785 0
0.99501103 1.222689 -0.056279268 0
1.0101893 1.2413404 0.4083235 0
1.0103365 1.2415214 0.53253472 0
1.0131454 1.2449731 0.66457886 0
0.97317833 1.2271028 -0.055913933 0
0.99242324 1.2513691 0.40747935 0
0.9921419 1.2510144 0.53120565 0
0.99596149 1.2558305 0.66362739 0
0.95342231 1.2337875 -0.055667065 0
0.98481792 1.2744154 0.41091314 0
0.98547953 1.2752715 0.53619397 0
0.98384058 1.2731506 0.66618049 0
0.9449966 1.2552379 -0.05609354 0
0.96926874 1.2874786 0.41115716 0
0.9704206 1.2890085 0.53678936 0
0.96969116 1.2880397 0.66752911 0
0.92697299 1.2641137 -0.055964116 0
0.94798076 1.2927619 0.40899986 0
0.94884723 1.2939435 0.53382653 0
0.94911319 1.2943063 0.66453022 0
0.91387516 1.2797354 -0.056141805 0
0.94095075 1.3176504 0.41309261 0
0.93384999 1.307707 0.53461099 0
0.93319726 1.306793 0.66485524 0
0.90246308 1.2980069 -0.056440357 0
0.91879618 1.3214988 0.41063935 0
0.9231208 1.3277187 0.53799736 0
0.92098826 1.3246515 0.66798782 0
0.87834007 1.2978774 -0.055949364 0
0.89871854 1.3279896 0.4091073 0
0.90291071 1.3341842 0.53596765 0
0.89409274 1.3211542 0.66049445 0
0.86049896 1.3066629 -0.055856563 0
0.88268352 1.3403502 0.40945858 0
0.87866807 1.3342527 0.53150827 0
0.88376391 1.3419907 0.66529506 0
0.84752572 1.3229315 -0.056091346 0
0.86576027 1.3513944 0.4094696 0
0.86234444 1.3460624 0.53184491 0
0.86233741 1.3460515 0.66187251 0
0.83097529 1.3337773 -0.056103099 0
0.84433001 1.3552127 0.40737277 0
0.84632331 1.358412 0.53247142 0
0.84859264 1.3620545 0.66443443 0
0.81126559 1.3394293 -0.055906698 0
0.82463515 1.3615029 0.40610999 0
0.82647663 1.3645432 0.53075325 0
0.82899231 1.3686967 0.66252983 0
0.79902571 1.357505 -0.056236748 0
0.8058095 1.3690302 0.40529653 0
0.81272745 1.3807837 0.5330472 0
0.81088567 1.3776546 0.66187084 0
0.78063315 1.3652953 -0.056147806 0
0.79339373 1.3876131 0.40780789 0
0.7963506 1.3927845 0.53376663 0
0.79279745 1.3865702 0.66130561 0
0.75994545 1.3688289 -0.05589515 0
0.77165675 1.3899235 0.40559906 0
0.77587336 1.3975185 0.53179449 0
0.77692986 1.3994216 0.66271633 0
0.7467382 1.3858763 -0.056202848 0
0.76038742 1.4112079 0.40898362 0
0.75697976 1.4048837 0.53092784 0
0.76036251 1.4111618 0.66368926 0
0.72455305 1.3862225 -0.055842455 0
0.73657936 1.4092313 0.40569055 0
0.7334643 1.4032716 0.52678645 0
0.73864186 1.4131773 0.66021037 0
0.70882958 1.3987643 -0.055983685 0
0.72333699 1.4273925 0.40826428 0
0.72234941 1.4254435 0.53165299 0
0.71696323 1.4148147 0.6567055 0
0.69305998 1.4114453 -0.05613748 0
0.69844598 1.4224141 0.40429276 0
0.69412237 1.4136088 0.5239374 0
0.69622415 1.4178892 0.65401143 0
0.67420131 1.4178896 -0.056051686 0
0.68091363 1.4320061 0.40454999 0
0.68245685 1.4352516 0.528732 0
0.68045646 1.4310446 0.65607512 0
0.66047436 1.4353491 -0.05640864 0
0.65996724 1.4342469 0.40280336 0
0.66174257 1.4381051 0.52667177 0
0.66236466 1.4394571 0.65605605 0
0.63514084 1.427352 -0.055775627 0
0.63805902 1.43391 0.40042052 0
0.64449924 1.4483831 0.52742183 0
0.64195836 1.4426731 0.65378571 0
0.62307441 1.4490881 -0.056313936 0
0.6223672 1.4474431 0.4019793 0
0.62486869 1.4532609 0.52629107 0
0.62089384 1.4440167 0.65079987 0
0.60028481 1.4459921 -0.05589544 0
0.60565192 1.4589205 0.40301681 0
0.60543746 1.4584038 0.52535099 0
0.59920686 1.4433954 0.64706796 0
0.58807158 1.4685215 -0.056475598 0
0.58269852 1.455104 0.39990389 0
0.58525765 1.4614946 0.52376813 0
0.58537394 1.4617851 0.65195584 0
0.5681572 1.4722407 -0.056339022 0
0.56242484 1.4573866 0.39855325 0
0.56420249 1.461993 0.52135926 0
0.56486326 1.4637053 0.64958841 0
0.54704762 1.4724752 -0.056079943 0
0.54273587 1.4608694 0.39760521 0
0.54439783 1.4653429 0.52006799 0
0.54618508 1.4701536 0.64934641 0
0.52616781 1.4728191 -0.055836275 0
0.52866799 1.4798174 0.40091863 0
0.52481163 1.4690229 0.51898748 0
0.52441585 1.4679152 0.64538985 0
0.51010782 1.4866903 -0.056114182 0
0.50709981 1.4779235 0.39864394 0
0.50781024 1.4799941 0.52056313 0
0.50041312 1.4584354 0.63840085 0
