# .PCD v0.7 - Point Cloud Data file format
VERSION 0.7
FIELDS x y z intensity
SIZE 4 4 4 4
TYPE F F F F
COUNT 1 1 1 1
WIDTH 1346
HEIGHT 1
VIEWPOINT 0 0 0 1 0 0 0
POINTS 1346
DATA ascii
-1.1734426 -0.20902923 0.49349552 0
-1.1776104 -0.20977166 0.59848106 0
-1.5438107 -0.29510608 -0.05611397 0
-1.0440087 -0.19956677 0.037947316 0
-1.0366266 -0.19815563 0.11342265 0
-1.0315471 -0.19718468 0.18940659 0
-1.3024668 -0.24897213 0.33831763 0
-1.1917046 -0.22779946 0.40365174 0
-1.1902649 -0.22752428 0.50173539 0
-1.2016667 -0.22970377 0.61212832 0
-1.5324525 -0.31298524 -0.055839948 0
-1.0241224 -0.20916483 0.037317265 0
-1.0232191 -0.20898037 0.1122347 0
-1.0192926 -0.20817842 0.18762295 0
-1.3085922 -0.26726443 0.34075591 0
-1.2129239 -0.24772529 0.41186303 0
-1.2140377 -0.24795279 0.51303184 0
-1.2056723 -0.24624425 0.61569947 0
-1.5307544 -0.33276981 -0.05592633 0
-1.0126615 -0.22014187 0.036997728 0
-1.0100092 -0.21956532 0.11108019 0
-1.0038953 -0.21823621 0.18527989 0
-1.3052732 -0.28375259 0.34079504 0
-1.2235179 -0.26597983 0.41656461 0
-1.2305682 -0.2675125 0.5213995 0
-1.2384452 -0.26922488 0.63411653 0
-1.5155182 -0.34949806 -0.055526059 0
-1.011199 -0.23319553 0.037048642 0
-1.0162635 -0.2343635 0.11208372 0
-1.0068991 -0.23220395 0.18635915 0
-1.2890714 -0.29727653 0.3375155 0
-1.2610505 -0.29081452 0.43055582 0
-1.2463511 -0.28742465 0.52957839 0
-1.2624391 -0.29113477 0.64822775 0
-1.5258472 -0.37217462 -0.056071755 0
-0.99158627 -0.24186121 0.036438763 0
-1.0024385 -0.24450822 0.11088974 0
-0.99565244 -0.242853 0.18482894 0
-1.3032738 -0.31788597 0.342255 0
-1.281956 -0.31268626 0.43900302 0
-1.2767969 -0.31142792 0.54413801 0
-1.2682023 -0.30933157 0.6531353 0
-1.5152196 -0.3898598 -0.055857185 0
-0.98191905 -0.25264373 0.036197551 0
-0.98886609 -0.25443119 0.10973407 0
-0.97779274 -0.25158206 0.18208718 0
-1.3229821 -0.34039786 0.34852865 0
-1.3001418 -0.33452117 0.44663784 0
-1.3015628 -0.33488679 0.55644566 0
-1.3018785 -0.334968 0.67259777 0
-1.5093333 -0.40867516 -0.055825472 0
-0.97439563 -0.2638326 0.036039818 0
-0.97296518 -0.26344526 0.10832909 0
-0.97246295 -0.2633093 0.18169771 0
-1.3306564 -0.36029568 0.35171774 0
-1.3215071 -0.35781834 0.45548916 0
-1.3267869 -0.35924795 0.56911838 0
-1.5039996 -0.42762771 -0.055822942 0
-0.96658826 -0.27482712 0.035876203 0
-0.95354837 -0.27111953 0.1065389 0
-0.96845162 -0.27535695 0.18158166 0
-1.3595896 -0.38656801 0.36062336 0
-1.3493046 -0.38364372 0.46669835 0
-1.3569537 -0.38581857 0.5840959 0
-1.5077521 -0.44928914 -0.056167752 0
-0.9543547 -0.28438443 0.035552237 0
-0.946473 -0.2820358 0.10613677 0
-0.94153243 -0.28056356 0.17718278 0
-1.3812314 -0.41158774 0.36770931 0
-1.3812444 -0.41159162 0.47950035 0
-1.3822269 -0.41188437 0.5971598 0
-1.502084 -0.46827179 -0.056171812 0
-0.94309515 -0.29400811 0.035267912 0
-0.94322115 -0.29404739 0.10617891 0
-0.94800061 -0.29553735 0.17908612 0
-1.4042468 -0.43777123 0.37527418 0
-1.4068532 -0.43858379 0.49026883 0
-1.3988525 -0.43608958 0.60666686 0
-1.4946969 -0.48670095 -0.056120295 0
-0.92578882 -0.30145398 0.03475992 0
-0.92268807 -0.30044433 0.1042851 0
-0.93312001 -0.30384117 0.17698377 0
-1.4229209 -0.46332943 0.38179365 0
-1.4418161 -0.46948203 0.50447309 0
-1.4281079 -0.46501836 0.62184477 0
-1.4871371 -0.50503647 -0.056070786 0
-0.92857814 -0.31534812 0.035010967 0
-0.92050463 -0.3126063 0.10447495 0
-0.91348207 -0.31022143 0.1739862 0
-1.4665183 -0.49803427 0.39514291 0
-1.4629287 -0.49681523 0.51400828 0
-1.4628092 -0.49677467 0.63962805 0
-1.4874498 -0.52612287 -0.056327902 0
-0.91593349 -0.323973 0.03468528 0
-0.92519671 -0.32724947 0.10546682 0
-0.9165985 -0.3242082 0.17534344 0
-1.4979613 -0.52984089 0.40538058 0
-1.4955542 -0.52898949 0.52777004 0
-1.4764929 -0.54325926 -0.056167576 0
-0.90390015 -0.33258009 0.034385458 0
-0.90289968 -0.332212 0.10339377 0
-0.90224665 -0.33197173 0.17338389 0
-1.5305127 -0.56313527 0.41607568 0
-1.536667 -0.56539971 0.54474771 0
-1.4596981 -0.55804616 -0.055791579 0
-0.89270467 -0.34128317 0.034120344 0
-0.89074117 -0.34053254 0.10248438 0
-0.89973199 -0.34396976 0.17371923 0
-1.5707089 -0.60048586 0.42902479 0
-1.5552658 -0.5945819 0.5539512 0
-1.4462277 -0.57387024 -0.055548515 0
-0.88746113 -0.35214892 0.034086715 0
-0.87852377 -0.34860253 0.1015757 0
-0.88573462 -0.35146382 0.17185751 0
-1.5992184 -0.63457769 0.43895969 0
-1.6078898 -0.63801855 0.57551062 0
-1.4538636 -0.59819657 -0.05612668 0
-0.87183666 -0.3587198 0.03365742 0
-0.87090123 -0.3583349 0.10120806 0
-0.87586373 -0.36037675 0.17080922 0
-1.6438483 -0.67636633 0.45351169 0
-1.4435196 -0.61530554 -0.056022022 0
-0.86181128 -0.36735022 0.033446312 0
-0.8670314 -0.36957532 0.10129113 0
-0.86838895 -0.37015396 0.170247 0
-1.6725777 -0.71294242 0.46387768 0
-1.4293666 -0.63065666 -0.055776529 0
-0.86104155 -0.37990364 0.033599433 0
-0.86565137 -0.38193756 0.10168371 0
-0.85552835 -0.37747115 0.16864417 0
-1.7283336 -0.76256514 0.48196611 0
-1.4222696 -0.64904088 -0.055814087 0
-0.85406375 -0.38974488 0.033516001 0
-0.8424468 -0.38444358 0.099518746 0
-0.84984922 -0.38782158 0.16847399 0
-1.4263871 -0.67274708 -0.05630365 0
-0.84104151 -0.39667228 0.033198357 0
-0.83488441 -0.39376828 0.099203266 0
-0.83290559 -0.39283502 0.16608255 0
-1.4161212 -0.6898343 -0.056236852 0
-0.82305604 -0.40093479 0.032685112 0
-0.82736647 -0.40303454 0.098905168 0
-0.829952 -0.40429398 0.16649553 0
-1.4011669 -0.70451492 -0.055990849 0
-0.81856763 -0.41158059 0.03271009 0
-0.82103008 -0.4128187 0.098761283 0
-0.8232289 -0.41392431 0.16617927 0
-1.4004565 -0.72639161 -0.056323502 0
-0.81417382 -0.42229733 0.032744408 0
-0.81764013 -0.42409527 0.098988049 0
-0.81617266 -0.42333409 0.16581781 0
-1.3825037 -0.73931736 -0.055971455 0
-0.80222821 -0.42900518 0.032478668 0
-0.7993983 -0.42749184 0.097423568 0
-0.80080861 -0.42824602 0.16377896 0
-1.3702456 -0.75510132 -0.055855703 0
-0.80396354 -0.44304025 0.032772191 0
-0.78793287 -0.43420619 0.09668494 0
-0.79874748 -0.44016582 0.16447796 0
-1.3610386 -0.7725268 -0.055872504 0
-0.78911287 -0.44790122 0.097514078 0
-0.78225642 -0.44400948 0.16222057 0
-1.3594033 -0.79439425 -0.056211557 0
-0.78652847 -0.45962355 0.032523088 0
-0.78094131 -0.45635855 0.097206704 0
-0.78048694 -0.45609304 0.1630317 0
-1.3483104 -0.81085688 -0.05617062 0
-0.77530241 -0.4662571 0.097227916 0
-0.77345687 -0.4651472 0.1627738 0
-1.3360066 -0.82654005 -0.056087196 0
-0.76665354 -0.47430143 0.096884601 0
-0.76793462 -0.47509399 0.16285776 0
-1.3288707 -0.84544492 -0.056230091 0
-0.75709724 -0.48167521 0.1618329 0
-1.3139839 -0.85940474 -0.056053642 0
-0.75042897 -0.49081439 0.16171581 0
-1.3024786 -0.87549126 -0.056028683 0
-0.73703563 -0.49541563 0.16016123 0
-1.2853402 -0.88766992 -0.055767849 0
-0.73418206 -0.50703412 0.16091579 0
-1.2740009 -0.90374058 -0.0557652 0
-1.267881 -0.92361504 -0.056001965 0
-1.2506944 -0.93542475 -0.055758692 0
-1.2529855 -0.96197605 -0.056396406 0
-1.2324363 -0.97110695 -0.056017451 0
-1.2192596 -0.98585922 -0.055978354 0
-1.2043922 -0.99917716 -0.055868991 0
-1.1987913 -1.0202844 -0.056200687 0
-1.1768262 -1.02742 -0.055773046 0
-1.1701562 -1.0478513 -0.05607783 0
-1.1535096 -1.0594158 -0.05591495 0
-1.1450531 -1.0785414 -0.056158915 0
-1.1291671 -1.0907338 -0.056048959 0
-1.1176631 -1.1071622 -0.056165509 0
-1.0982047 -1.1156318 -0.055889204 0
-1.077619 -1.1226499 -0.055556595 0
-1.0729145 -1.1462967 -0.056053773 0
-1.056294 -1.1574117 -0.055942435 0
-1.0425311 -1.1716249 -0.055990461 0
-1.9555985 -2.1977549 0.1050279 0
-1.0230808 -1.1793382 -0.055739 0
-0.61371213 -0.70744574 0.033435971 0
-1.0138198 -1.1988306 -0.05605245 0
-0.60000896 -0.70950395 0.033173524 0
-0.99549955 -1.2076852 -0.05587592 0
-0.58049977 -0.70423031 0.032582592 0
-0.9818455 -1.2221544 -0.055968896 0
-0.58374524 -0.72661817 0.033275679 0
-0.96405077 -1.2314458 -0.055834036 0
-0.58038706 -0.74136674 0.033613741 0
-0.61330515 -0.7834152 0.10692426 0
-0.60896558 -0.77787197 0.17816442 0
-0.60850573 -0.77728456 0.25185168 0
-0.61218512 -0.78198451 0.3304024 0
-0.61278558 -0.7827515 0.41158715 0
-0.94998336 -1.2454722 -0.05592319 0
-0.5830853 -0.7644518 0.034324799 0
-0.59344697 -0.77803642 0.10516188 0
-0.59854639 -0.78472203 0.17799295 0
-0.59701687 -0.78271675 0.251156 0
-0.59030831 -0.77392149 0.32382926 0
-0.59341139 -0.7779898 0.4051221 0
-0.59342599 -0.778009 0.48958036 0
-0.93506396 -1.2584625 -0.055973347 0
-0.58512104 -0.78748935 0.035025604 0
-0.57510149 -0.77400452 0.10362987 0
-0.58718324 -0.79026479 0.177559 0
-0.58939016 -0.793235 0.25212961 0
-0.58480555 -0.78706479 0.32622162 0
-0.5773263 -0.77699876 0.40078866 0
-0.57475489 -0.77353799 0.48217437 0
-0.92150456 -1.273398 -0.05611708 0
-0.58182085 -0.80399984 0.035431281 0
-0.58669072 -0.81072932 0.10754923 0
-0.58709705 -0.8112908 0.18060783 0
-0.58086658 -0.80268109 0.25278714 0
-0.57779807 -0.79844093 0.32789513 0
-0.5813899 -0.80340427 0.41060024 0
-0.56440878 -0.77993858 0.48169574 0
-0.89814997 -1.274614 -0.055667851 0
-2.0152237 -2.859915 0.12490473 0
-0.55059808 -0.78138405 0.4782685 0
-0.89047873 -1.2981385 -0.056201085 0
-1.9907733 -2.9021463 0.12564436 0
-0.54302561 -0.79162186 0.48031148 0
-0.87368971 -1.3086886 -0.056177087 0
-1.9605156 -2.9366312 0.12605855 0
-0.52052164 -0.7796827 0.46905336 0
-0.85656321 -1.318694 -0.056139119 0
-1.9218363 -2.9587004 0.12595709 0
-0.50377202 -0.7755658 0.4627237 0
-0.83294564 -1.318381 -0.055674866 0
-1.8919204 -2.9945195 0.12645772 0
-0.49711013 -0.78682268 0.46566823 0
-0.81873477 -1.3327608 -0.055842318 0
-1.8637447 -3.033859 0.12711787 0
-1.2160985 -1.9796014 0.24968331 0
-1.213781 -1.9758288 0.41820538 0
-0.47908244 -0.77986467 0.45794356 0
-0.80833972 -1.3537678 -0.056291554 0
-1.8272421 -3.0601757 0.12724636 0
-1.1808071 -1.9775579 0.24753053 0
-1.1819172 -1.979417 0.41578177 0
-0.46318111 -0.77571303 0.45204496 0
-0.78721744 -1.3569218 -0.056006074 0
-1.794593 -3.093329 0.12767516 0
-0.45777333 -0.78906107 0.45642814 0
-0.7675181 -1.3621976 -0.055820499 0
-0.4463858 -0.79224932 0.45498487 0
-0.75551033 -1.3812693 -0.05620772 0
-0.43380785 -0.79311353 0.45230821 0
-0.73634148 -1.3874372 -0.056076951 0
-0.40665653 -0.76623476 0.43402463 0
-0.72243142 -1.4036279 -0.05635919 0
-0.4002232 -0.77760243 0.43757436 0
-0.69972581 -1.4026401 -0.055961307 0
-0.40640792 -0.81466776 0.45551598 0
-0.68175244 -1.4108077 -0.055940229 0
-0.66679442 -1.4253933 -0.056181181 0
-0.64539558 -1.4261659 -0.055886887 0
-0.62886924 -1.437567 -0.0560189 0
-0.61034995 -1.4444987 -0.055985078 0
-0.59182781 -1.4513685 -0.055958062 0
-0.57282186 -1.4569639 -0.055891264 0
-0.33612692 -0.85493386 0.38034859 0
-0.55693036 -1.4706596 -0.056143172 0
-0.32142824 -0.84878027 0.37578046 0
-0.54153198 -1.4862367 -0.056473035 0
-0.28401738 -0.77948684 0.49200308 0
-0.51800013 -1.4792999 -0.055957172 0
-0.30320767 -0.8658976 0.37985706 0
-0.27148601 -0.77530724 0.48716855 0
-0.50074691 -1.4899123 -0.056115635 0
-0.80262357 -2.3881099 0.4543668 0
-0.28471109 -0.84712356 0.37001908 0
-0.26389143 -0.78517723 0.49124345 0
-0.48066193 -1.4921086 -0.05596596 0
-0.76952499 -2.3888199 0.45262238 0
-0.27944618 -0.86747885 0.37734321 0
-0.25182602 -0.7817381 0.48706922 0
-0.46402985 -1.5051572 -0.056231767 0
-0.74442881 -2.4146774 0.45570949 0
-0.26479837 -0.85891712 0.37213904 0
-0.24273703 -0.78735751 0.48862725 0
-0.44311932 -1.5043555 -0.055988919 0
-0.71623749 -2.4315705 0.45715928 0
-0.25539789 -0.86705595 0.37424228 0
-0.23068982 -0.78317398 0.48418987 0
-0.42301348 -1.5057967 -0.055839878 0
-0.6908111 -2.4590733 0.46065804 0
-0.24618354 -0.87633699 0.37688026 0
-0.22051555 -0.78496695 0.48354331 0
-0.40335518 -1.5085167 -0.055747971 0
-0.665308 -2.4881997 0.46450809 0
-0.24952807 -0.93321532 0.39995852 0
-0.20707481 -0.77444351 0.47541687 0
-0.38662529 -1.5225179 -0.056081034 0
-0.63885307 -2.5157828 0.46811852 0
-0.24171719 -0.95187449 0.40661877 0
-0.20156497 -0.79375637 0.48567605 0
-0.36787942 -1.529157 -0.0561505 0
-0.6139977 -2.5521922 0.47341713 0
-0.19123781 -0.79491442 0.48487273 0
-0.3465313 -1.5245827 -0.055817872 0
-0.58891475 -2.5909615 0.47919506 0
-0.18063396 -0.79470867 0.48332152 0
-0.32697129 -1.5272548 -0.05576054 0
-0.55635816 -2.5987012 0.47929281 0
-0.16904555 -0.78959727 0.47888032 0
-0.31179559 -1.5515547 -0.05649991 0
-0.52728945 -2.6238935 0.48267627 0
-0.20763735 -1.0332433 0.43635243 0
-0.1583001 -0.78773159 0.47650212 0
-0.28814387 -1.5335838 -0.055708952 0
-0.5010522 -2.6667426 0.48935911 0
-0.19511274 -1.0384456 0.43747717 0
-0.14876297 -0.79175889 0.47776723 0
-0.27208444 -1.5558062 -0.056387279 0
-0.46998543 -2.6874237 0.49202922 0
-0.18095988 -1.0347468 0.43492445 0
-0.13644156 -0.78018647 0.46971017 0
-0.25100639 -1.5500494 -0.056059636 0
-0.17097889 -1.0558525 0.4428556 0
-0.1269426 -0.78391355 0.47095433 0
-0.23107386 -1.5504324 -0.055963818 0
-0.15877381 -1.065322 0.44595346 0
-0.11505874 -0.7720077 0.46289447 0
-0.21108979 -1.5499594 -0.055846371 0
-0.37871575 -2.7807789 0.10019386 0
-0.37797287 -2.7753243 0.3010155 0
-0.14514709 -1.0657649 0.44533846 0
-0.10838984 -0.79586917 0.47634563 0
-0.19266102 -1.5614405 -0.056168176 0
-0.1335842 -1.0826465 0.45165387 0
-0.095926732 -0.77744782 0.46456024 0
-0.17212686 -1.5559822 -0.055889435 0
-0.086172439 -0.77897656 0.4647885 0
-0.15195763 -1.5522661 -0.055682812 0
-0.076725423 -0.78375977 0.46702898 0
-0.13356666 -1.5677421 -0.056173179 0
-0.066174321 -0.77672279 0.4623026 0
-0.11440515 -1.5774187 -0.0564638 0
-0.057321995 -0.79035586 0.46995008 0
-0.094030097 -1.5703111 -0.056162547 0
-0.046355672 -0.77414387 0.45992678 0
-0.07408262 -1.5678171 -0.056035545 0
-0.1238455 -2.6209533 0.093675815 0
-0.036875997 -0.78041005 0.46333694 0
-0.05444451 -1.5717572 -0.056147415 0
-0.047910552 -1.3831285 0.049409088 0
-0.027134107 -0.7833339 0.46483314 0
-0.034645118 -1.5721027 -0.056139719 0
-0.030004282 -1.361514 0.048619606 0
-0.017088197 -0.77541661 0.45997086 0
-0.014814342 -1.568882 -0.056013606 0
-0.012757979 -1.3511071 0.048238419 0
-0.018831369 -1.9942967 0.21433523 0
-0.0073380298 -0.77711874 0.46088919 0
0.0049199597 -1.5622773 -0.055775594 0
0.0042313514 -1.3436176 0.047969118 0
0.0057167714 -1.8152959 0.19508955 0
0.0057357154 -1.8213112 0.32847273 0
0.0057359845 -1.8213968 0.46469894 0
0.0024505903 -0.77815711 0.46148673 0
0.024676513 -1.5675534 -0.055970613 0
0.021408482 -1.3599547 0.048558153 0
0.030680962 -1.9489806 0.20948154 0
0.016277827 -1.0340345 0.34405985 0
0.012279091 -0.78001827 0.46264553 0
0.044746835 -1.5789351 -0.056392655 0
0.038749803 -1.367324 0.048834831 0
0.054347981 -1.9177208 0.20617886 0
0.029043807 -1.0248387 0.34109473 0
0.022413459 -0.79088044 0.46921834 0
0.063551851 -1.5520626 -0.05545707 0
0.077834778 -1.9008803 0.067920744 0
0.077414945 -1.8906271 0.20335464 0
0.041968837 -1.0249625 0.34128481 0
0.032015391 -0.78187954 0.4640806 0
0.084245652 -1.5727293 -0.056228962 0
0.10068921 -1.8797038 0.067204058 0
0.10035382 -1.8734426 0.20162621 0
0.054595064 -1.019201 0.33956838 0
0.042580411 -0.79490703 0.47209382 0
0.10374213 -1.5670214 -0.056067146 0
0.1225903 -1.8517222 0.066253588 0
0.12269937 -1.8533697 0.19961637 0
0.12186505 -1.8407674 0.33270672 0
0.068771385 -1.0387894 0.34635571 0
0.051506262 -0.7780003 0.46240148 0
0.12278783 -1.5570091 -0.055759817 0
0.14430404 -1.829845 0.06553065 0
0.1450568 -1.8393903 0.19829172 0
0.14450724 -1.8324217 0.33150089 0
0.082700819 -1.0486864 0.34997508 0
0.086265467 -1.0938878 0.45431507 0
0.061416142 -0.77878642 0.46329162 0
0.14339919 -1.5664431 -0.056157883 0
0.16527301 -1.8053851 0.064724088 0
0.16571642 -1.8102288 0.1953575 0
0.16571385 -1.8102007 0.32783243 0
0.17615077 -1.92421 0.49298036 0
0.098364912 -1.0745043 0.3589761 0
0.098683156 -1.0779806 0.44818899 0
0.072624952 -0.79332983 0.47244993 0
0.16114321 -1.5456367 -0.055480309 0
0.18584821 -1.7825994 0.063986041 0
0.18574671 -1.781626 0.19250788 0
0.18741801 -1.7976565 0.32596222 0
0.20344417 -1.9513745 0.50055653 0
0.11576374 -1.1103705 0.37141606 0
0.10911228 -1.0465717 0.43566692 0
0.081704162 -0.78368145 0.4672797 0
0.18382037 -1.5710785 -0.056472145 0
0.20902306 -1.7864811 0.064214759 0
0.20688456 -1.7682039 0.19132392 0
0.20709427 -1.7699962 0.32139406 0
0.23227495 -1.9852108 0.50994587 0
0.12215595 -1.0440441 0.34971687 0
0.11949514 -1.0213027 0.42574057 0
0.091248035 -0.77987999 0.46566123 0
0.20230792 -1.5587797 -0.056117188 0
0.22976749 -1.7703552 0.063734062 0
0.22635688 -1.7440766 0.18900672 0
0.22809479 -1.7574672 0.31961522 0
0.13055167 -1.0058987 0.41997126 0
0.10147714 -0.7818799 0.46758127 0
0.22033121 -1.5449765 -0.055715729 0
0.24781764 -1.7377131 0.062666297 0
0.24666835 -1.7296542 0.18776548 0
0.24761243 -1.7362741 0.31630301 0
0.1467585 -1.0290799 0.43038705 0
0.10987005 -0.77041578 0.46151623 0
0.24083443 -1.5489459 -0.055963803 0
0.26769543 -1.7217045 0.062205616 0
0.26510331 -1.7050331 0.18544038 0
0.26548681 -1.7074997 0.31164539 0
0.16077417 -1.034032 0.43327045 0
0.12179361 -0.78332537 0.47013116 0
0.25885209 -1.5370834 -0.055648562 0
0.28762126 -1.707917 0.061833423 0
0.28432032 -1.6883156 0.18399698 0
0.28488162 -1.6916487 0.30938256 0
0.12964155 -0.76982141 0.46296951 0
0.2791959 -1.539274 -0.055850722 0
0.30859467 -1.7013564 0.061731696 0
0.30267763 -1.6687344 0.18226388 0
0.30317202 -1.6714599 0.30636415 0
0.30375108 -1.6746526 0.43422884 0
0.14184678 -0.78203529 0.47135177 0
0.29814747 -1.5335398 -0.055774469 0
0.33632189 -1.7298924 0.062915765 0
0.32094142 -1.6507819 0.18073015 0
0.3223989 -1.6582786 0.3046681 0
0.3229382 -1.6610525 0.43172261 0
0.15470308 -0.79572487 0.48073882 0
0.31795105 -1.532161 -0.055865504 0
0.36140776 -1.7415726 0.063501053 0
0.33987018 -1.637786 0.17976163 0
0.33800191 -1.6287831 0.30000719 0
0.34102625 -1.6433569 0.42820555 0
0.16552851 -0.79765832 0.48312789 0
0.33674499 -1.5258945 -0.055787206 0
0.3893691 -1.7643504 0.064505234 0
0.35535479 -1.6102211 0.17721324 0
0.35831866 -1.6236513 0.29986927 0
0.35663685 -1.6160306 0.42222187 0
0.17428367 -0.78973252 0.47961861 0
0.35454798 -1.5156206 -0.055570409 0
0.41848019 -1.7889179 0.065590888 0
0.37304211 -1.5946792 0.1760058 0
0.3751519 -1.6036983 0.2970331 0
0.37418669 -1.5995722 0.41911963 0
0.18448265 -0.7886259 0.48031926 0
0.3787505 -1.5318539 -0.056336008 0
0.4493607 -1.8174363 0.066838689 0
0.38976225 -1.5763909 0.17451514 0
0.39033702 -1.5787156 0.29329297 0
0.39277095 -1.5885594 0.41749686 0
0.19580671 -0.79193896 0.48380047 0
0.39633 -1.5205245 -0.056098439 0
0.4809235 -1.8450683 0.068072207 0
0.40803418 -1.5654275 0.17385648 0
0.40878549 -1.56831 0.29229298 0
0.40688184 -1.5610067 0.41156951 0
0.20193353 -0.77472019 0.47479719 0
0.41819972 -1.5254663 -0.056470577 0
0.42959866 -1.5670462 0.17462318 0
0.42286822 -1.5424955 0.28845137 0
0.42339018 -1.5443995 0.40856418 0
0.2126319 -0.77561694 0.47694993 0
0.43322736 -1.505668 -0.055935185 0
0.44371229 -1.5421081 0.17245317 0
0.43947217 -1.5273718 0.28663531 0
0.44100294 -1.5326918 0.4069038 0
0.22521438 -0.78272545 0.48302677 0
0.45050615 -1.4946361 -0.05573168 0
0.46255189 -1.5346 0.17225125 0
0.46100813 -1.5294783 0.28809723 0
0.45776072 -1.5187044 0.4046886 0
0.47115031 -1.494748 -0.055952638 0
0.47709101 -1.5135952 0.17055437 0
0.47285506 -1.5001564 0.28367314 0
0.47215328 -1.49793 0.40070537 0
0.47432429 -1.5048176 0.52492559 0
0.48763156 -1.4817021 -0.05568973 0
0.49473435 -1.5032845 0.17008103 0
0.48566532 -1.4757276 0.28018796 0
0.48755619 -1.4814731 0.39791381 0
0.48955679 -1.487552 0.52101195 0
0.50765783 -1.4795498 -0.055844672 0
0.50959533 -1.4851967 0.16874722 0
0.50820142 -1.4811342 0.2824071 0
0.50533003 -1.4727656 0.39725268 0
0.50454646 -1.470482 0.5172174 0
0.5258075 -1.4718105 -0.055798039 0
0.53736204 -1.5041534 0.17165627 0
0.52159864 -1.4600294 0.27961323 0
0.52259916 -1.4628301 0.39631632 0
0.52143747 -1.4595782 0.51565081 0
0.54332429 -1.4624532 -0.055698257 0
0.56452012 -1.5195056 0.17420572 0
0.53277212 -1.4340502 0.27590084 0
0.53816706 -1.4485716 0.39425808 0
0.53546059 -1.4412867 0.51153022 0
0.56387186 -1.4611362 -0.055914085 0
0.59103549 -1.5315243 0.17642288 0
0.55132073 -1.4286131 0.27616856 0
0.55128354 -1.4285167 0.39065817 0
0.54679006 -1.416873 0.50526905 0
0.58067173 -1.4500427 -0.055764955 0
0.62622797 -1.563805 0.18103546 0
0.56347579 -1.4071013 0.27336001 0
0.56566697 -1.4125731 0.38821518 0
0.5638513 -1.408039 0.50461078 0
0.59999871 -1.4453028 -0.055868797 0
0.65245551 -1.571663 0.18288177 0
0.58148581 -1.4007081 0.27351883 0
0.57917303 -1.3951371 0.38539705 0
0.57840306 -1.3932823 0.50189269 0
0.62001806 -1.4419798 -0.056037698 0
0.6837399 -1.590178 0.18602332 0
0.59476143 -1.3832402 0.27154878 0
0.59606749 -1.3862778 0.38499266 0
0.59429556 -1.3821568 0.50054109 0
0.35145324 -0.81737697 0.44516909 0
0.63544816 -1.4280428 -0.055802617 0
0.71880841 -1.6153781 0.19001509 0
0.61120659 -1.3735646 0.27113873 0
0.60887825 -1.3683321 0.38210782 0
0.60753483 -1.3653131 0.49717227 0
0.36442232 -0.81896633 0.4484984 0
0.65122962 -1.4152583 -0.05561908 0
0.62523258 -1.3587612 0.26974931 0
0.62286317 -1.3536121 0.38015735 0
0.62416214 -1.3564349 0.49676198 0
0.37401658 -0.81281632 0.44767413 0
0.67490953 -1.419379 -0.056110565 0
0.6384899 -1.3427862 0.26815274 0
0.63614607 -1.3378569 0.37795231 0
0.63614851 -1.337862 0.49285468 0
0.37373462 -0.78598845 0.43545565 0
0.68873692 -1.4026412 -0.055787317 0
0.65348989 -1.3308592 0.26739302 0
0.65107358 -1.3259381 0.37687144 0
0.65293163 -1.3297222 0.49284583 0
0.64655399 -1.3167338 0.60735279 0
0.38184533 -0.77764374 0.43346202 0
0.71047717 -1.4020156 -0.056113813 0
0.6702432 -1.3226202 0.26741216 0
0.66421264 -1.3107197 0.37489343 0
0.66094869 -1.3042789 0.48646176 0
0.6676262 -1.3174559 0.61151505 0
0.40680471 -0.80276543 0.4502846 0
0.72397959 -1.3851253 -0.055798255 0
0.68537092 -1.3112589 0.26683888 0
0.67806244 -1.2972761 0.37346083 0
0.6749652 -1.2913505 0.48477137 0
0.67990065 -1.3007931 0.60770655 0
0.42212924 -0.80762208 0.45595422 0
0.74210751 -1.3772823 -0.055854321 0
0.70014942 -1.2994119 0.26620105 0
0.68999511 -1.2805665 0.37112227 0
0.69544929 -1.290689 0.48777184 0
0.69388217 -1.2877805 0.60566127 0
0.4290629 -0.79630065 0.45257691 0
0.75907648 -1.3672637 -0.055831235 0
0.73071378 -1.3161763 0.27149892 0
0.70474428 -1.2693995 0.37042844 0
0.70572561 -1.271167 0.48371425 0
0.70400757 -1.2680725 0.60051405 0
0.45346427 -0.81678885 0.46742967 0
0.77545297 -1.3562355 -0.055775221 0
0.75176597 -1.3148078 0.2731477 0
0.71569902 -1.2517283 0.36787248 0
0.71646148 -1.2530618 0.48021966 0
0.72472465 -1.2675136 0.60452324 0
0.45393097 -0.79390663 0.45756954 0
0.79255795 -1.3465166 -0.05578154 0
0.78742093 -1.3377891 0.27995971 0
0.73007399 -1.2403595 0.36720401 0
0.72840166 -1.2375183 0.47774008 0
0.72199655 -1.2266363 0.58931667 0
0.45938504 -0.78047234 0.45312476 0
0.80806345 -1.3341423 -0.055686027 0
0.81111562 -1.3391817 0.28236616 0
0.74610895 -1.2318532 0.36743802 0
0.74268395 -1.2261984 0.4769426 0
0.74435449 -1.2289566 0.59488738 0
0.47360039 -0.78193158 0.45739809 0
0.83002299 -1.3322488 -0.056038804 0
0.84829354 -1.3615744 0.28931701 0
0.75366271 -1.2096848 0.36362758 0
0.75380278 -1.2099097 0.47426137 0
0.75849336 -1.2174385 0.5938881 0
0.48813605 -0.78349477 0.46187145 0
0.84844893 -1.3243725 -0.056152444 0
0.87579209 -1.3670534 0.29280135 0
0.77549702 -1.2104994 0.36677876 0
0.76919162 -1.2006571 0.47439358 0
0.7732451 -1.2069843 0.5934912 0
0.49433434 -0.77162313 0.45850623 0
0.86265731 -1.3099405 -0.055996671 0
0.90687752 -1.3770885 0.29737306 0
0.79180998 -1.2023591 0.36730421 0
0.78989655 -1.1994536 0.47781017 0
0.78341573 -1.1896125 0.58975321 0
0.51176959 -0.77711934 0.46556449 0
0.87966239 -1.2998314 -0.056033596 0
0.94827199 -1.4012121 0.30513674 0
0.79842871 -1.1797966 0.36345419 0
0.7982232 -1.1794928 0.47382516 0
0.79929054 -1.18107 0.59046108 0
0.53920269 -0.79675174 0.48135558 0
0.899988 -1.2944471 -0.056285564 0
0.81767631 -1.1760587 0.36544564 0
0.81611115 -1.1738074 0.47563183 0
0.81471735 -1.1718028 0.59091014 0
0.54740536 -0.78732961 0.47978961 0
0.91084957 -1.2754986 -0.055955935 0
0.57568002 -0.80614746 0.03536557 0
0.5770694 -0.80809307 0.10671563 0
0.5777266 -0.80901337 0.17928788 0
0.56944436 -0.79741538 0.24999529 0
0.58497256 -0.81916016 0.33488545 0
0.57999212 -0.81218582 0.41321465 0
0.55896574 -0.78274179 0.48124492 0
0.92205954 -1.2574131 -0.055667479 0
0.57506019 -0.78420997 0.034718096 0
0.5753994 -0.7846725 0.1045713 0
0.58245099 -0.79428875 0.17763603 0
0.57486624 -0.78394544 0.24802212 0
0.57828486 -0.78860742 0.32534617 0
0.57852107 -0.78892952 0.40505677 0
0.5760529 -0.78556371 0.48740101 0
0.93925214 -1.2476076 -0.055752557 0
0.58828962 -0.7814244 0.034919966 0
0.59370971 -0.78862393 0.10608581 0
0.58918947 -0.78261971 0.17667158 0
0.58508664 -0.77716988 0.24818975 0
0.59214944 -0.78655142 0.32754821 0
0.58869064 -0.78195709 0.40525079 0
0.59446597 -0.78962851 0.49452826 0
0.95574778 -1.2367967 -0.055802841 0
0.58265537 -0.75399214 0.034019254 0
0.60621375 -0.78447813 0.10654654 0
0.60472202 -0.78254771 0.17836018 0
0.60821158 -0.78706336 0.25377494 0
0.6057266 -0.78384769 0.3295725 0
0.60702485 -0.78552771 0.41103008 0
0.97605884 -1.2307349 -0.056079436 0
0.58188862 -0.73371667 0.033432394 0
0.8837285 -1.1143134 0.36285034 0
0.86876982 -1.0954517 0.46515065 0
0.87895989 -1.1083006 0.58566707 0
0.9891516 -1.2154889 -0.055947851 0
0.58277631 -0.71612698 0.032962676 0
0.89459968 -1.0993017 0.36160162 0
0.88104326 -1.0826433 0.46438596 0
0.88108194 -1.0826908 0.57795095 0
1.0102741 -1.21 -0.056276307 0
0.58541477 -0.70114827 0.032609943 0
0.91196221 -1.0922525 0.36303148 0
0.90449059 -1.0833037 0.46951744 0
0.90637398 -1.0855594 0.58552837 0
1.028259 -1.2004871 -0.056431603 0
0.60563713 -0.70707828 0.033237804 0
0.92282796 -1.077397 0.36192757 0
0.90798718 -1.0600704 0.46436647 0
0.90919042 -1.0614752 0.57866716 0
1.0402296 -1.1839582 -0.056265894 0
0.61707306 -0.70233411 0.033377409 0
0.93730575 -1.0668133 0.36230838 0
0.92597467 -1.0539167 0.4667415 0
0.92692047 -1.0549932 0.58145034 0
1.0513736 -1.1666819 -0.05606959 0
0.94323272 -1.0466808 0.35947627 0
0.93948233 -1.0425191 0.46689609 0
0.93938136 -1.042407 0.58098698 0
1.057209 -1.1438612 -0.055608232 0
0.95494556 -1.0332159 0.35895327 0
0.95074832 -1.0286747 0.46602058 0
0.94834149 -1.0260706 0.57849169 0
1.0782521 -1.1375531 -0.055957198 0
0.96351868 -1.0165097 0.35733607 0
0.95566505 -1.0082241 0.46217096 0
0.96439606 -1.0174353 0.58042383 0
1.0892018 -1.120504 -0.055788789 0
0.97524679 -1.0032741 0.35697201 0
0.97750473 -1.0055969 0.46657208 0
0.97032291 -0.99820864 0.57638013 0
1.1015253 -1.1049968 -0.055702891 0
0.99355888 -0.99669009 0.35905248 0
0.99090129 -0.9940241 0.46695489 0
0.98603404 -0.98914152 0.57826817 0
1.1178122 -1.0934469 -0.055825792 0
1.0164913 -0.99433458 0.36278623 0
1.0042524 -0.98236251 0.46738014 0
1.0013865 -0.979559 0.57999194 0
1.1376684 -1.0851777 -0.056130555 0
1.0215974 -0.97446203 0.36020064 0
1.0115542 -0.96488225 0.46508691 0
1.0162817 -0.96939164 0.58150291 0
1.1455423 -1.0654658 -0.055852663 0
1.0266423 -0.95487726 0.35771155 0
1.0283608 -0.95647562 0.4672395 0
1.0242523 -0.9526543 0.57915372 0
1.1556247 -1.0480173 -0.055696398 0
1.0476626 -0.95010823 0.36083844 0
1.0398482 -0.94302148 0.46702653 0
1.0394939 -0.94270015 0.58101374 0
1.1722221 -1.0364722 -0.055862874 0
1.0510054 -0.92929292 0.35793099 0
1.0509295 -0.92922592 0.46671119 0
1.046379 -0.92520225 0.57830435 0
1.1855438 -1.0219442 -0.055880032 0
1.3657961 -1.1773225 0.064376146 0
1.3722266 -1.1828656 0.19469976 0
1.3151606 -1.1336745 0.31314608 0
1.073889 -0.92569721 0.36172581 0
1.074819 -0.92649889 0.47210184 0
1.0683814 -0.9209497 0.58400899 0
1.1977813 -1.0064853 -0.05585504 0
1.3839421 -1.1629146 0.064536102 0
1.3920993 -1.169769 0.19541395 0
1.1464064 -0.96331543 0.27005517 0
1.087526 -0.91383868 0.36241445 0
1.0744992 -0.90289247 0.46693048 0
1.0698599 -0.89899403 0.5785833 0
1.2130536 -0.99353075 -0.055979375 0
1.021197 -0.83639389 0.047125675 0
1.0055345 -0.82356584 0.13968365 0
1.000702 -0.81960785 0.23328239 0
1.010271 -0.82744515 0.33317083 0
1.0875043 -0.89070177 0.46767089 0
1.0870923 -0.89036435 0.58179319 0
1.2374886 -0.98777384 -0.056528516 0
0.90351081 -0.72118992 0.041272402 0
0.90252745 -0.72040498 0.12410443 0
0.90392429 -0.72151995 0.20858714 0
0.89549237 -0.71478957 0.29232726 0
1.0967512 -0.87543601 0.4668698 0
1.0967562 -0.87544006 0.5810194 0
1.2401162 -0.96456039 -0.056089271 0
0.88096374 -0.68521219 0.039845146 0
0.87996042 -0.68443179 0.11980669 0
0.88385004 -0.68745714 0.20194128 0
0.88849449 -0.6910696 0.28717935 0
1.1190094 -0.87036371 0.47164196 0
1.1120211 -0.86492819 0.58329004 0
1.2594151 -0.95436502 -0.056414127 0
0.89891386 -0.6811828 0.040265866 0
0.89380085 -0.67730826 0.12052032 0
0.89081711 -0.67504722 0.20157497 0
0.89989138 -0.68192351 0.28806475 0
1.1162213 -0.84585494 0.46594059 0
1.1286395 -0.85526526 0.5863114 0
1.2620449 -0.93157661 -0.056002028 0
0.89412564 -0.65999752 0.039675962 0
0.90672171 -0.66929531 0.12111654 0
0.8977741 -0.66269064 0.20124501 0
0.90444911 -0.6676178 0.28680989 0
1.1425959 -0.84340554 0.4724794 0
1.1362348 -0.83871007 0.58472431 0
1.2759817 -0.9172706 -0.056103468 0
0.91402417 -0.65706861 0.040188607 0
0.91609502 -0.6585573 0.12125127 0
0.90928292 -0.65366024 0.20196374 0
0.91661179 -0.65892881 0.28801277 0
1.1413893 -0.82051557 0.46767089 0
1.1477362 -0.82507825 0.58525008 0
1.2837019 -0.89852226 -0.055941004 0
0.92752475 -0.64921737 0.040419556 0
0.91808367 -0.64260912 0.12043392 0
0.93028313 -0.65114814 0.20479073 0
0.91560072 -0.64087123 0.28513679 0
1.1660564 -0.81617665 0.47352934 0
1.1686362 -0.81798244 0.5906083 0
1.2975906 -0.88411158 -0.056056648 0
0.93646568 -0.63805962 0.040455848 0
0.93257707 -0.63541013 0.12127595 0
0.92571813 -0.63073677 0.20202136 0
0.93057972 -0.63404924 0.28729236 0
1.1819998 -0.80535394 0.47584787 0
1.1717572 -0.79837519 0.58705825 0
1.307536 -0.86698467 -0.056010228 0
0.94261676 -0.6250186 0.040378373 0
0.94769025 -0.62838262 0.12220264 0
0.94444567 -0.62623125 0.20437121 0
0.93627 -0.62081021 0.28661296 0
1.1846154 -0.78547996 0.47288147 0
1.1866794 -0.78684855 0.58952361 0
1.3220292 -0.85282671 -0.056166593 0
0.95066857 -0.61326599 0.040389284 0
0.95328093 -0.61495119 0.12191536 0
0.95733738 -0.61756796 0.2054618 0
0.95253044 -0.61446708 0.28919908 0
1.2017146 -0.77521306 0.47577283 0
1.2037313 -0.77651399 0.59309012 0
1.3246945 -0.83111405 -0.055830769 0
0.970267 -0.60874599 0.040893015 0
0.97001791 -0.60858977 0.12306602 0
0.95703 -0.6004411 0.20375699 0
0.96369803 -0.60462463 0.29025513 0
1.215229 -0.76243532 0.47728443 0
1.2168986 -0.76348281 0.59479374 0
1.3380067 -0.81616962 -0.05595424 0
0.97820878 -0.59669673 0.040907811 0
0.97677082 -0.59581959 0.12296114 0
0.97881657 -0.59706753 0.20677838 0
0.97735924 -0.59617853 0.29208547 0
1.2328873 -0.7520479 0.48046234 0
1.2345015 -0.75303251 0.59871542 0
1.3512499 -0.80107939 -0.056081764 0
0.97659415 -0.57896727 0.040532194 0
0.98057717 -0.58132857 0.12250909 0
0.9832173 -0.58289379 0.20614111 0
0.98835921 -0.58594209 0.29314458 0
1.24087 -0.73564148 0.47992525 0
1.2347927 -0.73203856 0.59433901 0
1.3594525 -0.78297865 -0.056008562 0
0.99492764 -0.57303005 0.040990375 0
0.99755657 -0.57454419 0.12371673 0
0.99565899 -0.57345122 0.20721924 0
0.9950673 -0.57311046 0.29297051 0
1.2554904 -0.72310156 0.48202002 0
1.2581078 -0.72460902 0.60112166 0
1.3617464 -0.76162875 -0.055703528 0
1.0105619 -0.56521028 0.041337997 0
1.0009618 -0.5598408 0.12325497 0
1.0100342 -0.56491506 0.20871402 0
0.99639529 -0.5572868 0.29127228 0
1.2682792 -0.70935225 0.4834623 0
1.2743998 -0.71277553 0.60456961 0
1.3751034 -0.74652606 -0.055860944 0
1.0110238 -0.54887187 0.041070908 0
1.0180577 -0.55269057 0.12449326 0
1.0164497 -0.55181754 0.20858732 0
1.0223153 -0.55500185 0.29678285 0
1.2801539 -0.69497919 0.48461449 0
1.2767277 -0.69311911 0.60148573 0
1.3844001 -0.7291559 -0.05586119 0
1.3015819 -0.68553597 0.37531948 0
1.2985208 -0.68392366 0.48826855 0
1.2919604 -0.68046832 0.60457736 0
1.389576 -0.7096774 -0.055705033 0
1.3167614 -0.67248988 0.37722486 0
1.3074813 -0.66775036 0.48843741 0
1.3040645 -0.66600537 0.606269 0
1.3968478 -0.69135571 -0.055643145 0
1.3284039 -0.65748006 0.37815842 0
1.3224629 -0.65453964 0.49091619 0
1.3185581 -0.65260702 0.60913843 0
1.4160606 -0.67880297 -0.056063544 0
1.3469392 -0.64566892 0.38109016 0
1.3378705 -0.64132172 0.49359876 0
1.3367839 -0.64080089 0.61378187 0
1.4277027 -0.6624074 -0.056189775 0
1.3519642 -0.62726718 0.38024697 0
1.3405101 -0.62195289 0.4916442 0
1.3516679 -0.62712967 0.61694103 0
1.4402673 -0.64632475 -0.0563595 0
1.3739024 -0.61654329 0.3842032 0
1.3553222 -0.60820532 0.4942286 0
1.3524517 -0.6069172 0.6137619 0
1.4385778 -0.62392598 -0.055981509 0
1.3878437 -0.60192209 0.38595164 0
1.3809497 -0.59893209 0.50078392 0
1.3612794 -0.59040087 0.61434543 0
1.4445286 -0.60501289 -0.055912178 0
1.3870736 -0.58094901 0.38367268 0
1.3853346 -0.58022064 0.49968493 0
1.3780694 -0.57717776 0.61859375 0
1.4544038 -0.58773506 -0.056003511 0
1.403932 -0.56733906 0.38632905 0
1.389816 -0.56163466 0.4987109 0
1.3904036 -0.56187218 0.62090522 0
1.4710788 -0.57303345 -0.056363281 0
1.41161 -0.54986846 0.3865059 0
1.4142572 -0.55089962 0.50495189 0
1.4099306 -0.54921424 0.6264872 0
1.4684088 -0.55080122 -0.055990804 0
1.4273933 -0.53541625 0.38895059 0
1.4189467 -0.53224796 0.50419337 0
1.4214158 -0.5331741 0.6285575 0
1.4737399 -0.53173167 -0.055934336 0
1.4369575 -0.51846045 0.38974687 0
1.4351157 -0.51779592 0.50758159 0
1.4307296 -0.51621342 0.62975174 0
1.4904811 -0.51665622 -0.056318346 0
1.4567934 -0.50497884 0.39337108 0
1.4479742 -0.50192177 0.50985366 0
1.4366859 -0.49800882 0.62956327 0
1.5007393 -0.49913579 -0.05646399 0
1.4602433 -0.48566711 0.39262015 0
1.4431181 -0.47997138 0.50597548 0
1.4508861 -0.48255497 0.63307303 0
1.4886183 -0.47437268 -0.055778779 0
1.4730573 -0.46941397 0.39444494 0
1.4561238 -0.46401781 0.50844651 0
1.4497806 -0.46199647 0.63000226 0
1.4990042 -0.4569729 -0.055947896 0
1.4714953 -0.44858676 0.39248297 0
1.4691948 -0.44788545 0.51100081 0
1.4706844 -0.44833955 0.63658226 0
1.5114859 -0.44005576 -0.056202482 0
1.4822832 -0.43155366 0.39387974 0
1.4690055 -0.42768791 0.5090214 0
1.4786752 -0.43050322 0.63764405 0
1.5091231 -0.41882917 -0.055914085 0
1.482031 -0.41131023 0.3924053 0
1.4886001 -0.41313338 0.51396775 0
1.4844683 -0.41198671 0.63785452 0
1.5149783 -0.39997941 -0.055939976 0
1.5027672 -0.39675549 0.39654151 0
1.4934068 -0.39428419 0.51387239 0
1.4909947 -0.39364734 0.63847828 0
1.5235713 -0.38179368 -0.056075301 0
1.507984 -0.37788767 0.39663103 0
1.5013576 -0.37622714 0.51493722 0
1.5041569 -0.37692863 0.64203125 0
1.5254519 -0.36191413 -0.055972353 0
1.5171235 -0.3599382 0.3978112 0
1.5147306 -0.35937047 0.51793075 0
1.5171155 -0.3599363 0.64557666 0
1.5330745 -0.3433919 -0.056088932 0
1.5216206 -0.34082639 0.39783353 0
1.5213715 -0.34077057 0.51869315 0
1.5268931 -0.34200737 0.64785337 0
1.530979 -0.32273385 -0.05585916 0
1.5180215 -0.32000238 0.39580759 0
1.5226808 -0.32098457 0.51772046 0
1.5305735 -0.32264838 0.64763975 0
1.5397288 -0.30438176 -0.056034114 0
1.5341516 -0.30327925 0.39898595 0
1.5444351 -0.30531216 0.52376837 0
1.536319 -0.30370772 0.6484012 0
1.5361855 -0.28363129 -0.05577077 0
1.551276 -0.28641751 0.40246961 0
1.5426733 -0.2848292 0.52191317 0
1.5335624 -0.28314698 0.6456818 0
1.5522 -0.26642308 -0.056225915 0
1.5531778 -0.26659092 0.40206024 0
1.5565276 -0.2671659 0.52542049 0
1.5489161 -0.26585943 0.65068519 0
1.5466609 -0.24546592 -0.055908877 0
1.5538942 -0.24661389 0.40140995 0
1.5540872 -0.24664453 0.52350676 0
1.555232 -0.24682623 0.65198106 0
1.553539 -0.22654231 -0.056049943 0
1.5657424 -0.22832184 0.40369594 0
1.5595547 -0.22741953 0.52434236 0
1.5698262 -0.22891735 0.65683872 0
1.5533159 -0.20657077 -0.055943612 0
1.5700558 -0.20879696 0.40409815 0
1.5773642 -0.20976889 0.52940005 0
1.5631995 -0.20788516 0.65291893 0
1.5545814 -0.18685056 -0.055900019 0
1.57125 -0.18885401 0.40376142 0
1.5768874 -0.18953158 0.52839708 0
1.5767975 -0.18952079 0.65754962 0
1.5555249 -0.16712353 -0.055853844 0
1.5770925 -0.16944072 0.40468243 0
1.5795821 -0.16970819 0.5285421 0
1.5740831 -0.16911739 0.65547764 0
1.5618966 -0.14794022 -0.056011297 0
1.5764314 -0.14931692 0.40399826 0
1.5788701 -0.1495479 0.52763188 0
1.5773162 -0.14940073 0.65598851 0
1.5656401 -0.12842675 -0.056083106 0
1.5866839 -0.13015294 0.4061735 0
1.5947901 -0.13081788 0.53235942 0
1.5902575 -0.13044608 0.66063523 0
1.5677273 -0.10874449 -0.056104373 0
1.6748629 -0.11617588 0.059938438 0
1.6693727 -0.11579506 0.17983739 0
1.6571434 -0.11494678 0.29958177 0
1.5973402 -0.11079857 0.40851185 0
1.5871116 -0.11008906 0.52929151 0
1.5894213 -0.11024927 0.65965879 0
1.5636044 -0.088691801 -0.055912424 0
1.650453 -0.093618087 0.059018016 0
1.6559353 -0.093929052 0.17824827 0
1.641634 -0.093117848 0.29654247 0
1.5937378 -0.090401053 0.40726715 0
1.5973282 -0.090604708 0.53227603 0
1.6034417 -0.090951487 0.66494966 0
1.5696017 -0.069217794 -0.056091268 0
1.6334448 -0.072033204 0.058372762 0
1.6334393 -0.072032966 0.17571518 0
1.6389248 -0.072274871 0.29586521 0
1.5917715 -0.070195459 0.40650654 0
1.6051332 -0.070784695 0.53453743 0
1.6030588 -0.070693217 0.66436905 0
1.5736448 -0.04955291 -0.056208994 0
1.6349332 -0.051482838 0.058398157 0
1.6350446 -0.051486343 0.1758042 0
1.6382014 -0.051585745 0.29559392 0
1.5984759 -0.050334826 0.40802455 0
1.589754 -0.050060175 0.52916408 0
1.600093 -0.050385743 0.66282439 0
1.572685 -0.029707329 -0.0561569 0
1.6316638 -0.030821413 0.058262896 0
1.6358835 -0.030901119 0.1758386 0
1.6335398 -0.03085685 0.29465932 0
1.6053048 -0.030323504 0.40963772 0
1.6051371 -0.030320335 0.53411502 0
1.5970498 -0.03016757 0.66135401 0
1.5675726 -0.0098692095 -0.055965472 0
1.6354485 -0.010296546 0.058388773 0
1.6423311 -0.010339878 0.17650367 0
1.6327791 -0.01027974 0.29447541 0
1.6050426 -0.010105115 0.40950587 0
1.5973762 -0.010056849 0.5314483 0
1.6006067 -0.010077187 0.66272181 0
1.5721353 0.0098979361 -0.056128372 0
1.6539356 0.010412938 0.059048802 0
1.6491597 0.01038287 0.17723756 0
1.6451942 0.010357903 0.29671448 0
1.6009283 0.010079212 0.40845615 0
1.608223 0.010125138 0.53505701 0
1.6092702 0.010131732 0.66630894 0
1.5713388 0.029681901 -0.056108829 0
1.676864 0.031675223 0.059876889 0
1.6714859 0.031573635 0.17966546 0
1.6740645 0.031622343 0.3019692 0
1.615768 0.030521147 0.41230768 0
1.6080118 0.030374639 0.53507161 0
1.6057957 0.030332778 0.66497576 0
1.5737951 0.049557641 -0.056214362 0
1.6083471 0.050645657 0.41054422 0
1.6037261 0.050500147 0.53381479 0
1.6026012 0.050464727 0.66386342 0
1.5683863 0.069164202 -0.056047834 0
1.6193252 0.071410544 0.41354322 0
1.6006793 0.070588283 0.53305423 0
1.6162801 0.071276262 0.66984844 0
1.5644433 0.088739388 -0.055942424 0
1.6098349 0.091314122 0.41138065 0
1.6099052 0.091318108 0.53646702 0
1.609162 0.091275953 0.66732186 0
1.556656 0.10797653 -0.055708162 0
1.6058549 0.11138918 0.41068944 0
1.606213 0.11141402 0.5356617 0
1.6105034 0.11171163 0.66840851 0
1.5672289 0.12855709 -0.05614002 0
1.5964617 0.130955 0.40867651 0
1.596318 0.13094321 0.53286946 0
1.6018972 0.13140085 0.66547066 0
1.5657851 0.14830852 -0.056150742 0
1.6004862 0.15159535 0.4101629 0
1.6001027 0.15155903 0.53472751 0
1.6095846 0.15245713 0.66940862 0
1.563863 0.16801937 -0.056153238 0
1.5978189 0.17166753 0.4100008 0
1.5944444 0.17130499 0.53351516 0
1.5943117 0.17129073 0.66390121 0
1.5527248 0.18662742 -0.055833258 0
1.6022435 0.19257924 0.41172579 0
1.5909367 0.19122022 0.5331049 0
1.5965894 0.19189964 0.66580319 0
1.5521994 0.20642228 -0.055903398 0
1.5882066 0.21121079 0.40876979 0
1.5855529 0.21085787 0.53214836 0
1.5965444 0.2123196 0.66684645 0
1.5474892 0.2256601 -0.055831674 0
1.5877925 0.23153727 0.40938112 0
1.5919821 0.2321482 0.53524482 0
1.5899179 0.23184718 0.66524535 0
1.5498668 0.24597472 -0.05602476 0
1.5990764 0.25378463 0.41308165 0
1.5933135 0.25287002 0.53672051 0
1.5902343 0.25238132 0.66665465 0
1.5514401 0.26629266 -0.056198392 0
1.5878791 0.2725471 0.41104308 0
1.5878431 0.27254093 0.53599125 0
1.5854549 0.27213103 0.66603482 0
1.5393192 0.28420988 -0.055884533 0
1.5846175 0.29257348 0.41111988 0
1.5840056 0.2924605 0.5358966 0
1.5828017 0.29223824 0.66641325 0
1.5423 0.30489007 -0.056127686 0
1.5637933 0.30913898 0.40669489 0
1.5625445 0.3088921 0.52990979 0
1.5756526 0.31148338 0.66500193 0
1.5391538 0.32445711 -0.056157421 0
1.5703549 0.33103439 0.40945297 0
1.5665621 0.33023486 0.53264034 0
1.570292 0.33102113 0.66444606 0
1.528792 0.34243268 -0.055932257 0
1.5630305 0.35010171 0.40866029 0
1.5642427 0.35037324 0.53330958 0
1.5623326 0.34994543 0.6628902 0
1.5325837 0.36360615 -0.056234032 0
1.5536631 0.36860725 0.40739244 0
1.5478697 0.36723277 0.52926201 0
1.5621712 0.37062582 0.66474921 0
1.5219685 0.38139203 -0.056016311 0
1.5440973 0.38693735 0.40612954 0
1.5499694 0.38840884 0.53161019 0
1.5542005 0.38946909 0.66339171 0
1.5272506 0.40321952 -0.056393128 0
1.5557004 0.41073072 0.4105092 0
1.5401653 0.4066292 0.52996171 0
1.5456742 0.40808365 0.66189331 0
1.5171438 0.42105517 -0.056211259 0
1.5427877 0.42817214 0.40849218 0
1.5350001 0.42601082 0.52998823 0
1.5366738 0.42647535 0.66028643 0
1.5038567 0.43783456 -0.055918798 0
1.5435072 0.44937846 0.41014847 0
1.5300131 0.44544977 0.53016102 0
1.525884 0.44424763 0.65800172 0
1.4933348 0.45524454 -0.055736292 0
1.5218943 0.46395096 0.4059256 0
1.5296313 0.46630958 0.53202122 0
1.5313972 0.46684793 0.66286165 0
1.4941392 0.47613204 -0.055985652 0
1.5147864 0.48271161 0.40561885 0
1.523695 0.48555049 0.53204089 0
1.5135489 0.48231724 0.65771276 0
1.4931107 0.49659854 -0.056176968 0
1.5062065 0.50095415 0.40497842 0
1.5053297 0.50066257 0.52778769 0
1.5048567 0.50050521 0.65662229 0
1.4893998 0.51628143 -0.056277491 0
1.4928892 0.51749092 0.40311787 0
1.4972683 0.51900893 0.52721089 0
1.505807 0.52196878 0.65985256 0
1.4678779 0.52961665 -0.055711851 0
1.4916332 0.53818768 0.40457657 0
1.4832931 0.53517854 0.52462131 0
1.4853915 0.5359357 0.65381181 0
1.4810326 0.55553645 -0.056472156 0
1.4765452 0.55385315 0.40234399 0
1.4755858 0.55349332 0.52431887 0
1.4779297 0.55437255 0.65354824 0
1.4600779 0.5687483 -0.05594179 0
1.4692471 0.57231998 0.40228721 0
1.4648879 0.57062197 0.52302933 0
1.4643047 0.57039475 0.65064776 0
1.4608523 0.59034097 -0.05625182 0
1.4661801 0.59249395 0.4034583 0
1.4577827 0.58910054 0.5230996 0
1.4606324 0.59025216 0.65226692 0
1.4452847 0.60532963 -0.055941451 0
1.4571524 0.61030012 0.40305686 0
1.4503779 0.60746282 0.52314579 0
1.4553539 0.6095469 0.6532855 0
1.4374585 0.62344056 -0.055937953 0
1.4403034 0.62467444 0.40054038 0
1.4401911 0.62462574 0.5222671 0
1.444728 0.62659341 0.65200585 0
1.4407593 0.64654553 -0.056378752 0
1.4271638 0.64044452 0.39909741 0
1.4372773 0.64498293 0.52411413 0
1.4258496 0.63985467 0.64707088 0
1.4270736 0.66211551 -0.056165017 0
1.423533 0.66047275 0.40037605 0
1.4123313 0.65527558 0.51798528 0
1.4148529 0.65644544 0.6457805 0
1.4059806 0.673971 -0.055664465 0
1.4064221 0.67418271 0.39791971 0
1.4071792 0.67454559 0.51916981 0
1.4101481 0.67596877 0.6474669 0
1.4106894 0.69820642 -0.056194518 0
1.4014535 0.69363523 0.39895353 0
1.3885604 0.68725389 0.51545244 0
1.3919792 0.68894601 0.64305693 0
1.3938429 0.7118566 -0.055876087 0
1.3802564 0.70491773 0.39541483 0
1.3783675 0.70395309 0.51491851 0
1.3805606 0.70507312 0.64183259 0
1.3852284 0.72959214 -0.055894613 0
1.3646336 0.71874493 0.39350083 0
1.3682652 0.72065765 0.51449376 0
1.3693651 0.721237 0.64079916 0
1.3820218 0.75028199 -0.056141991 0
1.3620635 0.73944694 0.39541337 0
1.3542293 0.73519385 0.51265651 0
1.3546913 0.73544455 0.63821554 0
1.3730642 0.76795876 -0.056166489 0
1.4126307 0.79008842 0.057784993 0
1.4147217 0.79125798 0.17420395 0
1.4019346 0.78410614 0.28969654 0
1.3476427 0.75374049 0.39395106 0
1.3400445 0.7494908 0.5108189 0
1.3418795 0.75051713 0.63658166 0
1.3543825 0.78005862 -0.055799682 0
1.3908364 0.80105424 0.057301559 0
1.3836219 0.79689902 0.17159645 0
1.3715465 0.78994423 0.28544998 0
1.3306867 0.76641095 0.39178452 0
1.3284502 0.76512283 0.5100314 0
1.3268682 0.76421171 0.63397527 0
1.3478683 0.79907465 -0.055941418 0
1.3663399 0.81002545 0.056708056 0
1.3641479 0.80872589 0.17043076 0
1.3597782 0.80613536 0.28509077 0
1.3228952 0.78426945 0.39236701 0
1.3143265 0.77918959 0.50833565 0
1.3222346 0.78387791 0.6364271 0
1.3508674 0.82401448 -0.05649206 0
1.3474976 0.82195896 0.05635114 0
1.3549902 0.82652932 0.17057343 0
1.354874 0.82645845 0.28622177 0
1.3020997 0.79426676 0.38913473 0
1.2999336 0.79294538 0.5065906 0
1.3051518 0.79612851 0.63297987 0
1.3260773 0.8319816 -0.055889051 0
1.335003 0.83758157 0.056265231 0
1.3293351 0.8340255 0.16865252 0
1.335652 0.83798879 0.28436771 0
1.2907974 0.80984688 0.3887738 0
1.2882019 0.80821854 0.50594479 0
1.2949923 0.81247884 0.63296425 0
1.3087478 0.84425896 -0.055602323 0
1.3352002 0.86132318 0.056726161 0
1.333722 0.86036956 0.17057008 0
1.3325285 0.85959965 0.28598455 0
1.2730516 0.82123178 0.38651296 0
1.2730936 0.8212589 0.50403261 0
1.2620856 0.81415772 0.62184185 0
1.3097637 0.86846173 -0.056105651 0
1.3277378 0.8803798 0.056875598 0
1.3213266 0.87612873 0.17038225 0
1.3272952 0.8800863 0.28721708 0
1.2656209 0.83919215 0.38743457 0
1.2548287 0.83203614 0.50090963 0
1.2580237 0.83415473 0.62496638 0
1.3003094 0.88596404 -0.056174099 0
1.3283659 0.90508032 0.05738616 0
1.3252754 0.90297461 0.17234397 0
1.3295115 0.9058609 0.29014203 0
1.2540523 0.85444683 0.38715613 0
1.243456 0.84722704 0.50058883 0
1.2450594 0.84831953 0.62378317 0
1.2915984 0.9040494 -0.056285117 0
1.3615564 0.95301616 0.059333734 0
1.3562695 0.94931567 0.17791501 0
1.3449519 0.94139397 0.29607511 0
1.2463325 0.87236571 0.38813344 0
1.2263652 0.85838962 0.49802041 0
1.2330484 0.86306751 0.62316108 0
1.2701283 0.91306269 -0.055846099 0
1.2204137 0.87732422 0.38347176 0
1.2129951 0.87199116 0.49701053 0
1.2214055 0.87803721 0.62281531 0
1.2683467 0.93622828 -0.05628166 0
1.2155172 0.89723223 0.38545269 0
1.2054552 0.88980496 0.49847257 0
1.1996686 0.88553369 0.6173684 0
1.2520194 0.94876057 -0.056082841 0
1.1916106 0.90298378 0.38144717 0
1.1846068 0.89767647 0.49448657 0
1.1879673 0.9002229 0.61713129 0
1.2309595 0.95743835 -0.055675123 0
1.1830202 0.92015129 0.38237602 0
1.1673633 0.90797323 0.49202222 0
1.1534592 0.89715868 0.60502565 0
1.2219602 0.97537893 -0.05581918 0
1.1552328 0.92211658 0.37711772 0
1.1633079 0.92856216 0.49520195 0
1.1476157 0.91603643 0.60796273 0
1.2119614 0.99263626 -0.055928975 0
1.1439334 0.93691909 0.37725052 0
1.1324946 0.92755026 0.48701853 0
1.1301969 0.92566842 0.60486203 0
1.2043506 1.0120054 -0.056161378 0
1.1215342 0.94241554 0.37374759 0
1.1205502 0.9415887 0.48694223 0
1.1206518 0.94167405 0.60605168 0
1.1932634 1.0285985 -0.056243896 0
1.1157434 0.9617759 0.37582394 0
1.1041044 0.95174301 0.48496509 0
1.1005044 0.94863981 0.60156834 0
1.1713395 1.0356917 -0.055820808 0
1.0851562 0.95948899 0.36956143 0
1.0788943 0.95395219 0.47913018 0
1.0839702 0.95844024 0.59907997 0
1.1545522 1.0470446 -0.05564471 0
1.0716681 0.97187835 0.36910647 0
1.0633757 0.96435815 0.47759342 0
1.0680189 0.96856898 0.59695745 0
1.1469425 1.0667682 -0.055920932 0
1.0580623 0.98410088 0.36865917 0
1.0562325 0.98239899 0.4799031 0
1.0514016 0.97790587 0.59450507 0
1.1370361 1.0845746 -0.056099363 0
1.0433815 0.99524105 0.36788139 0
1.0283432 0.98089659 0.47280604 0
1.0345953 0.98686022 0.59198171 0
1.1206689 1.0962415 -0.055968467 0
1.0316516 1.0091645 0.36819696 0
1.0159435 0.99379873 0.47282118 0
1.0202619 0.99802297 0.59092432 0
1.1119547 1.1154591 -0.056230295 0
1.0096338 1.0128156 0.36486161 0
0.99818683 1.0013326 0.47038814 0
1.0012892 1.0044448 0.58721477 0
1.0935293 1.1249559 -0.056010444 0
0.9885481 1.0169576 0.36184072 0
0.9864291 1.0147778 0.47083175 0
0.98940867 1.017843 0.58771724 0
1.0806407 1.1400731 -0.056081157 0
0.9754709 1.0291193 0.36176872 0
