# .PCD v0.7 - Point Cloud Data file format
VERSION 0.7
FIELDS x y z intensity
SIZE 4 4 4 4
TYPE F F F F
COUNT 1 1 1 1
WIDTH 1344
HEIGHT 1
VIEWPOINT 0 0 0 1 0 0 0
POINTS 1344
DATA ascii
-1.4442947 -0.31397438 -0.052767508 0
-1.4394217 -0.3319492 -0.052738007 0
-1.4378144 -0.35070223 -0.052836727 0
-1.4434838 -0.37140247 -0.053212713 0
-1.4423627 -0.39054185 -0.053348441 0
-1.4489126 -0.41196498 -0.053778313 0
-1.4488683 -0.43174261 -0.053974178 0
-1.4385959 -0.44847947 -0.053797614 0
-1.4365994 -0.46778336 -0.053938955 0
-1.4434156 -0.49018857 -0.054422323 0
-1.4397653 -0.50925648 -0.054522149 0
-1.4387008 -0.5293541 -0.054729924 0
-1.444566 -0.55226111 -0.055213209 0
-1.452304 -0.57628137 -0.055781905 0
-1.441026 -0.5929144 -0.055631079 0
-1.4408489 -0.61416715 -0.055918377 0
-1.4296372 -0.63077605 -0.05578709 0
-1.4308817 -0.65297097 -0.056152053 0
-0.82569033 -0.3767969 0.032402541 0
-0.84095705 -0.38376373 0.099342763 0
-0.93319523 -0.42585585 0.34126809 0
-1.4099038 -0.66497278 -0.055653002 0
-0.83727551 -0.39489606 0.099487394 0
-0.93714792 -0.44200027 0.34472165 0
-1.4052206 -0.6845243 -0.055803966 0
-0.84043837 -0.40940222 0.10046781 0
-0.93908846 -0.45745757 0.34752682 0
-1.4065907 -0.70724201 -0.056207582 0
-0.91454488 -0.45983848 0.34055984 0
-1.4020283 -0.72720695 -0.05638672 0
-0.92561626 -0.48010051 0.34690636 0
-1.3774322 -0.73660529 -0.055766135 0
-0.91685849 -0.49030566 0.34591064 0
-1.3660332 -0.75277996 -0.055683993 0
-0.90465474 -0.49852812 0.34364754 0
-0.68120766 -0.37539315 0.46126926 0
-1.3607622 -0.77236998 -0.05586116 0
-0.89451903 -0.50772983 0.34219885 0
-0.67621756 -0.38382176 0.46112645 0
-1.349054 -0.78834653 -0.055783615 0
-0.90098286 -0.5265072 0.34718037 0
-0.68127853 -0.39811862 0.46795911 0
-1.3439462 -0.80823231 -0.055988811 0
-0.89261425 -0.53680694 0.34653285 0
-0.67946452 -0.40862137 0.47021013 0
-1.3441626 -0.83158582 -0.056429591 0
-0.87726825 -0.5427348 0.34320119 0
-0.68756425 -0.42537168 0.47948417 0
-1.3230777 -0.84175938 -0.055984963 0
-0.86714774 -0.55169082 0.34193256 0
-0.69065106 -0.43940127 0.40956822 0
-0.685072 -0.43585181 0.48153535 0
-1.3075343 -0.85518646 -0.055778507 0
-0.87131554 -0.56987965 0.34637818 0
-0.68339145 -0.44696882 0.40856844 0
-0.68500262 -0.44802263 0.48541358 0
-1.3013551 -0.87473613 -0.055980355 0
-0.8638832 -0.58067918 0.34630293 0
-0.6955651 -0.46754023 0.34700182 0
-0.68822998 -0.46260977 0.41491094 0
-0.6878866 -0.46237895 0.49154416 0
-1.300647 -0.89824098 -0.056431979 0
-0.73923397 -0.51052302 0.096549109 0
-0.84467113 -0.5833391 0.34151891 0
-0.68639922 -0.47403479 0.34537968 0
-0.68077934 -0.47015363 0.41395554 0
-0.68240047 -0.47127318 0.49182546 0
-1.2765849 -0.90557361 -0.055878308 0
-0.7441678 -0.52789181 0.098053917 0
-0.84524918 -0.59959614 0.34477803 0
-0.69436049 -0.49255991 0.35247853 0
-0.6866712 -0.48710534 0.42123443 0
-0.68648326 -0.48697203 0.49914807 0
-1.2645305 -0.92117429 -0.055853974 0
-0.7370286 -0.53690422 0.097996287 0
-0.83946973 -0.61152965 0.34553424 0
-0.69323206 -0.5049997 0.35510564 0
-0.68246782 -0.49715826 0.42246276 0
-0.68824327 -0.50136548 0.50497818 0
-1.2474214 -0.93297678 -0.055612776 0
-0.73179728 -0.54732901 0.098209321 0
-0.82383394 -0.61616546 0.34226489 0
-0.68905228 -0.51535898 0.35626054 0
-0.68620902 -0.51323241 0.42874521 0
-0.6885376 -0.514974 0.50991166 0
-1.2484981 -0.9585309 -0.056194428 0
-0.71785015 -0.55112743 0.097261213 0
-0.83167565 -0.63851666 0.3488355 0
-0.69713068 -0.53522015 0.36389303 0
-0.68744254 -0.52778208 0.43363398 0
-0.68314028 -0.52447903 0.51076502 0
-1.2310948 -0.97004992 -0.055956475 0
-0.72319674 -0.569848 0.098950006 0
-0.80740446 -0.63620007 0.34198833 0
-0.68240386 -0.53770494 0.35971162 0
-0.67737329 -0.53374106 0.43148768 0
-0.68790466 -0.54203933 0.51938927 0
-1.2198297 -0.98632014 -0.056004524 0
-0.69601744 -0.56278026 0.096193247 0
-0.80415696 -0.65021878 0.34405354 0
-0.69655329 -0.56321353 0.37087914 0
-0.68168038 -0.55118769 0.43861777 0
-0.68673915 -0.55527806 0.52374703 0
-1.2120904 -1.0055636 -0.05622609 0
-0.79708809 -0.66127312 0.34456447 0
-0.6904676 -0.57281959 0.37144995 0
-0.68768436 -0.57051057 0.44706792 0
-0.68796194 -0.57074082 0.53011876 0
-1.1918144 -1.0143466 -0.05587361 0
-0.79025245 -0.67257941 0.34524328 0
-0.68190718 -0.58036739 0.37074685 0
-0.67858875 -0.57754308 0.44584739 0
-0.67837059 -0.57735741 0.5282883 0
-1.1863291 -1.0357165 -0.056223415 0
-0.77038801 -0.67258197 0.340238 0
-0.69120443 -0.60345131 0.37990299 0
-0.68327552 -0.59652901 0.45382601 0
-0.68969637 -0.60213464 0.54297 0
-1.1660962 -1.0442157 -0.055883262 0
-0.76097721 -0.68143976 0.33984452 0
-0.69827449 -0.62529075 0.38808572 0
-0.68255365 -0.61121303 0.45842218 0
-0.68000835 -0.60893375 0.54133666 0
-1.148607 -1.0549132 -0.055677302 0
-0.7679311 -0.70528966 0.34688878 0
-0.69788027 -0.640953 0.3923212 0
-0.68731058 -0.63124549 0.46691865 0
-0.68635517 -0.63036805 0.55266446 0
-1.1469524 -1.0803303 -0.056252062 0
-0.75142586 -0.70777839 0.34343177 0
-0.69374484 -0.65344781 0.3945908 0
-0.68949836 -0.64944798 0.473923 0
-0.68332732 -0.64363539 0.55670834 0
-1.124299 -1.0860314 -0.055807322 0
-0.7465117 -0.72110271 0.34530848 0
-0.68453878 -0.66123915 0.39405927 0
-0.691975 -0.66842228 0.48137245 0
-0.68222708 -0.65900612 0.56252801 0
-1.1105568 -1.1001228 -0.055808399 0
-0.72809154 -0.72125083 0.34096202 0
-0.67866921 -0.67229283 0.39552236 0
-0.67876011 -0.67238289 0.47803152 0
-0.68639332 -0.6799444 0.57297766 0
-1.1052083 -1.1227465 -0.056245625 0
-0.71433413 -0.72566968 0.33877185 0
-0.67865616 -0.68942553 0.40054244 0
-0.68117571 -0.69198501 0.48583099 0
-0.68265992 -0.69349283 0.5771051 0
-1.0843351 -1.1296467 -0.055902842 0
-0.83441263 -0.86928058 0.043018103 0
-0.84798741 -0.88342261 0.13160133 0
-0.84054798 -0.87567228 0.21890816 0
-0.84208322 -0.87727171 0.31024617 0
-0.71087831 -0.74058414 0.34152851 0
-0.68111461 -0.70957661 0.40723464 0
-0.68830889 -0.71707159 0.49731925 0
-0.67874193 -0.7071048 0.58127403 0
-1.0757902 -1.1493691 -0.05620401 0
-0.81845474 -0.87443316 0.042759676 0
-0.81500149 -0.87074375 0.12817362 0
-0.81112176 -0.86659867 0.21406955 0
-0.80757594 -0.86281031 0.3015117 0
-0.69828165 -0.74604082 0.33996302 0
-0.68900889 -0.73613381 0.41746369 0
-0.68248689 -0.72916573 0.49970713 0
-0.67989373 -0.72639525 0.59004706 0
-1.0598999 -1.1613629 -0.056133416 0
-0.79322952 -0.86916447 0.04201027 0
-0.79245859 -0.86831969 0.1263379 0
-0.79568756 -0.87185782 0.21287677 0
-0.80015796 -0.87675613 0.30284011 0
-0.69600868 -0.76263678 0.34350458 0
-0.68679857 -0.752545 0.42183256 0
-0.683945 -0.74941826 0.507644 0
-0.68091708 -0.74610049 0.59904122 0
-1.0435241 -1.1727408 -0.056043789 0
-0.78090751 -0.87760514 0.041939631 0
-0.78253013 -0.87942868 0.1265105 0
-0.78146929 -0.87823641 0.2120147 0
-0.76460397 -0.85928279 0.29345575 0
-0.68518627 -0.77003092 0.34292164 0
-0.67625993 -0.75999933 0.4212043 0
-0.67992526 -0.76411855 0.51176161 0
-0.67964906 -0.76380813 0.60633916 0
-1.0173708 -1.1727562 -0.055427909 0
-0.75878406 -0.87467486 0.04133971 0
-0.76703089 -0.88418126 0.12579477 0
-0.7722078 -0.89014888 0.21252622 0
-0.76373339 -0.88038009 0.29735282 0
-0.69284296 -0.79866242 0.35175908 0
-0.6892612 -0.79453361 0.43549904 0
-0.68403888 -0.78851372 0.52228975 0
-0.68176752 -0.78589541 0.61700892 0
-1.0123551 -1.1970986 -0.05597147 0
-0.75675261 -0.89485151 0.041839622 0
-0.74901861 -0.88570613 0.12465996 0
-0.75451499 -0.89220554 0.21073215 0
-0.75307053 -0.89049745 0.29754356 0
-0.68668139 -0.81199306 0.35379395 0
-0.68240935 -0.80694145 0.43755528 0
-0.67751318 -0.80115181 0.52496833 0
-0.67964238 -0.80366957 0.62419486 0
-0.9977991 -1.210475 -0.05600499 0
-0.73795992 -0.89525235 0.041420598 0
-0.73812765 -0.89545584 0.12471411 0
-0.73603338 -0.89291519 0.20869412 0
-0.7436493 -0.90215439 0.29828596 0
-0.69082749 -0.83807385 0.3613387 0
-0.68130863 -0.82652611 0.44348773 0
-0.68984747 -0.83688498 0.54264796 0
-0.68480015 -0.83076185 0.63848883 0
-0.98221326 -1.2226121 -0.055989861 0
-0.73020732 -0.90892714 0.041624572 0
-0.73799187 -0.91861701 0.12663555 0
-0.72900629 -0.9074322 0.20992489 0
-0.7365694 -0.91684639 0.30005324 0
-0.69827378 -0.86917782 0.37092882 0
-0.68064582 -0.84723544 0.44996521 0
-0.68550348 -0.85328197 0.54763943 0
-0.68739706 -0.85563898 0.6509043 0
-0.9690398 -1.2378186 -0.056122981 0
-0.72153121 -0.92165953 0.041788258 0
-0.71555799 -0.91402948 0.12475113 0
-0.71804625 -0.9172079 0.21007803 0
-0.728692 -0.9308064 0.30159503 0
-0.69553453 -0.88845223 0.37538689 0
-0.68354928 -0.87314266 0.4591167 0
-0.68229169 -0.87153631 0.55379719 0
-0.68057048 -0.86933762 0.65475392 0
-0.95216334 -1.2483301 -0.056051515 0
-0.71870291 -0.94225276 0.042308275 0
-0.72332996 -0.94831908 0.12817782 0
-0.7159965 -0.93870461 0.21291974 0
-0.7150566 -0.93747228 0.30081353 0
-0.69299263 -0.90854537 0.38015947 0
-0.68198961 -0.89411998 0.4655945 0
-0.68136525 -0.89330143 0.56213081 0
-0.68550903 -0.89873409 0.67033976 0
-0.93095016 -1.252926 -0.055727091 0
-0.71244013 -0.95884269 0.042646986 0
-0.71311152 -0.9597463 0.12849846 0
-0.71151125 -0.95759255 0.21515469 0
-0.70987606 -0.95539182 0.30367115 0
-0.69026351 -0.92899615 0.38504913 0
-0.68385595 -0.92037249 0.47474319 0
-0.68114388 -0.91672236 0.57142639 0
-0.68810457 -0.92609048 0.68422711 0
-0.92135471 -1.273191 -0.056107957 0
-0.71622366 -0.98972684 0.043616042 0
-0.72024256 -0.99528039 0.13203129 0
-0.71377552 -0.98634386 0.21957774 0
-0.72287405 -0.99891675 0.31458735 0
-0.69640809 -0.96234429 0.39520523 0
-0.68107104 -0.94115055 0.48099896 0
-0.68339968 -0.94436842 0.58324879 0
-0.6796971 -0.9392519 0.68757308 0
-0.90846151 -1.2892476 -0.056306966 0
-0.60872304 -0.86387235 0.037729006 0
-0.61060572 -0.86654413 0.11392446 0
-0.62174791 -0.88235658 0.19466999 0
-0.77578187 -1.1009548 0.3436183 0
-0.68571442 -0.97313505 0.39605927 0
-0.6820944 -0.96799767 0.49029133 0
-0.67596966 -0.95930576 0.5871706 0
-0.88850045 -1.2952546 -0.056076232 0
-0.60113239 -0.8763299 0.037939474 0
-0.59895927 -0.87316185 0.11379389 0
-0.59125155 -0.86192566 0.18850487 0
-0.75994331 -1.1078442 0.34275472 0
-0.68338585 -0.99623883 0.40192816 0
-0.68243277 -0.99484944 0.49949962 0
-0.68449861 -0.99786097 0.60544574 0
-0.87430805 -1.3096149 -0.056216843 0
-0.58025092 -0.86915046 0.03730936 0
-0.58112091 -0.8704536 0.11247837 0
-0.58189023 -0.87160593 0.1890045 0
-0.74220371 -1.1117375 0.34104064 0
-0.67803091 -1.0156139 0.40626815 0
-0.68079251 -1.0197504 0.50765759 0
-0.67858821 -1.0164486 0.61149061 0
-0.85695791 -1.3193016 -0.056164991 0
-0.56276083 -0.8663801 0.036883324 0
-0.56045407 -0.86282873 0.1105724 0
-0.56085354 -0.86344379 0.18568839 0
-0.73062938 -1.1248167 0.34220347 0
-0.68003094 -1.0469195 0.41533273 0
-0.68094128 -1.0483209 0.51757109 0
-0.68361276 -1.0524337 0.62791061 0
-0.83648199 -1.3239783 -0.055911236 0
-0.55022687 -0.87089545 0.036777675 0
-0.55175775 -0.87331855 0.1110175 0
-0.5509091 -0.87197536 0.18601653 0
-0.7121833 -1.1272391 0.34018514 0
-0.68794799 -1.0888797 0.42850846 0
-0.68142855 -1.0785607 0.52822256 0
-0.6835925 -1.0819857 0.64035571 0
-0.81826043 -1.3319887 -0.055809963 0
-0.53717166 -0.87442404 0.036638133 0
-0.5292846 -0.86158526 0.10867009 0
-0.53465384 -0.87032545 0.18421373 0
-0.69589961 -1.1328061 0.33919376 0
-0.68747097 -1.1190858 0.43695417 0
-0.68546832 -1.1158258 0.54220277 0
-0.68324453 -1.1122059 0.65309727 0
-0.80289894 -1.3446559 -0.055912666 0
-0.52159888 -0.87354821 0.036323354 0
-0.51679677 -0.86550587 0.1083352 0
-0.52141851 -0.87324619 0.18342766 0
-0.69468635 -1.1634266 0.3457157 0
-0.68152606 -1.1413864 0.44227567 0
-0.68510443 -1.1473794 0.55329943 0
-0.67703891 -1.1338716 0.660761 0
-0.78501141 -1.3531194 -0.055849131 0
-0.508228 -0.87602949 0.036157552 0
-0.50127 -0.86403602 0.10735263 0
-0.50361085 -0.8680709 0.18099418 0
-0.69417292 -1.1965417 0.35293049 0
-0.6827004 -1.1767664 0.45261803 0
-0.68105346 -1.1739277 0.56192172 0
-0.68861753 -1.1869658 0.68659401 0
-0.76749539 -1.3621573 -0.055818845 0
-0.49547586 -0.87937474 0.036035255 0
-0.49600866 -0.88032037 0.10859126 0
-0.49230763 -0.87375176 0.18087175 0
-0.69028026 -1.2251153 0.35876626 0
-0.67779821 -1.202962 0.4593744 0
-0.68202633 -1.210466 0.57525492 0
-0.74845153 -1.3683641 -0.05568257 0
-0.47775936 -0.87346834 0.035543874 0
-0.47942215 -0.87650841 0.10736783 0
-0.48056924 -0.87860554 0.18060951 0
-0.69228297 -1.2656733 0.36806139 0
-0.68294972 -1.2486098 0.47348431 0
-0.68473554 -1.2518746 0.5907892 0
-0.73766315 -1.3899275 -0.056177605 0
-0.46367341 -0.87366772 0.035311595 0
-0.46448106 -0.87518942 0.10648137 0
-0.4636578 -0.87363821 0.1783741 0
-0.68490356 -1.2905164 0.37274826 0
-0.67998278 -1.2812444 0.48257446 0
-0.68292367 -1.2867857 0.60315847 0
-0.71360302 -1.3864748 -0.055670455 0
-0.45363095 -0.88136947 0.035389204 0
-0.45257419 -0.87931633 0.10628168 0
-0.4497498 -0.87382871 0.17724262 0
-0.68421572 -1.3293778 0.38145405 0
-0.68258774 -1.3262147 0.49623558 0
-0.68378037 -1.3285319 0.61864126 0
-0.70384777 -1.410903 -0.056290969 0
-0.43583655 -0.87365913 0.034856487 0
-0.43182084 -0.86560947 0.10395949 0
-0.43524668 -0.8724767 0.17584278 0
-0.68252432 -1.3681588 0.39008492 0
-0.68508786 -1.3732976 0.51058441 0
-0.68475682 -1.3726339 0.63511223 0
-0.68216437 -1.4116601 -0.055974025 0
-0.42068627 -0.87056148 0.034518816 0
-0.42272225 -0.87477469 0.10441265 0
-0.42213768 -0.87356496 0.1749769 0
-0.68177408 -1.4108524 0.39977813 0
-0.68068767 -1.4086043 0.5204832 0
-0.66643864 -1.4246328 -0.056151208 0
-0.40744552 -0.87098825 0.034329578 0
-0.40732712 -0.87073511 0.10331009 0
-0.40958965 -0.87557173 0.17433195 0
-0.67824507 -1.4498712 0.40838203 0
-0.68527251 -1.4648936 0.53805107 0
-0.64538926 -1.4261521 -0.055886343 0
-0.3977102 -0.87884206 0.034439012 0
-0.39440346 -0.87153494 0.10280759 0
-0.40094811 -0.885997 0.17538853 0
-0.68297648 -1.5092106 0.42264014 0
-0.6847173 -1.5130574 0.55253083 0
-0.62857836 -1.4369022 -0.055992991 0
-0.38498822 -0.88006586 0.034294277 0
-0.38233674 -0.87400478 0.10252288 0
-0.37915468 -0.86673069 0.170616 0
-0.67862338 -1.5513028 0.43200034 0
-0.68170506 -1.5583473 0.56589001 0
-0.60944778 -1.4423635 -0.055902328 0
-0.37159327 -0.87943965 0.034084838 0
-0.36581513 -0.86576474 0.10100795 0
-0.36798304 -0.8708955 0.17051017 0
-0.68274564 -1.6158355 0.44754156 0
-0.59130275 -1.4500808 -0.055908415 0
-0.35510597 -0.87084377 0.033575714 0
-0.35932973 -0.88120192 0.10227299 0
-0.35591048 -0.87281674 0.1699954 0
-0.68137282 -1.6709639 0.46039769 0
-0.57413864 -1.4603132 -0.056019746 0
-0.34441882 -0.87602419 0.033605568 0
-0.34600744 -0.88006479 0.10162728 0
-0.34120479 -0.86784935 0.16817775 0
-0.67968178 -1.7287606 0.47392654 0
-0.55646664 -1.4694351 -0.056096423 0
-0.33030012 -0.87220788 0.033296973 0
-0.32530281 -0.85901171 0.098715283 0
-0.33303446 -0.87942833 0.16959549 0
-0.68173534 -1.8002263 0.491126 0
-0.53304851 -1.4629538 -0.055588346 0
-0.31962502 -0.87721217 0.033331726 0
-0.31948006 -0.87681431 0.10029085 0
-0.31366685 -0.86085999 0.16523984 0
-0.51975924 -1.4843235 -0.056147199 0
-0.30061531 -0.85849434 0.032474089 0
-0.30485356 -0.87059796 0.099132873 0
-0.30805343 -0.87973613 0.16810516 0
-0.49883017 -1.4842091 -0.055900835 0
-0.29055899 -0.86452335 0.032561164 0
-0.29622811 -0.88139105 0.099929184 0
-0.29268375 -0.87084526 0.16568886 0
-0.48075512 -1.4923979 -0.055976808 0
-0.28256345 -0.87715566 0.032900326 0
-0.28095728 -0.87216967 0.098474778 0
-0.28218088 -0.8759681 0.16597432 0
-0.46385717 -1.5045972 -0.056210842 0
-0.26837975 -0.87053394 0.032522622 0
-0.2704685 -0.87730914 0.098662704 0
-0.26897433 -0.87246257 0.1646553 0
-0.44405094 -1.5075184 -0.056106631 0
-0.25639486 -0.8704406 0.032395948 0
-0.25817686 -0.87649035 0.098197229 0
-0.25546229 -0.86727458 0.16305618 0
-0.42470062 -1.5118024 -0.05606259 0
-0.24800192 -0.88280988 0.032737482 0
-0.24589197 -0.8752991 0.097709119 0
-0.24292719 -0.86474538 0.16199271 0
-0.40634358 -1.519693 -0.056161001 0
-0.23273733 -0.87041932 0.032166772 0
-0.23344111 -0.8730514 0.097122379 0
-0.23559065 -0.88109052 0.16448587 0
-0.38729623 -1.5251601 -0.056178354 0
-0.2213475 -0.87165934 0.096649781 0
-0.2222876 -0.87536144 0.16288087 0
-0.36569315 -1.5200695 -0.055816803 0
-0.21129367 -0.87828022 0.097081199 0
-0.21117043 -0.87776798 0.16282097 0
-0.34612387 -1.5227903 -0.055752248 0
-0.19811781 -0.87162977 0.16120683 0
-0.32853854 -1.5345752 -0.056027811 0
-0.18771999 -0.8768239 0.16171747 0
-0.31022671 -1.5437475 -0.05621561 0
-0.17524938 -0.87207448 0.16042179 0
-0.28973898 -1.5420734 -0.056017347 0
-0.27044165 -1.5464125 -0.056046821 0
-0.24980474 -1.5426288 -0.055791259 0
-0.23016225 -1.5443158 -0.055743035 0
-0.21190602 -1.5559527 -0.056062311 0
-0.19104509 -1.548344 -0.055697072 0
-0.17309134 -1.564701 -0.056202605 0
-0.15355735 -1.5686074 -0.056269005 0
-0.13317029 -1.5630897 -0.05600648 0
-0.11401745 -1.572073 -0.056272455 0
-0.094019406 -1.5701325 -0.056156162 0
-0.074231014 -1.5709575 -0.056147788 0
-0.054447379 -1.57184 -0.056150377 0
-0.034432642 -1.562461 -0.05579542 0
-0.014763085 -1.5634537 -0.055819802 0
0.0049465355 -1.5707161 -0.056076873 0
0.024578415 -1.5613217 -0.055748109 0
0.044342954 -1.5646838 -0.055883657 0
0.064215325 -1.568266 -0.056036036 0
0.083653711 -1.5616786 -0.055833876 0
0.10347211 -1.5629426 -0.055921212 0
0.061403356 -0.9274956 0.033185273 0
0.12277931 -1.556901 -0.055755947 0
0.072351739 -0.91745508 0.032856021 0
0.14234608 -1.5549394 -0.055745468 0
0.083486684 -0.91197968 0.032694992 0
0.1626045 -1.5596528 -0.055983417 0
0.095694512 -0.91787267 0.032946847 0
0.18341619 -1.5676241 -0.056347977 0
0.1092561 -0.93379164 0.033564977 0
0.11527071 -0.98519737 0.10660072 0
0.11524327 -0.98496282 0.17884851 0
0.11501221 -0.98298794 0.25250247 0
0.11483052 -0.98143512 0.3287451 0
0.11513231 -0.98401445 0.41019657 0
0.20312278 -1.5650582 -0.05634322 0
0.12275265 -0.94580746 0.034049746 0
0.12921388 -0.9955911 0.10789286 0
0.127873 -0.98525965 0.17918059 0
0.12878138 -0.99225867 0.2552802 0
0.12960365 -0.9985944 0.33501294 0
0.12738758 -0.98151952 0.40979272 0
0.12803204 -0.98648512 0.49771783 0
0.2209612 -1.549394 -0.055875033 0
0.13722025 -0.96219707 0.034699243 0
0.13649914 -0.95714062 0.10390399 0
0.13573682 -0.95179528 0.1733918 0
0.13750401 -0.96418691 0.24848388 0
0.13750967 -0.9642266 0.3240383 0
0.13815166 -0.96872824 0.40514645 0
0.13771506 -0.96566671 0.48805043 0
0.24024174 -1.5451339 -0.055826075 0
0.15053511 -0.96817857 0.034980536 0
0.15088576 -0.97043377 0.10554493 0
0.15246911 -0.98061734 0.178978 0
0.14990583 -0.96413136 0.24893631 0
0.15082207 -0.97002423 0.326599 0
0.15175606 -0.97603124 0.40896755 0
0.14951146 -0.96159494 0.48690543 0
0.25976747 -1.5425191 -0.055845357 0
0.1669047 -0.9910928 0.035881523 0
0.16620314 -0.98692691 0.10755783 0
0.16692011 -0.99118435 0.18127589 0
0.16521472 -0.98105752 0.25382364 0
0.16575466 -0.98426378 0.33206975 0
0.16682315 -0.99060851 0.41592282 0
0.15941899 -0.94664204 0.48031241 0
0.27925122 -1.5395788 -0.055861786 0
0.62585992 -3.450516 0.12519786 0
0.17236833 -0.95030797 0.48323542 0
0.30048412 -1.5455586 -0.056211587 0
0.67051286 -3.4488242 0.12543289 0
0.18144234 -0.93325979 0.47569045 0
0.31996682 -1.5418745 -0.056219682 0
0.71779639 -3.4589586 0.12612021 0
0.19059336 -0.91844231 0.46932393 0
0.33749092 -1.5292745 -0.055910781 0
0.76184839 -3.4521677 0.12621239 0
0.19803593 -0.89736128 0.45978937 0
0.35727236 -1.5272669 -0.05599742 0
0.8053987 -3.4429162 0.12623493 0
0.2110156 -0.90204889 0.46351594 0
0.37786403 -1.5282686 -0.056204148 0
0.85589474 -3.4616606 0.12730727 0
0.55394745 -2.2404368 0.2480287 0
0.55251789 -2.2346551 0.41515309 0
0.21938404 -0.88729733 0.45731914 0
0.39594352 -1.5190417 -0.056043737 0
0.90004408 -3.4530292 0.12739654 0
0.2301978 -0.88315636 0.45664266 0
0.41496447 -1.5136651 -0.056033712 0
0.94980019 -3.4645841 0.12825394 0
0.24174295 -0.8818053 0.45748177 0
0.43475562 -1.5109795 -0.056132507 0
0.25441611 -0.88421518 0.46035758 0
0.44982356 -1.4923714 -0.055647235 0
0.25181973 -0.8354578 0.43658885 0
0.46999773 -1.4910914 -0.05581576 0
0.26704422 -0.84721124 0.44445294 0
0.49151659 -1.4935071 -0.056133419 0
0.26850149 -0.81586027 0.42974564 0
0.50880527 -1.4828941 -0.055970896 0
0.29576281 -0.86198968 0.45596939 0
0.52245474 -1.4624257 -0.055442251 0
0.54710448 -1.4726282 -0.056085773 0
0.56221157 -1.4568341 -0.05574945 0
0.58236492 -1.454271 -0.05592756 0
0.59836465 -1.4413666 -0.055716638 0
0.62071943 -1.4436109 -0.056101087 0
0.63450301 -1.4259186 -0.055719614 0
0.36667097 -0.82401967 0.37342647 0
0.65245581 -1.417923 -0.055723805 0
0.67240345 -1.4141086 -0.05590222 0
0.3977654 -0.83652675 0.38351315 0
0.3572827 -0.75138897 0.49342027 0
0.69224894 -1.4097935 -0.056071784 0
1.112898 -2.2664628 0.45537224 0
0.39472246 -0.80386859 0.37079006 0
0.36500701 -0.74335182 0.49112177 0
0.7082929 -1.3977052 -0.055941295 0
1.1436563 -2.2568266 0.45629343 0
0.40767366 -0.8044802 0.37341043 0
0.37290817 -0.7358759 0.48924616 0
0.72955555 -1.3957933 -0.056228004 0
1.1676867 -2.2340302 0.45462123 0
0.41868523 -0.80103296 0.37422782 0
0.37568662 -0.71876758 0.48097879 0
0.74560177 -1.3837672 -0.056117315 0
1.2012416 -2.2293923 0.45671937 0
0.42935699 -0.79684651 0.37476811 0
0.38797727 -0.72004956 0.48506743 0
0.76323068 -1.3747463 -0.056136783 0
1.2388988 -2.231529 0.46031657 0
0.4417626 -0.79571158 0.37682071 0
0.39397001 -0.70962667 0.4813498 0
0.7769829 -1.3589112 -0.055885259 0
1.2753326 -2.2305045 0.46338114 0
0.4728466 -0.82698929 0.39442116 0
0.40194428 -0.70298404 0.48023912 0
0.79874152 -1.3570222 -0.056216747 0
1.3159378 -2.235713 0.4678686 0
0.49565023 -0.84208512 0.40456557 0
0.41004437 -0.69664502 0.47939798 0
0.81446946 -1.3447189 -0.056127489 0
1.3593216 -2.2442896 0.47320801 0
0.49855357 -0.82313025 0.39844352 0
0.41988039 -0.6932379 0.48065367 0
0.82664186 -1.3268219 -0.055810526 0
1.3998626 -2.2468841 0.47743389 0
0.42363608 -0.67996752 0.47511369 0
0.85009497 -1.3269418 -0.056261383 0
1.4501812 -2.2636368 0.48483542 0
0.43522909 -0.67936379 0.47848329 0
0.85891491 -1.3042576 -0.055753741 0
1.4760379 -2.2413554 0.48400569 0
0.57713753 -0.87638021 0.43446755 0
0.44389546 -0.67405283 0.47864163 0
0.88399601 -1.3062348 -0.056309644 0
1.5107132 -2.2323022 0.4861201 0
0.58482742 -0.864169 0.43203041 0
0.45745704 -0.67596048 0.48404828 0
0.89306015 -1.2844827 -0.055852294 0
1.5557221 -2.2375853 0.49149764 0
0.59751153 -0.85939705 0.4333719 0
0.45196623 -0.65006012 0.46953955 0
0.90900844 -1.2729204 -0.055842828 0
0.61514813 -0.86141622 0.43826151 0
0.46277079 -0.64803618 0.4722493 0
0.93333173 -1.2727851 -0.056348011 0
0.62566185 -0.8532154 0.43806279 0
0.47344232 -0.64563358 0.4748053 0
0.94967389 -1.2614508 -0.056371178 0
1.6832489 -2.2358575 0.099915057 0
1.6890168 -2.2435191 0.30179852 0
0.65377343 -0.86840653 0.45005339 0
0.4724243 -0.62752068 0.46582279 0
0.95489126 -1.2356884 -0.055752832 0
0.65854156 -0.85219353 0.44591323 0
0.48220682 -0.6240055 0.46768373 0
0.97352642 -1.2275417 -0.055933934 0
0.68201584 -0.85996932 0.45443964 0
0.48534733 -0.6119855 0.46321875 0
0.98609489 -1.2117327 -0.055774961 0
0.49615356 -0.60968322 0.46616811 0
1.00978 -1.2094084 -0.056248788 0
0.49655387 -0.59472001 0.45947158 0
1.0196619 -1.1904501 -0.055959787 0
0.5068832 -0.59178358 0.4620975 0
1.0330441 -1.1757799 -0.055877239 0
0.52104187 -0.59303427 0.46816027 0
1.0507334 -1.1659715 -0.056035452 0
1.7679899 -1.9618922 0.094286621 0
0.51976538 -0.57677013 0.46045113 0
1.0684211 -1.1559924 -0.056197982 0
1.759627 -1.9038516 0.092554785 0
0.53408873 -0.57786435 0.46665671 0
1.072293 -1.1312664 -0.055647947 0
0.94067401 -0.99240857 0.048817415 0
0.5358718 -0.56534338 0.46195796 0
1.0906934 -1.1220384 -0.055865183 0
0.94806737 -0.97531354 0.0485599 0
1.3959019 -1.4360182 0.21522564 0
0.54073787 -0.55627793 0.46007776 0
1.1067737 -1.1102618 -0.0559683 0
0.95474571 -0.95775461 0.04828041 0
1.3913727 -1.3957576 0.21180062 0
0.54944628 -0.55117786 0.46154535 0
1.1220208 -1.0975639 -0.056035984 0
0.97202516 -0.95083767 0.048544895 0
1.2949613 -1.2667347 0.19468091 0
1.2973077 -1.26903 0.32729408 0
1.2950283 -1.2668003 0.46219623 0
1.1394424 -1.0868698 -0.056218084 0
0.98468149 -0.9392494 0.048582453 0
1.4025527 -1.3378404 0.20830676 0
0.74886674 -0.71431488 0.3443099 0
0.56017417 -0.5343284 0.45910564 0
1.1502441 -1.069839 -0.05608191 0
1.0149233 -0.94397748 0.049484134 0
1.4034531 -1.305348 0.20598291 0
0.75105894 -0.69855791 0.34124637 0
0.57281244 -0.53277135 0.46392855 0
1.1655555 -1.0570233 -0.056175023 0
1.3915088 -1.2619367 0.067065053 0
1.3931432 -1.2634189 0.20211874 0
0.75229323 -0.68224251 0.33787709 0
0.5874474 -0.53274649 0.47031105 0
1.1693659 -1.0339466 -0.055726755 0
1.4046302 -1.241966 0.0669384 0
1.3945761 -1.2330762 0.20005806 0
1.4050673 -1.2423525 0.33825135 0
0.76810861 -0.67915726 0.3411122 0
0.58419234 -0.51653951 0.46246094 0
1.1863046 -1.0225999 -0.055915892 0
1.4011914 -1.2078334 0.06604448 0
1.3920982 -1.199995 0.19751927 0
1.3974401 -1.2045997 0.33273718 0
0.79178154 -0.68251932 0.34778091 0
0.5920313 -0.51033372 0.46354258 0
1.1947743 -1.0039586 -0.055714816 0
1.3891977 -1.1673309 0.064781189 0
1.3997425 -1.1761916 0.19648685 0
1.402863 -1.1788137 0.33046782 0
1.4815166 -1.2449056 0.49371055 0
0.81423968 -0.68419856 0.35383302 0
0.82706088 -0.69497216 0.44727689 0
0.59797776 -0.50247556 0.46320766 0
1.2271992 -1.0051165 -0.056632157 0
1.3976972 -1.14476 0.064500213 0
1.3954139 -1.1428899 0.19384366 0
1.3986329 -1.1455263 0.32604751 0
1.5064498 -1.233832 0.49680254 0
0.86089528 -0.70510155 0.37021983 0
0.8071506 -0.66108286 0.43197319 0
0.60346425 -0.49425706 0.46259984 0
1.2279266 -0.98014134 -0.056091722 0
1.4055576 -1.121928 0.064205915 0
1.3905984 -1.1099874 0.19121794 0
1.3981373 -1.1160049 0.32263041 0
1.5407271 -1.2298213 0.50295967 0
0.83367908 -0.66544962 0.35488412 0
0.80598503 -0.64334399 0.42697996 0
0.61175776 -0.48831019 0.46420705 0
1.2355448 -0.96100479 -0.055882514 0
1.4075369 -1.09478 0.063661546 0
1.3912095 -1.0820805 0.18941331 0
1.3873961 -1.0791144 0.31699103 0
0.81799114 -0.6362322 0.4290621 0
0.62162423 -0.48349831 0.46703693 0
1.2497211 -0.94701898 -0.055979893 0
1.4118733 -1.0698955 0.06324333 0
1.3871992 -1.0511978 0.18705027 0
1.4032856 -1.0633878 0.31753686 0
0.81681669 -0.61897087 0.42432413 0
0.62731034 -0.47536591 0.46677467 0
1.2626053 -0.93199027 -0.056026895 0
1.4027728 -1.0354548 0.062246691 0
1.3995799 -1.0330979 0.18695071 0
1.4041625 -1.0364805 0.31475699 0
0.84628052 -0.62468076 0.43550929 0
0.64121139 -0.47330928 0.47264609 0
1.27545 -0.91688842 -0.056080092 0
1.4045855 -1.0097206 0.06175803 0
1.4003441 -1.0066717 0.18534487 0
1.3955799 -1.0032468 0.30997673 0
0.64302504 -0.46225429 0.46965513 0
1.2803016 -0.89614218 -0.05579282 0
1.4108262 -0.9875024 0.061480809 0
1.3930874 -0.97508621 0.18274476 0
1.390766 -0.97346139 0.30616057 0
1.4003818 -0.98019189 0.43610752 0
0.6517753 -0.45620763 0.47181293 0
1.2955992 -0.8827548 -0.055970624 0
1.4454623 -0.98486376 0.062444791 0
1.4019227 -0.95519817 0.18231149 0
1.3978322 -0.95241106 0.30505177 0
1.3918725 -0.94835043 0.42970455 0
0.66617697 -0.45389879 0.47806281 0
1.2989475 -0.86128986 -0.055642322 0
1.4735222 -0.9770447 0.063120484 0
1.3923506 -0.92322248 0.17954065 0
1.3968244 -0.92618889 0.30226269 0
1.3946102 -0.92472076 0.42692104 0
0.66962534 -0.4440068 0.4764874 0
1.3291073 -0.85739267 -0.056467302 0
1.5037133 -0.97002912 0.063885458 0
1.3973662 -0.90142578 0.17870955 0
1.4027313 -0.90488678 0.30105135 0
1.3926227 -0.89836586 0.42281613 0
0.68367648 -0.44103229 0.48249581 0
1.3276471 -0.83296645 -0.055955209 0
1.547984 -0.97120601 0.06524156 0
1.3986357 -0.87750483 0.1774447 0
1.4073638 -0.88298076 0.29963556 0
1.4060723 -0.88217044 0.42349333 0
0.68786055 -0.43156406 0.48157525 0
1.3335192 -0.81343234 -0.055766579 0
1.5898361 -0.96978283 0.066485517 0
1.3954301 -0.85119724 0.17566422 0
1.4018445 -0.85510993 0.29614446 0
1.3954352 -0.8512004 0.41702822 0
0.69682127 -0.42505345 0.48406312 0
1.342945 -0.79615587 -0.055737082 0
1.6339079 -0.96865129 0.067813098 0
1.3968012 -0.82808423 0.17451033 0
1.3906403 -0.82443172 0.29156131 0
1.4017687 -0.83102918 0.4157607 0
0.69189829 -0.41018724 0.47701731 0
1.3611503 -0.78395653 -0.056078508 0
1.4132181 -0.81394506 0.17526698 0
1.3995945 -0.80609858 0.29128742 0
1.3995639 -0.80608094 0.41206354 0
0.70085549 -0.40365875 0.47965032 0
1.3646815 -0.76327032 -0.055823591 0
1.4103715 -0.78882492 0.17366828 0
1.389675 -0.77724928 0.2871632 0
1.3942304 -0.77979708 0.40756986 0
0.71159327 -0.39799619 0.48353085 0
1.386538 -0.75273377 -0.056325454 0
1.4125332 -0.76684624 0.17273173 0
1.4028229 -0.76157463 0.28787562 0
1.4028715 -0.76160103 0.40726012 0
1.3854841 -0.72972679 -0.055904932 0
1.4114858 -0.74342173 0.1714453 0
1.4072568 -0.74119437 0.28684747 0
1.3999991 -0.7373718 0.40369874 0
1.4032674 -0.7166698 -0.056253895 0
1.3995019 -0.71474671 0.1688831 0
1.3918923 -0.71086037 0.28186873 0
1.397824 -0.71388978 0.40044761 0
1.3985908 -0.71428138 0.52247334 0
1.4018891 -0.69385082 -0.05584396 0
1.4104857 -0.69810563 0.16913433 0
1.4033772 -0.69458735 0.28240088 0
1.3951826 -0.69053149 0.39716837 0
1.4023181 -0.69406319 0.52055955 0
1.4127674 -0.6772244 -0.055933163 0
1.4320846 -0.68648422 0.1706742 0
1.3966298 -0.66948867 0.27932456 0
1.400614 -0.67139852 0.39627641 0
1.392979 -0.66773856 0.51393068 0
1.4247954 -0.66105849 -0.056075353 0
1.4555267 -0.67531675 0.17244087 0
1.404281 -0.65154052 0.27919179 0
1.3941978 -0.64686221 0.3921254 0
1.3932258 -0.64641118 0.5109781 0
1.4368076 -0.64477217 -0.056224119 0
1.4863026 -0.66698325 0.17507808 0
1.3950676 -0.62604117 0.27577084 0
1.3975226 -0.62714285 0.3908084 0
1.3877186 -0.62274331 0.50604218 0
1.4404597 -0.62474221 -0.056054741 0
1.534253 -0.66542131 0.17972511 0
1.3988167 -0.60668117 0.27498001 0
1.3932532 -0.60426825 0.38745597 0
1.3952562 -0.60513699 0.50597203 0
1.4445087 -0.60500455 -0.055911411 0
1.5516065 -0.64986044 0.18078502 0
1.39481 -0.58418924 0.27272466 0
1.4008647 -0.58672518 0.38748738 0
1.4015362 -0.58700639 0.50552881 0
1.4545848 -0.58780825 -0.056010485 0
1.5931482 -0.6438027 0.18466601 0
1.401325 -0.56628555 0.27258268 0
1.4038513 -0.56730646 0.38630685 0
1.3947239 -0.563618 0.50047201 0
1.4531662 -0.56605601 -0.055676978 0
1.6227955 -0.63213211 0.18716501 0
1.4134084 -0.550569 0.27356285 0
1.3990339 -0.54496962 0.38306248 0
1.4032155 -0.54659849 0.50100952 0
0.83140314 -0.32385883 0.44643012 0
1.4626236 -0.54863119 -0.055770215 0
1.4063717 -0.52753109 0.27089372 0
1.3920281 -0.52215075 0.37931392 0
1.397033 -0.52402812 0.49640676 0
0.8430413 -0.31622541 0.45050547 0
1.4741378 -0.53187525 -0.055949438 0
1.4010847 -0.50551736 0.26862791 0
1.3949271 -0.50329578 0.37834698 0
1.4021248 -0.50589269 0.49591315 0
0.81595385 -0.29439968 0.43401501 0
1.4807123 -0.51327002 -0.05594923 0
1.4091941 -0.48847917 0.26898208 0
1.4050733 -0.48705068 0.37940535 0
1.3923957 -0.48265618 0.49028364 0
1.4038893 -0.48664027 0.61519164 0
0.8217746 -0.28485766 0.43516868 0
1.4947605 -0.49714729 -0.056239042 0
1.3989547 -0.46528292 0.26588818 0
1.393846 -0.4635838 0.37476772 0
1.3916001 -0.46283683 0.48791263 0
1.4008588 -0.46591619 0.61124426 0
0.8651213 -0.28773353 0.456168 0
1.4888223 -0.47443774 -0.055786427 0
1.4115344 -0.44980866 0.26718143 0
1.3983636 -0.44561157 0.37444395 0
1.3946743 -0.44443592 0.48698971 0
1.4093899 -0.44912529 0.61245048 0
0.86466444 -0.27553955 0.4540616 0
1.5108355 -0.46057969 -0.056389481 0
1.4062357 -0.42869231 0.26513562 0
1.39999 -0.4267883 0.37341082 0
1.3957146 -0.42548496 0.48544362 0
1.3949913 -0.42526445 0.60381866 0
0.86725813 -0.26438448 0.45363939 0
1.5174816 -0.44180131 -0.056425419 0
1.4241915 -0.41464075 0.26751545 0
1.4064227 -0.40946755 0.37372169 0
1.3954881 -0.406284 0.48354712 0
1.3911576 -0.40502322 0.59990412 0
0.89106369 -0.25942531 0.4643459 0
1.5010245 -0.41658154 -0.055614024 0
1.4547287 -0.40373302 0.27227491 0
1.4037614 -0.38958797 0.37168145 0
1.3938925 -0.38684905 0.48126817 0
1.3823214 -0.38363767 0.59396338 0
0.87664717 -0.24329719 0.45520064 0
1.5214607 -0.40169087 -0.056179337 0
1.4843476 -0.3918924 0.27687299 0
1.4012086 -0.36994234 0.36974281 0
1.3932159 -0.36783212 0.4793973 0
1.3936479 -0.36794621 0.59679216 0
0.88095784 -0.23258749 0.45588204 0
1.5222729 -0.38146833 -0.05602752 0
1.5165731 -0.38003999 0.28196895 0
1.4025503 -0.35146689 0.36889976 0
1.3957295 -0.34975767 0.4787088 0
1.3931848 -0.34911996 0.5946641 0
0.88774014 -0.22245994 0.45790586 0
1.5270188 -0.36228588 -0.056029845 0
1.5391124 -0.36515507 0.28528205 0
1.3975267 -0.33156383 0.36645126 0
1.403982 -0.33309534 0.4800626 0
1.3947701 -0.33090982 0.59351516 0
0.88561982 -0.21011367 0.45541134 0
1.5378776 -0.34446776 -0.056264661 0
1.576093 -0.35302758 0.29128954 0
1.4022098 -0.31407964 0.36661309 0
1.4004574 -0.31368712 0.47746891 0
1.3966221 -0.31282806 0.59258002 0
0.90340483 -0.20235279 0.4632099 0
1.5381277 -0.3242408 -0.056119982 0
1.6129264 -0.34000856 0.29728213 0
1.4048975 -0.2961556 0.36631176 0
1.3926517 -0.29357415 0.47350979 0
1.4049433 -0.29616526 0.59448117 0
0.92133319 -0.19421914 0.47111115 0
1.5332893 -0.30310878 -0.055799771 0
1.629055 -0.32204026 0.29948366 0
1.4049633 -0.27774063 0.36538804 0
1.397606 -0.27628618 0.47397381 0
1.4025406 -0.27726167 0.59194028 0
0.92301011 -0.18246554 0.47075641 0
1.5423732 -0.28477377 -0.055995412 0
1.4123462 -0.26076645 0.3664251 0
1.400002 -0.25848728 0.47364494 0
1.3989522 -0.25829345 0.58900636 0
0.93817931 -0.17321932 0.47734272 0
1.5448964 -0.26516947 -0.055961356 0
1.4133406 -0.24258894 0.36586154 0
1.3977339 -0.23991019 0.47181818 0
1.4098965 -0.24199779 0.59228432 0
0.94331837 -0.16191328 0.47888216 0
1.5549644 -0.24678375 -0.056209031 0
0.98027229 -0.15557608 0.035434995 0
0.98732245 -0.15669499 0.10743485 0
0.99400377 -0.15775536 0.18151093 0
0.99825096 -0.15842941 0.25787333 0
0.99198711 -0.15743531 0.33415887 0
0.97506213 -0.15474918 0.40876347 0
0.93945241 -0.14909768 0.47592872 0
1.5558565 -0.22688024 -0.056133553 0
0.96698463 -0.14100896 0.03488772 0
0.96628737 -0.14090729 0.10494453 0
0.9609409 -0.14012764 0.17513736 0
0.9723683 -0.14179403 0.25070608 0
0.96017879 -0.14001651 0.32282445 0
0.9579137 -0.13968621 0.40080538 0
0.95154226 -0.13875711 0.48113018 0
1.5475307 -0.20580141 -0.055735253 0
0.94725794 -0.12597297 0.034116067 0
0.98614639 -0.13114461 0.10691351 0
0.99152166 -0.13185947 0.18039396 0
0.99441808 -0.13224465 0.25594154 0
0.98087823 -0.13044402 0.32920551 0
0.99427116 -0.13222511 0.4152883 0
0.97741908 -0.12998401 0.49334759 0
1.5445342 -0.18564296 -0.05553874 0
0.93419445 -0.11228409 0.033591993 0
0.99073768 -0.11908022 0.10724021 0
0.99766475 -0.1199128 0.18122253 0
0.98258317 -0.1181001 0.25249273 0
0.99435556 -0.11951505 0.3331973 0
0.98381555 -0.11824822 0.41026673 0
1.5638083 -0.16801348 -0.056151275 0
0.91535598 -0.098344624 0.032867458 0
1.40597 -0.15105554 0.36077231 0
1.3892452 -0.14925864 0.4648537 0
1.4024755 -0.15068009 0.58401704 0
1.5616264 -0.14791462 -0.056001611 0
0.91354609 -0.086529545 0.032760751 0
1.3996232 -0.13256994 0.35868689 0
1.3925097 -0.13189617 0.4653534 0
1.397788 -0.13239613 0.58132482 0
1.5569813 -0.12771648 -0.055772938 0
0.90814745 -0.074493766 0.03253093 0
1.4131111 -0.11591506 0.3617408 0
1.3910106 -0.1141022 0.4643355 0
1.4095438 -0.11562244 0.58556193 0
1.5626901 -0.10839508 -0.055924106 0
0.91776341 -0.063660122 0.032844067 0
1.4176341 -0.098333359 0.36255291 0
1.3956243 -0.09680666 0.46543175 0
1.4021034 -0.097256087 0.58191615 0
1.5727292 -0.089209393 -0.056238718 0
1.4060255 -0.079753511 0.35929877 0
1.3917292 -0.078942582 0.46376449 0
1.389274 -0.078803316 0.57613397 0
1.566277 -0.069071174 -0.055972453 0
1.4037435 -0.061903622 0.35848799 0
1.3995649 -0.061719347 0.46607959 0
1.3993919 -0.061711721 0.57996166 0
1.5654224 -0.049293991 -0.0559153 0
1.4104108 -0.044412788 0.3600193 0
1.4000566 -0.044086747 0.46602157 0
1.3926591 -0.043853801 0.57689667 0
1.5727246 -0.029708076 -0.056158312 0
1.4033039 -0.026507793 0.35809162 0
1.4063507 -0.026565347 0.46796817 0
1.3905103 -0.02626613 0.57582396 0
1.5712423 -0.0098923137 -0.05609649 0
1.4022086 -0.0088281007 0.35775539 0
1.3904479 -0.0087540578 0.46260306 0
1.3937017 -0.0087745432 0.57705402 0
1.56383 0.0098456461 -0.055831853 0
1.3959162 0.008788486 0.35614997 0
1.3918806 0.0087630786 0.46307975 0
1.3974562 0.0087981811 0.57860857 0
1.5651762 0.029565493 -0.055888779 0
1.4094136 0.026623204 0.35965067 0
1.4043862 0.026528239 0.46731445 0
1.4005058 0.02645494 0.57996321 0
1.5672489 0.04935151 -0.055980541 0
1.415033 0.044558339 0.36119917 0
1.3941507 0.043900773 0.46405575 0
1.392476 0.043848038 0.57682091 0
1.5706538 0.069264188 -0.056128867 0
1.4113811 0.062240433 0.3604385 0
1.3900691 0.061300594 0.46291736 0
1.4007804 0.06177295 0.58053708 0
1.5448259 0.087626636 -0.055240933 0
1.4062365 0.079765476 0.35935268 0
1.3942065 0.079083107 0.46458998 0
1.39325 0.079028845 0.57778281 0
1.5695601 0.10887161 -0.056169961 0
1.8552622 0.12868917 0.066394404 0
1.8539649 0.12859918 0.19972306 0
1.8533413 0.12855594 0.33505082 0
1.407927 0.097660035 0.36007038 0
1.4006176 0.097153015 0.46709695 0
1.3923661 0.096580654 0.57787478 0
1.5688694 0.12869164 -0.056198783 0
1.7984356 0.14752255 0.064422116 0
1.8005672 0.14769742 0.19415562 0
1.5693229 0.12872884 0.28397593 0
1.4101013 0.11566818 0.36097032 0
1.3937899 0.11433018 0.46526322 0
1.390726 0.11407885 0.57774454 0
1.5573401 0.14750864 -0.055847902 0
1.7998952 0.17048304 0.064546183 0
1.8072881 0.17118329 0.1950973 0
1.4560709 0.13791658 0.2637758 0
1.4026523 0.13285686 0.35946319 0
1.3796414 0.13067731 0.46105301 0
1.3982829 0.13244301 0.58153057 0
1.5582194 0.16741303 -0.055950597 0
1.2023467 0.12917852 0.043172363 0
1.1951632 0.12840675 0.12918255 0
1.1934201 0.12821946 0.21647041 0
1.1857932 0.12740004 0.30427486 0
1.3983942 0.15024161 0.46791506 0
1.3945738 0.14983116 0.58072662 0
1.5489674 0.18617579 -0.055698149 0
1.1009041 0.13232149 0.039586578 0
1.1002948 0.13224827 0.11909898 0
1.107492 0.13311331 0.20117228 0
1.108161 0.13319372 0.2847622 0
1.3836123 0.16630118 0.46363282 0
1.4070177 0.16911437 0.58674878 0
1.5532113 0.20655687 -0.055939846 0
1.1070654 0.14722528 0.039871633 0
1.1194927 0.14887793 0.12137031 0
1.1119635 0.14787666 0.20230675 0
1.1035682 0.1467602 0.2840344 0
1.39354 0.18532266 0.46770439 0
1.394304 0.18542427 0.58237445 0
1.5626214 0.22786671 -0.056377623 0
1.0964535 0.15988855 0.039558813 0
1.1027366 0.16080478 0.11976373 0
1.1086085 0.16166103 0.20205067 0
1.1086352 0.16166493 0.28583983 0
1.398193 0.20388922 0.47009045 0
1.3954997 0.20349649 0.58389789 0
1.5420538 0.24473473 -0.055742338 0
1.1124616 0.17655544 0.040213387 0
1.1175781 0.17736748 0.12160853 0
1.1080353 0.17585297 0.20233376 0
1.105039 0.17537743 0.28545937 0
1.3886817 0.22039351 0.46778858 0
1.3927317 0.22103627 0.58385801 0
1.5470687 0.26554233 -0.056040045 0
1.1212972 0.19246195 0.040617164 0
1.1111662 0.19072305 0.12116255 0
1.1074946 0.19009285 0.20265605 0
1.1039629 0.18948667 0.28577513 0
1.3953695 0.23950435 0.47102007 0
1.4039943 0.24098472 0.58980483 0
1.5360538 0.28360698 -0.055765986 0
1.1030554 0.20366098 0.040046107 0
1.1101593 0.20497259 0.12132458 0
1.106304 0.20426078 0.20289277 0
1.1075778 0.20449597 0.28735468 0
1.4020368 0.25886294 0.47433335 0
1.4043908 0.25929758 0.5912962 0
1.531867 0.30282763 -0.055748012 0
1.1124301 0.21991108 0.040483776 0
1.1050947 0.21846099 0.12106212 0
1.1213642 0.22167726 0.20615037 0
1.1062102 0.21868153 0.2876915 0
1.3899462 0.27477196 0.47137612 0
1.3975995 0.2762849 0.58985484 0
1.5416186 0.32497671 -0.056247354 0
1.1014286 0.23218365 0.040186621 0
1.1104652 0.2340886 0.12196371 0
1.1227838 0.23668538 0.20694283 0
1.1124512 0.23450726 0.29005957 0
1.390714 0.29316568 0.47285095 0
1.4010749 0.29534978 0.59284431 0
1.5315257 0.343045 -0.05603227 0
1.1159488 0.2499603 0.040828008 0
1.1044514 0.24738503 0.1216357 0
1.1089939 0.24840251 0.20496145 0
1.1164315 0.25006843 0.29189527 0
1.3995342 0.31348038 0.47715423 0
1.3987335 0.313301 0.59347582 0
1.5209594 0.36084825 -0.055807509 0
1.1039627 0.26191562 0.04050694 0
1.1063855 0.26249042 0.12220304 0
1.0986587 0.26065725 0.2036418 0
1.113148 0.26409483 0.29188311 0
1.3963958 0.33129552 0.47746867 0
1.411059 0.33477437 0.60044652 0
1.509823 0.3783485 -0.055569295 0
1.1013101 0.27597874 0.040533911 0
1.1071848 0.27745083 0.12266748 0
1.1024026 0.27625248 0.20496428 0
1.1080092 0.27765745 0.29142934 0
1.3960176 0.34982985 0.4788076 0
1.3963224 0.34990624 0.59600335 0
1.5200257 0.40131202 -0.056126352 0
1.1167871 0.29485035 0.041236926 0
1.1132784 0.29392397 0.12374286 0
1.106222 0.29206097 0.20634182 0
1.1164428 0.29475945 0.29460046 0
1.3877149 0.36637977 0.47750443 0
1.3920001 0.36751112 0.5960865 0
1.5120428 0.41963947 -0.05602226 0
1.1046895 0.30658609 0.04092953 0
1.1137272 0.30909437 0.12421554 0
1.1210835 0.31113595 0.20982808 0
1.1001889 0.30533701 0.29130292 0
1.4003433 0.38863933 0.48349538 0
1.3973067 0.38779658 0.60040236 0
1.4984502 0.43626049 -0.055717763 0
1.1157049 0.32482758 0.041485917 0
1.1052725 0.32179031 0.12371469 0
1.1018023 0.32078001 0.20695893 0
1.1140586 0.3243483 0.29603323 0
1.3989938 0.40730467 0.48476186 0
1.409669 0.41041267 0.60788673 0
1.4999162 0.45725092 -0.055981934 0
1.4116311 0.4303371 0.37651578 0
1.3953465 0.42537272 0.48531559 0
1.39985 0.42674562 0.60592175 0
1.4939128 0.47605991 -0.055977169 0
1.3969201 0.44515157 0.37405744 0
1.3901922 0.44300762 0.48542464 0
1.3961729 0.44491348 0.60670704 0
1.4897618 0.49548477 -0.056050975 0
1.4021291 0.46633869 0.37699482 0
1.3863469 0.46108967 0.48607081 0
1.3872211 0.46138039 0.60529369 0
1.4801002 0.51305783 -0.055926099 0
1.3999466 0.4852736 0.378021 0
1.3911989 0.4822413 0.4898622 0
1.3901364 0.48187304 0.60916507 0
1.4763544 0.53267503 -0.056033567 0
1.4044433 0.50672919 0.38092804 0
1.3871703 0.50049704 0.49062392 0
1.3906283 0.50174475 0.61210072 0
1.4578043 0.54682344 -0.05558645 0
1.3896161 0.52124602 0.37865669 0
1.3957788 0.52355766 0.49596113 0
1.3925503 0.52234662 0.61579305 0
1.4588407 0.56826639 -0.05589439 0
1.4044675 0.54708618 0.38455024 0
1.3879455 0.54065037 0.49555749 0
1.3877126 0.54055965 0.61661494 0
1.453946 0.58755004 -0.055985883 0
1.3977555 0.56484306 0.38462943 0
1.3952993 0.56385052 0.50067848 0
1.3898718 0.56165725 0.6206677 0
1.4494461 0.60707247 -0.056102518 0
1.3927381 0.58332145 0.38523951 0
1.3851563 0.58014601 0.49962065 0
1.3825171 0.57904059 0.62059027 0
1.4348559 0.62231183 -0.055836678 0
1.3851439 0.60075116 0.38520083 0
1.3871351 0.60161483 0.50302702 0
1.3778794 0.59760046 0.62183708 0
1.4311591 0.64223742 -0.056003086 0
1.3853433 0.6216774 0.38740256 0
1.3919654 0.62464911 0.50759083 0
1.3916076 0.62448853 0.63153142 0
1.4175245 0.65768498 -0.055789191 0
1.3895674 0.64471382 0.39082307 0
1.3785006 0.63957918 0.5055775 0
1.3789887 0.63980567 0.6294111 0
1.4116762 0.67670125 -0.05588996 0
1.3905694 0.66658354 0.39343449 0
1.3762859 0.65973657 0.50777185 0
1.3706721 0.65704548 0.62934154 0
1.408527 0.69713622 -0.056108382 0
1.3870054 0.68648428 0.39484057 0
1.3686639 0.67740637 0.50806665 0
1.3726788 0.67939347 0.63414067 0
1.4013597 0.71569544 -0.056177415 0
1.3664725 0.69787806 0.39146602 0
1.3600799 0.69461328 0.50808674 0
1.3575711 0.69333208 0.63114464 0
1.3805852 0.72714651 -0.055707254 0
1.3612155 0.71694463 0.39251521 0
1.3591977 0.71588188 0.5110842 0
1.3639938 0.71840793 0.63828564 0
1.3797302 0.74903792 -0.056048904 0
1.363251 0.74009156 0.39575809 0
1.3513993 0.73365736 0.51158512 0
1.3450516 0.73021138 0.6336742 0
1.364612 0.76323152 -0.055820748 0
1.3444076 0.75193107 0.39300534 0
1.3524859 0.75644928 0.51556152 0
1.3504878 0.75533175 0.64066541 0
1.3611437 0.78395265 -0.056078237 0
1.3377872 0.77050048 0.39387506 0
1.3455275 0.77495855 0.51658791 0
1.333395 0.76797086 0.63709378 0
1.3441786 0.79688722 -0.055788279 0
1.3413961 0.79523766 0.39785436 0
1.3320125 0.78967464 0.515176 0
1.3341486 0.790941 0.64216161 0
1.3439231 0.81977856 -0.056201659 0
1.3245802 0.80797958 0.39585307 0
1.3325059 0.81281424 0.51928425 0
1.3277655 0.80992258 0.64394712 0
1.324245 0.830832 -0.055811822 0
1.3271313 0.83264285 0.39971715 0
1.3275872 0.8329289 0.52141345 0
1.3231773 0.83016217 0.6467405 0
1.3125567 0.84671617 -0.055764154 0
1.3140072 0.84765184 0.39894757 0
1.3210832 0.85221648 0.52303225 0
1.3098922 0.84499723 0.64539659 0
1.3031117 0.86405104 -0.055820704 0
1.302259 0.86348563 0.39865029 0
1.2954611 0.85897821 0.51712954 0
1.3001637 0.86209637 0.64590085 0
1.3016763 0.88689536 -0.056233153 0
1.2984107 0.88467032 0.40085062 0
1.297446 0.88401312 0.52232403 0
1.2903473 0.87917638 0.64647269 0
1.293571 0.90543014 -0.056371078 0
1.2816418 0.8970803 0.39912945 0
1.2820921 0.89739543 0.5206508 0
1.2883937 0.90180624 0.65113163 0
1.2692879 0.91245866 -0.055809151 0
1.2808073 0.92073965 0.40244833 0
1.2814569 0.92120665 0.52506196 0
1.273505 0.91549021 0.6493817 0
1.2652516 0.93394363 -0.056144323 0
1.2600181 0.93008053 0.39956439 0
1.2638259 0.93289119 0.52260965 0
1.2771277 0.94270998 0.65723008 0
1.2550341 0.9510451 -0.056217883 0
1.255293 0.95124131 0.40183258 0
1.2573324 0.95278674 0.52484417 0
1.2620884 0.9563908 0.65563619 0
1.2368673 0.96203339 -0.055942327 0
1.2445521 0.96801066 0.40226436 0
1.2499132 0.97218055 0.52681553 0
1.2491215 0.97156477 0.65520358 0
1.2225738 0.9758687 -0.055847205 0
1.2329074 0.98411703 0.40247405 0
1.2423177 0.99162841 0.52883518 0
1.2460461 0.99460447 0.66010743 0
1.2135755 0.99395818 -0.056003459 0
1.227033 1.0049804 0.40465546 0
1.2336348 1.0103875 0.53051299 0
1.2356395 1.0120294 0.66129309 0
1.1988591 1.007391 -0.055905301 0
1.2237343 1.0282934 0.40780544 0
1.2218944 1.0267473 0.53098196 0
1.2199885 1.0251459 0.65977329 0
1.1820844 1.0189621 -0.055716977 0
1.2803004 1.1036247 0.060346339 0
1.2729506 1.0972893 0.18061389 0
1.269895 1.0946553 0.3023681 0
1.1971664 1.031963 0.40325028 0
1.2036905 1.0375868 0.52870715 0
1.2129536 1.0455716 0.66303641 0
1.1735126 1.0376132 -0.055924371 0
1.2343793 1.0914311 0.058825001 0
1.2426732 1.0987645 0.17826691 0
1.2391745 1.0956711 0.29831487 0
1.1930481 1.0548863 0.40630516 0
1.1955518 1.0571001 0.53093702 0
1.1931578 1.0549834 0.6594249 0
1.1656387 1.0570987 -0.056179032 0
1.2161717 1.1029263 0.058614515 0
1.2170365 1.1037105 0.17656897 0
1.2175683 1.1041929 0.2964372 0
1.1891108 1.0783852 0.40955633 0
1.1804223 1.0705057 0.53016245 0
1.1814138 1.0714049 0.66033828 0
1.1547803 1.0740581 -0.056303073 0
1.1988369 1.1150349 0.058451124 0
1.2051105 1.12087 0.17687243 0
1.2022883 1.1182451 0.29612187 0
1.1711221 1.0892575 0.40805241 0
1.1711018 1.0892386 0.53209442 0
1.1745038 1.0924029 0.66411203 0
1.123575 1.0717345 -0.05543521 0
1.179786 1.1253519 0.058208562 0
1.1821482 1.1276052 0.17557235 0
1.1796305 1.1252036 0.29400772 0
1.1577693 1.1043513 0.40821296 0
1.1591413 1.1056598 0.53294367 0
1.1583167 1.1048734 0.66277355 0
1.1194488 1.0950478 -0.055907529 0
1.1704711 1.144958 0.058455683 0
1.1659665 1.1405516 0.17528819 0
1.1684645 1.1429952 0.2947886 0
1.1405172 1.1156571 0.40705115 0
1.139168 1.1143373 0.53016996 0
1.1386538 1.1138343 0.65949559 0
1.1074233 1.1109134 -0.056001145 0
1.1575941 1.1612424 0.058538228 0
1.1567783 1.160424 0.17608969 0
1.163622 1.1672893 0.29725164 0
1.1352443 1.138822 0.41025475 0
1.1305072 1.13407 0.53274316 0
1.1335109 1.1370833 0.66475731 0
1.0888901 1.1201833 -0.055772822 0
1.157115 1.1903689 0.059267294 0
1.1614026 1.1947798 0.17906961 0
1.1590985 1.1924094 0.29990798 0
1.1222309 1.1544824 0.41077298 0
1.1149902 1.1470335 0.53219515 0
1.1164117 1.1484958 0.66315812 0
1.0795286 1.1388998 -0.056023445 0
1.1706614 1.2350448 0.060752898 0
1.1688764 1.2331616 0.18260169 0
1.1750103 1.2396328 0.30803952 0
1.1028557 1.1635098 0.40901139 0
1.1127753 1.1739751 0.53815138 0
1.1003124 1.1608267 0.66222537 0
1.0670838 1.1545454 -0.056127638 0
1.090364 1.1797338 0.40985554 0
1.0875697 1.1767104 0.53308517 0
1.0988297 1.1888933 0.67029011 0
1.0550443 1.1707551 -0.056265343 0
