# .PCD v0.7 - Point Cloud Data file format
VERSION 0.7
FIELDS x y z intensity
SIZE 4 4 4 4
TYPE F F F F
COUNT 1 1 1 1
WIDTH 1353
HEIGHT 1
VIEWPOINT 0 0 0 1 0 0 0
POINTS 1353
DATA ascii
-1.22295 -0.9888432 -0.056147784 0
-0.79912305 -0.6461485 0.34189981 0
-0.68892848 -0.55704832 0.36681932 0
-0.68138546 -0.55094922 0.43842798 0
-0.68131602 -0.55089307 0.51961106 0
-1.2091622 -1.0031345 -0.056090262 0
-0.79951328 -0.66328508 0.34561282 0
-0.69356251 -0.57538718 0.37311494 0
-0.68867338 -0.57133108 0.4477109 0
-0.67848104 -0.56287539 0.52281314 0
-1.1923339 -1.0147887 -0.055897962 0
-0.78944111 -0.67188889 0.34488884 0
-0.69486356 -0.59139448 0.37779114 0
-0.68546104 -0.58339208 0.45036265 0
-0.67334414 -0.57307941 0.52437389 0
-1.1806411 -1.0307505 -0.055953842 0
-0.77748346 -0.67877662 0.34337169 0
-0.69451368 -0.60634041 0.38172182 0
-0.68210518 -0.5955072 0.45304868 0
-0.68548715 -0.59845984 0.53965628 0
-1.1678364 -1.045774 -0.055966657 0
-0.76841044 -0.68809605 0.34316415 0
-0.6872465 -0.61541533 0.38195658 0
-0.6777302 -0.60689372 0.45518261 0
-0.68408006 -0.61257994 0.54457808 0
-1.1651895 -1.0701431 -0.056481119 0
-0.76192063 -0.6997695 0.34417376 0
-0.69339335 -0.63683206 0.38979882 0
-0.67963243 -0.62419367 0.46170259 0
-0.68790114 -0.6317879 0.5539093 0
-1.1431873 -1.0767839 -0.056067403 0
-0.74756801 -0.7041446 0.34166858 0
-0.69583476 -0.65541631 0.39577949 0
-0.68649322 -0.64661741 0.4718574 0
-0.68335998 -0.64366621 0.55673492 0
-1.1280706 -1.0896745 -0.055994529 0
-0.74571586 -0.72033399 0.34494036 0
-0.67945129 -0.65632486 0.39113063 0
-0.68655717 -0.66318887 0.47760352 0
-0.68388194 -0.66060472 0.56389254 0
-1.1176021 -1.1071018 -0.056162439 0
-0.73481184 -0.72790796 0.34410912 0
-0.68266439 -0.67625052 0.39785072 0
-0.68076348 -0.67436743 0.47944245 0
-0.67863715 -0.67226106 0.56650305 0
-1.0971339 -1.1145439 -0.055834703 0
-0.73031384 -0.74190289 0.34635016 0
-0.68006325 -0.69085497 0.40137291 0
-0.68857628 -0.69950306 0.49110931 0
-0.68549389 -0.69637179 0.57950085 0
-1.0849251 -1.1302613 -0.055933256 0
-0.84695774 -0.88234997 0.043664865 0
-0.84676158 -0.88214558 0.13141111 0
-0.84611273 -0.88146961 0.22035742 0
-0.83440864 -0.86927646 0.30741867 0
-0.71613449 -0.74605989 0.34405372 0
-0.687379 -0.71610284 0.41098008 0
-0.67720252 -0.70550108 0.48929462 0
-0.67649573 -0.70476478 0.57935041 0
-1.0717604 -1.1450638 -0.055993482 0
-0.80280578 -0.85771388 0.041942105 0
-0.81061131 -0.86605328 0.12748319 0
-0.82127869 -0.87745029 0.21675014 0
-0.81404603 -0.86972296 0.30392733 0
-0.69749892 -0.74520457 0.33958194 0
-0.68770403 -0.73473978 0.41667309 0
-0.68757397 -0.73460078 0.5034318 0
-0.67651594 -0.72278643 0.58711565 0
-1.0525302 -1.1532876 -0.055743106 0
-0.79294562 -0.86885333 0.041995235 0
-0.79012311 -0.86576068 0.12596558 0
-0.78747463 -0.86285865 0.21067949 0
-0.80017352 -0.87677318 0.30284598 0
-0.69104952 -0.75720286 0.34105706 0
-0.68345451 -0.7488808 0.41977865 0
-0.67828858 -0.74322033 0.50344563 0
-0.67951447 -0.74456358 0.59780729 0
-1.0435294 -1.1727468 -0.056044076 0
-0.78156435 -0.87834334 0.04197491 0
-0.7743507 -0.8702364 0.12518816 0
-0.7837593 -0.88081002 0.21263601 0
-0.77427703 -0.87015361 0.29716825 0
-0.68348068 -0.76811421 0.34206808 0
-0.6790964 -0.76318699 0.42297095 0
-0.6773231 -0.76119411 0.509803 0
-0.68252391 -0.76703894 0.60890388 0
-1.0277289 -1.1846963 -0.055992238 0
-0.76326859 -0.87984437 0.041584034 0
-0.76623261 -0.88326102 0.12566385 0
-0.7623421 -0.87877631 0.20981097 0
-0.76465559 -0.8814432 0.29771188 0
-0.70039046 -0.80736274 0.355591 0
-0.6854586 -0.79015028 0.43309644 0
-0.68302232 -0.78734183 0.52151358 0
-0.68071753 -0.78468508 0.61605865 0
-1.0130764 -1.1979516 -0.056011349 0
-0.75494856 -0.89271826 0.041739881 0
-0.74864239 -0.8852613 0.12459734 0
-0.75465709 -0.89237362 0.21077184 0
-0.75227302 -0.88955444 0.29722846 0
-0.68864697 -0.81431735 0.35480666 0
-0.6744234 -0.79749817 0.43243477 0
-0.68658406 -0.81187797 0.53199685 0
-0.6839689 -0.80878556 0.6281684 0
-0.99715728 -1.2096963 -0.055968963 0
-0.74280149 -0.90112585 0.04169235 0
-0.73979467 -0.89747816 0.12499577 0
-0.73726714 -0.89441192 0.20904393 0
-0.74367833 -0.90218961 0.29829761 0
-0.69056976 -0.83776122 0.36120391 0
-0.67871499 -0.82337964 0.44179943 0
-0.68515432 -0.83119148 0.53895622 0
-0.67948604 -0.82431507 0.63353413 0
-0.98116571 -1.2213082 -0.055930145 0
-0.7301178 -0.90881574 0.041619468 0
-0.73871601 -0.91951835 0.12675981 0
-0.732297 -0.91152835 0.2108725 0
-0.73475558 -0.91458863 0.29931435 0
-0.68490517 -0.85253727 0.36382735 0
-0.68893117 -0.85754859 0.45544252 0
-0.68202555 -0.84895277 0.54486096 0
-0.68855381 -0.85707885 0.65199959 0
-0.96957451 -1.2385015 -0.056153953 0
-0.72539228 -0.92659146 0.042011876 0
-0.71856451 -0.91786993 0.12527528 0
-0.72266948 -0.92311352 0.21143065 0
-0.71985996 -0.91952467 0.2979396 0
-0.69293612 -0.88513309 0.37398452 0
-0.68338919 -0.87293822 0.4590092 0
-0.67852688 -0.86672723 0.55074137 0
-0.68490726 -0.87487727 0.65892619 0
-0.95182419 -1.2478856 -0.056031551 0
-0.72211719 -0.946729 0.042509265 0
-0.71322173 -0.9350667 0.12638658 0
-0.71290624 -0.9346531 0.21200076 0
-0.71142334 -0.93270886 0.29928508 0
-0.68741167 -0.90122855 0.3770979 0
-0.6790911 -0.89031982 0.46361566 0
-0.68023121 -0.89181465 0.56119525 0
-0.68217981 -0.8943693 0.66708422 0
-0.93537325 -1.2588788 -0.055991858 0
-0.71689892 -0.96484357 0.042913888 0
-0.71578819 -0.96334869 0.12898077 0
-0.71360153 -0.96040577 0.21578677 0
-0.71887368 -0.96750134 0.30752015 0
-0.6941759 -0.93426162 0.38723156 0
-0.68944806 -0.92789865 0.4786253 0
-0.67567438 -0.90936124 0.56683791 0
-0.68231165 -0.91829407 0.67846686 0
-0.91834348 -1.2690299 -0.05592458 0
-0.72225207 -0.99805731 0.043983154 0
-0.72064984 -0.99584323 0.13210595 0
-0.71642083 -0.98999929 0.22039153 0
-0.72465491 -1.0013777 0.31536236 0
-0.69463009 -0.95988733 0.39419621 0
-0.68251914 -0.94315165 0.48202169 0
-0.6852352 -0.94690484 0.58481532 0
-0.68112081 -0.94121933 0.6890133 0
-0.90466422 -1.2838587 -0.056071606 0
-0.61492449 -0.87267309 0.038113371 0
-0.61249995 -0.8692323 0.11427788 0
-0.61722523 -0.87593824 0.19325393 0
-0.77098757 -1.0941509 0.34149474 0
-0.67844152 -0.96281368 0.39185855 0
-0.68343073 -0.96989417 0.49125192 0
-0.68109953 -0.96658576 0.59162652 0
-0.88074303 -1.2839458 -0.055586632 0
-0.59564328 -0.86832786 0.037593037 0
-0.59900087 -0.87322259 0.11380181 0
-0.59666324 -0.86981469 0.19023022 0
-0.75641739 -1.102704 0.34116441 0
-0.68212199 -0.99439639 0.40118483 0
-0.68181741 -0.99395233 0.49904922 0
-0.68763894 -1.002439 0.60822338 0
-0.87812352 -1.31533 -0.056462172 0
-0.5840072 -0.87477696 0.037550885 0
-0.58113152 -0.87046951 0.11248042 0
-0.58422726 -0.87510663 0.18976361 0
-0.74380928 -1.1141424 0.34177843 0
-0.68678707 -1.0287297 0.41151473 0
-0.689008 -1.0320563 0.51378375 0
-0.68195289 -1.0214885 0.61452258 0
-0.85794741 -1.320825 -0.056229841 0
-0.56546849 -0.87054861 0.037060786 0
-0.56479543 -0.86951238 0.11142891 0
-0.5596149 -0.86153686 0.1852783 0
-0.72593975 -1.1175969 0.34000695 0
-0.67772329 -1.0433668 0.41392332 0
-0.68039614 -1.0474817 0.51715672 0
-0.68486798 -1.0543661 0.62906355 0
-0.84052765 -1.3303818 -0.056181654 0
-0.55346817 -0.87602586 0.036994331 0
-0.54760814 -0.8667506 0.11018258 0
-0.54972714 -0.87010461 0.18561745 0
-0.71581167 -1.1329821 0.34191829 0
-0.67786884 -1.0729264 0.42223033 0
-0.68578929 -1.0854628 0.53160286 0
-0.68090731 -1.0777357 0.63784033 0
-0.82074511 -1.3360333 -0.055979434 0
-0.5355615 -0.87180299 0.036528308 0
-0.54073 -0.88021642 0.11102 0
-0.53812641 -0.87597817 0.18541019 0
-0.69302368 -1.1281246 0.33779198 0
-0.6819697 -1.1101307 0.43345758 0
-0.68343502 -1.1125159 0.54059446 0
-0.67744744 -1.1027691 0.64755595 0
-0.80666471 -1.3509625 -0.056174908 0
-0.51695561 -0.86577195 0.036000006 0
-0.52500135 -0.87924653 0.11005512 0
-0.52046633 -0.87165147 0.1830927 0
-0.69417298 -1.1625669 0.34546024 0
-0.68493348 -1.1470931 0.44448695 0
-0.6899721 -1.1555314 0.55723059 0
-0.68404341 -1.1456023 0.66759712 0
-0.78608453 -1.354969 -0.055925474 0
-0.50911677 -0.87756145 0.036220785 0
-0.50594342 -0.87209159 0.1083535 0
-0.50625139 -0.87262243 0.18194318 0
-0.69697416 -1.20137 0.35435468 0
-0.68425453 -1.1794454 0.45364842 0
-0.68221325 -1.1759268 0.56287861 0
-0.68448257 -1.1798384 0.68247122 0
-0.77298474 -1.3718998 -0.05621808 0
-0.49132299 -0.87200421 0.035733223 0
-0.48716322 -0.8646214 0.10665473 0
-0.49309593 -0.87515086 0.18116137 0
-0.69151157 -1.2273005 0.3594062 0
-0.68546689 -1.2165725 0.46457183 0
-0.68469757 -1.2152071 0.57750803 0
-0.75029939 -1.3717424 -0.05582004 0
-0.47693264 -0.87195688 0.035482369 0
-0.47414821 -0.86686623 0.10618672 0
-0.48144355 -0.88020402 0.18093809 0
-0.69141501 -1.2640864 0.3675999 0
-0.68242693 -1.247654 0.47312185 0
-0.6814999 -1.245959 0.58799756 0
-0.73619998 -1.3871707 -0.056066178 0
-0.46151257 -0.86959612 0.035147034 0
-0.46184957 -0.87023115 0.10587811 0
-0.46810216 -0.88201249 0.18008389 0
-0.67801434 -1.2775354 0.36899891 0
-0.68773758 -1.2958564 0.48807794 0
-0.67791092 -1.2773405 0.59873122 0
-0.71847093 -1.3959329 -0.056050219 0
-0.44746241 -0.86938447 0.034907974 0
-0.44719151 -0.86885816 0.10501762 0
-0.4499703 -0.87425715 0.17732953 0
-0.68416804 -1.329285 0.38142747 0
-0.68069965 -1.3225462 0.49486294 0
-0.67766005 -1.3166405 0.61310399 0
-0.69828743 -1.3997569 -0.055846278 0
-0.4347463 -0.87147373 0.034769297 0
-0.43830884 -0.87861502 0.10552145 0
-0.43087867 -0.86372083 0.17407808 0
-0.68149394 -1.3660934 0.38949603 0
-0.68260503 -1.3683207 0.50873399 0
-0.68134278 -1.3657904 0.63194573 0
-0.68387562 -1.4152013 -0.056114439 0
-0.42156512 -0.87238014 0.034590926 0
-0.42092723 -0.87106013 0.10396928 0
-0.41998869 -0.86911792 0.17408615 0
-0.68224639 -1.4118298 0.40005511 0
-0.68159372 -1.4104792 0.52117598 0
-0.66880375 -1.4296886 -0.056350481 0
-0.4050025 -0.86576587 0.034123737 0
-0.41093805 -0.87845421 0.10422593 0
-0.40773359 -0.87160403 0.17354195 0
-0.68113047 -1.4560392 0.41011935 0
-0.68446696 -1.4631715 0.5374186 0
-0.6462549 -1.4280649 -0.0559613 0
-0.39612919 -0.87534845 0.034302108 0
-0.39885378 -0.88136911 0.10396764 0
-0.39571619 -0.87443578 0.17309992 0
-0.68125665 -1.5054103 0.4215759 0
-0.68370336 -1.5108168 0.55171263 0
-0.63167471 -1.4439802 -0.056268811 0
-0.38306227 -0.87566328 0.03412272 0
-0.38173598 -0.87263143 0.10236178 0
-0.38055673 -0.86993575 0.17124692 0
-0.68378049 -1.5630916 0.43528327 0
-0.68259764 -1.5603878 0.56663102 0
-0.60978228 -1.4431552 -0.05593301 0
-0.36946455 -0.87440169 0.033889577 0
-0.36606252 -0.86635023 0.10107626 0
-0.36951694 -0.87452567 0.17122091 0
-0.68289024 -1.6161778 0.44763637 0
-0.59622437 -1.4621502 -0.056373756 0
-0.35812852 -0.87825614 0.033861499 0
-0.35429648 -0.86885858 0.10084041 0
-0.35479072 -0.8700707 0.16946056 0
-0.68351883 -1.6762267 0.46184772 0
-0.57396901 -1.4598818 -0.056003194 0
-0.3370325 -0.85723722 0.032884873 0
-0.34317979 -0.87287277 0.10079677 0
-0.34301507 -0.87245381 0.16907005 0
-0.67965019 -1.7286803 0.47390455 0
-0.55537963 -1.4665647 -0.055986848 0
-0.33306214 -0.8795014 0.033575408 0
-0.32666418 -0.86260664 0.099128403 0
-0.33200604 -0.87671262 0.16907178 0
-0.68027723 -1.7963759 0.49007556 0
-0.53583062 -1.4705893 -0.055878475 0
-0.31636122 -0.86825466 0.032991365 0
-0.31756487 -0.87155807 0.099689633 0
-0.32009885 -0.87851256 0.1686282 0
-0.52013421 -1.4853944 -0.056187708 0
-0.30562669 -0.87280583 0.033015445 0
-0.30915067 -0.88286954 0.10053021 0
-0.30700928 -0.87675428 0.16753536 0
-0.50040787 -1.4889034 -0.056077637 0
-0.29382697 -0.87424678 0.032927386 0
-0.29449517 -0.87623489 0.099344596 0
-0.29552254 -0.87929177 0.1672959 0
-0.48058406 -1.4918668 -0.055956893 0
-0.27954787 -0.86779445 0.032549206 0
-0.28152102 -0.87391967 0.098672368 0
-0.28096107 -0.87218136 0.16525683 0
-0.46126813 -1.4961991 -0.055897098 0
-0.26642522 -0.86419404 0.032285769 0
-0.26769605 -0.86831623 0.097651355 0
-0.26810941 -0.8696571 0.16412584 0
-0.44163293 -1.4993094 -0.055801108 0
-0.25541329 -0.86710829 0.032271925 0
-0.25577313 -0.86832988 0.097282968 0
-0.25602472 -0.86918402 0.16341518 0
-0.42438444 -1.510677 -0.056020852 0
-0.24549603 -0.87388968 0.032406695 0
-0.2437215 -0.8675729 0.096846655 0
-0.24300925 -0.8650375 0.16204743 0
-0.40603471 -1.5185379 -0.056118313 0
-0.23492879 -0.8786152 0.032469653 0
-0.23570539 -0.88151968 0.098064423 0
-0.23346828 -0.87315303 0.16300406 0
-0.38594639 -1.5198444 -0.055982556 0
-0.22183506 -0.87357932 0.032177769 0
-0.2210681 -0.87055904 0.096527785 0
-0.22111617 -0.87074834 0.1620225 0
-0.36666039 -1.5240901 -0.055964436 0
-0.20955719 -0.87106228 0.096283361 0
-0.21105665 -0.87729502 0.16273324 0
-0.34463423 -1.5162365 -0.055512302 0
-0.19697826 -0.86661625 0.16027959 0
-0.32811445 -1.5325944 -0.055955492 0
-0.18699528 -0.87343895 0.16109316 0
-0.30895662 -1.5374274 -0.055985466 0
-0.17658617 -0.8787266 0.16164547 0
-0.28918326 -1.5391157 -0.055909906 0
-0.16425505 -0.87421221 0.16042182 0
-0.2697708 -1.5425766 -0.055907793 0
-0.24892184 -1.5371766 -0.055594075 0
-0.2319404 -1.5562466 -0.056173686 0
-0.21215203 -1.557759 -0.056127399 0
-0.19157262 -1.5526195 -0.055850867 0
-0.17267983 -1.560981 -0.056068987 0
-0.15341385 -1.5671417 -0.056216422 0
-0.13304777 -1.5616517 -0.055954956 0
-0.11288366 -1.5564405 -0.055712886 0
-0.093831599 -1.5669962 -0.05604399 0
-0.074032344 -1.5667531 -0.055997517 0
-0.05413295 -1.5627629 -0.055826113 0
-0.034401264 -1.5610372 -0.055744573 0
-0.014744438 -1.5614789 -0.055749297 0
0.0049038874 -1.5571737 -0.055593386 0
0.024680745 -1.5678222 -0.055980213 0
0.044312015 -1.5635921 -0.055844665 0
0.06420771 -1.5680801 -0.056029394 0
0.084279813 -1.573367 -0.056251764 0
0.16188356 -3.0221028 0.10804765 0
0.10391387 -1.5696155 -0.056159966 0
0.061703589 -0.93203062 0.033347536 0
0.12318422 -1.5620354 -0.05593982 0
0.072507516 -0.91943038 0.032926764 0
0.14403714 -1.5734119 -0.05640772 0
0.083598077 -0.91319644 0.032738615 0
0.16295627 -1.5630269 -0.056104526 0
0.095497653 -0.91598445 0.032879073 0
0.1827165 -1.5616438 -0.056133021 0
0.10840702 -0.92653465 0.033304129 0
0.11635438 -0.99445927 0.10760289 0
0.11570659 -0.98892272 0.17956755 0
0.11502222 -0.98307353 0.25252447 0
0.11538694 -0.98619074 0.33033806 0
0.11584212 -0.99008101 0.41272548 0
0.2026404 -1.5613414 -0.056209411 0
0.12287113 -0.94672036 0.034082614 0
0.12873457 -0.99189812 0.10749264 0
0.12913138 -0.99495548 0.18094388 0
0.1271105 -0.9793846 0.25196806 0
0.1284478 -0.98968858 0.33202517 0
0.12783122 -0.98493773 0.41121984 0
0.12727216 -0.98063022 0.49476382 0
0.2216462 -1.5541973 -0.056048255 0
0.13654755 -0.95748007 0.034529135 0
0.13819763 -0.96905059 0.10519689 0
0.13782191 -0.966416 0.17605531 0
0.13903177 -0.97489965 0.25124469 0
0.13619046 -0.9549762 0.32092959 0
0.13727935 -0.96261156 0.40258831 0
0.13878857 -0.9731943 0.49185488 0
0.241108 -1.5507054 -0.056027375 0
0.15157491 -0.97486621 0.035222158 0
0.15142766 -0.97391903 0.105924 0
0.15075403 -0.96958667 0.17696472 0
0.15094203 -0.97079575 0.25065702 0
0.15076661 -0.96966749 0.32647887 0
0.15158266 -0.97491598 0.40850022 0
0.14806458 -0.95228922 0.48219347 0
0.26038212 -1.5461688 -0.055977494 0
0.16584153 -0.98477966 0.035652962 0
0.16554548 -0.98302162 0.10713222 0
0.16537337 -0.98199964 0.17959611 0
0.16545475 -0.98248285 0.25419238 0
0.16477744 -0.97846097 0.33011201 0
0.16562302 -0.98348212 0.41293067 0
0.15982006 -0.94902372 0.48152083 0
0.27923131 -1.5394691 -0.055857807 0
0.62853128 -3.4652433 0.12573224 0
0.17257252 -0.95143366 0.48380783 0
0.2976763 -1.5311162 -0.055686325 0
0.67090034 -3.4508171 0.12550537 0
0.18329865 -0.94280785 0.48055717 0
0.32049713 -1.5444301 -0.056312859 0
0.71811062 -3.4604731 0.12617543 0
0.18945491 -0.91295624 0.46652058 0
0.33691317 -1.5266566 -0.055815067 0
0.76276946 -3.4563415 0.12636499 0
0.19878897 -0.90077358 0.46153775 0
0.35654926 -1.5241758 -0.055884082 0
0.80814219 -3.4546437 0.12666492 0
0.20968334 -0.89635378 0.4605895 0
0.37534228 -1.5180694 -0.055829059 0
0.85242194 -3.4476149 0.12679072 0
0.55379158 -2.2398064 0.2479589 0
0.55256051 -2.2348273 0.41518512 0
0.2205829 -0.89214605 0.45981818 0
0.39850965 -1.5288867 -0.056406956 0
0.90014511 -3.4534168 0.12741084 0
0.22966269 -0.8811034 0.45558116 0
0.4165588 -1.5194807 -0.056248996 0
0.94854075 -3.4599903 0.12808387 0
0.23854202 -0.87012929 0.45142424 0
0.42956838 -1.4929514 -0.055462766 0
0.25337705 -0.88060391 0.45847744 0
0.45129088 -1.4972396 -0.055828758 0
0.25295839 -0.83923548 0.43856299 0
0.47390607 -1.5034908 -0.056279905 0
0.26448259 -0.83908427 0.44018948 0
0.49167714 -1.493995 -0.056151755 0
0.27131641 -0.8244136 0.43425101 0
0.51071745 -1.488467 -0.056181245 0
0.29485708 -0.85935003 0.45457309 0
0.52326375 -1.4646902 -0.055528101 0
0.54690325 -1.4720867 -0.05606515 0
0.56300437 -1.4588884 -0.055828068 0
0.58231437 -1.4541447 -0.055922706 0
0.59901977 -1.4429446 -0.055777639 0
0.61812335 -1.4375732 -0.055866454 0
0.64331293 -1.4457172 -0.056493271 0
0.36890528 -0.82904083 0.3757019 0
0.65529478 -1.4240927 -0.055966269 0
0.67285889 -1.4150664 -0.05594008 0
0.39582419 -0.83244425 0.38164148 0
0.35687727 -0.75053632 0.49286035 0
0.69323319 -1.411798 -0.056151509 0
1.112671 -2.2660005 0.45527938 0
0.39270553 -0.799761 0.36889541 0
0.36310285 -0.73947394 0.48855972 0
0.71666223 -1.4142208 -0.05660231 0
1.1446415 -2.2587709 0.45668659 0
0.40482244 -0.79885375 0.37079883 0
0.37625632 -0.74248296 0.49363884 0
0.72712338 -1.39114 -0.056040552 0
1.1693221 -2.2371593 0.45525798 0
0.41856387 -0.80080074 0.37411934 0
0.38666511 -0.73977172 0.49503419 0
0.74118161 -1.3755637 -0.055784632 0
1.2037231 -2.2339976 0.45766282 0
0.43426719 -0.80595934 0.37905401 0
0.38388658 -0.7124576 0.47995305 0
0.75987059 -1.3686941 -0.055889644 0
1.2380362 -2.2299752 0.45999607 0
0.44352004 -0.79887712 0.37831983 0
0.39426196 -0.71015245 0.48170644 0
0.77835155 -1.361305 -0.0559837 0
1.279438 -2.2376847 0.46487284 0
0.47507882 -0.8308934 0.39628318 0
0.4037675 -0.70617282 0.48241749 0
0.79819518 -1.356094 -0.056178298 0
1.3184992 -2.2400646 0.4687793 0
0.49483347 -0.84069747 0.40389889 0
0.41479993 -0.70472449 0.48495787 0
0.8126356 -1.3416911 -0.056001108 0
1.3637137 -2.2515414 0.47473702 0
0.50015491 -0.82577413 0.39972332 0
0.42224476 -0.69714153 0.48336023 0
0.82760912 -1.3283744 -0.05587583 0
1.4009782 -2.2486746 0.47781438 0
0.42899439 -0.688568 0.48112309 0
0.8436957 -1.3169531 -0.055837866 0
1.4392853 -2.2466288 0.48119259 0
0.43605286 -0.68064964 0.47938892 0
0.86410403 -1.3121372 -0.056090578 0
1.4711262 -2.2338972 0.48239511 0
0.57827473 -0.87810701 0.43532363 0
0.44144556 -0.67033267 0.47599998 0
0.87740546 -1.2964964 -0.055889834 0
1.5078859 -2.2281246 0.48521036 0
0.5945043 -0.87846804 0.43917903 0
0.45639786 -0.67439538 0.48292753 0
0.89713389 -1.290342 -0.056107067 0
1.5525519 -2.2330256 0.49049607 0
0.60566533 -0.87112451 0.43928578 0
0.45497754 -0.65439129 0.47266796 0
0.91124618 -1.276054 -0.055980299 0
0.61549872 -0.86190718 0.43851131 0
0.45601588 -0.63857704 0.46535602 0
0.92621642 -1.2630819 -0.05591844 0
0.62525952 -0.8526668 0.43778113 0
0.4688727 -0.63940197 0.4702225 0
0.94454187 -1.2546339 -0.056066547 0
1.6852195 -2.2384751 0.10003203 0
1.6951551 -2.2516725 0.30289531 0
0.65083939 -0.86450922 0.4480336 0
0.47438613 -0.63012654 0.4677572 0
0.95325905 -1.2335762 -0.055657532 0
0.6553098 -0.84801143 0.44372493 0
0.48296371 -0.62498492 0.46841779 0
0.97765279 -1.2327447 -0.056171015 0
0.68512779 -0.86389333 0.45651323 0
0.49432394 -0.62330431 0.47178608 0
0.9890967 -1.2154216 -0.055944748 0
0.49362138 -0.60657167 0.46378899 0
1.0059123 -1.204776 -0.056033339 0
0.49636424 -0.59449285 0.45929608 0
1.0210094 -1.1920233 -0.056033738 0
0.50372267 -0.58809364 0.45921621 0
1.0296443 -1.1719103 -0.055693336 0
0.51680756 -0.58821487 0.46435568 0
1.0470586 -1.1618936 -0.055839472 0
1.7694322 -1.9634928 0.09436354 0
0.52185845 -0.57909274 0.46230534 0
1.0650287 -1.1523218 -0.056019541 0
1.7679193 -1.9128236 0.09299095 0
0.53605837 -0.57999545 0.46837771 0
1.0789844 -1.1383257 -0.055995204 0
0.93950731 -0.9911778 0.048756871 0
0.53507012 -0.56449759 0.46126688 0
1.0932646 -1.1246835 -0.055996884 0
0.94484168 -0.97199517 0.04839468 0
1.3989162 -1.4391192 0.21569039 0
0.54126281 -0.55681795 0.46052438 0
1.1090406 -1.1125357 -0.056082927 0
0.95202881 -0.95502919 0.048143022 0
1.3959595 -1.4003589 0.21249886 0
0.55100989 -0.55274642 0.46285883 0
1.1182292 -1.0938549 -0.05584662 0
0.96500933 -0.94397479 0.048194513 0
1.3025342 -1.2741425 0.19581941 0
1.307557 -1.279056 0.32987985 0
1.2984009 -1.2700994 0.46339992 0
0.5535835 -0.5415169 0.45925626 0
1.1447077 -1.0918922 -0.056477863 0
0.97765189 -0.93254417 0.048235625 0
1.3965529 -1.3321176 0.20741569 0
0.75401574 -0.7192263 0.34667727 0
0.56501049 -0.53894156 0.46306935 0
1.1490424 -1.0687212 -0.056023315 0
1.0113033 -0.94061053 0.049307641 0
1.3977575 -1.3000506 0.20514698 0
0.75417233 -0.70145369 0.34266096 0
0.57546908 -0.5352422 0.46608016 0
1.1611379 -1.053017 -0.055962112 0
1.3897827 -1.2603712 0.06698186 0
1.392554 -1.2628846 0.20203325 0
0.75048786 -0.68060517 0.33706623 0
0.57654709 -0.52286112 0.46158421 0
1.1748493 -1.0387951 -0.05598807 0
1.4014399 -1.2391452 0.066786364 0
1.3919598 -1.230763 0.19968274 0
1.4014832 -1.2391834 0.33738852 0
0.77068639 -0.68143648 0.34225696 0
0.59347302 -0.52474546 0.46980777 0
1.17302 -1.0111487 -0.055289734 0
1.3917352 -1.1996821 0.065598764 0
1.3934963 -1.2012001 0.19771762 0
1.3976127 -1.2047485 0.3327783 0
0.78798366 -0.67924553 0.34611273 0
0.59388888 -0.51193494 0.46499699 0
1.2031281 -1.0109781 -0.056104369 0
1.3935566 -1.1709937 0.064984448 0
1.4043554 -1.1800678 0.19713439 0
1.3975142 -1.1743191 0.32920781 0
1.4826518 -1.2458596 0.49408886 0
0.82880872 -0.69644082 0.36016411 0
0.82461578 -0.69291753 0.44595453 0
0.59832895 -0.50277066 0.46347973 0
1.2207596 -0.99984229 -0.056334991 0
1.3975865 -1.1446693 0.064495109 0
1.4013438 -1.1477467 0.19466743 0
1.3972825 -1.1444203 0.32573271 0
1.5011276 -1.2294729 0.49504736 0
0.85411185 -0.69954568 0.36730269 0
0.81081116 -0.66408098 0.43393224 0
0.6051774 -0.49566019 0.46391311 0
1.226638 -0.97911274 -0.056032859 0
1.4042325 -1.1208702 0.064145386 0
1.399878 -1.1173944 0.19249396 0
1.4020143 -1.1190995 0.32352504 0
1.5412791 -1.2302619 0.50313985 0
0.81729817 -0.65237427 0.34791103 0
0.81206346 -0.64819586 0.43020007 0
1.2265321 -0.95399469 -0.055474877 0
1.4035782 -1.0917009 0.063482501 0
1.3919785 -1.0826787 0.189518 0
1.4030924 -1.091323 0.32057732 0
0.81541449 -0.63422811 0.42771056 0
0.61669302 -0.47966284 0.46333206 0
1.2531134 -0.94958967 -0.056131851 0
1.4086807 -1.0674762 0.063100316 0
1.3904725 -1.0536783 0.18749164 0
1.3884484 -1.0521443 0.31417945 0
0.81615323 -0.61846811 0.42397946 0
0.63049096 -0.47777614 0.46914136 0
1.2561115 -0.92719686 -0.055738736 0
1.4015421 -1.0345461 0.062192075 0
1.3923951 -1.0277945 0.185991 0
1.3844827 -1.0219539 0.31034559 0
0.84626645 -0.62467033 0.43550205 0
0.63740069 -0.47049639 0.46983713 0
1.2677355 -0.91134268 -0.055740893 0
1.410416 -1.013912 0.06201439 0
1.402835 -1.0084622 0.18567455 0
1.4069351 -1.0114098 0.31249887 0
0.64793855 -0.46578649 0.47324386 0
1.2819872 -0.897322 -0.055866279 0
1.4118799 -0.98823988 0.061526723 0
1.3992594 -0.9794063 0.18355441 0
1.3991089 -0.97930092 0.30799714 0
1.4011889 -0.98075676 0.43635884 0
0.65283507 -0.45694941 0.47258011 0
1.3015438 -0.88680512 -0.056227431 0
1.4339694 -0.97703314 0.061948292 0
1.3951597 -0.95059019 0.18143201 0
1.3893529 -0.94663376 0.30320135 0
1.3943744 -0.95005512 0.43047693 0
0.6648289 -0.45298028 0.4770954 0
1.3168623 -0.87316865 -0.056409732 0
1.4755563 -0.97839344 0.063207619 0
1.3986644 -0.92740893 0.18035479 0
1.3955209 -0.92532462 0.30198064 0
1.3917272 -0.92280912 0.4260385 0
0.67632413 -0.44844857 0.4812541 0
1.3215474 -0.85251588 -0.056146119 0
1.5162756 -0.97813296 0.064419173 0
1.4081079 -0.90835518 0.1800833 0
1.3906614 -0.89710057 0.29846093 0
1.3969624 -0.90116537 0.42413372 0
0.67278749 -0.43400791 0.47481102 0
1.3275594 -0.83291143 -0.055951513 0
1.5339699 -0.96241349 0.064650916 0
1.40012 -0.87843603 0.177633 0
1.4049766 -0.88148302 0.29912728 0
1.3994087 -0.87798977 0.42148635 0
0.69315028 -0.43488285 0.48527864 0
1.3384523 -0.81644148 -0.055972878 0
1.5922458 -0.97125274 0.066586293 0
1.3986177 -0.85314167 0.17606549 0
1.3931069 -0.84978014 0.29429862 0
1.3930906 -0.84977019 0.41632754 0
0.69029778 -0.42107418 0.47953141 0
1.3478314 -0.79905277 -0.055939887 0
1.6173159 -0.9588148 0.067124464 0
1.4008641 -0.83049285 0.17501792 0
1.3901265 -0.82412714 0.2914536 0
1.4020797 -0.83121353 0.41585293 0
0.69396025 -0.41140968 0.47843891 0
1.360592 -0.78363496 -0.056055505 0
1.412405 -0.81347674 0.17516613 0
1.3962317 -0.80416167 0.29058751 0
1.3969357 -0.80456722 0.41128972 0
0.70008236 -0.40321347 0.47912121 0
1.3662045 -0.76412219 -0.055885892 0
1.4096619 -0.78842801 0.1735809 0
1.3975047 -0.78162843 0.28878114 0
1.3961481 -0.78086972 0.40813047 0
0.69913965 -0.39103085 0.47506854 0
1.3843081 -0.75152314 -0.056234866 0
1.3963509 -0.75806105 0.17075287 0
1.4028962 -0.76161444 0.28789064 0
1.4005898 -0.76036233 0.40659773 0
1.3809888 -0.72735918 -0.055723544 0
1.412715 -0.74406916 0.1715946 0
1.3927811 -0.7335701 0.28389683 0
1.3966966 -0.73563236 0.40274641 0
1.3949862 -0.71244043 -0.055921916 0
1.4018141 -0.71592754 0.16916211 0
1.3986361 -0.71430451 0.28323439 0
1.3951845 -0.7125417 0.39969143 0
1.3931613 -0.71150845 0.52044499 0
1.4104671 -0.69809645 -0.056185666 0
1.4070992 -0.69642955 0.16872826 0
1.4024757 -0.69414121 0.2822195 0
1.3946501 -0.69026792 0.39701679 0
1.4000756 -0.69295323 0.51972705 0
1.4153558 -0.67846513 -0.056035638 0
1.4321423 -0.68651187 0.17068109 0
1.4006046 -0.67139399 0.28011951 0
1.3878832 -0.66529584 0.39267448 0
1.4019176 -0.67202336 0.51722848 0
1.4236571 -0.66053033 -0.056030549 0
1.4604843 -0.67761695 0.17302822 0
1.3979458 -0.64860111 0.27793226 0
1.3932105 -0.64640415 0.39184773 0
1.3912854 -0.64551091 0.51026648 0
1.4307125 -0.64203697 -0.055985607 0
1.4948483 -0.67081809 0.17608471 0
1.3918902 -0.62461531 0.27514276 0
1.3984032 -0.62753808 0.39105469 0
1.3886929 -0.62318051 0.50639743 0
1.4416366 -0.6252526 -0.05610054 0
1.5199263 -0.6592077 0.17804685 0
1.3955566 -0.60526723 0.27433914 0
1.402578 -0.60831255 0.39004916 0
1.3999038 -0.6071527 0.50765741 0
1.4505725 -0.6075443 -0.056146119 0
1.5710371 -0.6579985 0.18304893 0
1.3829005 -0.57920116 0.27039602 0
1.3956884 -0.58455718 0.38605559 0
1.3994275 -0.58612317 0.50476819 0
1.4550147 -0.58798194 -0.056027036 0
1.5973903 -0.64551699 0.18515772 0
1.3979228 -0.56491071 0.27192086 0
1.4033426 -0.56710088 0.3861669 0
1.3948411 -0.56366533 0.50051403 0
1.4565955 -0.56739181 -0.055808365 0
1.6368101 -0.63759124 0.18878137 0
1.4074171 -0.54823518 0.27240324 0
1.3991959 -0.54503274 0.38310686 0
1.4009303 -0.54570836 0.5001936 0
0.8306129 -0.323551 0.44600582 0
1.468504 -0.55083692 -0.055994432 0
1.4130762 -0.53004593 0.27218515 0
1.3913591 -0.52189982 0.37913164 0
1.395294 -0.52337575 0.49578881 0
0.836344 -0.31371325 0.44692656 0
1.4658034 -0.5288682 -0.055633117 0
1.4171008 -0.51129609 0.27169865 0
1.3918775 -0.50219542 0.37751979 0
1.3983363 -0.50452578 0.49457321 0
0.81827754 -0.29523808 0.43525103 0
1.4850186 -0.5147627 -0.056111947 0
1.4185066 -0.49170721 0.27075961 0
1.3903842 -0.4819589 0.37543893 0
1.3956282 -0.48377669 0.49142182 0
1.3923361 -0.48263553 0.610129 0
0.81368107 -0.28205216 0.43088278 0
1.4904896 -0.49572679 -0.056078356 0
1.4063567 -0.46774477 0.26729503 0
1.4063725 -0.46775007 0.37813577 0
1.3819396 -0.45962384 0.48452556 0
1.3990172 -0.46530369 0.61044073 0
0.84543365 -0.28118554 0.44578695 0
1.4864656 -0.47368672 -0.055698119 0
1.406873 -0.44832322 0.26629907 0
1.3916186 -0.44346219 0.37263787 0
1.3925085 -0.44374573 0.48623341 0
1.3929142 -0.44387504 0.60529095 0
0.87132692 -0.27766266 0.45756027 0
1.4966683 -0.4562608 -0.055860713 0
1.4025044 -0.42755485 0.26443213 0
1.3973147 -0.42597276 0.37269723 0
1.4012649 -0.42717695 0.48737407 0
1.3985754 -0.42635706 0.60537004 0
0.8712517 -0.26560193 0.45572832 0
1.5099742 -0.43961564 -0.056146268 0
1.4359059 -0.41805127 0.26971585 0
1.3907502 -0.40490457 0.36955708 0
1.3893343 -0.40449238 0.48141477 0
1.4010968 -0.40791693 0.60419017 0
0.885005 -0.25766137 0.46118861 0
1.5123365 -0.41972098 -0.056033142 0
1.4588983 -0.40489021 0.27305534 0
1.3987284 -0.38819113 0.37034881 0
1.3982882 -0.388069 0.48278585 0
1.3908571 -0.38600662 0.59763116 0
0.87383783 -0.2425175 0.45374188 0
1.5103316 -0.39875263 -0.0557684 0
1.4851749 -0.39211082 0.27702728 0
1.3913624 -0.36734277 0.36714464 0
1.4016027 -0.37004641 0.48228317 0
1.3991781 -0.36940625 0.59916031 0
0.86790454 -0.22914121 0.44912717 0
1.5124515 -0.37900719 -0.055666041 0
1.5150008 -0.379646 0.28167665 0
1.3928233 -0.34902939 0.36634138 0
1.405609 -0.35223338 0.48209727 0
1.4002784 -0.35089758 0.59769195 0
0.87865025 -0.22018209 0.45321718 0
1.536196 -0.36446318 -0.056366578 0
1.5402536 -0.36542583 0.28549358 0
1.4043314 -0.33317825 0.36823553 0
1.3972062 -0.33148777 0.47774574 0
1.3922979 -0.33032325 0.59246314 0
0.89750499 -0.21293344 0.46152303 0
1.5332316 -0.34342709 -0.056094684 0
1.5768787 -0.35320356 0.29143474 0
1.3967969 -0.31286725 0.36519793 0
1.4020669 -0.31404763 0.47801769 0
1.3934138 -0.31210944 0.59121871 0
0.90364438 -0.20240645 0.46333274 0
1.5409776 -0.32484159 -0.05622397 0
1.6188422 -0.34125564 0.29837248 0
1.4082316 -0.29685843 0.36718109 0
1.3951406 -0.29409882 0.47435603 0
1.3872195 -0.29242906 0.58698159 0
0.89722377 -0.1891368 0.45878309 0
1.5472546 -0.30586952 -0.056307994 0
1.6495085 -0.3260836 0.30324382 0
1.4051399 -0.27777553 0.36543399 0
1.3864263 -0.27407613 0.47018242 0
1.3982511 -0.27641371 0.59012985 0
0.91570413 -0.18102126 0.46703017 0
1.5415442 -0.2846207 -0.055965316 0
1.4111131 -0.26053876 0.36610517 0
1.3956695 -0.25768733 0.47217917 0
1.4045998 -0.25933617 0.59138417 0
0.94510686 -0.17449839 0.48086745 0
1.5389684 -0.26415199 -0.055746622 0
1.4163164 -0.2430997 0.36663187 0
1.3972031 -0.23981905 0.47163898 0
1.4051949 -0.24119079 0.5903092 0
0.94225121 -0.1617301 0.47834039 0
1.563903 -0.24820235 -0.056532145 0
0.98333907 -0.1560628 0.035545852 0
0.98632425 -0.15653656 0.10732622 0
0.98688179 -0.15662506 0.18021041 0
0.98604631 -0.15649246 0.25472057 0
0.98685467 -0.15662074 0.33242995 0
0.98561394 -0.15642384 0.41318697 0
0.947905 -0.15043917 0.48021084 0
1.5531911 -0.22649156 -0.056037389 0
0.9679929 -0.14115599 0.034924097 0
0.9769122 -0.14245664 0.10609846 0
0.96173638 -0.14024363 0.17528233 0
0.96465123 -0.14066869 0.24871637 0
0.96153373 -0.14021409 0.32328001 0
0.96117085 -0.14016119 0.40216821 0
0.97757632 -0.14255348 0.49429381 0
1.5499753 -0.20612651 -0.055823293 0
0.95685959 -0.12724987 0.034461878 0
0.98397303 -0.13085559 0.10667789 0
0.98992354 -0.13164693 0.18010321 0
0.98711866 -0.13127393 0.25406283 0
0.98420858 -0.13088691 0.33032325 0
0.9909516 -0.13178365 0.41390178 0
0.96508574 -0.12834384 0.48712242 0
1.5586797 -0.18734314 -0.056047384 0
0.93985707 -0.11296469 0.03379561 0
0.98208874 -0.11804067 0.10630403 0
0.98999345 -0.11899076 0.17982906 0
0.99248654 -0.11929042 0.25503758 0
0.98352343 -0.11821311 0.32956758 0
0.98760903 -0.11870417 0.41184866 0
1.5647924 -0.16811921 -0.056186609 0
0.91770446 -0.098596938 0.032951783 0
1.4089159 -0.15137205 0.36152825 0
1.3969631 -0.15008786 0.46743619 0
1.3991953 -0.15032768 0.58265114 0
1.5671762 -0.14844029 -0.056200631 0
0.90260631 -0.085493349 0.032368436 0
1.3990369 -0.13251442 0.35853669 0
1.3998537 -0.13259178 0.46780762 0
1.3915493 -0.13180521 0.57873017 0
1.5520012 -0.12730798 -0.055594545 0
0.89845282 -0.073698536 0.032183658 0
1.3999822 -0.11483812 0.35837996 0
1.3913397 -0.11412918 0.46444529 0
1.4022385 -0.1150232 0.5825271 0
1.5677966 -0.10874929 -0.056106854 0
0.92397517 -0.064090997 0.03306637 0
1.4058926 -0.097518921 0.35955009 0
1.3931215 -0.096633054 0.46459708 0
1.4128954 -0.098004662 0.58639508 0
1.55827 -0.088389225 -0.055721674 0
1.3967133 -0.079225294 0.35691908 0
1.3972484 -0.079255648 0.46560362 0
1.3978809 -0.07929153 0.57970327 0
1.5674356 -0.06912227 -0.05601386 0
1.3983879 -0.061667442 0.35712028 0
1.3973191 -0.06162031 0.46533173 0
1.3861554 -0.061128002 0.57447594 0
1.5649425 -0.049278881 -0.05589816 0
1.3994045 -0.044066213 0.35720986 0
1.3968086 -0.043984469 0.46494046 0
1.3876173 -0.043695044 0.57480824 0
1.5630809 -0.029525911 -0.055813957 0
1.4164362 -0.026755858 0.36144269 0
1.3974391 -0.026397012 0.4650028 0
1.393356 -0.026319882 0.57700235 0
1.5707529 -0.009889232 -0.056079015 0
1.4089041 -0.0088702552 0.35946366 0
1.4043325 -0.0088414736 0.46722248 0
1.3984016 -0.0088041332 0.579 0
1.5699396 0.0098841116 -0.05604998 0
1.4150752 0.0089091081 0.36103815 0
1.3851811 0.008720899 0.46085081 0
1.3971622 0.0087963296 0.5784868 0
1.5617179 0.029500166 -0.05576529 0
1.4116976 0.026666349 0.36023352 0
1.3956007 0.026362283 0.46439102 0
1.3923705 0.026301267 0.57659423 0
1.5659363 0.049310174 -0.055933658 0
1.4132626 0.044502594 0.36074728 0
1.3945484 0.043913297 0.4641881 0
1.3947982 0.043921161 0.57778281 0
1.5679568 0.069145255 -0.056032486 0
1.4131304 0.062317573 0.3608852 0
1.4035017 0.06189296 0.46739069 0
1.3993222 0.061708644 0.57993275 0
1.5663596 0.088848092 -0.05601095 0
1.4173493 0.080395825 0.36219245 0
1.3999165 0.079406992 0.46649274 0
1.3980174 0.079299264 0.5797599 0
1.5693367 0.10885612 -0.056161966 0
1.861884 0.1291485 0.066631377 0
1.8668978 0.12949628 0.20111629 0
1.8623147 0.12917836 0.33667305 0
1.412606 0.09798459 0.361267 0
1.3932884 0.096644633 0.46465275 0
1.3929323 0.096619934 0.5781098 0
1.546939 0.12689273 -0.055413213 0
1.797493 0.14744525 0.064388357 0
1.809409 0.1484227 0.19510904 0
1.5671829 0.1285533 0.28358868 0
1.3994524 0.11479466 0.35824433 0
1.3939717 0.11434509 0.4653239 0
1.3985529 0.11472087 0.58099604 0
1.5508554 0.14689441 -0.055615351 0
1.8019725 0.17067981 0.064620681 0
1.7941611 0.16993992 0.19368024 0
1.4509674 0.13743319 0.2628513 0
1.4133772 0.1338727 0.3622117 0
1.4032305 0.13291164 0.46893615 0
1.3955709 0.13218613 0.58040267 0
1.5678177 0.16844425 -0.056295238 0
1.1967741 0.12857983 0.04297227 0
1.2056354 0.12953186 0.13031445 0
1.2010096 0.12903488 0.21784705 0
1.1960166 0.12849842 0.30689821 0
1.4075403 0.15122426 0.4709754 0
1.3980891 0.15020882 0.58219045 0
1.559727 0.18746902 -0.056085043 0
1.1080327 0.13317832 0.039842911 0
1.1190537 0.13450298 0.12112951 0
1.099474 0.13214961 0.19971584 0
1.1094605 0.13334991 0.28509614 0
1.4130467 0.16983901 0.47349596 0
1.3947163 0.16763581 0.58161891 0
1.5561097 0.20694232 -0.056044232 0
1.1097983 0.14758871 0.039970059 0
1.1078434 0.14732873 0.12010735 0
1.1070358 0.14722133 0.20141019 0
1.104688 0.14690912 0.28432262 0
1.3954883 0.18558174 0.46835825 0
1.3955628 0.18559167 0.58290023 0
1.5613002 0.22767405 -0.056329958 0
1.1015207 0.16062745 0.039741628 0
1.1129533 0.16229461 0.12087332 0
1.1202574 0.16335972 0.20417376 0
1.1000037 0.16040625 0.28361437 0
1.39218 0.20301239 0.46806881 0
1.3884696 0.20247133 0.5809564 0
1.5549374 0.24677946 -0.056208052 0
1.0992892 0.1744649 0.039737232 0
1.1093754 0.17606565 0.12071596 0
1.1133054 0.17668937 0.20329611 0
1.1031138 0.17507188 0.28496206 0
1.3892211 0.22047912 0.46797031 0
1.3930466 0.22108626 0.58399004 0
1.5409223 0.26448736 -0.055817399 0
1.113601 0.19114095 0.040338378 0
1.1146346 0.19131838 0.12154075 0
1.1078154 0.19014791 0.20271474 0
1.1098427 0.19049586 0.28729716 0
1.4057548 0.2412869 0.47452569 0
1.4061272 0.24135083 0.59070092 0
1.5410655 0.28453231 -0.055947933 0
1.1126103 0.20542516 0.040392999 0
1.1074284 0.2044684 0.12102614 0
1.1097504 0.20489711 0.20352481 0
1.0996951 0.20304056 0.28530955 0
1.3965826 0.25785595 0.47248814 0
1.3940984 0.25739726 0.58696276 0
1.5335672 0.30316374 -0.055809882 0
1.1072487 0.21888681 0.040295213 0
1.1026627 0.21798022 0.1207957 0
1.1017333 0.2177965 0.20254143 0
1.1153542 0.22048914 0.29006955 0
1.394164 0.27560577 0.47280651 0
1.3991836 0.27659807 0.59052348 0
1.540946 0.32483491 -0.056222811 0
1.1169853 0.23546305 0.040754225 0
1.1014601 0.2321903 0.12097467 0
1.1008652 0.2320649 0.20290297 0
1.1178082 0.23563652 0.29145634 0
1.3934107 0.29373413 0.47376785 0
1.4031231 0.29578155 0.59371096 0
1.5275086 0.3421452 -0.055885304 0
1.1019433 0.24682324 0.040315606 0
1.1078037 0.24813589 0.12200489 0
1.1117246 0.24901415 0.20546614 0
1.1055799 0.24763778 0.28905806 0
1.3915874 0.31170034 0.47444481 0
1.3957015 0.31262186 0.59218937 0
1.5326235 0.3636156 -0.056235496 0
1.1071496 0.26267171 0.040623873 0
1.0982336 0.2605564 0.12130264 0
1.106441 0.26250359 0.20508428 0
1.1143258 0.26437429 0.29219198 0
1.3961653 0.3312408 0.47738981 0
1.3959029 0.33117858 0.59399718 0
1.5218637 0.38136578 -0.056012455 0
1.1090897 0.2779282 0.040820237 0
1.1167006 0.27983546 0.12372178 0
1.1184009 0.28026152 0.20793876 0
1.1141471 0.27919555 0.29304373 0
1.3961906 0.34987321 0.47886696 0
1.3910701 0.34859008 0.5937615 0
1.515566 0.40013456 -0.055961676 0
1.1098738 0.29302511 0.04098165 0
1.1110007 0.29332262 0.12348969 0
1.1113992 0.29342785 0.20730752 0
1.1107459 0.29325536 0.29309717 0
1.3978217 0.36904812 0.4809821 0
1.3962908 0.36864394 0.59792382 0
1.5141762 0.42023158 -0.056101307 0
1.1181767 0.31032923 0.04142924 0
1.1096755 0.3079699 0.12376364 0
1.1109517 0.30832407 0.20793174 0
1.1099144 0.30803618 0.29387799 0
1.388258 0.38528526 0.4793227 0
1.3995465 0.38841823 0.60136485 0
1.5049124 0.43814191 -0.055958051 0
1.1143271 0.32442644 0.041434687 0
1.1046343 0.32160449 0.12364326 0
1.109275 0.32295561 0.20836256 0
1.1097995 0.32310832 0.29490149 0
1.4017801 0.40811589 0.48572737 0
1.4007112 0.40780467 0.60402387 0
1.5025195 0.45804453 -0.056079097 0
1.415532 0.4315263 0.37755623 0
1.3892871 0.42352551 0.48320809 0
1.3995786 0.42666289 0.60580426 0
1.5034388 0.47909552 -0.056334112 0
1.406129 0.44808617 0.37652335 0
1.3891898 0.44268823 0.48507464 0
1.3962016 0.44492263 0.60671949 0
1.4875485 0.49474862 -0.0559677 0
1.4028717 0.4665857 0.37719446 0
1.3949312 0.46394473 0.48908055 0
1.3982825 0.46505934 0.61012018 0
1.4788203 0.51261413 -0.055877738 0
1.4071009 0.48775357 0.37995288 0
1.3894935 0.48165017 0.48926172 0
1.3892606 0.48156947 0.60878134 0
1.4802645 0.53408587 -0.056181975 0
1.3957174 0.50358087 0.37856132 0
1.3884398 0.5009551 0.49107295 0
1.3885514 0.50099528 0.6111865 0
1.4701121 0.55144012 -0.056055751 0
1.4002553 0.52523679 0.38155577 0
1.3868291 0.52020061 0.49278101 0
1.3840909 0.5191735 0.61205226 0
1.470348 0.57274884 -0.056335285 0
1.4069484 0.54805261 0.38522953 0
1.3961626 0.5438512 0.49849138 0
1.3928207 0.54254943 0.61888468 0
1.4455971 0.58417624 -0.055664398 0
1.396391 0.56429172 0.38425398 0
1.3855846 0.55992478 0.49719256 0
1.3875151 0.56070483 0.61961526 0
1.4442923 0.60491395 -0.055903032 0
1.3900861 0.58221072 0.38450593 0
1.3790843 0.57760286 0.4974305 0
1.3854296 0.58026046 0.62189764 0
1.439343 0.62425786 -0.056011286 0
1.3893706 0.6025843 0.38637623 0
1.3900068 0.60286027 0.50406837 0
1.375972 0.59677327 0.62097627 0
1.4179388 0.63630474 -0.055485755 0
1.3862803 0.62209785 0.38766456 0
1.3832644 0.62074447 0.5044179 0
1.3780596 0.6184088 0.62538314 0
1.4265865 0.66188949 -0.056145847 0
1.389976 0.64490342 0.39093801 0
1.3763802 0.6385954 0.50479984 0
1.3786695 0.63965756 0.62926537 0
1.4164662 0.6789974 -0.056079604 0
1.3870734 0.66490769 0.39244536 0
1.3717405 0.65755767 0.50609487 0
1.3732706 0.65829116 0.63053471 0
1.4106234 0.69817382 -0.056191891 0
1.3758887 0.68098223 0.39167598 0
1.3663521 0.67626214 0.50720847 0
1.3753446 0.68071288 0.63537222 0
1.412571 0.7214213 -0.056626853 0
1.3648999 0.69707489 0.39101553 0
1.3599597 0.69455189 0.50804186 0
1.371115 0.70024908 0.63744122 0
1.3821665 0.72797942 -0.055771064 0
1.5865183 0.83561039 0.45748273 0
1.3527119 0.71246588 0.50864542 0
1.3589063 0.7157284 0.63590497 0
1.3785815 0.74841428 -0.056002237 0
1.3546456 0.73541981 0.39325994 0
1.3491017 0.73241007 0.51071537 0
1.3533033 0.73469108 0.63756168 0
1.3629717 0.76231402 -0.055753645 0
1.3467412 0.75323629 0.39368752 0
1.3478948 0.75388145 0.51381141 0
1.350334 0.7552458 0.64059246 0
1.3496054 0.77730721 -0.055602867 0
1.3452638 0.77480668 0.39607635 0
1.339574 0.77152961 0.51430219 0
1.3454148 0.77489358 0.64283675 0
1.3456624 0.79776686 -0.055849861 0
1.3331017 0.7903204 0.39539427 0
1.335186 0.791556 0.51640338 0
1.3361255 0.79211301 0.6431132 0
1.3429368 0.81917685 -0.056160405 0
1.330404 0.81153208 0.39759353 0
1.3287678 0.81053394 0.51782745 0
1.3302691 0.81144977 0.64516139 0
1.3253384 0.83151799 -0.055857908 0
1.3169768 0.82627189 0.39665875 0
1.3235829 0.83041662 0.51984072 0
1.3217583 0.82927179 0.64604688 0
1.3195953 0.85125667 -0.056063186 0
1.3165973 0.84932268 0.39973396 0
1.3158398 0.84883398 0.52095634 0
1.3141922 0.84777111 0.6475153 0
1.3157717 0.87244546 -0.056363013 0
1.3213434 0.87613988 0.40449244 0
1.2919838 0.85667253 0.51574141 0
1.3046863 0.86509514 0.64814758 0
1.2937816 0.88151634 -0.055892099 0
1.2921582 0.88041025 0.39892036 0
1.3065547 0.89021927 0.52599102 0
1.2927117 0.88078743 0.64765733 0
1.2887862 0.90208095 -0.056162562 0
1.2883247 0.90175796 0.40121064 0
1.2861902 0.90026391 0.52231503 0
1.2878882 0.90145242 0.65087616 0
1.2734647 0.91546124 -0.055992797 0
1.2771637 0.91812038 0.40130347 0
1.2838304 0.92291284 0.52603447 0
1.2875972 0.92562068 0.65656751 0
1.2657754 0.93433034 -0.056167565 0
1.2678291 0.93584621 0.40204132 0
1.2732381 0.93983883 0.52650177 0
1.2705441 0.93785024 0.65384197 0
1.2465929 0.9446485 -0.055839766 0
1.2549485 0.95098031 0.40172231 0
1.2582049 0.95344788 0.52520835 0
1.2599437 0.95476556 0.654522 0
1.243217 0.96697211 -0.056229513 0
1.2467659 0.96973246 0.40297988 0
1.2480429 0.97072577 0.5260272 0
1.2486519 0.97119945 0.65495723 0
1.2301708 0.9819327 -0.056194238 0
1.2284913 0.98059207 0.40103245 0
1.2419544 0.99133849 0.52868056 0
1.2378023 0.98802418 0.6557402 0
1.2233514 1.0019649 -0.056454591 0
1.2248113 1.0031608 0.40392277 0
1.2296091 1.0070903 0.52878171 0
1.2281573 1.0059012 0.65728873 0
1.192158 1.00176 -0.055592809 0
1.2204902 1.0255674 0.40672433 0
1.2233241 1.0279487 0.53160328 0
1.2220879 1.0269098 0.66090858 0
1.185555 1.0219538 -0.055880561 0
1.2752764 1.0992942 0.060109541 0
1.2777537 1.1014295 0.18129537 0
1.2766629 1.1004893 0.30397958 0
1.2027633 1.0367875 0.40513551 0
1.2080576 1.0413512 0.53062534 0
1.203989 1.0378441 0.65813613 0
1.1739827 1.0380288 -0.055946775 0
1.2412213 1.0974808 0.059151061 0
1.2340022 1.0910977 0.17702304 0
1.244457 1.1003418 0.29958653 0
1.1963881 1.0578396 0.40744266 0
1.1953006 1.056878 0.53082544 0
1.1961461 1.0576255 0.66107649 0
1.1614537 1.0533035 -0.055977337 0
1.2101456 1.0974613 0.058324084 0
1.2200508 1.1064442 0.1770063 0
1.2139477 1.1009094 0.29555571 0
1.1757431 1.0662622 0.40495223 0
1.178388 1.068661 0.52924883 0
1.1709038 1.0618736 0.65446383 0
1.1467141 1.0665557 -0.055909798 0
1.1885164 1.105436 0.05794793 0
1.1906065 1.1073799 0.1747437 0
1.1947684 1.111251 0.29426974 0
1.1683615 1.0866899 0.40709057 0
1.1706971 1.0888622 0.53191054 0
1.1737341 1.0916868 0.66367674 0
1.1396134 1.0870329 -0.056226518 0
1.1824515 1.1278945 0.058340076 0
1.1791414 1.1247371 0.17512578 0
1.1847184 1.1300569 0.29527581 0
1.1528424 1.0996516 0.40647575 0
1.1603346 1.1067981 0.53349233 0
1.1583251 1.1048813 0.66277826 0
1.1269407 1.1023765 -0.056281693 0
1.1738298 1.1482435 0.058623426 0
1.165693 1.1402842 0.17524709 0
1.173012 1.1474435 0.29593587 0
1.1349578 1.1102189 0.40506697 0
1.1480162 1.1229926 0.53428793 0
1.1483941 1.1233623 0.66513711 0
1.1051002 1.108583 -0.055883668 0
1.1553428 1.1589839 0.05842438 0
1.1569403 1.1605865 0.17611434 0
1.1605659 1.1642234 0.29647094 0
1.126737 1.1302879 0.40718037 0
1.1345049 1.1380804 0.53462702 0
1.1329964 1.1365671 0.66445559 0
1.0939709 1.1254101 -0.05603306 0
1.158973 1.1922803 0.05936246 0
1.155252 1.1884524 0.1781213 0
1.1551819 1.1883802 0.29889458 0
1.1266283 1.159006 0.41238254 0
1.1214542 1.1536833 0.53528053 0
1.119954 1.15214 0.66526228 0
1.0719762 1.1309321 -0.055631507 0
1.1730068 1.237519 0.060874607 0
1.1722499 1.2367206 0.18312868 0
1.1677964 1.232022 0.30614832 0
1.106375 1.1672227 0.41031656 0
1.1104695 1.1715423 0.53703618 0
1.1069444 1.1678236 0.66621685 0
1.0569148 1.1435429 -0.055592757 0
1.093963 1.1836277 0.41120836 0
1.0937011 1.1833444 0.53609061 0
1.10086 1.19109 0.67152858 0
1.0489638 1.1640078 -0.055941075 0
1.072952 1.1906269 0.4089137 0
1.0697614 1.1870863 0.53164107 0
1.0739307 1.191713 0.66420287 0
1.0344713 1.1774043 -0.05595443 0
1.0577331 1.2038801 0.40885863 0
1.0619597 1.2086908 0.53528535 0
1.0588636 1.2051669 0.66421735 0
1.0171045 1.1874644 -0.055819433 0
1.0460492 1.2212572 0.41025421 0
1.0492073 1.2249442 0.53658986 0
1.0422978 1.2168775 0.66338527 0
1.0011965 1.1991279 -0.055770651 0
1.0263857 1.2292968 0.40858087 0
1.0228693 1.2250853 0.53096735 0
1.0257089 1.2284863 0.66262019 0
0.99094212 1.2176892 -0.056049127 0
1.0162573 1.2487969 0.41077623 0
1.0118867 1.2434263 0.53335178 0
1.0124856 1.2441622 0.66414601 0
0.97882599 1.2342241 -0.05623842 0
1.0067235 1.2694006 0.41335088 0
0.99778467 1.2581295 0.53422689 0
0.99334264 1.2525284 0.6618824 0
0.95882875 1.2407837 -0.055982728 0
0.97774714 1.2652653 0.40796286 0
0.98542082 1.2751955 0.53616202 0
0.98664331 1.2767775 0.66807824 0
0.93958652 1.2480516 -0.055772405 0
0.96478218 1.2815191 0.40925398 0
0.96355116 1.279884 0.53298956 0
0.97401142 1.2937783 0.67050314 0
0.93195438 1.2709068 -0.056264859 0
0.94979966 1.2952424 0.40978462 0
0.94534034 1.2891612 0.53185356 0
0.95291811 1.299495 0.66719425 0
0.9141866 1.2801715 -0.056160934 0
0.9300549 1.3023926 0.40830916 0
0.93551499 1.3100386 0.53556418 0
0.93542045 1.3099061 0.66643912 0
0.89455718 1.2866359 -0.055945918 0
0.91450107 1.3153211 0.40871972 0
0.91470236 1.3156105 0.53309107 0
0.91771913 1.3199495 0.66561675 0
0.87837112 1.2979233 -0.055951346 0
0.90364403 1.3352678 0.41134945 0
0.89863479 1.3278658 0.53342944 0
0.90847576 1.3424073 0.67111969 0
0.86755174 1.3173726 -0.056314375 0
0.87864161 1.3342125 0.40758359 0
0.88029182 1.3367183 0.53249043 0
0.88372016 1.3419243 0.6652621 0
0.84540987 1.3196288 -0.055951316 0
0.85914522 1.3410687 0.40634096 0
0.86412597 1.3488433 0.53294367 0
0.86742067 1.3539861 0.66577411 0
0.82618582 1.3260899 -0.055779736 0
0.84935999 1.3632861 0.40979964 0
0.84520376 1.3566151 0.53176707 0
0.84745479 1.3602282 0.66354352 0
0.81369001 1.3434321 -0.056073774 0
0.82891363 1.3685668 0.40821701 0
0.83187783 1.3734608 0.53422183 0
0.82783169 1.3667804 0.66160226 0
0.79420257 1.3493108 -0.055897288 0
0.80669135 1.3705286 0.40574008 0
0.80993515 1.3760396 0.53121579 0
0.8152644 1.3850937 0.66544485 0
0.7747885 1.3550733 -0.055727426 0
0.79063362 1.3827858 0.40638918 0
0.7938394 1.3883926 0.53208345 0
0.79232168 1.3857381 0.66090876 0
0.76237732 1.3732091 -0.056074016 0
0.7761144 1.3979527 0.40794206 0
0.78005528 1.4050511 0.53466088 0
0.78083187 1.40645 0.66604471 0
0.74452984 1.3817778 -0.056036636 0
0.75627619 1.4035779 0.40677235 0
0.7576679 1.4061608 0.53141052 0
0.75973028 1.4099884 0.66313738 0
0.72718745 1.3912627 -0.056045491 0
0.73461413 1.4054714 0.40460816 0
0.73734331 1.4106929 0.52957243 0
0.73502296 1.4062536 0.65697575 0
0.70996577 1.4010063 -0.056073423 0
0.71649617 1.4138931 0.40440321 0
0.72070378 1.4221961 0.53044182 0
0.72010696 1.4210184 0.65958506 0
0.69315267 1.411634 -0.056144986 0
0.70293289 1.4315519 0.40689 0
0.69882596 1.4231879 0.52748781 0
0.69929653 1.4241463 0.65689749 0
0.6769743 1.4237213 -0.056282226 0
0.67989445 1.4298627 0.40394449 0
0.6777758 1.4254069 0.52510536 0
0.68521202 1.4410458 0.66066027 0
0.65573341 1.425046 -0.056003731 0
0.65882152 1.4317571 0.40210411 0
0.65937084 1.4329509 0.52478409 0
0.65496612 1.4233785 0.64872801 0
0.63872272 1.4354016 -0.056090172 0
0.64290375 1.4447975 0.40346086 0
0.64204538 1.4428686 0.52541375 0
0.63811815 1.4340428 0.64987469 0
0.61831349 1.4380156 -0.055883642 0
