# .PCD v0.7 - Point Cloud Data file format
VERSION 0.7
FIELDS x y z intensity
SIZE 4 4 4 4
TYPE F F F F
COUNT 1 1 1 1
WIDTH 1347
HEIGHT 1
VIEWPOINT 0 0 0 1 0 0 0
POINTS 1347
DATA ascii
-1.2809465 -0.31244007 0.43865734 0
-1.2741001 -0.31077012 0.54298872 0
-1.2714251 -0.31011766 0.65479505 0
-1.5190765 -0.39085215 -0.055999368 0
-0.98028606 -0.25222358 0.03613735 0
-0.97684085 -0.25133714 0.10839963 0
-0.97010088 -0.24960299 0.18065479 0
-1.3269771 -0.34142578 0.34958112 0
-1.304444 -0.33562806 0.44811574 0
-1.2999153 -0.33446288 0.55574131 0
-1.2935869 -0.3328346 0.66831404 0
-1.5213403 -0.41192627 -0.056269579 0
-0.97341877 -0.26356807 0.036003686 0
-0.961766 -0.26041293 0.10708219 0
-0.97148424 -0.2630443 0.18151484 0
-1.3375874 -0.36217234 0.35354972 0
-1.3204371 -0.3575286 0.45512035 0
-1.3193423 -0.35723218 0.565925 0
-1.5089636 -0.42903909 -0.056007184 0
-0.9593209 -0.27276084 0.035606466 0
-0.95872945 -0.27259266 0.10711778 0
-0.95251596 -0.27082601 0.17859378 0
-1.3668566 -0.38863423 0.36255088 0
-1.3522038 -0.38446805 0.46770114 0
-1.3454618 -0.3825511 0.57914925 0
-1.5042834 -0.44825554 -0.056038536 0
-0.94927245 -0.28286999 0.03536291 0
-0.9453944 -0.28171438 0.10601581 0
-0.94356877 -0.28117037 0.17756598 0
-1.3699064 -0.40821308 0.36469439 0
-1.3729033 -0.40910608 0.47660473 0
-1.3759537 -0.41001508 0.59444964 0
-1.4973297 -0.46678966 -0.055994023 0
-0.94520032 -0.29466438 0.035346635 0
-0.93351626 -0.29102188 0.10508642 0
-0.94438374 -0.29440981 0.17840286 0
-1.4067904 -0.43856421 0.37595397 0
-1.3971884 -0.43557081 0.48690078 0
-1.4080722 -0.4389638 0.61066532 0
-1.4878663 -0.48447683 -0.055863839 0
-0.92799824 -0.30217344 0.034842879 0
-0.92911595 -0.30253738 0.1050116 0
-0.93046188 -0.30297562 0.17647961 0
-1.4251029 -0.46403989 0.38237908 0
-1.4222292 -0.46310416 0.4976199 0
-1.4341468 -0.46698478 0.62447435 0
-1.4869086 -0.50495887 -0.056062173 0
-0.92175657 -0.31303149 0.03475377 0
-0.91977221 -0.31235757 0.10439182 0
-0.91403389 -0.31040883 0.17409129 0
-1.4617779 -0.49642444 0.39386564 0
-1.4585176 -0.49531722 0.51245838 0
-1.4589782 -0.49547365 0.63795292 0
-1.476527 -0.52225941 -0.055914272 0
-0.9161588 -0.32405269 0.034693815 0
-0.91265386 -0.32281294 0.10403702 0
-0.9129501 -0.32291773 0.1746455 0
-1.4928433 -0.52803057 0.40399551 0
-1.4930221 -0.52809381 0.52687645 0
-1.4804999 -0.54473358 -0.056320012 0
-0.9045136 -0.33280581 0.034408793 0
-0.9175266 -0.33759379 0.10506874 0
-0.90569848 -0.33324176 0.17404722 0
-1.5221332 -0.56005216 0.41379768 0
-1.5213715 -0.5597719 0.53932548 0
-1.45056 -0.55455267 -0.055442311 0
-0.89360285 -0.34162658 0.034154676 0
-0.90065509 -0.34432265 0.10362503 0
-0.89031386 -0.34036919 0.17190078 0
-1.5523633 -0.5934723 0.42401385 0
-1.5653625 -0.5984419 0.55754745 0
-1.4583464 -0.57867897 -0.056013986 0
-0.87419111 -0.34688333 0.033577025 0
-0.88547105 -0.35135925 0.10237896 0
-0.88493872 -0.35114801 0.17170307 0
-1.604702 -0.63675362 0.44046482 0
-1.6027088 -0.63596267 0.5736562 0
-1.4474691 -0.5955655 -0.05587982 0
-0.87530917 -0.36014858 0.033791475 0
-0.86755216 -0.35695693 0.10081887 0
-0.87494367 -0.3599982 0.1706298 0
-1.6395673 -0.67460483 0.45233059 0
-1.4468669 -0.6167323 -0.056151927 0
-0.86200881 -0.36743441 0.033453979 0
-0.86435795 -0.36843574 0.10097881 0
-0.86478037 -0.36861581 0.16953954 0
-1.6781002 -0.71529639 0.46540931 0
-1.4330096 -0.63226402 -0.055918686 0
-0.86177385 -0.38022676 0.033628009 0
-0.85675955 -0.37801439 0.10063924 0
-0.85324359 -0.37646309 0.1681938 0
-1.7284168 -0.76260185 0.48198929 0
-1.4312534 -0.65314054 -0.056166638 0
-0.83921772 -0.38297001 0.032933399 0
-0.83482182 -0.38096398 0.098618001 0
-0.84530705 -0.38574883 0.16757356 0
-1.4163146 -0.66799647 -0.055906061 0
-0.83860999 -0.39552546 0.033102378 0
-0.84387106 -0.3980068 0.10027109 0
-0.83969593 -0.39603761 0.16743654 0
-1.4049749 -0.68440455 -0.055794206 0
-0.83103848 -0.40482324 0.033002108 0
-0.81759822 -0.39827612 0.097737446 0
-0.82745343 -0.40307689 0.1659943 0
-1.4006246 -0.70424217 -0.055969175 0
-0.8228181 -0.41371775 0.032879937 0
-0.81831777 -0.41145495 0.098435022 0
-0.81998116 -0.41229132 0.16552368 0
-1.3904765 -0.72121519 -0.055922128 0
-0.81021333 -0.42024311 0.032585129 0
-0.81318706 -0.42178553 0.098448932 0
-0.80572903 -0.41791716 0.16369602 0
-1.3762348 -0.73596495 -0.055717655 0
-0.8066802 -0.43138593 0.032658909 0
-0.79754335 -0.42649984 0.097197503 0
-0.80670947 -0.43140161 0.16498579 0
-1.3728204 -0.75652021 -0.055960663 0
-0.8032546 -0.44264957 0.032743294 0
-0.79851657 -0.44003856 0.097983636 0
-0.80180281 -0.4418495 0.1651071 0
-1.3703007 -0.77778399 -0.056252725 0
-0.79203224 -0.44955826 0.032514013 0
-0.78713262 -0.44677722 0.097269371 0
-0.79244685 -0.44979358 0.16433381 0
-1.349058 -0.78834885 -0.055783782 0
-0.78383881 -0.45805177 0.097567372 0
-0.7693162 -0.4495652 0.16069831 0
-1.3490155 -0.81128091 -0.056199994 0
-0.77273774 -0.46471474 0.096906289 0
-0.76445967 -0.45973638 0.16088034 0
-1.333447 -0.82495642 -0.055979736 0
-0.76152039 -0.47112572 0.096235909 0
-0.7542817 -0.46664742 0.15996236 0
-1.3170085 -0.83789814 -0.055728156 0
-0.75391591 -0.47965121 0.16115288 0
-1.31521 -0.86020666 -0.056105949 0
-0.74817872 -0.48934266 0.16123089 0
-1.2921371 -0.86854005 -0.055583827 0
-1.2907487 -0.89140517 -0.056002516 0
-0.74715179 -0.51599115 0.16375847 0
-1.2837731 -0.91067272 -0.056192946 0
-1.2718533 -0.92650872 -0.056177419 0
-1.2551403 -0.93874997 -0.055956904 0
-1.2442722 -0.9552865 -0.056004226 0
-1.2318338 -0.9706322 -0.055990066 0
-1.215306 -0.9826625 -0.055796839 0
-1.2050508 -0.99972349 -0.055899538 0
-1.1916907 -1.0142412 -0.055867806 0
-1.1766044 -1.0272264 -0.055762537 0
-1.1719254 -1.0494356 -0.056162614 0
-1.1623721 -1.0675555 -0.05634455 0
-1.1410037 -1.0747272 -0.055960309 0
-1.1332022 -1.0946314 -0.05624925 0
-1.1137446 -1.1032805 -0.05596859 0
-1.1025195 -1.120015 -0.056108788 0
-1.0808065 -1.1259706 -0.055720925 0
-1.0731734 -1.1465734 -0.056067303 0
-1.0588017 -1.1601595 -0.056075249 0
-1.0449876 -1.1743854 -0.056122385 0
-1.0368102 -1.1951646 -0.056486998 0
-0.60897142 -0.70198101 0.033177689 0
-1.0185553 -1.2044302 -0.056314267 0
-0.59874487 -0.70800912 0.033103634 0
-0.9923889 -1.2039115 -0.055701323 0
-0.57626462 -0.69909257 0.032344881 0
-0.98005122 -1.2199209 -0.055866614 0
-0.58114767 -0.72338486 0.03312761 0
-0.96743947 -1.2357744 -0.056030296 0
-0.58586472 -0.74836373 0.033930987 0
-0.61598277 -0.78683555 0.10739108 0
-0.60877907 -0.77763379 0.17810985 0
-0.60883594 -0.77770638 0.25198835 0
-0.61136597 -0.78093815 0.32996029 0
-0.61166871 -0.78132486 0.41083699 0
-0.95008451 -1.2456048 -0.055929143 0
-0.58472115 -0.7665965 0.034421097 0
-0.60550499 -0.79384512 0.10729863 0
-0.59532076 -0.78049308 0.17703374 0
-0.59369302 -0.77835906 0.24975772 0
-0.59349924 -0.77810502 0.32557976 0
-0.59637529 -0.78187561 0.40714556 0
-0.59018189 -0.77375573 0.48690394 0
-0.93473274 -1.2580168 -0.055953518 0
-0.58201975 -0.78331542 0.034839962 0
-0.58558303 -0.78811109 0.10551858 0
-0.58370262 -0.78558034 0.17650649 0
-0.58473182 -0.78696555 0.25013688 0
-0.58420461 -0.78625602 0.3258864 0
-0.58252364 -0.78399366 0.40439674 0
-0.58035845 -0.78107959 0.4868753 0
-0.91594326 -1.2657131 -0.055778414 0
-0.5799548 -0.80142117 0.035317644 0
-0.57919723 -0.80037433 0.10617556 0
-0.58104831 -0.80293226 0.17874706 0
-0.58118999 -0.80312806 0.2529279 0
-0.58201349 -0.80426598 0.33028731 0
-0.58013159 -0.80166548 0.40971157 0
-0.56500393 -0.78076106 0.48220369 0
-0.90292096 -1.2813848 -0.055963561 0
-2.0210867 -2.8682351 0.1252681 0
-0.54849553 -0.77840012 0.47644213 0
-0.88843298 -1.2951562 -0.056071974 0
-1.9842547 -2.8926435 0.12523295 0
-0.53746682 -0.78351831 0.47539467 0
-0.8739922 -1.3091418 -0.056196537 0
-1.9573603 -2.931905 0.12585565 0
-0.52414674 -0.78511268 0.47232002 0
-0.85602474 -1.317865 -0.056103829 0
-1.9227546 -2.9601142 0.12601727 0
-0.50449735 -0.77668244 0.4633899 0
-0.84201658 -1.3327384 -0.056281172 0
-1.8927988 -2.9959097 0.12651643 0
-0.48987123 -0.775365 0.45888719 0
-0.81711185 -1.330119 -0.055731628 0
-1.8567563 -3.0224831 0.12664123 0
-1.2170148 -1.9810929 0.24987143 0
-1.2144365 -1.9768959 0.41843128 0
-0.47813773 -0.77832687 0.45704055 0
-0.80587846 -1.3496457 -0.056120154 0
-1.8255302 -3.0573084 0.12712716 0
-1.1810387 -1.9779458 0.24757908 0
-1.177937 -1.9727513 0.41438162 0
-0.46288353 -0.77521461 0.45175454 0
-0.78924954 -1.3604246 -0.056150649 0
-1.7912337 -3.0875385 0.12743616 0
-0.45288786 -0.78064001 0.45155704 0
-0.76969755 -1.3660657 -0.055979006 0
-0.44832584 -0.7956925 0.45696229 0
-0.75540531 -1.3810774 -0.056199908 0
-0.42980364 -0.78579283 0.44813323 0
-0.73541242 -1.3856866 -0.056006197 0
-0.40593907 -0.76488286 0.43325886 0
-0.71809697 -1.3952063 -0.056021046 0
-0.40328071 -0.78354287 0.44091719 0
-0.6998077 -1.4028044 -0.05596786 0
-0.40388307 -0.80960661 0.45268607 0
-0.6827231 -1.4128164 -0.056019872 0
-0.66488069 -1.4213023 -0.056019936 0
-0.64413697 -1.4233848 -0.0557779 0
-0.62386274 -1.4261224 -0.055572927 0
-0.60826081 -1.4395542 -0.055793449 0
-0.59299803 -1.4542382 -0.056068707 0
-0.57127893 -1.4530395 -0.055740718 0
-0.3368139 -0.85668117 0.38112593 0
-0.55517513 -1.4660246 -0.055966228 0
-0.31951612 -0.84373111 0.37354505 0
-0.53288215 -1.4624972 -0.055571001 0
-0.2859517 -0.78479558 0.49535391 0
-0.51698124 -1.4763901 -0.055847105 0
-0.30243957 -0.86370409 0.37889481 0
-0.27303454 -0.77972949 0.48994732 0
-0.50289488 -1.4963031 -0.056356341 0
-0.80714536 -2.4015639 0.45692658 0
-0.28345922 -0.84339875 0.36839211 0
-0.26029721 -0.77448303 0.48455268 0
-0.48181888 -1.4957001 -0.05610067 0
-0.77358162 -2.401413 0.45500842 0
-0.27623069 -0.85749704 0.37300125 0
-0.25263855 -0.78426039 0.48864079 0
-0.46273318 -1.5009513 -0.056074634 0
-0.74574172 -2.4189363 0.4565132 0
-0.26804233 -0.86943948 0.37669802 0
-0.24317433 -0.78877604 0.48950759 0
-0.44359997 -1.5059874 -0.056049649 0
-0.71903098 -2.4410541 0.45894229 0
-0.25634971 -0.8702873 0.37563699 0
-0.2304682 -0.78242165 0.48372474 0
-0.42261228 -1.5043685 -0.055786915 0
-0.69283807 -2.4662886 0.4620097 0
-0.25206083 -0.89725834 0.38587779 0
-0.22114429 -0.78720504 0.48492196 0
-0.40534404 -1.5159549 -0.056022856 0
-0.66770047 -2.4971473 0.46617848 0
-0.25070679 -0.93762368 0.40184787 0
-0.20961677 -0.78395021 0.48125288 0
-0.38819724 -1.5287082 -0.056309052 0
-0.63872874 -2.5152931 0.46802741 0
-0.24223596 -0.95391738 0.40749145 0
-0.19999458 -0.78757221 0.48189217 0
-0.367248 -1.5265325 -0.056054123 0
-0.61488169 -2.5558665 0.47409871 0
-0.19228022 -0.79924738 0.48751572 0
-0.34683639 -1.5259249 -0.055867016 0
-0.58933669 -2.5928178 0.47953838 0
-0.17948566 -0.78965664 0.48024899 0
-0.32799542 -1.5320385 -0.055935193 0
-0.55836993 -2.6080983 0.48102593 0
-0.16983862 -0.79330164 0.48112696 0
-0.30938637 -1.5395658 -0.056063335 0
-0.52744937 -2.6246891 0.48282263 0
-0.20643902 -1.0272801 0.43383411 0
-0.15841727 -0.78831464 0.4768548 0
-0.28660274 -1.5253813 -0.055410992 0
-0.49843514 -2.6528137 0.48680311 0
-0.1955487 -1.0407659 0.43845466 0
-0.14745231 -0.78478318 0.47355789 0
-0.26918891 -1.5392492 -0.055787198 0
-0.47077531 -2.6919403 0.49285612 0
-0.18157917 -1.0382879 0.4364129 0
-0.13629277 -0.77933574 0.46919793 0
-0.25057271 -1.5473713 -0.055962775 0
-0.16797854 -1.0373244 0.43508434 0
-0.12702738 -0.78443706 0.47126883 0
-0.23038833 -1.5458328 -0.055797789 0
-0.15909204 -1.0674572 0.44684723 0
-0.11582432 -0.77714449 0.46597448 0
-0.21161693 -1.55383 -0.055985831 0
-0.37787944 -2.7746384 0.099972606 0
-0.37938273 -2.7856762 0.3021383 0
-0.14623684 -1.0737666 0.44868201 0
-0.10664082 -0.7830267 0.46865913 0
-0.19200937 -1.5561591 -0.055978198 0
-0.13314039 -1.0790495 0.45015329 0
-0.096909605 -0.78541356 0.46932015 0
-0.17208104 -1.5555681 -0.05587456 0
-0.08589939 -0.77650827 0.46331576 0
-0.15411317 -1.5742853 -0.056472678 0
-0.076301828 -0.77943265 0.46445051 0
-0.13182713 -1.5473243 -0.055441596 0
-0.066939779 -0.78570741 0.46765018 0
-0.11293428 -1.5571384 -0.055737868 0
-0.056788698 -0.78300279 0.4655779 0
-0.094211608 -1.5733423 -0.056270964 0
-0.074202709 -1.5703586 -0.056126382 0
-0.12381935 -2.6204 0.093656041 0
-0.036717411 -0.77705383 0.46134433 0
-0.054480527 -1.5727969 -0.056184556 0
-0.04803523 -1.3867279 0.04953767 0
-0.034590352 -1.5696176 -0.056050979 0
-0.029906755 -1.3570884 0.048461571 0
-0.017232968 -0.78198588 0.46386772 0
-0.014873231 -1.5751184 -0.056236267 0
-0.012675286 -1.3423496 0.047925752 0
-0.018876683 -1.9990957 0.21485099 0
-0.007360233 -0.77947009 0.46228373 0
0.0049447389 -1.5701457 -0.056056507 0
0.0042798249 -1.3590099 0.048518647 0
0.0057470854 -1.8249216 0.19612403 0
0.0056994949 -1.8098098 0.32639846 0
0.0057241498 -1.8176386 0.46374011 0
0.024596423 -1.5624658 -0.055788953 0
0.02122871 -1.3485348 0.048150398 0
0.030651785 -1.9471272 0.20928232 0
0.016548868 -1.051252 0.34978876 0
0.012344786 -0.78419143 0.46512073 0
0.044535693 -1.5714847 -0.056126557 0
0.038722314 -1.3663541 0.048800189 0
0.054375257 -1.9186833 0.20628233 0
0.028876456 -1.0189335 0.33912936 0
0.022116786 -0.78041208 0.46300757 0
0.064225793 -1.5685217 -0.056045171 0
0.077651456 -1.8964031 0.067760766 0
0.078126393 -1.908002 0.20522347 0
0.041684438 -1.0180169 0.33897212 0
0.031790961 -0.77639854 0.46082738 0
0.083473608 -1.5583165 -0.055713668 0
0.10074306 -1.8807089 0.06724 0
0.10038269 -1.8739815 0.20168421 0
0.05484828 -1.0239282 0.34114331 0
0.04205123 -0.78502804 0.46622673 0
0.10346266 -1.5627999 -0.055916108 0
0.12287413 -1.8560095 0.066406988 0
0.12241618 -1.8490921 0.19915564 0
0.12252657 -1.8507596 0.33451274 0
0.068281487 -1.0313895 0.34388843 0
0.051287759 -0.77469981 0.46043983 0
0.12318792 -1.5620824 -0.055941503 0
0.144665 -1.8344222 0.065694571 0
0.14466865 -1.8344685 0.19776113 0
0.14350241 -1.81968 0.3291958 0
0.08150059 -1.0334669 0.3448959 0
0.086406946 -1.0956818 0.45506012 0
0.061914686 -0.78510815 0.46705237 0
0.14324844 -1.5647963 -0.056098845 0
0.16644245 -1.8181597 0.065182067 0
0.16555139 -1.808426 0.19516295 0
0.16483 -1.8005458 0.3260839 0
0.17562284 -1.9184431 0.49150291 0
0.097749896 -1.067786 0.35673162 0
0.09895505 -1.0809507 0.44942388 0
0.071423657 -0.78020734 0.4646351 0
0.16369115 -1.5700756 -0.05635754 0
0.1876785 -1.800155 0.064616188 0
0.18528487 -1.777196 0.19202921 0
0.18666278 -1.7904125 0.32464868 0
0.20384869 -1.9552546 0.50155181 0
0.11496574 -1.1027163 0.36885574 0
0.10814501 -1.037294 0.43180484 0
0.082305029 -0.7894448 0.47071618 0
0.18195502 -1.5551357 -0.055899084 0
0.2087142 -1.7838415 0.064119875 0
0.20764805 -1.7747293 0.19202997 0
0.2078059 -1.7760783 0.32249844 0
0.23010688 -1.9666806 0.50518602 0
0.12417585 -1.0613079 0.3554996 0
0.11950547 -1.021391 0.42577738 0
0.090905078 -0.77694881 0.46391103 0
0.20315833 -1.5653321 -0.056353077 0
0.22827996 -1.7588938 0.063321441 0
0.22731157 -1.7514324 0.18980387 0
0.22619767 -1.7428499 0.31695691 0
0.13036475 -1.0044585 0.41936994 0
0.10143421 -0.7815491 0.46738344 0
0.22165124 -1.5542326 -0.056049526 0
0.24868345 -1.7437842 0.062885232 0
0.24713019 -1.7328925 0.18811703 0
0.24644397 -1.7280809 0.31481043 0
0.14596918 -1.0235453 0.4280723 0
0.1106768 -0.7760728 0.46490508 0
0.24167664 -1.5543627 -0.056159511 0
0.26863784 -1.7277658 0.062424608 0
0.26583141 -1.709716 0.1859497 0
0.26475158 -1.7027709 0.31078231 0
0.16078909 -1.0341278 0.43331063 0
0.12116238 -0.77926552 0.46769455 0
0.26043659 -1.5464923 -0.055989206 0
0.28848866 -1.7130675 0.062019892 0
0.28588566 -1.6976109 0.18500999 0
0.28510433 -1.6929712 0.3096244 0
0.13101438 -0.77797335 0.46787208 0
0.28135026 -1.5511514 -0.056281682 0
0.30825034 -1.699458 0.061662816 0
0.30299366 -1.6704767 0.18245418 0
0.30324447 -1.6718594 0.30643737 0
0.30330467 -1.6721914 0.43359065 0
0.14057292 -0.77501225 0.4671188 0
0.29822022 -1.5339141 -0.055788081 0
0.33536068 -1.7249483 0.062735952 0
0.32207003 -1.656587 0.1813657 0
0.32049555 -1.6484885 0.30286941 0
0.32056141 -1.6488273 0.42854518 0
0.15440312 -0.794182 0.47980669 0
0.31822059 -1.5334597 -0.05591286 0
0.36202607 -1.744552 0.063609689 0
0.33815619 -1.6295265 0.17885508 0
0.33905655 -1.6338652 0.30094329 0
0.33866167 -1.6319624 0.42523652 0
0.16575135 -0.79873216 0.48377833 0
0.33737192 -1.5287352 -0.055891063 0
0.38776422 -1.7570782 0.06423936 0
0.35484862 -1.6079276 0.17696081 0
0.35686734 -1.617075 0.29865471 0
0.3564651 -1.6152524 0.42201856 0
0.17396958 -0.78830934 0.47875428 0
0.35881805 -1.5338744 -0.056239687 0
0.42154762 -1.8020306 0.066071667 0
0.37599817 -1.6073159 0.1774005 0
0.37571439 -1.6061028 0.29747847 0
0.37232864 -1.5916294 0.41703844 0
0.184297 -0.78783226 0.4798359 0
0.37944332 -1.5346559 -0.056439057 0
0.44773301 -1.8108531 0.066596583 0
0.38996452 -1.5772089 0.1746057 0
0.39351925 -1.591586 0.29568404 0
0.39087936 -1.580909 0.41548622 0
0.19611175 -0.79317266 0.48455417 0
0.39457285 -1.5137831 -0.055849724 0
0.47996625 -1.8413959 0.067936718 0
0.40908974 -1.5694773 0.17430624 0
0.40791425 -1.5649675 0.29167002 0
0.40582934 -1.5569688 0.41050491 0
0.20248401 -0.77683216 0.47609153 0
0.41653341 -1.5193881 -0.056245569 0
0.42690575 -1.5572232 0.17352857 0
0.42636737 -1.5552595 0.29083824 0
0.42280492 -1.5422647 0.40799946 0
0.21354932 -0.77896345 0.47900775 0
0.43276635 -1.5040659 -0.055875666 0
0.44516227 -1.5471475 0.17301673 0
0.44134861 -1.5338932 0.28785917 0
0.44279584 -1.538923 0.40855807 0
0.22313102 -0.7754848 0.47855851 0
0.45408663 -1.506515 -0.056174617 0
0.4572964 -1.517164 0.17029414 0
0.45583943 -1.5123303 0.28486717 0
0.45796901 -1.5193955 0.40487275 0
0.47258165 -1.499289 -0.056122623 0
0.36203003 -1.1485585 0.042993788 0
0.47664607 -1.5121835 0.1703953 0
0.47239897 -1.4987096 0.28339952 0
0.47608507 -1.5104038 0.40404218 0
0.47336707 -1.5017807 0.52386624 0
0.48923942 -1.4865878 -0.055873357 0
0.37885597 -1.15118 0.043267064 0
0.49323672 -1.4987338 0.16956617 0
0.48580909 -1.4761645 0.2802709 0
0.48759881 -1.4816025 0.39794859 0
0.49031445 -1.4898543 0.52181828 0
0.51003408 -1.4864753 -0.056106068 0
0.39737028 -1.1581209 0.043712538 0
0.506823 -1.4771168 0.16782919 0
0.50505441 -1.4719622 0.2806583 0
0.50640047 -1.4758853 0.39809415 0
0.5017401 -1.4623029 0.51434058 0
0.52840871 -1.4790918 -0.056074079 0
0.41366476 -1.1579069 0.043897592 0
0.53497362 -1.4974678 0.17089331 0
0.520302 -1.4563999 0.27891815 0
0.51902449 -1.452824 0.39360544 0
0.52136767 -1.4593829 0.51558179 0
0.54506397 -1.4671359 -0.055876594 0
0.38188216 -1.0279032 0.0391482 0
0.56083441 -1.5095848 0.17306834 0
0.53899425 -1.4507983 0.27912304 0
0.53264844 -1.4337173 0.39021519 0
0.53368109 -1.4364969 0.50983018 0
0.56429768 -1.4622397 -0.055956312 0
0.4587923 -1.1888483 0.045494292 0
0.4209587 -1.0908117 0.12565529 0
0.55159247 -1.4293172 0.27630469 0
0.54753327 -1.4187988 0.38800058 0
0.55182302 -1.4299147 0.50991988 0
0.57973653 -1.4477074 -0.055675142 0
0.39771581 -0.99316859 0.038194735 0
0.42902231 -1.0713466 0.12402552 0
0.56599993 -1.4134045 0.27458456 0
0.56448901 -1.4096315 0.38740677 0
0.56219292 -1.4038978 0.50312662 0
0.59911084 -1.4431641 -0.055786125 0
0.41556737 -1.0010366 0.038695496 0
0.44182384 -1.0642843 0.1238422 0
0.58273852 -1.4037256 0.27410805 0
0.58049035 -1.3983102 0.38627362 0
0.57718194 -1.3903407 0.50083309 0
0.62086511 -1.4439498 -0.05611426 0
0.42922032 -0.99824035 0.038793258 0
0.45266235 -1.0527595 0.12315466 0
0.59533393 -1.3845719 0.27181017 0
0.59558338 -1.385152 0.38468 0
0.59542233 -1.3847773 0.50149012 0
0.35475835 -0.82506365 0.44935551 0
0.63736105 -1.4323416 -0.055970598 0
0.44322366 -0.99605656 0.038922198 0
0.46786427 -1.0514314 0.12367867 0
0.61261451 -1.3767285 0.27176327 0
0.61257011 -1.3766289 0.38442469 0
0.60563952 -1.3610537 0.49562123 0
0.36479962 -0.81981415 0.44896272 0
0.65386689 -1.4209896 -0.055844318 0
0.46145001 -1.0028274 0.039410714 0
0.4873195 -1.0590472 0.12528642 0
0.62769097 -1.3641038 0.27080995 0
0.62245679 -1.3527288 0.37990931 0
0.61838567 -1.3438815 0.49216461 0
0.37319776 -0.81103688 0.44669408 0
0.66957283 -1.4081557 -0.05566689 0
0.47944063 -1.0082952 0.039859693 0
0.50071228 -1.0530307 0.12531061 0
0.63980752 -1.3455572 0.26870611 0
0.63416064 -1.3336815 0.37677273 0
0.63619256 -1.3379548 0.49288884 0
0.37255907 -0.78351623 0.43408597 0
0.68882632 -1.4028232 -0.055794559 0
0.50451404 -1.0274637 0.040865362 0
0.51731211 -1.0535275 0.1261349 0
0.65839803 -1.3408548 0.26940131 0
0.6517027 -1.3272194 0.37723559 0
0.64763838 -1.3189423 0.48885038 0
0.64654982 -1.3167254 0.60734886 0
0.38336697 -0.7807427 0.4351894 0
0.70730537 -1.3957565 -0.055863302 0
0.53000736 -1.0458866 0.041860227 0
0.53649008 -1.0586792 0.12755041 0
0.66788191 -1.3179605 0.26647007 0
0.66675943 -1.3157455 0.37633091 0
0.66347617 -1.3092663 0.48832196 0
0.66476434 -1.3118085 0.60889375 0
0.40563086 -0.80044901 0.44898531 0
0.7240274 -1.3852167 -0.055801939 0
0.54073042 -1.034531 0.041674949 0
0.54917067 -1.0506791 0.12740959 0
0.67956531 -1.3001515 0.26457852 0
0.67691898 -1.2950884 0.37283102 0
0.67709649 -1.295428 0.48630211 0
0.67966485 -1.300342 0.60749578 0
0.41824079 -0.80018258 0.45175415 0
0.74083436 -1.3749194 -0.055758499 0
0.55987859 -1.0390823 0.04213896 0
0.56895632 -1.0559298 0.12890489 0
0.69173044 -1.2837871 0.2630001 0
0.69771749 -1.2948984 0.37527582 0
0.69104409 -1.2825133 0.48468214 0
0.69701177 -1.2935888 0.60839301 0
0.43248236 -0.80264682 0.45618376 0
0.76303852 -1.3744001 -0.056122649 0
0.57314718 -1.0323641 0.042155851 0
0.58470863 -1.0531888 0.12945884 0
0.72968227 -1.3143182 0.27111563 0
0.70648485 -1.2725346 0.37134331 0
0.70774376 -1.2748022 0.48509753 0
0.7063933 -1.2723696 0.60254908 0
0.45077649 -0.81194758 0.46465912 0
0.7814849 -1.366785 -0.056209069 0
0.58746952 -1.0274601 0.042254325 0
0.59725934 -1.0445821 0.12931511 0
0.75590217 -1.3220419 0.27465057 0
0.72015733 -1.2595255 0.37016404 0
0.71789211 -1.2555639 0.48117858 0
0.71776193 -1.2553362 0.59871536 0
0.44755894 -0.78276223 0.45114645 0
0.79487473 -1.3504527 -0.055944599 0
0.60086226 -1.0208352 0.042289678 0
0.62233329 -1.0573134 0.13185088 0
0.78034616 -1.3257694 0.27744433 0
0.73770803 -1.2533294 0.37104368 0
0.73452902 -1.2479284 0.48175886 0
0.7333461 -1.2459186 0.59858054 0
0.46006358 -0.78162521 0.45379406 0
0.81215084 -1.3408908 -0.0559677 0
0.61507809 -1.0155164 0.042386837 0
0.64566106 -1.06601 0.13393864 0
0.80998296 -1.3373115 0.28197184 0
0.74827576 -1.2354307 0.36850509 0
0.75338948 -1.2438737 0.48381758 0
0.74312383 -1.2269247 0.59390384 0
0.47436407 -0.78319246 0.45813563 0
0.82740313 -1.3280437 -0.05586192 0
0.84600919 -1.3579079 0.28853792 0
0.75951362 -1.219076 0.36645052 0
0.76160443 -1.2224319 0.47916982 0
0.76182932 -1.2227929 0.59650016 0
0.48697224 -0.78162676 0.46077025 0
0.84236765 -1.31488 -0.055749971 0
0.87166768 -1.3606155 0.29142246 0
0.77319181 -1.2069011 0.36568844 0
0.77174079 -1.2046362 0.47596574 0
0.77591187 -1.211147 0.59553802 0
0.49398246 -0.77107388 0.45817986 0
0.86552322 -1.3142923 -0.056182701 0
0.90960389 -1.3812286 0.29826707 0
0.78811824 -1.1967533 0.36559168 0
0.78594631 -1.1934552 0.47542065 0
0.78645378 -1.1942258 0.59204024 0
0.50930667 -0.77337945 0.46332395 0
0.8832438 -1.3051234 -0.056261729 0
0.9392488 -1.3878791 0.30223325 0
0.7957356 -1.1758171 0.36222824 0
0.79575872 -1.1758513 0.47236225 0
0.80293638 -1.1864573 0.59315437 0
0.53822118 -0.79530138 0.48047936 0
0.8933925 -1.2849607 -0.055873081 0
0.8168295 -1.1748407 0.36506718 0
0.81321108 -1.1696364 0.47394165 0
0.81117916 -1.1667138 0.58834386 0
0.55509949 -0.79839599 0.48653334 0
0.90794015 -1.2714244 -0.0557772 0
0.58385879 -0.81760055 0.035868015 0
0.57927501 -0.81118166 0.10712351 0
0.58412105 -0.81796771 0.18127228 0
0.57544541 -0.80581892 0.25262988 0
0.58004868 -0.81226504 0.33206663 0
0.58603448 -0.82064718 0.41751951 0
0.55337667 -0.77491522 0.47643301 0
0.92430377 -1.2604736 -0.055802967 0
0.58088708 -0.79215604 0.035069879 0
0.57567239 -0.78504479 0.10462091 0
0.58196831 -0.79363054 0.17748882 0
0.57938123 -0.79010254 0.24997009 0
0.57659411 -0.78630173 0.32439494 0
0.58694816 -0.8004216 0.4109571 0
0.56936574 -0.77644444 0.48174301 0
0.93970746 -1.2482123 -0.055779584 0
0.58106595 -0.77182919 0.034491178 0
0.59163338 -0.78586596 0.10571481 0
0.58343518 -0.77497631 0.17494611 0
0.58456355 -0.77647507 0.24796787 0
0.59017599 -0.78393012 0.32645661 0
0.5843358 -0.77617258 0.40225294 0
0.59114873 -0.78522217 0.49176869 0
0.96119791 -1.2438496 -0.056121059 0
0.58556855 -0.7577619 0.034189343 0
0.60913312 -0.78825599 0.10705964 0
0.60991555 -0.78926843 0.17989197 0
0.6026119 -0.77981704 0.2514385 0
0.60155368 -0.77844769 0.32730204 0
0.60455436 -0.78233075 0.40935728 0
0.97514397 -1.2295812 -0.056026869 0
0.58211076 -0.73399675 0.033445157 0
0.87574643 -1.1042486 0.35957298 0
0.87566423 -1.1041451 0.468842 0
0.87362117 -1.1015688 0.58210981 0
0.99167621 -1.2185912 -0.056090649 0
0.58426219 -0.71795285 0.033046719 0
0.89602613 -1.1010545 0.36217818 0
0.88169056 -1.0834386 0.46472713 0
0.88500017 -1.0875056 0.58052117 0
1.0049103 -1.203576 -0.055977527 0
0.58913541 -0.70560443 0.0328172 0
0.90262347 -1.0810674 0.35931394 0
0.89214158 -1.0685134 0.46310711 0
0.89902043 -1.0767522 0.58077794 0
1.0254774 -1.1972396 -0.056278944 0
0.60107565 -0.70175278 0.032987468 0
0.92030096 -1.0744467 0.36093646 0
0.90722334 -1.0591786 0.46397582 0
0.9129054 -1.0658125 0.58103162 0
1.0326284 -1.1753067 -0.055854749 0
0.61384994 -0.69866562 0.033203069 0
0.93558961 -1.0648601 0.36164501 0
0.92107195 -1.0483366 0.46427029 0
0.91877377 -1.0457208 0.57634002 0
1.056505 -1.172376 -0.056343246 0
0.94081056 -1.043993 0.35855317 0
0.94034809 -1.0434798 0.46732634 0
0.93545073 -1.0380453 0.57855594 0
1.0679227 -1.1554531 -0.056171767 0
0.96242511 -1.0413085 0.36176476 0
0.94205725 -1.0192713 0.46176055 0
0.95015466 -1.0280324 0.57959777 0
1.0783967 -1.1377057 -0.055964705 0
0.96685064 -1.0200249 0.35857177 0
0.96097797 -1.0138292 0.46474037 0
0.96159613 -1.0144814 0.57873869 0
1.0987364 -1.1303127 -0.056277152 0
0.98837364 -1.0167781 0.36177686 0
0.97019684 -0.998079 0.46308395 0
0.97079563 -0.99869496 0.57666093 0
1.1078309 -1.1113222 -0.056021754 0
1.0043364 -1.0075015 0.36294723 0
0.99178135 -0.99490702 0.46736962 0
0.98744607 -0.99055803 0.57909626 0
1.1271617 -1.1025927 -0.056292731 0
1.0063514 -0.98441571 0.35916731 0
0.99840075 -0.97663838 0.46465677 0
1.0095892 -0.98758292 0.58474284 0
1.1229652 -1.0711528 -0.055405125 0
1.0245868 -0.97731352 0.36125466 0
1.0182413 -0.97126079 0.46816146 0
1.004173 -0.95784163 0.57457447 0
1.1472192 -1.0670254 -0.055934422 0
1.0267277 -0.95495659 0.3577413 0
1.0258002 -0.95409411 0.46607614 0
1.0238894 -0.95231682 0.57894856 0
1.1642215 -1.0558136 -0.056110732 0
1.0366238 -0.94009721 0.35703641 0
1.0427493 -0.94565243 0.46832949 0
1.0300616 -0.93414605 0.57574159 0
1.177349 -1.0410053 -0.056107193 0
1.0540363 -0.93197286 0.35896322 0
1.0497087 -0.92814654 0.46616906 0
1.0468986 -0.92566174 0.57859153 0
1.1836646 -1.0203242 -0.055791456 0
1.3643587 -1.1760833 0.064308383 0
1.3648455 -1.1765031 0.19365248 0
1.317959 -1.1360867 0.31381235 0
1.0661619 -0.91903645 0.35912305 0
1.0563762 -0.91060114 0.46400106 0
1.0631208 -0.91641504 0.58113343 0
1.2009789 -1.0091722 -0.056004144 0
1.3879405 -1.1662744 0.06472256 0
1.3825985 -1.1617856 0.19408028 0
1.1333263 -0.95232427 0.26697394 0
1.0895727 -0.91555852 0.36309651 0
1.0778712 -0.9057259 0.4683958 0
1.0785749 -0.90631723 0.58329642 0
1.213305 -0.99373668 -0.055990979 0
1.0141333 -0.83060855 0.046799704 0
1.001055 -0.819897 0.13906139 0
1.0138736 -0.83039576 0.23635291 0
1.0080969 -0.82566458 0.33245391 0
1.0826974 -0.88676482 0.46560374 0
1.0820389 -0.8862254 0.57908869 0
1.2320886 -0.98346341 -0.056281839 0
0.90315485 -0.72090578 0.041256137 0
0.90516913 -0.72251362 0.12446769 0
0.90684605 -0.72385216 0.20926136 0
0.89975125 -0.718189 0.29371753 0
1.1024455 -0.87998128 0.4692938 0
1.0966054 -0.8753196 0.58093947 0
1.2400918 -0.96454138 -0.056088164 0
0.87623894 -0.68153721 0.039631449 0
0.87890506 -0.68361092 0.119663 0
0.88639635 -0.68943769 0.20252305 0
0.88345194 -0.6871475 0.28554949 0
1.1094412 -0.86292154 0.46760911 0
1.1106578 -0.86386788 0.58257502 0
1.2436571 -0.94242382 -0.055708263 0
0.88579345 -0.67124033 0.039678149 0
0.89205599 -0.67598605 0.12028504 0
0.8902958 -0.67465216 0.20145701 0
0.89158368 -0.67562813 0.28540537 0
1.1203744 -0.84900212 0.46767423 0
1.1227448 -0.85079837 0.58324921 0
1.2568259 -0.92772424 -0.055770442 0
0.89891201 -0.66353059 0.039888356 0
0.90861827 -0.67069525 0.12136988 0
0.91197979 -0.67317653 0.20442934 0
0.89681756 -0.66198456 0.28438985 0
1.1372997 -0.83949608 0.47028932 0
1.1346707 -0.83755559 0.58391947 0
1.2725434 -0.91479897 -0.055952296 0
0.91187978 -0.65552711 0.04009432 0
0.91428894 -0.65725893 0.12101223 0
0.91153038 -0.65527588 0.20246293 0
0.91537577 -0.65804023 0.28762439 0
1.1398664 -0.81942081 0.46704689 0
1.1473007 -0.82476521 0.58502805 0
1.2992817 -0.90942729 -0.056619938 0
0.91199642 -0.6383484 0.039742865 0
0.92350495 -0.64640373 0.12114508 0
0.9234969 -0.64639813 0.20329683 0
0.92691803 -0.64879274 0.28866121 0
1.1636951 -0.81452394 0.47257045 0
1.1643112 -0.81495512 0.58842248 0
1.3036222 -0.88822126 -0.056317221 0
0.93224865 -0.63518637 0.04027367 0
0.92867321 -0.63275021 0.12076828 0
0.9321354 -0.63510919 0.20342182 0
0.92548949 -0.63058102 0.28572088 0
1.1774659 -0.80226481 0.47402263 0
1.1811175 -0.80475283 0.59174788 0
1.2999647 -0.86196434 -0.055685893 0
0.94057983 -0.62366796 0.040291119 0
0.94178331 -0.62446594 0.12144095 0
0.94567305 -0.62704509 0.20463681 0
0.94778544 -0.62844574 0.2901381 0
1.1896211 -0.78879911 0.47487968 0
1.18919 -0.7885133 0.59077084 0
1.3094288 -0.84469831 -0.055631261 0
0.93870318 -0.60554725 0.039880931 0
0.94774371 -0.61137921 0.12120721 0
0.95539272 -0.61631346 0.20504445 0
0.95148379 -0.61379188 0.2888813 0
1.2082275 -0.77941447 0.47835138 0
1.2028457 -0.77594268 0.59265375 0
1.3217198 -0.82924765 -0.055705395 0
0.96270883 -0.60400403 0.040574469 0
0.96149969 -0.60324538 0.12198531 0
0.9604913 -0.60261273 0.20449392 0
0.95774013 -0.60088664 0.28846067 0
1.2130623 -0.76107591 0.47643346 0
1.2132967 -0.7612229 0.59303319 0
1.3369452 -0.81552207 -0.055909842 0
0.98237622 -0.59923887 0.041082092 0
0.97635847 -0.59556806 0.12290923 0
0.97108769 -0.59235299 0.20514561 0
0.96958613 -0.59143704 0.28976247 0
1.2192982 -0.74375874 0.47516665 0
1.2262337 -0.7479893 0.5947057 0
1.352487 -0.80181277 -0.05613311 0
0.97944713 -0.58065861 0.040650602 0
0.98475087 -0.58380294 0.12303053 0
0.98599339 -0.58453953 0.20672314 0
0.98374283 -0.58320534 0.29177538 0
1.2463293 -0.73887789 0.48203668 0
1.2466062 -0.7390421 0.60002512 0
1.3599644 -0.78327352 -0.056029651 0
0.9901312 -0.5702675 0.040792763 0
0.99395406 -0.57246929 0.12326995 0
0.99873745 -0.57522434 0.20785995 0
0.98884213 -0.56952506 0.29113767 0
1.2600633 -0.72573531 0.48377568 0
1.2536017 -0.72201371 0.59896863 0
1.3735205 -0.76821399 -0.056185156 0
1.017534 -0.56910974 0.041623194 0
1.0029037 -0.56092697 0.1234941 0
1.0102558 -0.56503904 0.20875981 0
1.0037698 -0.56141138 0.29342806 0
1.2666943 -0.70846581 0.48285815 0
1.2605604 -0.70503509 0.59800422 0
1.3747727 -0.74634653 -0.055847511 0
1.0153039 -0.5511955 0.041244779 0
1.0103281 -0.54849422 0.12354805 0
1.0155327 -0.55131972 0.20839915 0
1.0162187 -0.55169219 0.29501301 0
1.2822253 -0.69610369 0.48539862 0
1.2854536 -0.69785637 0.60559666 0
1.3939695 -0.73419601 -0.05624732 0
1.3022716 -0.68589926 0.37551838 0
1.3074504 -0.68862689 0.49162629 0
1.2946104 -0.68186414 0.6058175 0
1.3899624 -0.70987475 -0.055720527 0
1.3209902 -0.6746496 0.3784363 0
1.3025186 -0.66521585 0.48658347 0
1.3018295 -0.66486388 0.60522991 0
1.4158176 -0.70074457 -0.056398802 0
1.3167932 -0.65173346 0.37485319 0
1.3109521 -0.64884245 0.4866432 0
1.3251361 -0.65586269 0.61217725 0
1.4210389 -0.68118936 -0.056260642 0
1.3418289 -0.64321929 0.37964433 0
1.3429675 -0.64376503 0.49547926 0
1.331679 -0.63835377 0.61143798 0
1.4291437 -0.66307592 -0.056246486 0
1.3531947 -0.62783813 0.38059306 0
1.3415692 -0.62244421 0.49203259 0
1.3446482 -0.62387282 0.61373705 0
1.424148 -0.63909107 -0.055728726 0
1.372795 -0.61604625 0.38389349 0
1.3488352 -0.60529429 0.49186307 0
1.3506734 -0.60611922 0.61295491 0
1.4346546 -0.62222445 -0.05582884 0
1.3772349 -0.59732097 0.38300136 0
1.3784183 -0.59783423 0.49986598 0
1.3680006 -0.59331596 0.61737877 0
1.4476092 -0.60630316 -0.056031421 0
1.4001207 -0.58641356 0.38728157 0
1.3829697 -0.57923019 0.49883193 0
1.3891003 -0.58179784 0.62354535 0
1.4551382 -0.58803183 -0.05603179 0
1.4032162 -0.5670498 0.38613212 0
1.3927747 -0.56283033 0.49977258 0
1.3940248 -0.56333548 0.62252229 0
1.4634162 -0.57004869 -0.056069698 0
1.4142792 -0.55090821 0.38723674 0
1.4002585 -0.54544669 0.49995378 0
1.4096804 -0.54911679 0.62637603 0
1.4692235 -0.55110681 -0.056021873 0
1.4271599 -0.53532875 0.38888699 0
1.4174786 -0.53169727 0.50367165 0
1.4163531 -0.53127509 0.62631875 0
1.4718221 -0.53103977 -0.055861555 0
1.4365009 -0.51829571 0.38962305 0
1.4331177 -0.51707506 0.50687498 0
1.4316933 -0.51656115 0.63017589 0
1.481936 -0.51369417 -0.055995468 0
1.44798 -0.5019238 0.39099127 0
1.4287201 -0.49524757 0.50307399 0
1.4476482 -0.50180876 0.63436699 0
1.4835843 -0.49343017 -0.05581855 0
1.4692386 -0.48865888 0.39503875 0
1.4535272 -0.48343337 0.50962508 0
1.4509916 -0.48259005 0.63311899 0
1.494805 -0.47634423 -0.0560106 0
1.4605148 -0.46541706 0.39108637 0
1.4593643 -0.46505046 0.50957799 0
1.4679313 -0.46778047 0.63788962 0
1.5056376 -0.4589951 -0.056195479 0
1.4804801 -0.4513258 0.39487946 0
1.4696649 -0.44802877 0.51116431 0
1.4671539 -0.44726327 0.63505405 0
1.4997019 -0.43662491 -0.055764303 0
1.4739411 -0.42912489 0.39166301 0
1.4769493 -0.43000072 0.51177406 0
1.4771391 -0.43005595 0.63698161 0
1.5136354 -0.42008144 -0.056081265 0
1.4947354 -0.41483611 0.39576912 0
1.4883178 -0.41305506 0.5138703 0
1.4843658 -0.41195825 0.63781047 0
1.5177159 -0.40070218 -0.056041062 0
1.4867306 -0.39252156 0.39230984 0
1.4935967 -0.39433432 0.51393771 0
1.500351 -0.39611754 0.64248478 0
1.5196534 -0.3808119 -0.055931106 0
1.5141447 -0.37943146 0.39825138 0
1.5048007 -0.37708995 0.51611817 0
1.5120142 -0.37889758 0.64538497 0
1.5276107 -0.36242628 -0.05605156 0
1.5113702 -0.35857323 0.39630261 0
1.520746 -0.36079764 0.51998764 0
1.5132354 -0.35901579 0.64392561 0
1.5327204 -0.34331259 -0.056075979 0
1.5225494 -0.34103441 0.39807636 0
1.5268844 -0.3420054 0.52057272 0
1.5229611 -0.34112662 0.64618504 0
1.5263318 -0.32175422 -0.055689603 0
1.5370146 -0.32400617 0.40075985 0
1.5351477 -0.32361263 0.52195925 0
1.5415394 -0.32496002 0.65227979 0
1.5352561 -0.30349758 -0.055871345 0
1.5301081 -0.30247992 0.39793438 0
1.5351938 -0.30348527 0.52063429 0
1.5310657 -0.30266923 0.64618409 0
1.5502614 -0.28623018 -0.05628179 0
1.5522988 -0.28660634 0.40273497 0
1.5559573 -0.28728184 0.5264073 0
1.5510875 -0.2863827 0.6530605 0
1.5515449 -0.26631063 -0.056202188 0
1.5447009 -0.26513591 0.39986587 0
1.5618994 -0.26808792 0.52723378 0
1.5487571 -0.26583213 0.65061837 0
1.5403353 -0.244462 -0.055680215 0
1.5612133 -0.24777548 0.40330067 0
1.5502522 -0.24603589 0.52221495 0
1.5464064 -0.24542554 0.64828122 0
1.5520208 -0.22632091 -0.055995166 0
1.5624914 -0.22784777 0.40285772 0
1.5628824 -0.22790478 0.52546114 0
1.5620055 -0.22777691 0.65356642 0
1.5431076 -0.2052132 -0.055575956 0
1.5688967 -0.20864281 0.4037998 0
1.561464 -0.20765436 0.52406359 0
1.564885 -0.20810932 0.65362293 0
1.5628062 -0.18783912 -0.056195769 0
1.5632981 -0.18789825 0.40171802 0
1.576785 -0.18951927 0.52836281 0
1.5761284 -0.18944035 0.65727061 0
1.5670129 -0.16835777 -0.056266338 0
1.5876325 -0.17057312 0.40738696 0
1.5722108 -0.16891623 0.5260756 0
1.5728848 -0.16898865 0.65497863 0
1.5594772 -0.14771105 -0.055924535 0
1.577036 -0.14937419 0.4041532 0
1.5798002 -0.14963602 0.52794278 0
1.5828884 -0.14992853 0.658306 0
1.5750858 -0.12920156 -0.056421459 0
1.5875471 -0.13022374 0.40639445 0
1.5947742 -0.13081658 0.53235412 0
1.5946977 -0.13081029 0.66247976 0
1.5628613 -0.10840696 -0.055930234 0
1.6669381 -0.11562618 0.059654836 0
1.6740875 -0.1161221 0.18034533 0
1.6707505 -0.11589062 0.30204168 0
1.5991858 -0.11092658 0.40898386 0
1.5766169 -0.10936111 0.52579165 0
1.5858185 -0.10999937 0.65816349 0
1.5540384 -0.08814919 -0.055570357 0
1.6460114 -0.093366146 0.058859188 0
1.6458565 -0.093357354 0.17716336 0
1.6477195 -0.093463033 0.29764172 0
1.6095955 -0.09130054 0.41131946 0
1.5959898 -0.090528786 0.53183001 0
1.5922559 -0.090316996 0.66031092 0
1.5683978 -0.069164701 -0.056048241 0
1.6465626 -0.07261169 0.058841538 0
1.6315557 -0.071949899 0.17551255 0
1.6396661 -0.072307557 0.29599902 0
1.5883554 -0.070044808 0.40563416 0
1.5863544 -0.069956571 0.52828377 0
1.5975219 -0.070449047 0.66207433 0
1.5653387 -0.049291357 -0.055912312 0
1.6343058 -0.051463079 0.058375746 0
1.6281878 -0.051270425 0.17506693 0
1.6284992 -0.051280234 0.29384327 0
1.5953333 -0.050235864 0.40722233 0
1.6038021 -0.050502542 0.53384012 0
1.5985425 -0.05033692 0.66218209 0
1.5709097 -0.029673796 -0.05609351 0
1.6363372 -0.030909689 0.058429766 0
1.6264682 -0.03072327 0.17482658 0
1.6360638 -0.030904526 0.29511461 0
1.5910916 -0.030055022 0.40601081 0
1.5897232 -0.030029174 0.52898598 0
1.6005343 -0.030233391 0.66279697 0
1.5589451 -0.009814892 -0.055657454 0
1.6300564 -0.010262598 0.058196269 0
1.6428465 -0.010343122 0.17655906 0
1.6336325 -0.010285113 0.29462934 0
1.6041197 -0.010099304 0.40927038 0
1.5893284 -0.01000618 0.52877074 0
1.5950657 -0.010042301 0.66042763 0
1.5751052 0.0099166334 -0.056234401 0
1.6473715 0.010371612 0.058814455 0
1.6497877 0.010386823 0.17730503 0
1.6506516 0.010392263 0.29769877 0
1.6049025 0.010104233 0.40947014 0
1.6153909 0.010170266 0.53744179 0
1.6103605 0.010138595 0.66676033 0
1.5719397 0.029693251 -0.056130286 0
1.681863 0.031769652 0.060055386 0
1.6667517 0.031484209 0.1791566 0
1.6646351 0.031444225 0.30026832 0
1.6103389 0.030418595 0.41092232 0
1.6059966 0.030336572 0.53440106 0
1.6140904 0.03048946 0.66841072 0
1.5682924 0.049384367 -0.056017812 0
1.608078 0.050637186 0.41047555 0
1.6036117 0.050496545 0.5337767 0
1.6076969 0.050625183 0.6659742 0
1.5669805 0.069102198 -0.055997595 0
1.5908443 0.07015457 0.40626976 0
1.6113111 0.071057133 0.53659481 0
1.6121101 0.071092367 0.66812021 0
1.5689622 0.088995717 -0.056104016 0
1.5907429 0.090231173 0.40650183 0
1.5999222 0.090751849 0.53314042 0
1.6040239 0.090984508 0.66519111 0
1.5528266 0.10771091 -0.05557112 0
1.608335 0.11156122 0.41132373 0
1.6063309 0.1114222 0.53570104 0
1.59289 0.11048988 0.66109842 0
1.5604438 0.1280005 -0.055896964 0
1.5975038 0.13104047 0.40894327 0
1.6067744 0.13180093 0.53635991 0
1.5949583 0.13083167 0.66258806 0
1.5627328 0.14801942 -0.056041285 0
1.589624 0.15056652 0.40737921 0
1.5961946 0.15118887 0.53342146 0
1.5927515 0.15086274 0.66240793 0
1.5568709 0.16726814 -0.055902176 0
1.5997398 0.17187391 0.4104937 0
1.6039619 0.17232753 0.53669983 0
1.5954742 0.17141563 0.66438532 0
1.5556902 0.18698382 -0.055939887 0
1.6019835 0.19254798 0.41165894 0
1.5856477 0.19058453 0.53133261 0
1.5966107 0.19190221 0.66581208 0
1.5649775 0.20812161 -0.056363609 0
1.6015041 0.21297917 0.41219226 0
1.5916241 0.21166527 0.53418601 0
1.593529 0.21191859 0.66558695 0
1.5593388 0.22738804 -0.056259193 0
1.5897788 0.2318269 0.40989324 0
1.5895853 0.23179868 0.53443897 0
1.5808197 0.23052047 0.66143858 0
1.5529554 0.24646491 -0.056136411 0
1.5948045 0.25310665 0.41197813 0
1.5890875 0.25219932 0.53529692 0
1.5870229 0.25187165 0.66530836 0
1.5414006 0.26456943 -0.055834725 0
1.582795 0.27167448 0.40972701 0
1.5964887 0.2740249 0.53890973 0
1.5904043 0.27298054 0.66811401 0
1.5423774 0.28477454 -0.055995565 0
1.5770743 0.29118076 0.40916282 0
1.5824926 0.29218116 0.53538471 0
1.5770199 0.29117072 0.66397893 0
1.5378696 0.30401424 -0.055966452 0
1.5615548 0.30869648 0.4061127 0
1.5769216 0.31173426 0.53478557 0
1.5640777 0.30919522 0.66011679 0
1.5369262 0.32398754 -0.056076147 0
1.5747689 0.33196485 0.41060385 0
1.5662607 0.33017132 0.53253788 0
1.5611265 0.32908902 0.66056782 0
1.5303527 0.34278226 -0.055989355 0
1.5545329 0.34819835 0.40643856 0
1.561751 0.34981513 0.53246003 0
1.5581931 0.34901819 0.66113377 0
1.5278063 0.36247271 -0.056058738 0
1.55638 0.36925185 0.40810484 0
1.5527965 0.36840165 0.53094661 0
1.5571439 0.36943308 0.66260993 0
1.518327 0.38047951 -0.05588229 0
1.5429813 0.38665766 0.40583602 0
1.5464956 0.38753831 0.53041869 0
1.552545 0.38905421 0.66268504 0
1.5113083 0.39901048 -0.055804465 0
1.5441265 0.40767503 0.40745515 0
1.5377252 0.40598497 0.52912205 0
1.5429386 0.40736139 0.66072178 0
1.5149225 0.42043868 -0.056128953 0
1.5383316 0.42693546 0.40731236 0
1.5374005 0.42667702 0.53081703 0
1.5367328 0.42649171 0.66031176 0
1.5031567 0.43763074 -0.055892766 0
1.5390337 0.44807601 0.40895972 0
1.5359926 0.44719067 0.532233 0
1.5292221 0.44521946 0.65944117 0
1.5036819 0.45839888 -0.056122482 0
1.5117416 0.4608559 0.40321764 0
1.5306022 0.46660557 0.53235888 0
1.5334748 0.46748129 0.66376096 0
1.4883071 0.47427356 -0.055767123 0
1.5109205 0.48147967 0.40458366 0
1.5145878 0.48264831 0.52886081 0
1.5176786 0.48363328 0.65950733 0
1.4852773 0.49399322 -0.055882245 0
1.5008665 0.49917808 0.40354264 0
1.5171922 0.50460792 0.53194678 0
1.5076889 0.5014472 0.65785801 0
1.4785937 0.51253563 -0.055869181 0
1.5067662 0.52230126 0.406865 0
1.5036949 0.52123666 0.52947378 0
1.5014715 0.52046591 0.65795267 0
1.4621078 0.52753478 -0.055492852 0
1.4871497 0.53657007 0.40336055 0
1.4942657 0.53913748 0.52850217 0
1.4883903 0.53701764 0.65513176 0
1.4747322 0.55317312 -0.05623192 0
1.4883101 0.55826622 0.40554982 0
1.4851314 0.55707389 0.52771074 0
1.4810946 0.55555969 0.65494782 0
1.457292 0.56766307 -0.05583505 0
1.4665699 0.57127714 0.4015542 0
1.4719419 0.57336974 0.52554792 0
1.466758 0.5713504 0.65173787 0
1.4596407 0.58985138 -0.056205168 0
1.4656782 0.59229112 0.40332016 0
1.4725237 0.59505749 0.5283891 0
1.4706793 0.59431213 0.65675348 0
1.4423177 0.60408694 -0.055826608 0
1.4534403 0.6087454 0.40203005 0
1.4451326 0.60526592 0.52125388 0
1.4541194 0.60902983 0.65273142 0
1.4422846 0.62553364 -0.056125756 0
1.4545972 0.6308738 0.40451539 0
1.4429741 0.62583274 0.52327633 0
1.4290276 0.61978394 0.64492023 0
1.4222305 0.63823062 -0.055653695 0
1.4219058 0.63808489 0.397627 0
1.4348894 0.64391136 0.52324337 0
1.4362026 0.64450067 0.65176928 0
1.4130164 0.65559345 -0.055611774 0
1.4210097 0.659302 0.39966637 0
1.4222795 0.65989119 0.5216338 0
1.4233686 0.66039646 0.64966732 0
1.4175525 0.67951816 -0.056122608 0
1.4025701 0.67233616 0.39682987 0
1.4004207 0.67130584 0.51667625 0
1.402727 0.67241138 0.64405954 0
1.4016565 0.69373572 -0.055834699 0
1.3936112 0.68975371 0.39672104 0
1.3836492 0.68482322 0.51362938 0
1.3882293 0.68708998 0.64132458 0
1.3978676 0.71391201 -0.056037422 0
1.3726043 0.70100969 0.39322269 0
1.3809588 0.70527643 0.51588649 0
1.3816477 0.70562828 0.64233798 0
1.3929319 0.73364955 -0.056205455 0
1.3744646 0.72392291 0.39633569 0
1.3594434 0.71601135 0.51117665 0
1.3690044 0.72104704 0.64063042 0
1.375968 0.74699545 -0.05589607 0
1.3513882 0.7336514 0.39231429 0
1.3466998 0.7311061 0.5098061 0
1.3504798 0.73315823 0.63623148 0
1.3706317 0.76659828 -0.05606699 0
1.4143107 0.79102808 0.057853721 0
1.4065528 0.7866891 0.17319806 0
1.4073981 0.78716189 0.29082552 0
1.3453377 0.7524513 0.39327726 0
1.3387052 0.74874175 0.51030838 0
1.3452336 0.75239307 0.63817281 0
1.3546125 0.780191 -0.055809155 0
1.3827267 0.79638344 0.056967441 0
1.3897727 0.80044156 0.17235927 0
1.3850681 0.797732 0.28826413 0
1.3385454 0.7709372 0.39409828 0
1.3315858 0.76692879 0.5112353 0
1.3350855 0.76894444 0.63790148 0
1.3508201 0.80082458 -0.056063924 0
1.359403 0.80591291 0.056420151 0
1.3576127 0.80485153 0.16961429 0
1.3635123 0.80834907 0.28587368 0
1.3198497 0.78246403 0.39146373 0
1.3203303 0.78274894 0.51065767 0
1.3080035 0.77544111 0.62957734 0
1.3450218 0.82044876 -0.056247607 0
1.3526435 0.82509792 0.056566339 0
1.3402641 0.81754655 0.16871962 0
1.3453121 0.82062584 0.2842018 0
1.312659 0.80070782 0.39229041 0
1.3035731 0.79516548 0.50800896 0
1.3018581 0.79411936 0.63138241 0
1.3309579 0.83504367 -0.056094747 0
1.3376896 0.83926719 0.056378461 0
1.3359834 0.83819669 0.169496 0
1.335761 0.8380571 0.2843909 0
1.2922648 0.81076765 0.3892158 0
1.2800921 0.80313045 0.50275958 0
1.2817165 0.80414957 0.62647533 0
1.3169333 0.8495394 -0.05595009 0
1.3305387 0.85831612 0.056528118 0
1.321816 0.85268915 0.1690474 0
1.3153709 0.84853148 0.28230223 0
1.2805101 0.82604313 0.38877743 0
1.2727072 0.82100964 0.50387961 0
1.2758472 0.82303518 0.62862235 0
1.3097359 0.86844331 -0.056104459 0
1.3284173 0.88083041 0.056904707 0
1.3242038 0.87803656 0.17075327 0
1.3333728 0.88411623 0.28853226 0
1.27016 0.84220183 0.38882405 0
1.2553828 0.8324036 0.50113082 0
1.2572869 0.83366609 0.62460029 0
1.2993534 0.88531268 -0.056132801 0
1.3260198 0.90348178 0.057284806 0
1.3209699 0.9000411 0.17178407 0
1.3220104 0.90074998 0.28850505 0
1.2406195 0.84529442 0.38300911 0
1.2521259 0.85313421 0.5040791 0
1.2430335 0.84693921 0.62276822 0
1.2951137 0.90650982 -0.056438301 0
1.3524635 0.94665164 0.058937486 0
1.3589088 0.95116299 0.17826122 0
1.3555307 0.94879854 0.29840392 0
1.2439973 0.87073117 0.3874062 0
1.2223127 0.85555309 0.49637473 0
1.2212144 0.85478431 0.61718041 0
1.2769548 0.91797012 -0.056146253 0
1.2218292 0.87834179 0.38391656 0
1.2102467 0.87001544 0.49588442 0
1.2164382 0.8744663 0.62028235 0
1.2710593 0.93823057 -0.056402031 0
1.2144103 0.89641517 0.38510168 0
1.1940349 0.88137513 0.49375015 0
1.197184 0.8836996 0.6160897 0
1.2546047 0.95071971 -0.056198649 0
1.1949697 0.9055292 0.3825224 0
1.1863773 0.89901811 0.49522561 0
1.1746569 0.89013648 0.61021674 0
1.2409606 0.96521717 -0.056127463 0
1.174965 0.91388595 0.37977242 0
1.1622075 0.90396309 0.48984915 0
1.1701207 0.91011798 0.61376512 0
1.2238969 0.97692478 -0.055907644 0
1.1554079 0.92225629 0.37717488 0
1.1569489 0.92348635 0.49249503 0
1.1529818 0.9203198 0.61080557 0
1.2078279 0.98925078 -0.055738226 0
1.1393709 0.93318224 0.37574589 0
1.1305194 0.92593259 0.48616913 0
1.135232 0.92979228 0.6075567 0
1.205054 1.0125966 -0.056194182 0
1.1235329 0.94409502 0.37441364 0
1.1204494 0.941504 0.48689842 0
1.1223439 0.94309586 0.60696673 0
1.1864845 1.022755 -0.055924375 0
1.111568 0.95817661 0.37441748 0
1.1037331 0.95142299 0.48480201 0
1.0985006 0.94691259 0.60047305 0
1.1798532 1.0432196 -0.056226533 0
1.0961199 0.96918291 0.37329522 0
1.0878849 0.96190166 0.48312286 0
1.0879333 0.96194446 0.60127032 0
1.1581953 1.0503484 -0.055820286 0
1.0768011 0.97653329 0.37087438 0
1.0735946 0.97362542 0.48218298 0
1.0672672 0.96788728 0.59653729 0
1.1497999 1.0694258 -0.056060251 0
1.0690501 0.99432063 0.37248763 0
1.0512611 0.97777516 0.47764435 0
1.0504423 0.97701359 0.59396261 0
1.1346252 1.0822748 -0.055980407 0
1.0495057 1.0010827 0.37004071 0
1.0405948 0.99258292 0.478439 0
1.0307122 0.98315632 0.58975989 0
1.1206032 1.0961771 -0.055965185 0
1.0275699 1.0051717 0.36674017 0
1.023078 1.0007777 0.4761416 0
1.021116 0.99885851 0.59141904 0
1.1094738 1.1129704 -0.056104839 0
1.0065947 1.0097669 0.36376336 0
1.0023618 1.0055207 0.47235557 0
1.0065522 1.0097244 0.59030128 0
1.088563 1.1198468 -0.055756066 0
0.98866034 1.017073 0.36188179 0
0.98608738 1.0144262 0.47066867 0
0.9752605 1.0032881 0.5793131 0
1.0685562 1.127324 -0.055454016 0
0.9730975 1.0266154 0.36088851 0
0.9715445 1.0249768 0.46985042 0
0.96504021 1.0181149 0.5808115 0
1.0697494 1.1574295 -0.056267846 0
0.95709795 1.0355448 0.35976234 0
0.95896626 1.0375662 0.4700487 0
0.94850808 1.0262508 0.57859331 0
1.0466998 1.1614954 -0.055820335 0
0.93991363 1.0429977 0.35821134 0
0.92996401 1.0319569 0.46216574 0
0.92998093 1.0319756 0.57517302 0
1.0365345 1.1797526 -0.056066032 0
0.92013282 1.0472677 0.3556703 0
0.91170824 1.037679 0.45955044 0
0.91340929 1.0396152 0.57297492 0
0.91601849 1.0425849 0.69438732 0
