# .PCD v0.7 - Point Cloud Data file format
VERSION 0.7
FIELDS x y z intensity
SIZE 4 4 4 4
TYPE F F F F
COUNT 1 1 1 1
WIDTH 1351
HEIGHT 1
VIEWPOINT 0 0 0 1 0 0 0
POINTS 1351
DATA ascii
-0.6666587 -1.4251031 -0.056169745 0
-0.64749497 -1.4308052 -0.056068681 0
-0.63209909 -1.4449503 -0.056306612 0
-0.616678 -1.459475 -0.056565527 0
-0.58876729 -1.4438629 -0.055668686 0
-0.57752275 -1.4689207 -0.056349944 0
-0.33565247 -0.85372716 0.37981173 0
-0.54947799 -1.4509805 -0.055391911 0
-0.31636953 -0.83542204 0.36986637 0
-0.5340513 -1.465706 -0.055692922 0
-0.28138697 -0.7722677 0.48744646 0
-0.52058417 -1.4866794 -0.056236316 0
-0.30471149 -0.87019217 0.38174105 0
-0.27287462 -0.77927279 0.48966035 0
-0.49447277 -1.4712442 -0.055412531 0
-0.80351788 -2.3907707 0.45487306 0
-0.28666943 -0.85295039 0.3725642 0
-0.26039425 -0.77477175 0.48473331 0
-0.47922933 -1.4876614 -0.055799153 0
-0.77409208 -2.4029975 0.45530868 0
-0.28113928 -0.87273473 0.37962946 0
-0.24905998 -0.77315152 0.48171929 0
-0.46107882 -1.4955852 -0.055874158 0
-0.7460075 -2.4197981 0.45667589 0
-0.26509601 -0.85988259 0.37255737 0
-0.24140942 -0.78305119 0.48595482 0
-0.44317162 -1.5045332 -0.055995524 0
-0.71831787 -2.4386334 0.45848715 0
-0.25601757 -0.86915976 0.37515032 0
-0.23155224 -0.78610182 0.48599997 0
-0.42304936 -1.5059245 -0.055844616 0
-0.69388419 -2.4700124 0.46270731 0
-0.24931745 -0.88749278 0.38167796 0
-0.21922676 -0.78037924 0.48071724 0
-0.40404752 -1.511106 -0.055843662 0
-0.66681468 -2.4938345 0.46556005 0
-0.24962419 -0.93357486 0.40011263 0
-0.2112055 -0.78989196 0.48490039 0
-0.38816288 -1.5285729 -0.056304067 0
-0.6404801 -2.5221901 0.46931073 0
-0.2401956 -0.9458825 0.40405914 0
-0.2004496 -0.78936404 0.48298854 0
-0.36731961 -1.5268302 -0.056065056 0
-0.6153577 -2.5578451 0.47446576 0
-0.19039321 -0.79140371 0.48273131 0
-0.34789619 -1.5305877 -0.056037724 0
-0.59098369 -2.6000638 0.48087853 0
-0.18134122 -0.79782027 0.48521391 0
-0.32967332 -1.5398759 -0.056221336 0
-0.5585134 -2.608768 0.48114949 0
-0.16842161 -0.78668284 0.47711277 0
-0.30923885 -1.5388318 -0.056036606 0
-0.52881688 -2.631494 0.48407444 0
-0.20701602 -1.0301514 0.4350467 0
-0.15981874 -0.79528868 0.48107341 0
-0.29028243 -1.5449659 -0.056122418 0
-0.49953952 -2.6586916 0.48788175 0
-0.19815508 -1.0546378 0.44429862 0
-0.14898904 -0.79296213 0.47849327 0
-0.26886997 -1.5374255 -0.055721104 0
-0.47136539 -2.6953144 0.49347389 0
-0.18086283 -1.0341917 0.43469119 0
-0.13739069 -0.78561372 0.47297761 0
-0.24944456 -1.5404047 -0.055710819 0
-0.16968936 -1.0478892 0.43951553 0
-0.12745275 -0.7870639 0.47284696 0
-0.23040114 -1.5459188 -0.055800892 0
-0.15594789 -1.046361 0.43801618 0
-0.11706416 -0.78546345 0.47096252 0
-0.21241166 -1.5596654 -0.056196086 0
-0.37915602 -2.7840116 0.10031033 0
-0.37885004 -2.781765 0.30171409 0
-0.14753683 -1.083312 0.45267063 0
-0.10565633 -0.77579796 0.46433258 0
-0.19157188 -1.5526134 -0.055850651 0
-0.13403821 -1.086326 0.45318887 0
-0.097215943 -0.78789634 0.47080371 0
-0.17225863 -1.5571735 -0.055932228 0
-0.15122728 -1.5448055 -0.055415183 0
-0.076010831 -0.77646011 0.46267924 0
-0.1322016 -1.5517197 -0.055599086 0
-0.11429507 -1.5759009 -0.056409474 0
-0.056910735 -0.78468543 0.46657839 0
-0.093708023 -1.5649325 -0.055970181 0
-0.046659093 -0.77921104 0.46293721 0
-0.073460892 -1.5546595 -0.055565275 0
-0.12382184 -2.6204526 0.093657926 0
-0.03684203 -0.77969116 0.46291015 0
-0.054651972 -1.5777465 -0.056361366 0
-0.047550462 -1.3727332 0.04903774 0
-0.034638599 -1.5718069 -0.056129158 0
-0.029853106 -1.354654 0.048374638 0
-0.017068885 -0.77454025 0.45945102 0
-0.014986967 -1.5871634 -0.056666307 0
-0.012809379 -1.3565505 0.048432764 0
-0.018878248 -1.9992613 0.2148688 0
-0.0075037791 -0.79467207 0.47129962 0
0.0050022202 -1.5883981 -0.056708142 0
0.0042921519 -1.3629242 0.048658393 0
0.0057321517 -1.8201797 0.19561441 0
0.005738561 -1.8222148 0.32863569 0
0.0057093906 -1.8129522 0.46254444 0
0.0024671413 -0.78341269 0.46460357 0
0.02484368 -1.5781724 -0.056349773 0
0.02121125 -1.3474256 0.048110794 0
0.030794404 -1.956187 0.21025608 0
0.01642298 -1.0432551 0.34712788 0
0.044279646 -1.5624499 -0.055803873 0
0.038961429 -1.3747915 0.049101535 0
0.054623395 -1.927439 0.20722368 0
0.029156638 -1.02882 0.34241986 0
0.022196827 -0.78323644 0.46468323 0
0.0644513 -1.5740291 -0.056241959 0
0.07755924 -1.894151 0.067680299 0
0.077289447 -1.8875622 0.20302497 0
0.041512836 -1.0138261 0.33757666 0
0.032168448 -0.78561753 0.46629927 0
0.084183224 -1.5715638 -0.056187294 0
0.058617037 -1.0942848 0.039123386 0
0.05273588 -0.98449314 0.10595448 0
0.053169597 -0.99258989 0.17926894 0
0.054606598 -1.0194163 0.33964011 0
0.041561648 -0.77588832 0.46079865 0
0.1038752 -1.5690314 -0.056139063 0
0.12350938 -1.8656049 0.066750303 0
0.063944556 -0.96588033 0.10402972 0
0.066377409 -1.0026286 0.18121856 0
0.067776561 -1.0237627 0.34134546 0
0.051507711 -0.77802223 0.4624145 0
0.12344074 -1.5652883 -0.056056313 0
0.076030403 -0.96410227 0.034526557 0
0.076741666 -0.9731214 0.10490537 0
0.079880424 -1.0129224 0.1832464 0
0.082450829 -1.0455164 0.34891716 0
0.085345462 -1.0822217 0.44946986 0
0.061146278 -0.7753644 0.46125588 0
0.14310347 -1.5632126 -0.056042068 0
0.085746169 -0.93666142 0.033579849 0
0.088610761 -0.96795332 0.10446024 0
0.092082486 -1.0058773 0.18216719 0
0.17665781 -1.9297488 0.4943994 0
0.096660748 -1.0558885 0.35275686 0
0.099021882 -1.0816807 0.44972739 0
0.071602255 -0.78215826 0.46579695 0
0.16156667 -1.5496984 -0.055626102 0
0.095369518 -0.9147554 0.032834955 0
0.099935114 -0.95854717 0.10357274 0
0.10672051 -1.0236307 0.18561105 0
0.2033937 -1.9508904 0.50043237 0
0.11575236 -1.1102614 0.37137955 0
0.10862081 -1.0418577 0.43370458 0
0.080517463 -0.77229899 0.46049276 0
0.18255606 -1.5602727 -0.056083731 0
0.10839272 -0.9264124 0.033299737 0
0.11318016 -0.96732974 0.10466741 0
0.20586196 -1.7594638 0.31948158 0
0.22983736 -1.9643772 0.50459433 0
0.12353586 -1.055838 0.35366735 0
0.1193626 -1.02017 0.42526835 0
0.091676705 -0.78354377 0.46784881 0
0.20307666 -1.5647029 -0.056330424 0
0.12628271 -0.97300655 0.035028934 0
0.12358155 -0.95219415 0.1031899 0
0.22977389 -1.7704046 0.32196805 0
0.13096368 -1.0090734 0.42129669 0
0.10142134 -0.78145003 0.46732417 0
0.22125095 -1.5514258 -0.055948306 0
0.13736905 -0.9632405 0.034736868 0
0.13853975 -0.97144949 0.10545731 0
0.14604418 -1.0240711 0.18655853 0
0.14610834 -1.024521 0.42848039 0
0.11222065 -0.78689837 0.4713901 0
0.23955618 -1.5407248 -0.055666771 0
0.15319709 -0.98529929 0.035599113 0
0.15244851 -0.98048478 0.10663809 0
0.15642005 -1.0060281 0.18361585 0
0.16120903 -1.0368288 0.43444237 0
0.12146137 -0.78118849 0.46884868 0
0.25963485 -1.5417316 -0.055816844 0
0.18587117 -1.1037171 0.039958972 0
0.1648131 -0.97867274 0.10665827 0
0.16953172 -1.0066923 0.1841121 0
0.13184315 -0.78289461 0.47083172 0
0.28068855 -1.5475032 -0.056149311 0
0.17679246 -0.9746992 0.035365801 0
0.18002684 -0.99253118 0.10840706 0
0.18288957 -1.008314 0.18481524 0
0.29983228 -1.6530473 0.42862672 0
0.14325088 -0.78977644 0.47601753 0
0.29755008 -1.5304672 -0.055662718 0
0.18741195 -0.96396488 0.035059165 0
0.19009945 -0.97778821 0.10704976 0
0.19673742 -1.0119311 0.18591756 0
0.32113445 -1.6517749 0.42931128 0
0.15469106 -0.79566294 0.48070142 0
0.31928372 -1.5385829 -0.056099661 0
0.19837534 -0.95594257 0.034855485 0
0.20489754 -0.98737204 0.1083729 0
0.33828059 -1.630126 0.30025455 0
0.33772719 -1.6274592 0.42406312 0
0.16290756 -0.78502834 0.47547814 0
0.3362591 -1.5236927 -0.05570671 0
0.20948648 -0.9492473 0.034704793 0
0.21488377 -0.97370404 0.10716121 0
0.35590392 -1.6127095 0.29784843 0
0.35573965 -1.6119651 0.42115968 0
0.17476107 -0.79189587 0.48093241 0
0.35639474 -1.5235152 -0.055859867 0
0.22122578 -0.94569534 0.03467403 0
0.23158391 -0.9899742 0.1092641 0
0.37585035 -1.606684 0.29758611 0
0.37517926 -1.6038152 0.42023137 0
0.18414176 -0.78716868 0.47943172 0
0.37878433 -1.5319908 -0.056341037 0
0.23164624 -0.93689167 0.034455463 0
0.2373503 -0.95996171 0.10627305 0
0.39091408 -1.5810494 0.29372656 0
0.39213389 -1.5859829 0.41681972 0
0.19836867 -0.80230075 0.49013057 0
0.39557123 -1.5176134 -0.055991039 0
0.24586581 -0.94326687 0.034801017 0
0.2473398 -0.94892186 0.10538732 0
0.40904441 -1.5693034 0.29247811 0
0.40744039 -1.5631496 0.4121345 0
0.20000814 -0.76733339 0.4702701 0
0.41184068 -1.5022705 -0.055611897 0
0.25723448 -0.93831372 0.034735028 0
0.26075462 -0.95115411 0.10599149 0
0.4244861 -1.5483971 0.28955498 0
0.42779759 -1.5604763 0.41281727 0
0.21409966 -0.78097087 0.48024222 0
0.43343487 -1.5063893 -0.055961981 0
0.31564203 -1.0970039 0.04075342 0
0.27376112 -0.9514482 0.10639998 0
0.44272697 -1.5386837 0.28875819 0
0.43879089 -1.5250039 0.40486279 0
0.2264208 -0.7869184 0.48561427 0
0.44746205 -1.4845368 -0.055355098 0
0.28525314 -0.94637918 0.03528839 0
0.28916651 -0.95936257 0.10768369 0
0.45806029 -1.5196984 0.28625503 0
0.45547599 -1.5111245 0.40266877 0
0.47174838 -1.4966455 -0.056023665 0
0.29503042 -0.9359988 0.035037078 0
0.47454926 -1.5055314 0.16964573 0
0.47421342 -1.5044659 0.28448805 0
0.47583559 -1.5096123 0.40383044 0
0.47375089 -1.5029986 0.52429104 0
0.49239448 -1.4961746 -0.056233674 0
0.30741507 -0.93410188 0.03510819 0
0.49243444 -1.496296 0.16929036 0
0.49022609 -1.4895859 0.28281915 0
0.49431011 -1.5019954 0.40342599 0
0.48891413 -1.4855993 0.52032799 0
0.5079118 -1.4802901 -0.055872608 0
0.50743157 -1.4788904 0.16803069 0
0.5031904 -1.4665297 0.2796225 0
0.50541061 -1.4730004 0.39731601 0
0.5074473 -1.4789362 0.52019101 0
0.52790833 -1.4776911 -0.056020979 0
0.53416336 -1.4951998 0.17063448 0
0.52050942 -1.4569805 0.27902934 0
0.52252954 -1.462635 0.39626351 0
0.51973623 -1.4548161 0.51396841 0
0.54760128 -1.4739655 -0.056136705 0
0.56304276 -1.5155289 0.17374982 0
0.53236669 -1.432959 0.27569091 0
0.53332895 -1.435549 0.39071372 0
0.53755236 -1.4469171 0.51352847 0
0.57057995 -1.4785187 -0.056579269 0
0.58827734 -1.5243772 0.17559958 0
0.55275995 -1.4323424 0.27688947 0
0.54844099 -1.4211509 0.3886438 0
0.54879832 -1.4220768 0.50712484 0
0.58728796 -1.4665647 -0.056400344 0
0.61763299 -1.5423417 0.17855075 0
0.56384861 -1.4080324 0.27354091 0
0.56156361 -1.4023262 0.38539907 0
0.56095612 -1.4008092 0.50201976 0
0.60265273 -1.4516959 -0.056115925 0
0.64915895 -1.5637221 0.18195775 0
0.57910067 -1.3949627 0.27239689 0
0.57162815 -1.3769627 0.38037652 0
0.57597411 -1.3874313 0.49978504 0
0.62073874 -1.4436558 -0.056102835 0
0.68649006 -1.5965741 0.18677156 0
0.59680676 -1.3879972 0.2724826 0
0.59577513 -1.3855979 0.38480383 0
0.59038073 -1.3730521 0.49724385 0
0.35130715 -0.81703722 0.44498408 0
0.63948238 -1.4371088 -0.056156881 0
0.70527703 -1.5849692 0.18643811 0
0.60955453 -1.3698519 0.27040586 0
0.60701674 -1.3641487 0.3809396 0
0.60663682 -1.3632948 0.49643737 0
0.3656739 -0.82177895 0.4500387 0
0.65452999 -1.4224306 -0.05590095 0
0.62873894 -1.3663813 0.27126211 0
0.63028985 -1.3697517 0.38469011 0
0.62087631 -1.3492942 0.49414688 0
0.37270963 -0.80997604 0.4461098 0
0.6757713 -1.4211913 -0.056182213 0
0.63700581 -1.3396649 0.26752943 0
0.63500506 -1.3354573 0.37727439 0
0.63685936 -1.339357 0.49340543 0
0.37204736 -0.78244007 0.43348977 0
0.69580752 -1.4170407 -0.056360029 0
0.65160471 -1.3270199 0.26662165 0
0.65472269 -1.3333697 0.37898371 0
0.65034413 -1.3244526 0.49089274 0
0.64771217 -1.3190926 0.60844076 0
0.37969661 -0.77326781 0.43102285 0
0.70263463 -1.3865396 -0.055494405 0
0.67122781 -1.324563 0.26780501 0
0.66773361 -1.3176678 0.37688074 0
0.66253901 -1.3074172 0.48763222 0
0.66086167 -1.3041071 0.60531902 0
0.40489888 -0.79900461 0.4481751 0
0.72768205 -1.3922089 -0.056083608 0
0.68575454 -1.3119928 0.26698822 0
0.67362571 -1.2887877 0.37101719 0
0.67447299 -1.2904087 0.48441786 0
0.67693102 -1.2951115 0.60505223 0
0.42240459 -0.80814886 0.45625162 0
0.74407876 -1.3809406 -0.056002684 0
0.69615692 -1.2920022 0.2646831 0
0.69694597 -1.2934666 0.37486088 0
0.69026208 -1.2810619 0.48413363 0
0.68807292 -1.2769991 0.60059065 0
0.43235385 -0.8024084 0.45604825 0
0.75732911 -1.3641163 -0.055702716 0
0.73204064 -1.3185662 0.27199191 0
0.70413101 -1.2682948 0.3701061 0
0.70406598 -1.2681776 0.4825767 0
0.70776439 -1.2748393 0.60371864 0
0.45041668 -0.8112995 0.46428823 0
0.78282732 -1.3691329 -0.056305625 0
0.75555086 -1.3214275 0.2745229 0
0.71700865 -1.2540187 0.36854562 0
0.71363842 -1.2481244 0.47832748 0
0.71743131 -1.2547579 0.59843951 0
0.45093316 -0.78866363 0.4545477 0
0.79252529 -1.3464612 -0.055779241 0
0.79063725 -1.3432535 0.28110322 0
0.73223001 -1.2440225 0.36828843 0
0.7287581 -1.2381239 0.47797388 0
0.73794073 -1.2537247 0.6023308 0
0.46571225 -0.79122198 0.45936576 0
0.81437999 -1.3445712 -0.05612132 0
0.81115365 -1.3392444 0.28237939 0
0.7475214 -1.2341852 0.36813363 0
0.74584019 -1.2314094 0.47896948 0
0.7423597 -1.2256631 0.59329313 0
0.47431216 -0.78310674 0.45808551 0
0.8294962 -1.3314033 -0.056003235 0
0.8394708 -1.3474133 0.28630796 0
0.76004958 -1.2199363 0.36670911 0
0.75047123 -1.2045623 0.47216529 0
0.75837922 -1.2172552 0.59379876 0
0.48458189 -0.77779007 0.45850849 0
0.85288012 -1.3312893 -0.056445714 0
0.87858438 -1.371412 0.29373491 0
0.76907766 -1.2004793 0.36374265 0
0.76605791 -1.1957655 0.47246087 0
0.77333182 -1.2071197 0.59355778 0
0.50056195 -0.781344 0.46428245 0
0.85348648 -1.2960145 -0.055401374 0
0.90778792 -1.378471 0.29767159 0
0.78559548 -1.1929225 0.36442143 0
0.78792459 -1.1964592 0.47661731 0
0.77616811 -1.178607 0.58429718 0
0.52010041 -0.78976965 0.47314316 0
0.87720782 -1.2962043 -0.055877242 0
0.93856287 -1.3868655 0.3020125 0
0.80776376 -1.1935904 0.36770359 0
0.79042763 -1.1679738 0.46919769 0
0.79378903 -1.1729407 0.58639693 0
0.53708714 -0.79362571 0.479467 0
0.9070887 -1.30466 -0.056729648 0
0.81889576 -1.1778125 0.36599064 0
0.81059015 -1.1658666 0.4724142 0
0.82085985 -1.1806375 0.59536523 0
0.55585128 -0.79947734 0.48719227 0
0.91581732 -1.2824551 -0.056261115 0
0.57763141 -0.80888003 0.035485446 0
0.58008492 -0.81231576 0.10727328 0
0.58339399 -0.81694961 0.18104666 0
0.58357102 -0.8171975 0.25619712 0
0.58202648 -0.81503463 0.33319888 0
0.58518022 -0.81945091 0.41691092 0
0.54981077 -0.76992172 0.47336289 0
0.92615891 -1.2630035 -0.055914968 0
0.57666749 -0.78640181 0.034815133 0
0.58217764 -0.79391599 0.10580315 0
0.57832515 -0.78866237 0.17637773 0
0.57676142 -0.7865299 0.24883978 0
0.58189923 -0.79353631 0.32737961 0
0.57711792 -0.78701603 0.40407434 0
0.57394052 -0.78268301 0.4856137 0
0.93783122 -1.2457201 -0.055668216 0
0.57775944 -0.76743722 0.034294911 0
0.58597946 -0.77835584 0.10470454 0
0.59102291 -0.78505504 0.17722134 0
0.590361 -0.78417581 0.2504271 0
0.59725207 -0.79332924 0.33037072 0
0.58724397 -0.7800355 0.40425491 0
0.5915395 -0.78574121 0.49209374 0
0.95877934 -1.2407198 -0.055979844 0
0.58817321 -0.76113254 0.034341421 0
0.61335546 -0.79371995 0.10780174 0
0.60655379 -0.78491813 0.17890045 0
0.5982908 -0.77422529 0.24963553 0
0.60563356 -0.78372729 0.32952186 0
0.60328996 -0.78069454 0.40850112 0
0.97550112 -1.2300316 -0.056047387 0
0.58406609 -0.73646224 0.033557501 0
0.88427961 -1.1150084 0.3630766 0
0.87398094 -1.1020225 0.46794075 0
0.87122595 -1.0985487 0.58051378 0
0.99580306 -1.2236624 -0.056324068 0
0.57578737 -0.70753878 0.032567371 0
0.9023605 -1.1088383 0.36473855 0
0.88502961 -1.0875418 0.46648711 0
0.89203078 -1.096145 0.58513296 0
1.0028722 -1.2011349 -0.055863999 0
0.59063077 -0.70739543 0.032900497 0
0.9127757 -1.0932268 0.36335531 0
0.89896584 -1.0766867 0.46664956 0
0.89925337 -1.0770311 0.58092839 0
1.0075315 -1.176288 -0.055294063 0
0.60425627 -0.70546615 0.033162024 0
0.92160654 -1.075971 0.36144853 0
0.90752262 -1.059528 0.46412888 0
0.90496308 -1.0565398 0.57597661 0
1.0341516 -1.1770405 -0.055937137 0
0.6096974 -0.69393933 0.03297846 0
0.92351007 -1.0511116 0.35697576 0
0.92550546 -1.0533826 0.46650502 0
0.93135124 -1.0600361 0.58422977 0
1.0546864 -1.1703581 -0.056246266 0
0.93544745 -1.0380416 0.35650921 0
0.92704439 -1.028717 0.46071476 0
0.93270779 -1.0350015 0.57685947 0
1.0543485 -1.1407663 -0.055457775 0
0.95686936 -1.0352974 0.35967639 0
0.94366592 -1.0210118 0.46254906 0
0.94911307 -1.0269054 0.57896239 0
1.0740682 -1.1331391 -0.05574007 0
0.97130227 -1.0247214 0.36022273 0
0.95552552 -1.0080769 0.46210349 0
0.95608449 -1.0086666 0.57542151 0
1.0940622 -1.1255041 -0.056037739 0
0.97145987 -0.99937832 0.35558587 0
0.97159332 -0.99951559 0.46375051 0
0.97181249 -0.99974108 0.57726496 0
1.109784 -1.1132815 -0.056120522 0
0.98982513 -0.9929446 0.35770315 0
0.98180103 -0.98489517 0.46266645 0
0.97652346 -0.97960097 0.57269061 0
1.1242554 -1.0997498 -0.056147587 0
1.0100756 -0.98805875 0.36049646 0
0.99050754 -0.96891719 0.46098325 0
0.9966982 -0.9749729 0.57727653 0
1.143151 -1.0904074 -0.056401059 0
1.0159911 -0.96911442 0.35822394 0
1.0206375 -0.9735465 0.4692632 0
1.0123113 -0.96560442 0.57923114 0
1.1510599 -1.0705978 -0.056121685 0
1.0275825 -0.95575178 0.35803917 0
1.0189719 -0.94774306 0.46297362 0
1.0211724 -0.94978976 0.57741225 0
1.15215 -1.0448661 -0.055528931 0
1.0341079 -0.93781567 0.35616991 0
1.0379823 -0.94132924 0.46618849 0
1.0365704 -0.94004887 0.57937968 0
1.1636659 -1.0289068 -0.055455118 0
1.0556296 -0.93338168 0.35950583 0
1.0488967 -0.92742848 0.46580842 0
1.0501337 -0.92852229 0.58037955 0
1.1771454 -1.0147047 -0.055484179 0
1.3632292 -1.1751097 0.064255148 0
1.3676386 -1.1789106 0.19404878 0
1.3175766 -1.1357571 0.31372133 0
1.0603235 -0.91400361 0.35715643 0
1.0580772 -0.91206747 0.46474823 0
1.0590903 -0.91294068 0.5789302 0
1.212015 -1.0184457 -0.056518786 0
1.3937187 -1.1711298 0.064992011 0
1.3885654 -1.1667995 0.19491789 0
1.1514719 -0.96757191 0.27124846 0
1.0818727 -0.90908831 0.36053053 0
1.0670542 -0.89663643 0.46369517 0
1.0707303 -0.8997255 0.579054 0
1.2098424 -0.99090075 -0.05583119 0
1.0143551 -0.83079022 0.046809942 0
1.0091769 -0.82654899 0.14018962 0
1.0031508 -0.82161349 0.23385324 0
1.0172437 -0.83315605 0.33547035 0
1.0827844 -0.88683605 0.46564114 0
1.0782496 -0.88312191 0.57706076 0
1.2293041 -0.98124087 -0.056154646 0
0.9100045 -0.72637326 0.041569032 0
0.90145272 -0.71954715 0.12395666 0
0.90332013 -0.72103775 0.20844772 0
0.9071368 -0.72408426 0.29612851 0
1.0891149 -0.86934066 0.46361914 0
1.093012 -0.87245136 0.57903582 0
1.2450602 -0.96840584 -0.056312885 0
0.88445312 -0.68792623 0.040002968 0
0.87438655 -0.68009645 0.11904781 0
0.88390738 -0.68750173 0.20195438 0
0.88057351 -0.68490863 0.28461912 0
1.1044539 -0.85904253 0.46550712 0
1.1197573 -0.87094545 0.58734792 0
1.2463926 -0.94449675 -0.055830799 0
0.88788986 -0.67282903 0.03977206 0
0.89058185 -0.67486894 0.12008626 0
0.88682711 -0.67202365 0.2006721 0
0.88103032 -0.66763091 0.28202713 0
1.1224579 -0.85058093 0.46854392 0
1.1304516 -0.85663837 0.58725274 0
1.270418 -0.93775719 -0.056373574 0
0.89990485 -0.66426343 0.039932411 0
0.89915127 -0.6637072 0.1201053 0
0.91264552 -0.67366797 0.20457856 0
0.90631288 -0.66899353 0.2874009 0
1.1317774 -0.83541983 0.46800581 0
1.1321762 -0.83571422 0.5826357 0
1.2726824 -0.91489887 -0.055958401 0
0.9087413 -0.6532709 0.039956324 0
0.90983599 -0.65405786 0.12042285 0
0.92295581 -0.66348934 0.20500067 0
0.91257948 -0.65603006 0.28674579 0
1.155629 -0.83075219 0.47350547 0
1.1405147 -0.81988686 0.5815677 0
1.2821169 -0.89741284 -0.055871934 0
0.93096364 -0.65162444 0.040569417 0
0.92822051 -0.6497044 0.12176367 0
0.92167747 -0.64512461 0.2028963 0
0.91856295 -0.64294463 0.28605929 0
1.164407 -0.81502223 0.47285953 0
1.1585596 -0.81092936 0.58551574 0
1.2934387 -0.88128275 -0.055877287 0
0.94464326 -0.6436314 0.040809125 0
0.94082159 -0.64102751 0.1223481 0
0.93104565 -0.63436669 0.20318401 0
0.93148798 -0.63466805 0.28757277 0
1.1842365 -0.80687791 0.47674832 0
1.1775697 -0.80233556 0.58997041 0
1.2955669 -0.85904837 -0.055497512 0
0.95406967 -0.63261265 0.040868975 0
0.93494439 -0.61993122 0.12055908 0
0.94365025 -0.62570381 0.20419909 0
0.94630504 -0.62746412 0.28968489 0
1.17168 -0.77690291 0.46771786 0
1.1864244 -0.78667951 0.58939689 0
1.3070502 -0.84316391 -0.055530202 0
0.95023108 -0.61298376 0.040370695 0
0.95595145 -0.61667389 0.12225689 0
0.95635682 -0.61693543 0.20525137 0
0.95390385 -0.61535305 0.28961608 0
1.2001746 -0.77421963 0.4751631 0
1.1981089 -0.77288711 0.59031993 0
1.3322587 -0.83585978 -0.056149568 0
0.97815585 -0.6136955 0.0412255 0
0.96186244 -0.60347301 0.12203133 0
0.96339571 -0.60443497 0.20511228 0
0.96470034 -0.60525352 0.29055703 0
1.2097942 -0.75902545 0.4751499 0
1.2121072 -0.76047665 0.59245181 0
1.3316697 -0.81230408 -0.055689227 0
0.97086155 -0.59221506 0.040600557 0
0.9628588 -0.58733344 0.12120982 0
0.97904724 -0.5972082 0.2068271 0
0.98319799 -0.59974015 0.29383039 0
1.2323699 -0.75173229 0.48026073 0
1.2294105 -0.7499271 0.59624636 0
1.3482344 -0.79929167 -0.055956613 0
0.97428226 -0.57759666 0.040436242 0
0.98426801 -0.58351666 0.1229702 0
0.98281527 -0.58265543 0.20605682 0
0.97782326 -0.57969594 0.29001966 0
1.2321354 -0.73046321 0.476547 0
1.2478036 -0.73975194 0.60060143 0
1.3593898 -0.78294253 -0.056005977 0
0.99502861 -0.57308817 0.040994532 0
0.99654627 -0.57396227 0.12359143 0
1.0010887 -0.5765785 0.20834929 0
0.99096572 -0.57074815 0.29176292 0
1.2628548 -0.72734308 0.48484743 0
1.2547358 -0.72266692 0.59951055 0
1.366847 -0.76448148 -0.055912171 0
1.0132822 -0.56673163 0.041449264 0
1.0054128 -0.56233031 0.12380306 0
1.0067008 -0.56305069 0.2080252 0
1.0064814 -0.56292796 0.29422072 0
1.2594807 -0.70443124 0.48010838 0
1.2709767 -0.71086097 0.60294569 0
1.3986095 -0.75928724 -0.056815837 0
1.0204438 -0.55398589 0.041453578 0
1.0246358 -0.55626166 0.12529767 0
1.0212979 -0.55444962 0.20958224 0
1.026381 -0.55720913 0.29796317 0
1.2901089 -0.70038366 0.48838305 0
1.2799568 -0.6948722 0.60300708 0
1.399196 -0.73694879 -0.056458212 0
1.2862881 -0.67748082 0.37090942 0
1.2866009 -0.67764562 0.48378646 0
1.2977518 -0.68351871 0.60728753 0
1.4068625 -0.71850586 -0.056398015 0
1.3122491 -0.67018539 0.37593216 0
1.3191016 -0.67368501 0.49277842 0
1.3102411 -0.66915989 0.60914057 0
1.4084145 -0.69708049 -0.056103896 0
1.3271784 -0.65687352 0.37780955 0
1.3237065 -0.65515518 0.49137783 0
1.3152424 -0.65096593 0.60760665 0
1.4219987 -0.68164945 -0.05629864 0
1.3349011 -0.6398983 0.37768421 0
1.3438489 -0.64418757 0.49580446 0
1.3286247 -0.6368897 0.6100356 0
1.4238521 -0.66062081 -0.056038227 0
1.3528305 -0.6276691 0.38049063 0
1.3384197 -0.620983 0.49087751 0
1.3573955 -0.62978715 0.61955529 0
1.4245607 -0.63927633 -0.055744879 0
1.3565406 -0.60875207 0.37934804 0
1.3593676 -0.61002076 0.49570379 0
1.349524 -0.6056034 0.61243331 0
1.4222456 -0.61684257 -0.055345949 0
1.3861074 -0.60116905 0.38546875 0
1.3743535 -0.5960713 0.49839193 0
1.3748091 -0.59626889 0.62045145 0
1.460716 -0.61179268 -0.056538731 0
1.3869592 -0.58090109 0.38364103 0
1.3679656 -0.57294595 0.49342 0
1.3853116 -0.58021098 0.62184465 0
1.4531612 -0.58723295 -0.055955663 0
1.4115483 -0.57041687 0.3884249 0
1.3843706 -0.55943412 0.49675688 0
1.3715298 -0.55424511 0.61247683 0
1.4613482 -0.56924313 -0.055990461 0
1.4074161 -0.54823476 0.38535759 0
1.4021051 -0.546166 0.50061309 0
1.3944657 -0.54319018 0.61961555 0
1.4546014 -0.54562205 -0.055464327 0
1.4320842 -0.53717583 0.39022881 0
1.42198 -0.53338575 0.5052712 0
1.4169583 -0.53150207 0.62658638 0
1.4683983 -0.52980447 -0.055731606 0
1.4391302 -0.51924437 0.39033619 0
1.4296331 -0.51581782 0.50564247 0
1.4347484 -0.51766342 0.63152063 0
1.4766085 -0.5118475 -0.055794168 0
1.4484549 -0.50208837 0.39111948 0
1.4585335 -0.50558203 0.51357174 0
1.4568064 -0.50498331 0.63838023 0
1.4914916 -0.49606007 -0.056116056 0
1.4551885 -0.4839859 0.39126104 0
1.453143 -0.4833056 0.50949037 0
1.4640847 -0.48694471 0.63883197 0
1.4932365 -0.47584438 -0.055951826 0
1.4713224 -0.4688611 0.39398035 0
1.4614999 -0.46573102 0.51032376 0
1.4635419 -0.46638173 0.63598222 0
1.4936167 -0.45533049 -0.055746812 0
1.479598 -0.45105693 0.3946442 0
1.4774731 -0.45040911 0.51388007 0
1.4621147 -0.44572708 0.63287282 0
1.4969522 -0.43582439 -0.055662066 0
1.4678247 -0.42734414 0.39003772 0
1.4807131 -0.43109652 0.51307821 0
1.4703745 -0.42808652 0.63406456 0
1.5153714 -0.42056325 -0.056145586 0
1.4824767 -0.41143394 0.39252332 0
1.4864495 -0.4125365 0.5132252 0
1.4775618 -0.41006991 0.63488686 0
1.5161853 -0.40029809 -0.055984545 0
1.5063483 -0.39770094 0.39748642 0
1.5009425 -0.39627373 0.51646537 0
1.492092 -0.39393705 0.63894814 0
1.5087297 -0.3780745 -0.055529054 0
1.5034841 -0.37676004 0.39544746 0
1.5146179 -0.37955004 0.51948524 0
1.509717 -0.37832192 0.64440447 0
1.5343062 -0.3640148 -0.056297235 0
1.5251926 -0.36185262 0.39992705 0
1.5284998 -0.36263725 0.52263886 0
1.5099337 -0.35823241 0.64252061 0
1.5228186 -0.3410947 -0.055713713 0
1.5257127 -0.34174296 0.39890343 0
1.5243194 -0.34143087 0.5196982 0
1.5306683 -0.34285295 0.64945513 0
1.5421675 -0.32509243 -0.056267381 0
1.5335163 -0.32326874 0.39984772 0
1.5363246 -0.32386073 0.52235943 0
1.5410094 -0.32484829 0.6520555 0
1.5479122 -0.30599952 -0.056331929 0
1.5480117 -0.30601916 0.40259054 0
1.5437521 -0.30517712 0.52353674 0
1.5354861 -0.30354306 0.64804971 0
1.539834 -0.28430495 -0.05590323 0
1.5378312 -0.28393516 0.39898142 0
1.553897 -0.28690144 0.52571034 0
1.5299795 -0.28248546 0.64417326 0
1.551293 -0.26626739 -0.056193061 0
1.5475587 -0.26562643 0.40060562 0
1.5450534 -0.26519641 0.5215472 0
1.5551665 -0.26693225 0.65331089 0
1.5382078 -0.24412435 -0.05560331 0
1.5576795 -0.24721466 0.40238783 0
1.5612639 -0.24778351 0.52592432 0
1.5642203 -0.24825272 0.65574908 0
1.5375798 -0.22421506 -0.055474151 0
1.5628879 -0.22790559 0.40295997 0
1.5575817 -0.22713181 0.52367896 0
1.5655291 -0.22829074 0.65504074 0
1.5515188 -0.20633179 -0.055878889 0
1.5743363 -0.2093662 0.40519983 0
1.5614541 -0.20765305 0.52406025 0
1.563464 -0.20792034 0.65302938 0
1.5658958 -0.18821047 -0.056306861 0
1.556977 -0.1871385 0.4000937 0
1.5673299 -0.18838283 0.52519453 0
1.5753853 -0.18935105 0.65696073 0
1.5680239 -0.1684664 -0.056302644 0
1.5780842 -0.16954727 0.40493688 0
1.5808789 -0.16984752 0.52897602 0
1.568665 -0.16853528 0.65322149 0
1.5650243 -0.14823647 -0.056123462 0
1.5783819 -0.14950168 0.40449813 0
1.5794669 -0.14960444 0.52783138 0
1.5809726 -0.14974704 0.65750921 0
1.5647808 -0.12835626 -0.056052327 0
1.5839143 -0.12992574 0.4054645 0
1.5829637 -0.12984778 0.52841163 0
1.5847315 -0.12999278 0.65833956 0
1.5708238 -0.10895927 -0.056215186 0
1.6783583 -0.11641834 0.060063533 0
1.6631498 -0.11536341 0.17916702 0
1.662104 -0.11529087 0.30047855 0
1.5883951 -0.1101781 0.40622419 0
1.5998151 -0.11097024 0.53352809 0
1.5874908 -0.11011536 0.65885758 0
1.5623436 -0.088620283 -0.05586734 0
1.6444168 -0.093275696 0.058802173 0
1.6392303 -0.092981502 0.1764501 0
1.6460522 -0.093368463 0.29734054 0
1.5945657 -0.090448014 0.40747872 0
1.5965329 -0.090559594 0.53201103 0
1.5979626 -0.090640694 0.66267747 0
1.5799825 -0.06967558 -0.056462236 0
1.6280954 -0.071797304 0.058181599 0
1.634514 -0.072080351 0.1758308 0
1.6280339 -0.071794592 0.29389915 0
1.6028711 -0.070684932 0.40934116 0
1.6117278 -0.071075514 0.53673357 0
1.5980151 -0.070470795 0.66227871 0
1.5627971 -0.049211323 -0.055821527 0
1.6380407 -0.051580686 0.058509149 0
1.6397655 -0.051635001 0.17631181 0
1.6197473 -0.051004644 0.2922641 0
1.6057272 -0.05056316 0.40987548 0
1.5852215 -0.049917452 0.52765542 0
1.6016228 -0.050433915 0.66345811 0
1.5800194 -0.029845873 -0.056418791 0
1.6270684 -0.030734608 0.058098804 0
1.6474876 -0.031120317 0.17708592 0
1.6508484 -0.031183802 0.29778147 0
1.5923644 -0.030079065 0.40633562 0
1.6065927 -0.030347832 0.53459936 0
1.5926034 -0.030083578 0.6595127 0
1.5666606 -0.0098634679 -0.055932913 0
1.6410637 -0.010331898 0.05858925 0
1.6420085 -0.010337847 0.176469 0
1.6219093 -0.010211305 0.29251501 0
1.6036757 -0.010096509 0.40915713 0
1.6092378 -0.010131528 0.53539467 0
1.586937 -0.0099911243 0.65706193 0
1.5771598 0.0099295685 -0.056307752 0
1.6456504 0.010360776 0.058753002 0
1.6536449 0.010411108 0.17771959 0
1.6640905 0.010476872 0.3001225 0
1.6021185 0.010086706 0.40875983 0
1.6041769 0.010099664 0.5337109 0
1.5985401 0.010064176 0.66186619 0
1.5626789 0.029518317 -0.055799603 0
1.6722345 0.031587776 0.059711579 0
1.6544369 0.031251587 0.1778329 0
1.6721743 0.03158664 0.30162826 0
1.6099124 0.030410537 0.41081345 0
1.6073973 0.030363029 0.53486711 0
1.6172525 0.030549189 0.66972011 0
1.5476243 0.048733547 -0.055279575 0
1.6005145 0.050399017 0.4085449 0
1.611437 0.050742958 0.53638142 0
1.6178823 0.050945915 0.67019343 0
1.567784 0.069137633 -0.05602631 0
1.6201221 0.071445689 0.41374674 0
1.6157652 0.071253553 0.53807813 0
1.6067125 0.070854336 0.66588324 0
1.5669549 0.08888185 -0.056032233 0
1.6007351 0.090797953 0.40905523 0
1.6103134 0.091341265 0.53660309 0
1.6046067 0.091017567 0.66543281 0
1.5693623 0.1088579 -0.056162886 0
1.610882 0.11173789 0.41197512 0
1.6027223 0.11117189 0.53449756 0
1.6065235 0.11143556 0.66675675 0
1.5553901 0.12758596 -0.055715937 0
1.5917459 0.13056816 0.4074693 0
1.5919876 0.130588 0.53142393 0
1.6088299 0.13196953 0.66835064 0
1.5559424 0.14737624 -0.055797774 0
1.6135123 0.15282917 0.41350111 0
1.6031505 0.15184772 0.53574604 0
1.6041182 0.15193938 0.66713524 0
1.5617368 0.16779093 -0.056076895 0
1.5899473 0.17082182 0.40798095 0
1.59649 0.17152475 0.53419966 0
1.5996668 0.17186607 0.6661312 0
1.5477629 0.18603101 -0.055654835 0
1.5834377 0.1903189 0.40689328 0
1.6069758 0.19314802 0.53847939 0
1.5941083 0.19160144 0.66476852 0
1.5438334 0.20530972 -0.055602092 0
1.5883473 0.21122949 0.40880597 0
1.593817 0.2119569 0.534922 0
1.5835801 0.21059553 0.66143155 0
1.5479333 0.22572486 -0.055847697 0
1.583051 0.23084582 0.4081586 0
1.5957531 0.2326981 0.53651267 0
1.5869173 0.23140962 0.66398984 0
1.5428426 0.24485993 -0.055770852 0
1.6071903 0.25507236 0.41517767 0
1.5927695 0.25278369 0.53653723 0
1.587015 0.25187039 0.66530508 0
1.5533965 0.26662844 -0.056269258 0
1.5783662 0.27091429 0.40858054 0
1.6018636 0.27494746 0.54072404 0
1.5857186 0.2721763 0.66614556 0
1.5334239 0.28312144 -0.055670511 0
1.5727845 0.2903887 0.40804988 0
1.5864143 0.29290524 0.53671151 0
1.5782346 0.29139498 0.66449034 0
1.5312362 0.30270293 -0.055725053 0
1.5634096 0.30906311 0.40659505 0
1.5731544 0.31098953 0.533508 0
1.5721849 0.31079787 0.6635384 0
1.5548234 0.32776031 -0.056729142 0
1.5763423 0.33229655 0.41101414 0
1.5436161 0.32539776 0.52483857 0
1.5578852 0.32840574 0.65919626 0
1.5326589 0.34329882 -0.056073729 0
1.5620284 0.34987727 0.4083983 0
1.5614731 0.3497529 0.53236532 0
1.5625216 0.34998772 0.6629703 0
1.5155158 0.35955679 -0.055607773 0
1.5606588 0.37026697 0.40922678 0
1.5514636 0.36808541 0.53049088 0
1.5547354 0.36886168 0.66158503 0
1.5101434 0.37842876 -0.055581089 0
1.5439332 0.38689619 0.40608639 0
1.5373161 0.38523802 0.52727032 0
1.5611089 0.3912003 0.66634053 0
1.5088252 0.39835489 -0.055712774 0
1.5314941 0.40433988 0.40412179 0
1.5419095 0.40708968 0.53056186 0
1.5447212 0.40783206 0.6614852 0
1.5270637 0.42380828 -0.0565788 0
1.5402261 0.42746124 0.40781397 0
1.532244 0.42524594 0.52903664 0
1.5398289 0.427351 0.66164213 0
1.4948583 0.43521473 -0.055584203 0
1.5347928 0.44684133 0.40783283 0
1.5443252 0.44961661 0.53512031 0
1.5199564 0.44252184 0.65544558 0
1.4965667 0.45622981 -0.055856917 0
1.5246326 0.4647857 0.40665594 0
1.5379314 0.46883988 0.53490806 0
1.5299925 0.4664197 0.66225362 0
1.4979682 0.47735223 -0.056129128 0
1.5085241 0.48071602 0.40394199 0
1.5007509 0.47823897 0.52402931 0
1.521328 0.4847962 0.66109318 0
1.496807 0.49782792 -0.05631604 0
1.5091355 0.50192827 0.40576595 0
1.5150037 0.50388002 0.53117949 0
1.5043497 0.50033659 0.65640104 0
1.4761525 0.51168942 -0.055776939 0
1.4991356 0.51965624 0.40480459 0
1.491559 0.51702988 0.52520055 0
1.5056407 0.52191108 0.65977967 0
1.4843185 0.53554851 -0.05633584 0
1.4831007 0.5351091 0.4022623 0
1.4747493 0.53209591 0.52159947 0
1.48098 0.53434402 0.65187007 0
1.4684045 0.55079961 -0.05599064 0
1.4710326 0.55178541 0.40084189 0
1.4681386 0.55069989 0.52167267 0
1.4730673 0.55254859 0.65139806 0
1.4529989 0.56599075 -0.055670563 0
1.4744753 0.5743565 0.40371871 0
1.4618603 0.56944257 0.52194828 0
1.4759408 0.57492739 0.65581816 0
1.4631741 0.59127921 -0.056341223 0
1.4652196 0.59210587 0.40319398 0
1.4668344 0.59275836 0.52634758 0
1.4448196 0.58386207 0.64520544 0
1.4523758 0.60829955 -0.056215912 0
1.4520668 0.60817009 0.40165013 0
1.4589298 0.61104459 0.52623045 0
1.4458263 0.60555643 0.64900875 0
1.4428618 0.62578404 -0.05614822 0
1.444224 0.62637478 0.40163067 0
1.4363142 0.6229443 0.52086121 0
1.4444913 0.62649071 0.65189898 0
1.4270965 0.64041424 -0.055844106 0
1.4349035 0.64391768 0.40126175 0
1.4154034 0.63516694 0.5161376 0
1.4271452 0.64043611 0.64765888 0
1.4270926 0.66212428 -0.056165762 0
1.4194862 0.65859514 0.39923787 0
1.4157138 0.65684491 0.51922578 0
1.4157883 0.65687948 0.64620745 0
1.4281497 0.68459797 -0.056542162 0
1.4032195 0.67264742 0.39701357 0
1.4020431 0.6720835 0.5172748 0
1.4088001 0.67532259 0.64684796 0
1.4040691 0.69492978 -0.055930801 0
1.3822632 0.68413717 0.39349058 0
1.4027569 0.69428033 0.52072239 0
1.3985156 0.69218111 0.64607662 0
1.3869183 0.70832008 -0.055598497 0
1.372421 0.70091605 0.39317018 0
1.3805894 0.70508778 0.5157485 0
1.3744038 0.70192873 0.63897026 0
1.3986865 0.73668045 -0.056437653 0
1.3678869 0.72045845 0.39443895 0
1.3562742 0.71434212 0.50998497 0
1.3651351 0.7190091 0.63881975 0
1.3739517 0.74590087 -0.055814162 0
1.3607236 0.73871946 0.39502439 0
1.3396592 0.7272839 0.50714082 0
1.3560715 0.7361939 0.63886583 0
1.3814877 0.77267009 -0.056511063 0
1.4118086 0.78962868 0.057751372 0
1.4117523 0.78959721 0.17383832 0
1.4179198 0.79304665 0.29299971 0
1.3471955 0.75349039 0.39382035 0
1.3347536 0.74653161 0.50880206 0
1.3467453 0.75323856 0.63888997 0
1.3431742 0.77360314 -0.055337906 0
1.3644897 0.78587979 0.056216091 0
1.3862079 0.79838848 0.17191717 0
1.3827068 0.796372 0.28777269 0
1.3316512 0.76696652 0.39206851 0
1.3385515 0.77094066 0.51390964 0
1.3286648 0.76524645 0.63483369 0
1.344741 0.79722065 -0.055811621 0
1.3664089 0.81006634 0.056710921 0
1.3585373 0.80539972 0.1697298 0
1.3586206 0.80544907 0.28484809 0
1.3277036 0.78712016 0.3937932 0
1.3125772 0.77815259 0.50765908 0
1.3249564 0.78549147 0.63773715 0
1.343599 0.81958085 -0.056188103 0
1.3542616 0.82608497 0.056634005 0
1.352451 0.8249805 0.17025378 0
1.354502 0.82623154 0.28614318 0
1.3106383 0.79947513 0.3916865 0
1.3062849 0.79681963 0.50906575 0
1.3070117 0.79726297 0.63388181 0
1.327234 0.83270735 -0.055937801 0
1.3222417 0.82957512 0.055727392 0
1.3368057 0.83871263 0.16960032 0
1.3446646 0.84364325 0.28628653 0
1.2900993 0.80940896 0.38856354 0
1.2817458 0.80416793 0.50340909 0
1.2930628 0.81126827 0.63202113 0
1.3206054 0.85190827 -0.056106098 0
1.3278153 0.85655922 0.05641241 0
1.3292398 0.8574782 0.16999684 0
1.3214505 0.85245335 0.28360701 0
1.2850516 0.82897282 0.3901563 0
1.2675718 0.81769681 0.50184643 0
1.2908103 0.83268774 0.63599479 0
1.3158913 0.8725248 -0.056368135 0
1.3277051 0.88035816 0.056874197 0
1.336692 0.88631707 0.17236358 0
1.3306032 0.88227981 0.28793293 0
1.2755178 0.84575444 0.39046422 0
1.2589645 0.83477849 0.50256062 0
1.252238 0.83031833 0.62209207 0
1.3003837 0.88601464 -0.056177311 0
1.3223951 0.90101206 0.057128213 0
1.3315421 0.90724444 0.17315893 0
1.3369346 0.91091859 0.29176199 0
1.2515913 0.85277003 0.38639635 0
1.2520254 0.85306579 0.50403869 0
1.2435818 0.84731275 0.62304282 0
1.2772491 0.89400566 -0.055659804 0
1.3500793 0.94498283 0.058833588 0
1.3527918 0.94688147 0.17745881 0
1.3478721 0.94343793 0.29671797 0
1.2398915 0.8678574 0.38612759 0
1.2362454 0.86530524 0.50203276 0
1.2196783 0.85370916 0.61640406 0
1.2706804 0.91345972 -0.05587038 0
1.2250553 0.88066095 0.38493025 0
1.2223848 0.8787412 0.50085789 0
1.2184343 0.87590134 0.62130028 0
1.2603599 0.93033284 -0.055927258 0
1.2099401 0.89311552 0.38368413 0
1.1948817 0.88200015 0.49410027 0
1.1961728 0.88295323 0.61556935 0
1.2460597 0.94424444 -0.055815887 0
1.2013485 0.91036302 0.38456437 0
1.181111 0.89502734 0.4930273 0
1.177092 0.89198178 0.61148173 0
1.2354144 0.96090329 -0.055876609 0
1.1753109 0.91415489 0.37988418 0
1.1737584 0.91294736 0.49471763 0
1.1671126 0.90777832 0.61218733 0
1.2213321 0.97487748 -0.055790484 0
1.1511734 0.91887629 0.37579256 0
1.1611151 0.92681175 0.49426848 0
1.1558188 0.9225843 0.61230844 0
1.2086563 0.98992926 -0.055776455 0
1.1551244 0.94608486 0.38094115 0
1.1411991 0.93467963 0.49076188 0
1.1409702 0.93449217 0.61062777 0
1.1960967 1.0050697 -0.055776481 0
1.1286769 0.94841748 0.37612787 0
1.1116863 0.9341405 0.4830904 0
1.1231622 0.94378352 0.6074093 0
1.1848942 1.0213842 -0.055849418 0
1.1180186 0.96373719 0.37659034 0
1.0979215 0.94641328 0.48224932 0
1.0949484 0.94385052 0.59853131 0
1.1751977 1.0391032 -0.056004677 0
1.0930843 0.96649897 0.37226146 0
1.0735781 0.94925165 0.47676927 0
1.0869396 0.96106577 0.60072106 0
1.1491747 1.0421679 -0.055385537 0
1.080582 0.97996223 0.37217662 0
1.0631982 0.96419716 0.4775137 0
1.0679085 0.96846884 0.59689575 0
1.1341089 1.0548317 -0.055295214 0
1.0640962 0.98971301 0.37076154 0
1.0476799 0.97444427 0.47601724 0
1.0489589 0.9756338 0.59312379 0
1.1383413 1.0858195 -0.056163754 0
1.0499923 1.0015469 0.37021229 0
1.0386956 0.99077135 0.4775658 0
1.0317662 0.98416167 0.59036291 0
1.1083765 1.084217 -0.055354558 0
1.0290726 1.0066416 0.36727649 0
1.0115162 0.98946792 0.4707607 0
1.017013 0.99484485 0.58904254 0
1.1052853 1.1087686 -0.05589303 0
1.0029702 1.0061311 0.36245352 0
1.0180938 1.0213023 0.47976917 0
1.0120589 1.0152484 0.59353071 0
1.100105 1.1317205 -0.056347251 0
0.98897821 1.0174001 0.36199817 0
0.9914031 1.0198947 0.47320589 0
0.98397225 1.0122503 0.58448797 0
1.0650089 1.1235815 -0.055269927 0
0.9701556 1.0235116 0.35979748 0
0.97413093 1.0277056 0.47110128 0
0.96199739 1.0149047 0.57898021 0
1.062884 1.1500013 -0.055906728 0
0.95437437 1.0325979 0.35873857 0
0.94541347 1.0229026 0.46340564 0
0.9375205 1.0143627 0.57189083 0
1.0512555 1.1665509 -0.056063291 0
0.93849593 1.0414245 0.35767102 0
0.94048935 1.0436366 0.46739653 0
0.9254449 1.0269421 0.57236755 0
1.0345721 1.1775191 -0.055959888 0
0.91769916 1.0444977 0.35472959 0
0.91100276 1.0368761 0.45919484 0
0.90995461 1.035683 0.57080781 0
0.92193776 1.049322 0.69887441 0
1.017689 1.1881467 -0.055851508 0
0.90066224 1.0515186 0.35323429 0
0.88715577 1.0357498 0.45371279 0
0.89801043 1.0484226 0.5715515 0
0.88872236 1.0375788 0.68354553 0
1.0022576 1.2003988 -0.05582976 0
0.87510741 1.0481117 0.45426476 0
0.87843615 1.0520984 0.56748021 0
0.87672186 1.0500453 0.68443108 0
0.99254543 1.2196593 -0.056139816 0
0.85585707 1.051694 0.45111069 0
0.85741621 1.0536098 0.56242728 0
0.84687716 1.0406593 0.67130905 0
0.97424114 1.2284429 -0.055974998 0
0.84277296 1.0626717 0.56155509 0
0.84511751 1.0656279 0.68049699 0
0.95773244 1.2393651 -0.05591872 0
0.82770914 1.0711068 0.56046033 0
0.82846814 1.0720891 0.67790729 0
0.93207622 1.2380757 -0.055326607 0
0.80213058 1.0654691 0.66728163 0
0.92442864 1.2606438 -0.055810507 0
0.78205532 1.0664893 0.66170061 0
0.90926439 1.2732788 -0.055858552 0
0.90469563 1.3012179 -0.056579981 0
0.87436247 1.2919999 -0.055695996 0
0.86227572 1.309361 -0.055971902 0
0.84601593 1.3205748 -0.055991422 0
0.8291896 1.3309112 -0.055982534 0
0.81680167 1.3485694 -0.056288205 0
0.79714602 1.3543116 -0.056104455 0
0.77960384 1.3634952 -0.056073774 0
0.75856674 1.3663455 -0.055793747 0
0.74558991 1.3837452 -0.056116421 0
0.73015201 1.3969344 -0.056273971 0
0.71096933 1.4029866 -0.056152683 0
0.69160318 1.4084785 -0.056019481 0
0.67057127 1.4102553 -0.055749893 0
0.6589632 1.4320649 -0.056279577 0
0.63591683 1.4290959 -0.055843771 0
0.61848837 1.4384222 -0.055899449 0
0.60069287 1.446975 -0.055933435 0
0.58656996 1.4647716 -0.056331392 0
0.5636149 1.4604704 -0.055888608 0
0.54810411 1.475319 -0.056188252 0
0.52621365 1.4729475 -0.055841144 0
0.50929189 1.4843123 -0.056024428 0
0.4904294 1.4902036 -0.056009255 0
0.47111326 1.4946306 -0.055948239 0
0.45449588 1.5078728 -0.056225244 0
0.43591389 1.515005 -0.056282051 0
0.41313478 1.5069909 -0.055786643 0
0.39667076 1.5218318 -0.05614667 0
0.38016513 1.5375754 -0.05654642 0
0.35669255 1.5247883 -0.055906542 0
0.33836257 1.5332242 -0.056055181 0
0.32152846 1.5493999 -0.056494068 0
0.29760328 1.5307407 -0.055672668 0
0.28082132 1.5482353 -0.056175876 0
0.25816315 1.5329925 -0.055500455 0
0.2415861 1.5537803 -0.056138471 0
0.22314531 1.5647092 -0.056427337 0
0.2014237 1.5519668 -0.055871919 0
0.18233934 1.5584204 -0.056017153 0
0.16228892 1.556626 -0.055874765 0
0.14427547 1.5760154 -0.056501053 0
0.12292736 1.5587784 -0.055823177 0
0.10396708 1.5704191 -0.056188717 0
0.084220022 1.5722507 -0.056211855 0
0.064322919 1.5708938 -0.056129929 0
0.044019625 1.5532748 -0.055476177 0
0.024724822 1.5706222 -0.056080185 0
0.0049437778 1.5698406 -0.056045607 0
-0.014803119 1.5676934 -0.055971168 0
-0.034832597 1.58061 -0.056443516 0
-0.054454282 1.5720394 -0.056157496 0
-0.074113242 1.5684651 -0.056058709 0
-0.093816474 1.5667435 -0.056034952 0
-0.11278255 1.5550462 -0.055662978 0
-0.13451429 1.5788649 -0.056571718 0
-0.1527456 1.5603154 -0.055971552 0
-0.17028557 1.5393375 -0.055291571 0
-0.094551466 0.85472083 0.50998247 0
-0.19229856 1.5585029 -0.056062508 0
-0.10518203 0.8524583 0.50938237 0
-0.21103801 1.5495791 -0.055832669 0
-0.11398464 0.83694983 0.50093335 0
-0.23144859 1.5529468 -0.056054574 0
-0.12326358 0.82705957 0.49590349 0
-0.25171521 1.5544267 -0.056217946 0
-0.13374789 0.82593846 0.49620178 0
-0.26985624 1.543065 -0.0559255 0
-0.14528659 0.83076334 0.50015986 0
-0.28734756 1.5293455 -0.055554993 0
-0.1512769 0.80513877 0.48584095 0
-0.30721116 1.5287417 -0.055669174 0
-0.160165 0.79701167 0.48211569 0
-0.32817805 1.5328915 -0.055966336 0
-0.17041843 0.79600984 0.48276946 0
-0.34689733 1.5261931 -0.055876832 0
-0.178946 0.78728241 0.47880504 0
-0.36807933 1.5299881 -0.056181014 0
-0.1885176 0.78360736 0.47797582 0
-0.38702673 1.5240988 -0.056139261 0
-0.19620821 0.77266163 0.47276878 0
-0.40595567 1.5182422 -0.056107387 0
-0.20087233 0.75124675 0.46117681 0
-0.4248473 1.5123246 -0.056081951 0
-0.21312416 0.75865585 0.46733552 0
-0.4447718 1.5099657 -0.05619771 0
-0.22109309 0.75059384 0.46404752 0
-0.46412194 1.505456 -0.056242924 0
-0.47894275 1.4867717 -0.055765782 0
-0.50396132 1.4994763 -0.056475855 0
-0.51810217 1.4795914 -0.055968199 0
-0.53798497 1.4765019 -0.05610314 0
-0.56277478 1.4860926 -0.056732334 0
-0.57506198 1.4626617 -0.056109842 0
-0.59020889 1.4473983 -0.05580499 0
-0.61385101 1.4527844 -0.056306217 0
-0.61939049 1.415899 -0.055174548 0
-0.63115931 1.3947073 -0.054654121 0
-0.64833212 1.3859268 -0.05462563 0
-0.6660701 1.3783549 -0.054653432 0
-0.67521602 1.3535089 -0.054001115 0
-0.69352692 1.3474686 -0.054104257 0
-0.70443332 1.3273149 -0.053646948 0
-0.71885294 1.3142501 -0.053480521 0
-0.74298561 1.3186572 -0.054036286 0
-0.75255221 1.2971697 -0.053539842 0
-0.77001339 1.2895807 -0.053622562 0
-0.77728027 1.26528 -0.053014889 0
-0.78151011 1.2369691 -0.052236862 0
-0.80373424 1.2373629 -0.052676711 0
-0.80795223 1.2102214 -0.051950254 0
-0.82649142 1.2048579 -0.052162632 0
-0.8435542 1.1971341 -0.052283973 0
-0.85001212 1.1746049 -0.051763389 0
-0.87047678 1.1715375 -0.052107129 0
-0.87537801 1.1476611 -0.051531356 0
-0.89468354 1.1428385 -0.05181656 0
-0.9041093 1.1253921 -0.051537637 0
-0.9243837 1.1214114 -0.05188429 0
-0.93851554 1.1097841 -0.051889002 0
-0.94844824 1.0933069 -0.051672902 0
-0.96190161 1.0810112 -0.051660147 0
-0.98009825 1.0739219 -0.051907033 0
-0.9900167 1.0577291 -0.051722828 0
-1.005304 1.047313 -0.051828392 0
-1.0071625 1.0231448 -0.05125593 0
-1.0168283 1.0072747 -0.051098287 0
-1.0240471 0.98919165 -0.050831072 0
-1.0479103 0.98704118 -0.051394563 0
-1.0632706 0.97653782 -0.051540725 0
-1.0782088 0.9655143 -0.051671401 0
-1.091027 0.95251364 -0.051706783 0
-1.0955329 0.9324019 -0.051359821 0
-1.1107979 0.92153031 -0.051527366 0
-1.124801 0.90948266 -0.051641591 0
-1.1334743 0.89312917 -0.051519372 0
-1.1587963 0.88966256 -0.052156985 0
-1.1631787 0.86996967 -0.051857054 0
-1.1858935 0.86388952 -0.052380599 0
-1.1936063 0.84671086 -0.052246191 0
-1.2163706 0.84003878 -0.052775424 0
-1.2149308 0.81664401 -0.052262641 0
-1.2301612 0.80458093 -0.052477825 0
-1.242913 0.7907576 -0.052592862 0
-1.2585181 0.77860057 -0.052834127 0
-1.2634634 0.75983089 -0.05263589 0
-1.2851925 0.75102776 -0.053142931 0
-1.2970746 0.73622078 -0.053246692 0
-1.3037145 0.71843803 -0.053143676 0
-1.3269545 0.70961148 -0.053722512 0
-1.3473933 0.69886869 -0.05418941 0
-1.3640896 0.68587226 -0.054509234 0
-1.3826782 0.67354316 -0.05490876 0
-1.3850615 0.65325612 -0.054672409 0
-1.3892772 0.63398504 -0.054519366 0
-1.4113946 0.62272716 -0.055075228 0
-1.4351608 0.61174256 -0.055697624 0
-1.4436086 0.59397709 -0.055730786 0
-1.4530712 0.57658577 -0.055811372 0
-1.4668933 0.56079692 -0.056066588 0
-1.4830679 0.54567844 -0.0564177 0
-0.97109169 0.35730249 0.34425154 0
-1.4823681 0.52432543 -0.056135468 0
-0.96916807 0.34280249 0.34201226 0
-1.4767402 0.50150567 -0.055678785 0
-0.97894567 0.33245307 0.34395811 0
-1.483538 0.48306745 -0.055701327 0
-0.99036384 0.32248083 0.34651572 0
-1.5026317 0.4684425 -0.05619229 0
-0.99351442 0.30972621 0.34622601 0
-1.5004081 0.44710073 -0.05589417 0
-0.99530864 0.29658812 0.34552237 0
-0.74669456 0.22250459 0.46206808 0
-1.5021882 0.42711267 -0.055755708 0
-0.99191433 0.28202802 0.34308398 0
-0.75194526 0.21379834 0.46361461 0
-1.5192697 0.41136563 -0.056192994 0
-0.99853837 0.27036962 0.34417027 0
-0.74916041 0.20284669 0.46028623 0
-1.5092705 0.38832912 -0.055637881 0
-0.99503672 0.25601888 0.34182507 0
-0.76752543 0.19748114 0.47000465 0
-1.5271548 0.37249357 -0.056119807 0
-1.0047395 0.24506946 0.34407085 0
-0.77844089 0.18987219 0.47518709 0
-1.5356686 0.35414502 -0.056264337 0
-1.0070962 0.23224939 0.34384912 0
-0.78023112 0.17993137 0.47485918 0
-1.5345633 0.33359784 -0.056065489 0
-1.0082451 0.21918182 0.34327185 0
-0.7924161 0.17226288 0.40573788 0
-0.79874128 0.17363791 0.48475558 0
-1.5380625 0.31413099 -0.056044366 0
-1.00508 0.20527565 0.34128711 0
-0.79851097 0.16308638 0.40777478 0
-0.79193008 0.16174231 0.47934777 0
-1.5304056 0.29254365 -0.055626724 0
-1.0206612 0.19510379 0.3457163 0
-0.83082914 0.15881658 0.35022148 0
-0.81089759 0.15500657 0.41307074 0
-0.80754268 0.15436526 0.48758271 0
-1.5457783 0.27535462 -0.056055013 0
-1.0229524 0.1822219 0.34568772 0
-0.82755256 0.14741468 0.34803024 0
-0.82242191 0.14650075 0.41796836 0
-0.82134163 0.14630832 0.49476272 0
-1.5550394 0.25684682 -0.056269102 0
-1.0215247 0.16872586 0.34445995 0
-0.83316547 0.13761446 0.34963429 0
-0.83010358 0.13710873 0.4209615 0
-0.84638965 0.1397987 0.5087505 0
-1.5457041 0.23535159 -0.055819646 0
-1.013827 0.15436704 0.34118176 0
-0.84281993 0.12832922 0.35297963 0
-0.83920801 0.12777926 0.4247289 0
-0.84081435 0.12802385 0.50439024 0
-1.5604599 0.21753161 -0.056249134 0
-1.0416734 0.14521162 0.34990984 0
-0.87370938 0.12179705 0.3652451 0
-0.84755844 0.11815155 0.42816821 0
-0.84229648 0.11741802 0.50435245 0
-1.5538652 0.19670041 -0.055917703 0
-1.0278617 0.13011478 0.34469262 0
-0.87037033 0.11017828 0.36324045 0
-0.85330606 0.10801816 0.43035051 0
-0.84968776 0.10756013 0.50792694 0
-1.5608393 0.17764567 -0.056083731 0
-1.0445131 0.11888041 0.34974688 0
-0.87453061 0.099533997 0.36442474 0
-0.86086452 0.097978607 0.43350589 0
-0.87194556 0.099239781 0.52044392 0
-1.5684197 0.15853135 -0.056279916 0
-1.0282444 0.10393199 0.34383398 0
-0.90216953 0.091188706 0.37543386 0
-0.88599139 0.08955346 0.44555584 0
-0.88382351 0.089334339 0.52682042 0
-1.5529404 0.13723713 -0.055658046 0
-1.0293192 0.090963446 0.34378311 0
-0.89419049 0.079021789 0.37166986 0
-0.88347894 0.078075185 0.44376278 0
-0.89546788 0.07913468 0.53312504 0
-1.5654 0.11849451 -0.056046683 0
