# .PCD v0.7 - Point Cloud Data file format
VERSION 0.7
FIELDS x y z intensity
SIZE 4 4 4 4
TYPE F F F F
COUNT 1 1 1 1
WIDTH 1348
HEIGHT 1
VIEWPOINT 0 0 0 1 0 0 0
POINTS 1348
DATA ascii
-1.3747841 -0.75760233 -0.056040708 0
-0.79416496 -0.43764052 0.032372765 0
-0.79609787 -0.43870571 0.09768685 0
-0.79548836 -0.43836981 0.16380684 0
-1.3755734 -0.7807768 -0.056469176 0
-0.78230959 -0.44403967 0.032114886 0
-0.79004568 -0.44843069 0.097629353 0
-0.78853852 -0.44757521 0.16352332 0
-1.3535135 -0.79095244 -0.055968013 0
-0.77783537 -0.45454353 0.032163627 0
-0.77620327 -0.4535898 0.096616946 0
-0.77800626 -0.45464343 0.16251352 0
-1.3452357 -0.80900776 -0.05604253 0
-0.77790946 -0.46782494 0.097554855 0
-0.76581568 -0.46055189 0.16116573 0
-1.3431484 -0.83095837 -0.056387011 0
-0.76379615 -0.47253364 0.096523501 0
-0.75728041 -0.46850258 0.16059829 0
-1.3383204 -0.85145706 -0.056629952 0
-0.75608379 -0.48103043 0.16161628 0
-1.3259979 -0.86726248 -0.056566156 0
-0.74810302 -0.48929316 0.16121458 0
-1.3120147 -0.88190114 -0.056438897 0
-0.74126786 -0.49826044 0.16108091 0
-1.2973752 -0.89598149 -0.056290027 0
-0.74124467 -0.51191169 0.16246377 0
-1.282941 -0.9100824 -0.056156524 0
-1.2655588 -0.92192334 -0.055899393 0
-1.2695563 -0.94953209 -0.056599602 0
-1.2475419 -0.95779681 -0.056151394 0
-1.2334179 -0.97188032 -0.056062065 0
-1.2083677 -0.97705233 -0.055478282 0
-1.2049747 -0.99966031 -0.055896007 0
-1.1866273 -1.0099318 -0.055630427 0
-1.1872174 -1.036492 -0.056265511 0
-1.1657592 -1.0439138 -0.055867106 0
-1.1469699 -1.0534096 -0.055597946 0
-1.1428707 -1.0764856 -0.056051873 0
-1.1269985 -1.0886389 -0.055941317 0
-1.1073302 -1.0969263 -0.055646248 0
-1.10535 -1.1228905 -0.056252837 0
-1.0891843 -1.1346985 -0.056152843 0
-1.0635538 -1.1362959 -0.055564735 0
-1.0599459 -1.1614133 -0.056135848 0
-1.0387102 -1.1673309 -0.055785254 0
-1.0308686 -1.1883156 -0.056163296 0
-0.61205989 -0.70554119 0.033345953 0
-1.0122284 -1.1969488 -0.055964462 0
-0.58956897 -0.69715875 0.032596312 0
-1.0009881 -1.2143437 -0.056183986 0
-0.58435863 -0.70891178 0.032799188 0
-0.98099864 -1.2211002 -0.05592062 0
-0.57671356 -0.71786553 0.032874849 0
-0.9670257 -1.2352458 -0.056006335 0
-0.58470684 -0.7468847 0.033863928 0
-0.61508673 -0.7856909 0.10723487 0
-0.6164524 -0.78743541 0.18035483 0
-0.61684108 -0.78793186 0.25530156 0
-0.6128701 -0.78285944 0.33077207 0
-0.61716288 -0.78834289 0.41452724 0
-0.94852191 -1.2435561 -0.055837154 0
-0.58022791 -0.76070565 0.034156591 0
-0.59742868 -0.78325665 0.10586747 0
-0.60206568 -0.78933597 0.17903952 0
-0.59240466 -0.77666992 0.24921572 0
-0.59486896 -0.77990073 0.32633114 0
-0.59857011 -0.78475314 0.40864396 0
-0.59973329 -0.78627813 0.49478391 0
-0.93920267 -1.2640327 -0.05622109 0
-0.585473 -0.78796303 0.035046674 0
-0.58203602 -0.78333735 0.10487943 0
-0.58682966 -0.78978896 0.17745209 0
-0.57756144 -0.7773152 0.24706952 0
-0.58234596 -0.78375447 0.32484958 0
-0.5816229 -0.78278136 0.40377143 0
-0.57749671 -0.77722806 0.48447451 0
-0.9159168 -1.2656764 -0.055776801 0
-0.58385199 -0.80680662 0.035554972 0
-0.58451128 -0.80771768 0.10714971 0
-0.57531351 -0.79500753 0.17698286 0
-0.58627635 -0.8101567 0.25514144 0
-0.58360624 -0.806467 0.33119121 0
-0.58223045 -0.80456585 0.41119388 0
-0.56310898 -0.77814251 0.48058647 0
-0.90169048 -1.2796385 -0.055887293 0
-2.0183511 -2.8643529 0.12509856 0
-0.5545935 -0.78705406 0.48173904 0
-0.88570803 -1.2911838 -0.055899993 0
-1.9864528 -2.8958478 0.12537168 0
-0.54135031 -0.78917968 0.47882968 0
-0.87079865 -1.3043581 -0.055991191 0
-1.9482129 -2.9182031 0.12526749 0
-0.52229851 -0.78234434 0.47065458 0
-0.85086608 -1.3099232 -0.055765733 0
-1.9229095 -2.9603527 0.12602742 0
-0.50658274 -0.77989292 0.46530539 0
-0.83725423 -1.3252006 -0.055962853 0
-1.8951042 -2.9995587 0.12667052 0
-0.49494871 -0.78340161 0.46364349 0
-0.82153988 -1.337327 -0.056033641 0
-1.8547759 -3.0192595 0.12650616 0
-1.2140375 -1.9762465 0.24926014 0
-1.2113643 -1.9718949 0.41737273 0
-0.48337907 -0.78685886 0.46205062 0
-0.80532449 -1.348718 -0.056081578 0
-1.8281748 -3.0617378 0.12731132 0
-1.1776676 -1.9722999 0.2468724 0
-1.1824858 -1.9803693 0.4159818 0
-0.46796516 -0.78372514 0.456714 0
-0.7829448 -1.3495572 -0.055702105 0
-1.792375 -3.0895057 0.12751736 0
-0.45455131 -0.78350729 0.4532156 0
-0.77467066 -1.3748921 -0.056340694 0
-0.44382241 -0.78769976 0.4523721 0
-0.75451207 -1.3794442 -0.056133449 0
-0.43505445 -0.79539269 0.45360795 0
-0.7338981 -1.3828334 -0.055890873 0
-0.40891635 -0.77049279 0.43643653 0
-0.72207355 -1.4029324 -0.056331269 0
-0.40060431 -0.77834284 0.43799102 0
-0.69831729 -1.3998168 -0.055848662 0
-0.40433553 -0.81051362 0.45319322 0
-0.6836769 -1.41479 -0.056098133 0
-0.663095 -1.4174851 -0.055869482 0
-0.64979571 -1.4358892 -0.05626791 0
-0.62752783 -1.4345007 -0.055899411 0
-0.61246139 -1.4494957 -0.056178752 0
-0.59084892 -1.4489678 -0.055865504 0
-0.57327086 -1.458106 -0.055935077 0
-0.3334192 -0.8480469 0.37728465 0
-0.55859226 -1.4750482 -0.056310706 0
-0.31693178 -0.83690679 0.37052369 0
-0.53841311 -1.477677 -0.056147791 0
-0.28579924 -0.78437716 0.49508977 0
-0.51957339 -1.4837929 -0.056127127 0
-0.30241331 -0.86362916 0.3788619 0
-0.27413803 -0.78288084 0.49192747 0
-0.49861509 -1.4835691 -0.055876732 0
-0.8071512 -2.4015813 0.45692989 0
-0.28341302 -0.8432613 0.36833206 0
-0.258656 -0.7695998 0.4814975 0
-0.47942239 -1.4882606 -0.055821631 0
-0.77142489 -2.3947179 0.45373988 0
-0.27643812 -0.85814095 0.37328136 0
-0.25190076 -0.78197008 0.48721376 0
-0.46290988 -1.5015244 -0.056096043 0
-0.74937582 -2.4307239 0.45873785 0
-0.2660096 -0.86284596 0.37384126 0
-0.24181122 -0.78435451 0.48676363 0
-0.44323021 -1.5047321 -0.05600293 0
-0.71912116 -2.4413605 0.45899984 0
-0.26401967 -0.89632624 0.38687602 0
-0.22834285 -0.77520621 0.47926387 0
-0.42347845 -1.5074519 -0.055901255 0
-0.69431055 -2.47153 0.4629916 0
-0.24769047 -0.88170123 0.37918723 0
-0.22049485 -0.78489321 0.48349789 0
-0.40576389 -1.5175251 -0.056080885 0
-0.66753906 -2.4965436 0.46606576 0
-0.24771118 -0.92642039 0.39704633 0
-0.20633867 -0.77169043 0.47372678 0
-0.38627499 -1.5211385 -0.056030225 0
-0.63909912 -2.5167515 0.46829879 0
-0.23962437 -0.94363302 0.4030982 0
-0.19963519 -0.78615695 0.4810262 0
-0.36899361 -1.5337884 -0.056320559 0
-0.61860198 -2.5713305 0.47696719 0
-0.19028085 -0.79093671 0.48244646 0
-0.34612408 -1.5227911 -0.055752281 0
-0.58883971 -2.5906315 0.47913402 0
-0.17880484 -0.78666133 0.47842732 0
-0.32879427 -1.5357698 -0.056071427 0
-0.55839223 -2.6082022 0.48104513 0
-0.17043759 -0.79609936 0.48282376 0
-0.30759701 -1.5306617 -0.055739094 0
-0.52708721 -2.6228871 0.48249117 0
-0.20913717 -1.0407066 0.4395043 0
-0.15918231 -0.79212171 0.47915772 0
-0.28782171 -1.5318691 -0.055646665 0
-0.49981555 -2.6601608 0.48815134 0
-0.19514 -1.0385907 0.4375383 0
-0.14976929 -0.79711485 0.48099914 0
-0.26917335 -1.5391603 -0.055783976 0
-0.16564122 -0.94715309 0.034327786 0
-0.4703784 -2.6896708 0.49244061 0
-0.17977603 -1.0279773 0.43207917 0
-0.1361662 -0.77861196 0.46876222 0
-0.25051731 -1.5470293 -0.055950407 0
-0.1524808 -0.94162053 0.03405498 0
-0.16834879 -1.0396107 0.43604332 0
-0.1260158 -0.7781902 0.46751586 0
-0.23301157 -1.5634339 -0.056433115 0
-0.14163403 -0.95031953 0.034302369 0
-0.14195453 -0.95246989 0.10349187 0
-0.15868175 -1.0647043 0.44569486 0
-0.11665319 -0.78270596 0.46930915 0
-0.21137232 -1.5520339 -0.055921115 0
-0.12410296 -0.91124517 0.032832947 0
-0.12796424 -0.93959725 0.10191002 0
-0.14648131 -1.0755615 0.44943205 0
-0.10730723 -0.78791994 0.47158784 0
-0.193019 -1.5643418 -0.056272544 0
-0.11245666 -0.91141623 0.03278549 0
-0.11559661 -0.93686426 0.10144767 0
-0.13306399 -1.0784304 0.44989502 0
-0.095830202 -0.77666545 0.46409276 0
-0.17102844 -1.5460528 -0.05553278 0
-0.10084537 -0.91161603 0.0327444 0
-0.10242548 -0.92589986 0.1001128 0
-0.085788287 -0.77550393 0.46271649 0
-0.15249015 -1.5577058 -0.055877943 0
-0.088574193 -0.90479642 0.032456812 0
-0.091417342 -0.93383956 0.10083882 0
-0.076134466 -0.77772301 0.46343178 0
-0.13283384 -1.5591407 -0.055864982 0
-0.078280628 -0.91882092 0.032921925 0
-0.079204865 -0.9296692 0.10027284 0
-0.066615067 -0.78189605 0.46538168 0
-0.11426435 -1.5754774 -0.056394313 0
-0.066286758 -0.91396207 0.032715328 0
-0.067019105 -0.92405969 0.099568896 0
-0.056229968 -0.77529907 0.46099719 0
-0.093695216 -1.5647185 -0.055962529 0
-0.054076247 -0.9030782 0.032298807 0
-0.055655204 -0.92944694 0.10006592 0
-0.046811529 -0.7817567 0.46444961 0
-0.073580235 -1.5571851 -0.055655543 0
-0.043518085 -0.92097712 0.099087201 0
-0.036605872 -0.77469331 0.45994288 0
-0.054249503 -1.5661275 -0.055946309 0
-0.036112495 -1.0425308 0.037242018 0
-0.031416163 -0.90695238 0.097528003 0
-0.033028264 -0.95349216 0.1720642 0
-0.027088409 -0.78201467 0.46405032 0
-0.034590907 -1.5696428 -0.056051876 0
-0.020489052 -0.92973828 0.1677178 0
-0.017141588 -0.77783936 0.46140802 0
-0.014771032 -1.5642953 -0.05584985 0
-0.0087853894 -0.93039829 0.16780359 0
-0.0073279263 -0.77604872 0.46025461 0
0.0049293102 -1.5652465 -0.055881593 0
0.0028950472 -0.91928935 0.16579345 0
0.0057470375 -1.8249065 0.46559438 0
0.0024564404 -0.78001469 0.4625884 0
0.02475057 -1.5722579 -0.056138586 0
0.013970152 -0.88744146 0.16006874 0
0.016471786 -1.0463555 0.34815949 0
0.012265919 -0.77918148 0.46214923 0
0.044445638 -1.5683072 -0.056013066 0
0.029408654 -1.0377126 0.34537956 0
0.063799866 -1.5581198 -0.055673499 0
0.042013481 -1.0260528 0.34164786 0
0.032017376 -0.78192806 0.46410942 0
0.083503462 -1.5588739 -0.055733595 0
0.10059675 -1.8779776 0.067142345 0
0.054629035 -1.0198352 0.33977968 0
0.041569073 -0.77602702 0.46088099 0
0.10337327 -1.5614498 -0.055867799 0
0.067014098 -1.0122457 0.036217585 0
0.067821883 -1.0244472 0.34157369 0
0.05121699 -0.77363086 0.45980451 0
0.12340968 -1.5648944 -0.056042209 0
0.079063267 -1.0025605 0.03590383 0
0.083286941 -1.0561187 0.35245544 0
0.086386897 -1.0954276 0.45495453 0
0.061939407 -0.78542161 0.46723881 0
0.14257716 -1.5574635 -0.055835959 0
0.088301733 -0.9645775 0.034580655 0
0.1760688 -1.9233146 0.49275097 0
0.097789973 -1.0682237 0.35687786 0
0.097944021 -1.0699066 0.44483206 0
0.071350366 -0.77940673 0.4641583 0
0.16271125 -1.5606767 -0.056020167 0
0.099252015 -0.95199513 0.034171667 0
0.20269886 -1.9442258 0.49872279 0
0.11488715 -1.1019626 0.36860359 0
0.10812352 -1.0370879 0.43171898 0
0.081089579 -0.77778655 0.46376479 0
0.18377878 -1.5707231 -0.056459371 0
0.1142811 -0.97673935 0.035108726 0
0.23159142 -1.9793688 0.50844526 0
0.12322669 -1.0531956 0.35278225 0
0.11986861 -1.0244946 0.42707115 0
0.090595394 -0.77430195 0.46233061 0
0.20137545 -1.5515951 -0.055858538 0
0.22821304 -1.7583783 0.063302882 0
0.11726804 -0.9035486 0.097918153 0
0.11510216 -0.88686061 0.16128561 0
0.13101885 -1.0094985 0.42147416 0
0.10114879 -0.77934998 0.46606833 0
0.2221581 -1.5577868 -0.056177702 0
0.24915642 -1.7471007 0.063004836 0
0.24528447 -1.7199503 0.18671206 0
0.24633199 -1.7272956 0.31466737 0
0.1462208 -1.0253096 0.42881018 0
0.10977646 -0.76975954 0.46112311 0
0.24204235 -1.5567148 -0.056244493 0
0.26894331 -1.7297304 0.062495589 0
0.26600367 -1.7108238 0.18607017 0
0.26610702 -1.7114886 0.31237343 0
0.16210839 -1.0426131 0.43686604 0
0.12139035 -0.78073174 0.46857455 0
0.25945848 -1.5406842 -0.055778928 0
0.2884869 -1.713057 0.062019512 0
0.28489268 -1.6917143 0.18436737 0
0.285514 -1.6954038 0.31006929 0
0.13244395 -0.78646225 0.47297731 0
0.27869552 -1.5365152 -0.055750631 0
0.30829939 -1.6997285 0.061672624 0
0.30403408 -1.6762128 0.1830807 0
0.30330288 -1.6721815 0.30649641 0
0.30289286 -1.6699209 0.43300194 0
0.14227635 -0.78440356 0.47277918 0
0.29800412 -1.5328026 -0.055747654 0
0.33503133 -1.7232543 0.062674336 0
0.32120004 -1.6521121 0.18087578 0
0.3196224 -1.6439976 0.3020443 0
0.32148063 -1.6535555 0.42977408 0
0.15229146 -0.78332055 0.47324473 0
0.3196502 -1.5403488 -0.056164049 0
0.36258519 -1.7472465 0.063707933 0
0.33958834 -1.6364279 0.17961256 0
0.33965793 -1.6367632 0.30147704 0
0.33826658 -1.6300584 0.4247404 0
0.16419438 -0.79122931 0.47923395 0
0.33871883 -1.5348386 -0.056114204 0
0.38868445 -1.761248 0.064391807 0
0.35842848 -1.624149 0.17874606 0
0.35791841 -1.6218377 0.29953432 0
0.35628349 -1.6144294 0.42180353 0
0.17403764 -0.78861767 0.47894153 0
0.35748345 -1.5281692 -0.056030504 0
0.42000294 -1.7954273 0.065829553 0
0.37763888 -1.6143296 0.17817461 0
0.37316835 -1.5952189 0.29546258 0
0.37546209 -1.6050242 0.42054817 0
0.18596409 -0.79495871 0.48417634 0
0.37648767 -1.5227019 -0.055999428 0
0.45040131 -1.8216451 0.066993468 0
0.39238513 -1.5869991 0.17568953 0
0.39128086 -1.5825328 0.29400215 0
0.39477575 -1.5966679 0.4196279 0
0.19329095 -0.78176397 0.47758451 0
0.39706522 -1.5233451 -0.056202505 0
0.48254862 -1.8513031 0.068302236 0
0.41059098 -1.5752368 0.17494589 0
0.40932447 -1.5703778 0.29267839 0
0.40828711 -1.566398 0.41299096 0
0.20615295 -0.7909081 0.48471814 0
0.41231623 -1.5040051 -0.05567611 0
0.42950118 -1.5666906 0.17458355 0
0.42406955 -1.5468776 0.28927082 0
0.42519274 -1.5509747 0.41030365 0
0.2147062 -0.7831834 0.48160273 0
0.43386632 -1.5078888 -0.056017686 0
0.44101802 -1.5327443 0.17140602 0
0.44266844 -1.5384802 0.28871998 0
0.44089669 -1.5323226 0.40680578 0
0.22385454 -0.77799946 0.48011029 0
0.45443374 -1.5076666 -0.056217555 0
0.46219057 -1.5334014 0.1721167 0
0.4614045 -1.5307934 0.28834492 0
0.46178159 -1.5320444 0.4082433 0
0.47161177 -1.496212 -0.056007437 0
0.47676387 -1.5125573 0.17043741 0
0.47274166 -1.4997966 0.2836051 0
0.47289103 -1.5002706 0.40133148 0
0.47275937 -1.4998529 0.52319372 0
0.49152741 -1.4935399 -0.056134652 0
0.49184322 -1.4944996 0.16908711 0
0.48975679 -1.4881598 0.2825484 0
0.49198264 -1.4949231 0.40152642 0
0.48925519 -1.4866357 0.52069098 0
0.50777936 -1.4799041 -0.055858038 0
0.50785369 -1.4801207 0.16817048 0
0.50674605 -1.4768926 0.28159836 0
0.50270361 -1.465111 0.39518797 0
0.50497407 -1.4717281 0.51765567 0
0.52845311 -1.479216 -0.056078792 0
0.53397524 -1.4946731 0.17057438 0
0.52009726 -1.4558268 0.27880839 0
0.51996821 -1.4554656 0.39432111 0
0.52210176 -1.4614377 0.51630771 0
0.5470708 -1.4725376 -0.056082323 0
0.56458384 -1.519677 0.17422538 0
0.53411347 -1.4376607 0.27659547 0
0.53682649 -1.4449632 0.39327601 0
0.53477442 -1.4394397 0.51087469 0
0.56299645 -1.4588678 -0.055827279 0
0.59416491 -1.5396334 0.177357 0
0.55144936 -1.4289464 0.27623299 0
0.55437875 -1.4365371 0.3928515 0
0.55261159 -1.4319581 0.51064855 0
0.58538717 -1.461818 -0.056217801 0
0.61860675 -1.5447733 0.17883225 0
0.56649888 -1.4146506 0.27482662 0
0.56514215 -1.4112626 0.38785502 0
0.5623852 -1.4043779 0.5032987 0
0.60041749 -1.4463116 -0.05590779 0
0.65111893 -1.5684434 0.18250714 0
0.5776369 -1.3914367 0.27170837 0
0.57642353 -1.3885139 0.38356745 0
0.58083963 -1.3991516 0.50400692 0
0.61827636 -1.4379292 -0.055880286 0
0.68050104 -1.5826454 0.18514213 0
0.59724271 -1.389011 0.27268165 0
0.590639 -1.3736527 0.38148648 0
0.59451532 -1.3826679 0.50072616 0
0.35667431 -0.82951969 0.45178241 0
0.63703597 -1.4316109 -0.055942051 0
0.7159301 -1.6089097 0.18925421 0
0.61083353 -1.3727262 0.27097324 0
0.61143929 -1.3740875 0.38371503 0
0.60879791 -1.3681515 0.49820587 0
0.36524984 -0.82082599 0.44951683 0
0.65479076 -1.4229974 -0.055923223 0
0.63058287 -1.3703885 0.27205762 0
0.62360615 -1.3552266 0.38061076 0
0.62335742 -1.3546861 0.49612153 0
0.37658644 -0.81840116 0.45075008 0
0.6691314 -1.4072273 -0.055630188 0
0.6367926 -1.3392166 0.2674399 0
0.64136779 -1.3488386 0.3810547 0
0.63369799 -1.3327085 0.49095616 0
0.37317589 -0.7848134 0.43480465 0
0.69484782 -1.4150863 -0.056282297 0
0.65866005 -1.3413883 0.26950854 0
0.64781779 -1.3193076 0.37498683 0
0.64949441 -1.3227222 0.49025136 0
0.6489349 -1.3215827 0.60958934 0
0.38089612 -0.77571064 0.43238452 0
0.70769602 -1.3965273 -0.055894155 0
0.66776288 -1.3177255 0.26642257 0
0.66244888 -1.3072392 0.37389794 0
0.6615786 -1.3055218 0.48692533 0
0.66421258 -1.3107196 0.60838836 0
0.41058543 -0.81022614 0.45446944 0
0.72890556 -1.3945497 -0.056177907 0
0.67796057 -1.2970812 0.26395375 0
0.67787683 -1.296921 0.37335858 0
0.67970097 -1.300411 0.48817268 0
0.68196779 -1.3047479 0.60955417 0
0.42073566 -0.80495584 0.45444897 0
0.7409994 -1.3752257 -0.055770919 0
0.70155054 -1.3020123 0.26673377 0
0.68811131 -1.2770703 0.37010902 0
0.69397539 -1.2879535 0.48673806 0
0.68759304 -1.2761085 0.6001718 0
0.43230462 -0.80231696 0.4559963 0
0.76598233 -1.3797026 -0.056339171 0
0.72997475 -1.314845 0.27122432 0
0.70468855 -1.269299 0.37039915 0
0.70672309 -1.2729638 0.48439795 0
0.70875204 -1.2766182 0.60456103 0
0.4502354 -0.81097293 0.46410134 0
0.77343053 -1.3526982 -0.055629749 0
0.74869227 -1.309432 0.27203092 0
0.72277433 -1.2641027 0.37150922 0
0.71994376 -1.2591521 0.48255372 0
0.71626657 -1.252721 0.59746802 0
0.45149031 -0.78963804 0.45510933 0
0.79131651 -1.3444074 -0.055694163 0
0.78234261 -1.3291613 0.27815413 0
0.72672158 -1.234664 0.36551785 0
0.73223495 -1.2440308 0.48025423 0
0.73262429 -1.2446923 0.59799141 0
0.45851591 -0.77899575 0.45226747 0
0.8154375 -1.3463172 -0.056194197 0
0.81724483 -1.3493011 0.28449985 0
0.7530269 -1.243275 0.37084493 0
0.74353004 -1.2275953 0.47748592 0
0.74259615 -1.2260534 0.59348208 0
0.47474623 -0.78382343 0.45850471 0
0.83322161 -1.3373828 -0.056254756 0
0.8466478 -1.3589329 0.28875571 0
0.75532252 -1.2123491 0.3644284 0
0.75642246 -1.2141144 0.47590956 0
0.7541061 -1.2103966 0.59045297 0
0.48448628 -0.77763665 0.45841804 0
0.84582025 -1.3202693 -0.05597847 0
0.8729167 -1.362565 0.29184002 0
0.77379149 -1.2078372 0.3659721 0
0.77023274 -1.2022822 0.47503567 0
0.77152807 -1.2043042 0.59217334 0
0.50190628 -0.78344244 0.46552938 0
0.86486208 -1.3132883 -0.056139786 0
0.91087306 -1.3831558 0.29868323 0
0.78996694 -1.1995604 0.36644927 0
0.78317088 -1.1892408 0.4737418 0
0.78367984 -1.1900136 0.58995205 0
0.51214379 -0.77768755 0.46590492 0
0.87133676 -1.287529 -0.05550326 0
0.94232869 -1.3924301 0.3032243 0
0.80271512 -1.1861304 0.36540541 0
0.80038041 -1.1826805 0.47510567 0
0.79618937 -1.1764876 0.58817017 0
0.53314781 -0.78780478 0.47595033 0
0.88978094 -1.2797662 -0.055647209 0
0.8168999 -1.1749419 0.36509863 0
0.80774873 -1.1617799 0.47075817 0
0.8122437 -1.168245 0.58911598 0
0.55416471 -0.79705155 0.48571405 0
0.90959281 -1.2737386 -0.055878725 0
0.57978189 -0.81189144 0.035617556 0
0.58490527 -0.81906593 0.1081647 0
0.58160907 -0.81445009 0.18049274 0
0.58473438 -0.81882662 0.25670785 0
0.58387429 -0.81762218 0.33425671 0
0.57731003 -0.80843002 0.41130379 0
0.5593183 -0.78323549 0.48154849 0
0.93146455 -1.2702388 -0.056235287 0
0.58174402 -0.79332465 0.035121616 0
0.57913584 -0.78976792 0.10525035 0
0.57339692 -0.78194177 0.17487472 0
0.58201718 -0.79369718 0.25110734 0
0.58737963 -0.80100995 0.33046293 0
0.57739091 -0.78738832 0.40426549 0
0.56476557 -0.77017117 0.47785076 0
0.94970292 -1.2614893 -0.0563729 0
0.58164036 -0.77259225 0.034525275 0
0.58734232 -0.78016609 0.10494806 0
0.58670461 -0.77931905 0.17592648 0
0.58716661 -0.7799328 0.24907207 0
0.59146535 -0.78564274 0.32716978 0
0.59398645 -0.78899151 0.40889639 0
0.58575827 -0.77806205 0.48728445 0
0.96544898 -1.2493507 -0.05636926 0
0.57978499 -0.75027764 0.033851661 0
0.60126746 -0.7780773 0.10567719 0
0.59766746 -0.77341866 0.17627946 0
0.60273337 -0.77997428 0.25148919 0
0.60656726 -0.78493559 0.3300299 0
0.60211009 -0.77916771 0.40770221 0
0.978845 -1.234248 -0.056239512 0
0.58196121 -0.73380822 0.033436567 0
0.87719703 -1.1060777 0.36016858 0
0.87276471 -1.1004889 0.46728957 0
0.8737908 -1.1017827 0.58222282 0
0.98873872 -1.2149816 -0.055924501 0
0.57733226 -0.70943725 0.032654755 0
0.88806677 -1.0912739 0.35896099 0
0.88528395 -1.0878544 0.46662119 0
0.89047426 -1.0942322 0.58411193 0
1.0036892 -1.2021134 -0.055909503 0
0.58298087 -0.69823319 0.032474369 0
0.89961874 -1.0774688 0.35811782 0
0.89956856 -1.0774087 0.46696243 0
0.89454854 -1.0713961 0.57788903 0
1.0191716 -1.1898777 -0.055932879 0
0.60938537 -0.71145427 0.033443511 0
0.91811657 -1.0718964 0.36007977 0
0.91488755 -1.0681266 0.46789551 0
0.90802431 -1.0601138 0.57792497 0
1.0380751 -1.181506 -0.056149364 0
0.61427319 -0.6991474 0.033225965 0
0.93151057 -1.0602175 0.36006829 0
0.92180502 -1.0491709 0.46463978 0
0.92522401 -1.0530623 0.58038616 0
1.0542461 -1.1698694 -0.056222778 0
0.94492549 -1.0485592 0.3601214 0
0.93989134 -1.0429729 0.46709931 0
0.93907589 -1.042068 0.58079803 0
1.0655813 -1.1529198 -0.056048606 0
0.95537376 -1.0336792 0.35911423 0
0.95285827 -1.0309576 0.46705478 0
0.94403809 -1.0214145 0.57586664 0
1.0815617 -1.1410447 -0.056128953 0
0.96929884 -1.0226078 0.35947973 0
0.96293652 -1.0158955 0.46568751 0
0.95469439 -1.0072001 0.57458484 0
1.0900205 -1.1213462 -0.055830725 0
0.98084515 -1.0090333 0.35902119 0
0.96552682 -0.99327475 0.46085489 0
0.96979761 -0.99766827 0.5760681 0
1.1032391 -1.1067159 -0.055789553 0
0.99724233 -1.0003852 0.3603836 0
0.99123108 -0.99435496 0.46711031 0
0.97835696 -0.98144031 0.57376587 0
1.1200347 -1.095621 -0.055936791 0
1.0025765 -0.98072314 0.35782003 0
1.0022187 -0.98037308 0.46643364 0
0.99014068 -0.96855837 0.57347846 0
1.1338302 -1.0815165 -0.055941187 0
1.015534 -0.96867841 0.35806277 0
1.0134135 -0.96665579 0.46594179 0
1.0066354 -0.96019036 0.57598341 0
1.1464092 -1.0662721 -0.055894926 0
1.0277157 -0.95587569 0.35808557 0
1.0319624 -0.95982546 0.46887591 0
1.0174779 -0.9463535 0.57532322 0
1.1588546 -1.0509464 -0.055852067 0
1.0481447 -0.95054537 0.36100447 0
1.0325912 -0.93644017 0.46376717 0
1.0304097 -0.93446177 0.5759362 0
1.1823509 -1.0454279 -0.056345563 0
1.0662918 -0.94280916 0.36313695 0
1.0581088 -0.93557382 0.46989948 0
1.0541165 -0.93204379 0.58258069 0
1.1892678 -1.0251542 -0.056055561 0
1.3643042 -1.1760365 0.06430582 0
1.3586562 -1.1711679 0.1927743 0
1.3181649 -1.1362642 0.3138614 0
1.0620372 -0.91548097 0.3577337 0
1.0547687 -0.90921545 0.46329498 0
1.0580065 -0.91200644 0.57833773 0
1.200707 -1.0089437 -0.055991467 0
1.3740853 -1.154632 0.064076461 0
1.3844038 -1.1633025 0.1943337 0
1.141328 -0.95904809 0.26885888 0
1.083769 -0.91068172 0.36116245 0
1.0702477 -0.89931989 0.46508294 0
1.0799373 -0.907462 0.58403319 0
1.2080306 -0.98941678 -0.05574758 0
1.0097502 -0.82701862 0.046597436 0
1.0047535 -0.82292616 0.13957515 0
1.007822 -0.82543933 0.23494218 0
1.0013862 -0.8201682 0.33024079 0
1.0803506 -0.88484269 0.46459454 0
1.0777633 -0.88272363 0.57680047 0
1.2232511 -0.97640938 -0.055878147 0
0.90407538 -0.72164059 0.041298192 0
0.90856957 -0.72522789 0.12493528 0
0.90275055 -0.72058308 0.2083163 0
0.90094656 -0.71914309 0.29410774 0
1.1051025 -0.88210213 0.47042483 0
1.0941851 -0.87338775 0.57965732 0
1.2342577 -0.96000367 -0.055824298 0
0.88168216 -0.68577093 0.039877642 0
0.88014352 -0.68457425 0.11983162 0
0.88436043 -0.68785411 0.20205788 0
0.87961739 -0.684165 0.2843101 0
1.1092165 -0.86274672 0.4675144 0
1.1128922 -0.86560577 0.58374697 0
1.2405115 -0.94004017 -0.055567361 0
0.89568961 -0.67873949 0.04012144 0
0.89234412 -0.67620432 0.12032388 0
0.88997394 -0.67440826 0.20138419 0
0.89435941 -0.67773151 0.28629392 0
1.1211078 -0.84955788 0.46798036 0
1.1292967 -0.85576326 0.58665282 0
1.2681646 -0.93609387 -0.056273583 0
0.89857984 -0.66328537 0.039873615 0
0.90572762 -0.66856152 0.12098376 0
0.90959746 -0.67141807 0.20389533 0
0.90238804 -0.66609639 0.2861563 0
1.1437254 -0.84423923 0.47294647 0
1.1379585 -0.83998239 0.58561134 0
1.2729561 -0.91509563 -0.055970438 0
0.91559064 -0.65819472 0.040257484 0
0.91580129 -0.65834618 0.1212124 0
0.90993035 -0.65412569 0.20210755 0
0.90831816 -0.65296674 0.2854068 0
1.146924 -0.82449436 0.4699387 0
1.1490468 -0.82602036 0.58591837 0
1.2845267 -0.89909959 -0.055976946 0
0.9265148 -0.64851052 0.040375549 0
0.92192459 -0.64529759 0.12093777 0
0.92739451 -0.64912623 0.20415483 0
0.92958099 -0.65065664 0.28949052 0
1.1628641 -0.81394225 0.47223297 0
1.1699824 -0.81892473 0.59128863 0
1.2978076 -0.88425946 -0.056066021 0
0.93549091 -0.63739544 0.040413737 0
0.93900466 -0.63978958 0.12211183 0
0.93528193 -0.63725311 0.20410849 0
0.93071467 -0.63414115 0.28733402 0
1.1722445 -0.79870731 0.47192064 0
1.1752645 -0.80076486 0.58881545 0
1.310317 -0.86882865 -0.056129355 0
0.93915665 -0.62272429 0.040230155 0
0.94495058 -0.62656605 0.12184937 0
0.93728691 -0.62148452 0.2028221 0
0.94876754 -0.62909693 0.29043871 0
1.1925806 -0.79076141 0.47606108 0
1.1786629 -0.78153312 0.58554113 0
1.3127323 -0.84682941 -0.055771612 0
0.94837195 -0.61178446 0.040291712 0
0.95230132 -0.61431926 0.12179007 0
0.95959675 -0.61902547 0.20594671 0
0.94899076 -0.61218363 0.28812441 0
1.2121828 -0.78196597 0.47991732 0
1.2014492 -0.77504182 0.59196568 0
1.332531 -0.8360306 -0.056161046 0
0.96805787 -0.60736001 0.040799908 0
0.97679627 -0.61284244 0.12392598 0
0.96593356 -0.60602725 0.20565261 0
0.97136784 -0.60943669 0.2925652 0
1.2129492 -0.76100492 0.47638902 0
1.215489 -0.76259845 0.59410477 0
1.3437434 -0.81966895 -0.056194142 0
0.97025645 -0.59184593 0.040575251 0
0.98081332 -0.5982855 0.12347004 0
0.9821012 -0.59907115 0.20747226 0
0.96555382 -0.5889774 0.28855741 0
1.2246202 -0.74700511 0.47724065 0
1.2293102 -0.74986583 0.59619766 0
1.3506724 -0.80073702 -0.0560578 0
0.98930055 -0.58650017 0.041059557 0
0.98611206 -0.58460987 0.12320059 0
0.99715823 -0.59115851 0.20906396 0
0.975528 -0.57833523 0.28933889 0
1.2357713 -0.73261869 0.47795323 0
1.2427779 -0.7367726 0.5981825 0
1.346773 -0.77567589 -0.055486176 0
0.99352205 -0.57222044 0.040932465 0
0.99137187 -0.5709821 0.1229497 0
0.99695605 -0.57419831 0.20748921 0
0.99447083 -0.5727669 0.29279488 0
1.2493145 -0.71954453 0.47964889 0
1.2508899 -0.72045189 0.59767294 0
1.3665329 -0.76430589 -0.055899326 0
1.0006324 -0.55965662 0.040931817 0
1.0124091 -0.56624335 0.12466456 0
1.000823 -0.55976319 0.20681061 0
1.0000608 -0.55933696 0.29234383 0
1.2685694 -0.70951456 0.48357293 0
1.2651193 -0.70758492 0.60016692 0
1.3742766 -0.74607718 -0.055827361 0
1.0105289 -0.5486033 0.041050807 0
1.0182498 -0.55279481 0.12451675 0
1.0182807 -0.55281156 0.20896307 0
1.0114684 -0.54911327 0.293634 0
1.2880931 -0.69928926 0.48761994 0
1.278108 -0.69386852 0.60213608 0
1.3786008 -0.72610146 -0.05562719 0
1.3095782 -0.68974751 0.37762526 0
1.2882427 -0.67851031 0.48440382 0
1.2895452 -0.6791963 0.6034472 0
1.4002979 -0.71515322 -0.05613485 0
1.3151284 -0.67165589 0.37675703 0
1.306195 -0.66709346 0.48795691 0
1.3119613 -0.6700384 0.60994029 0
1.4068037 -0.69628322 -0.056039732 0
1.3341811 -0.66033942 0.379803 0
1.320488 -0.65356213 0.49018306 0
1.3274434 -0.65700465 0.6132431 0
1.4171449 -0.67932278 -0.056106474 0
1.3345584 -0.63973403 0.37758726 0
1.3335682 -0.6392594 0.49201146 0
1.3423213 -0.64345527 0.61632431 0
1.4255985 -0.66143107 -0.056106962 0
1.3582342 -0.63017625 0.38201046 0
1.3398068 -0.62162656 0.49138623 0
1.3444618 -0.62378627 0.61365193 0
1.4268225 -0.64029133 -0.055833388 0
1.358765 -0.60975027 0.3799701 0
1.3563484 -0.60866582 0.49460277 0
1.3529761 -0.60715246 0.61399984 0
1.4395188 -0.62433416 -0.056018129 0
1.3755364 -0.59658432 0.38252902 0
1.3692507 -0.59385812 0.49654144 0
1.3695321 -0.59398013 0.61806989 0
1.4491489 -0.60694802 -0.056091014 0
1.3897998 -0.58209085 0.38442677 0
1.3792156 -0.57765782 0.49747783 0
1.3902563 -0.58228201 0.62406421 0
1.4523985 -0.58692473 -0.055926297 0
1.4041702 -0.56743532 0.38639462 0
1.3932532 -0.56302369 0.49994427 0
1.3897433 -0.56160533 0.62061036 0
1.4618893 -0.56945384 -0.056011193 0
1.4184841 -0.55254614 0.38838804 0
1.4061092 -0.54772568 0.50204271 0
1.400912 -0.54570121 0.62247992 0
1.4701058 -0.55143774 -0.056055509 0
1.427241 -0.53535914 0.3889091 0
1.4209688 -0.53300643 0.50491184 0
1.4065385 -0.52759361 0.62197864 0
1.4728444 -0.53140861 -0.05590035 0
1.4370716 -0.51850164 0.38977781 0
1.4355717 -0.51796049 0.50774288 0
1.4383932 -0.51897848 0.63312501 0
1.480352 -0.51314515 -0.055935618 0
1.4549026 -0.50432342 0.39286053 0
1.4351994 -0.49749354 0.50535542 0
1.4458549 -0.50118715 0.63358122 0
1.4780463 -0.49158823 -0.055610184 0
1.4618808 -0.48621172 0.39306045 0
1.4586579 -0.48513982 0.51142395 0
1.4566638 -0.48447657 0.63559401 0
1.4778277 -0.47093412 -0.055374458 0
1.4741038 -0.46974742 0.39472514 0
1.4521147 -0.46274027 0.50704664 0
1.4559216 -0.46395338 0.63267082 0
1.5045022 -0.45864895 -0.056153096 0
1.4773982 -0.45038626 0.39405739 0
1.4713014 -0.44852766 0.51173347 0
1.4783713 -0.45068291 0.63990951 0
1.5134616 -0.44063094 -0.056275941 0
1.4922088 -0.43444338 0.39651722 0
1.4713475 -0.42836979 0.50983298 0
1.478001 -0.43030691 0.6373533 0
1.5098032 -0.41901791 -0.055939279 0
1.4905301 -0.41366902 0.39465567 0
1.4861488 -0.41245306 0.51312137 0
1.4866735 -0.41259867 0.63880199 0
1.5109966 -0.39892817 -0.05579295 0
1.4860353 -0.39233798 0.39212638 0
1.4866952 -0.3925122 0.51156294 0
1.4976821 -0.39541295 0.64134198 0
1.5132023 -0.3791953 -0.055693671 0
1.5051234 -0.3771708 0.39587861 0
1.5076187 -0.37779611 0.51708466 0
1.5130098 -0.37914708 0.64580995 0
1.5213174 -0.36093321 -0.055820648 0
1.5145634 -0.35933083 0.39713994 0
1.5161233 -0.35970092 0.51840699 0
1.516862 -0.35987619 0.64546877 0
1.5395824 -0.34484962 -0.05632703 0
1.5244794 -0.3414667 0.39858097 0
1.5248114 -0.34154105 0.51986593 0
1.5259002 -0.34178495 0.64743209 0
1.5337136 -0.32331032 -0.055958934 0
1.5421913 -0.32509744 0.40210962 0
1.543135 -0.32529637 0.52467501 0
1.529379 -0.32239658 0.6471343 0
1.5427436 -0.30497774 -0.056143828 0
1.5417434 -0.30478004 0.40096039 0
1.5497103 -0.30635497 0.52555734 0
1.5371877 -0.30387944 0.64876789 0
1.5349754 -0.28340787 -0.055726837 0
1.5503918 -0.28625426 0.40224022 0
1.5372624 -0.28383017 0.52008259 0
1.5427146 -0.2848368 0.64953524 0
1.5533056 -0.26661286 -0.056265969 0
1.5530998 -0.26657751 0.40204 0
1.5409414 -0.2644906 0.52015918 0
1.552657 -0.26650152 0.65225667 0
1.5568671 -0.24708572 -0.056277808 0
1.5525317 -0.24639767 0.40105802 0
1.5587864 -0.24739031 0.52508974 0
1.5554419 -0.24685951 0.65206897 0
1.5496447 -0.22597441 -0.05590944 0
1.5713218 -0.22913545 0.4051345 0
1.5657228 -0.22831899 0.52641612 0
1.5679159 -0.2286388 0.65603942 0
1.5533923 -0.20658092 -0.055946361 0
1.5759968 -0.20958704 0.40562722 0
1.5661142 -0.20827278 0.52562428 0
1.5740948 -0.20933409 0.65746963 0
1.5557659 -0.18699291 -0.055942606 0
1.5708132 -0.1888015 0.40364915 0
1.5687665 -0.18855551 0.52567589 0
1.5760746 -0.1894339 0.6572482 0
1.5590874 -0.16750628 -0.055981763 0
1.5747079 -0.16918452 0.4040705 0
1.5828921 -0.17006381 0.52964962 0
1.5764244 -0.16936894 0.6564526 0
1.5615107 -0.14790365 -0.055997457 0
1.581183 -0.14976698 0.40521595 0
1.5878533 -0.15039879 0.53063393 0
1.5786207 -0.1495243 0.6565311 0
1.566529 -0.12849967 -0.056114949 0
1.5927464 -0.13065024 0.40772542 0
1.5993639 -0.13119306 0.53388619 0
1.5875103 -0.13022073 0.65949392 0
1.5611796 -0.10829031 -0.055870049 0
1.6705631 -0.11587763 0.059784565 0
1.6653106 -0.11551329 0.1793998 0
1.6677769 -0.11568437 0.30150411 0
1.596651 -0.11075076 0.40833557 0
1.5980052 -0.11084469 0.53292447 0
1.5883291 -0.11017352 0.6592055 0
1.5588067 -0.088419661 -0.055740863 0
1.6513948 -0.093671508 0.059051696 0
1.6474148 -0.093445756 0.1773311 0
1.6427674 -0.093182139 0.29674721 0
1.5939721 -0.090414338 0.40732703 0
1.6005871 -0.090789564 0.53336197 0
1.5968332 -0.090576626 0.66220909 0
1.5760158 -0.069500655 -0.056320485 0
1.6380993 -0.072238468 0.058539096 0
1.6372786 -0.072202273 0.17612819 0
1.6462035 -0.072595857 0.29717919 0
1.5954008 -0.070355512 0.40743342 0
1.5900376 -0.070118994 0.52951038 0
1.5925826 -0.070231222 0.66002727 0
1.5611998 -0.049161024 -0.055764474 0
1.6413367 -0.051684476 0.058626883 0
1.6323351 -0.051401019 0.17551285 0
1.6231623 -0.051112179 0.2928803 0
1.5979156 -0.050317179 0.4078815 0
1.5950787 -0.050227847 0.53093642 0
1.6046904 -0.050530516 0.66472888 0
1.5636469 -0.029536605 -0.05583417 0
1.6381458 -0.030943856 0.058494352 0
1.6322917 -0.030833272 0.17545253 0
1.6429099 -0.031033847 0.29634953 0
1.5996988 -0.030217607 0.40820718 0
1.5942668 -0.030115001 0.53049791 0
1.5970932 -0.03016839 0.66137195 0
1.5546579 -0.0097879004 -0.055504397 0
1.6240233 -0.010224615 0.05798088 0
1.6366967 -0.010304404 0.17589813 0
1.6349789 -0.01029359 0.29487213 0
1.588652 -0.010001922 0.40532401 0
1.6095949 -0.010133776 0.53551346 0
1.6027019 -0.010090378 0.66358936 0
1.5726043 0.0099008875 -0.056145113 0
1.6399744 0.010325041 0.058550362 0
1.6439538 0.010350094 0.17667806 0
1.6497967 0.01038688 0.29754457 0
1.5982064 0.010062075 0.40776169 0
1.6070893 0.010118 0.53467983 0
1.5989612 0.010066828 0.66204053 0
1.5644313 0.02955142 -0.055862181 0
1.6708618 0.031561844 0.059662562 0
1.6718457 0.03158043 0.17970414 0
1.6663765 0.03147712 0.30058244 0
1.5998598 0.03022065 0.40824828 0
1.6077185 0.030369096 0.53497398 0
1.5967157 0.03016126 0.66121566 0
1.57612 0.049630851 -0.056297407 0
1.6102215 0.050704684 0.41102269 0
1.6076428 0.05062348 0.53511846 0
1.599082 0.050353907 0.66240561 0
1.5597949 0.068785325 -0.055740811 0
1.5965347 0.070405513 0.40772301 0
1.6077029 0.070898019 0.53539324 0
1.6033193 0.070704706 0.66447699 0
1.5658967 0.088821828 -0.055994395 0
1.6074989 0.091181614 0.41078368 0
1.6032281 0.090939358 0.53424203 0
1.6076213 0.091188557 0.6666829 0
1.5586829 0.10811713 -0.055780698 0
1.5999621 0.11098044 0.4091824 0
1.6054881 0.11136374 0.53542 0
1.6133628 0.11190996 0.66959524 0
1.5700973 0.12879236 -0.056242768 0
1.6182542 0.1327426 0.41425514 0
1.5986066 0.13113093 0.53363341 0
1.604403 0.1316064 0.6665116 0
1.5599481 0.14775565 -0.055941425 0
1.6033967 0.15187103 0.41090876 0
1.5969933 0.15126452 0.53368843 0
1.5920014 0.1507917 0.66209602 0
1.5652002 0.16816303 -0.056201253 0
1.5896802 0.17079312 0.4079124 0
1.6038963 0.17232047 0.53667784 0
1.5941503 0.1712734 0.66383404 0
1.5512475 0.18644984 -0.055780139 0
1.5839819 0.1903843 0.40703312 0
1.5972081 0.19197401 0.53520638 0
1.5925088 0.19140919 0.66410148 0
1.5457722 0.20556755 -0.055671919 0
1.5952448 0.21214677 0.41058123 0
1.6017277 0.21300891 0.53757697 0
1.5940393 0.21198645 0.66580009 0
1.5492302 0.22591399 -0.055894487 0
1.5907447 0.23196776 0.4101423 0
1.5916576 0.23210087 0.53513575 0
1.5883827 0.23162332 0.66460299 0
1.5439008 0.24502788 -0.055809103 0
1.5887345 0.25214329 0.41041008 0
1.5842929 0.25143838 0.53368181 0
1.5974789 0.2535311 0.66969168 0
1.5347772 0.26343259 -0.055594802 0
1.588048 0.27257609 0.4110868 0
1.587039 0.27240291 0.53571987 0
1.5818532 0.27151281 0.66452169 0
1.5431679 0.28492048 -0.056024265 0
1.5858804 0.29280666 0.41144755 0
1.5716317 0.29017588 0.53171027 0
1.5814584 0.29199022 0.66584772 0
1.5442877 0.30528301 -0.056200024 0
1.5806539 0.31247208 0.41107982 0
1.5712098 0.31060511 0.53284854 0
1.5750926 0.31137267 0.66476554 0
1.5284654 0.32220396 -0.055767447 0
1.5705155 0.33106825 0.40949485 0
1.570932 0.33115605 0.53412616 0
1.5662723 0.33017376 0.66274512 0
1.5242058 0.34140542 -0.055764463 0
1.5608851 0.34962118 0.40809935 0
1.5603282 0.34949642 0.53197497 0
1.5602473 0.34947833 0.66200542 0
1.5225691 0.36123016 -0.055866573 0
1.5604557 0.37021878 0.40917352 0
1.55369 0.36861363 0.53125215 0
1.5648532 0.3712621 0.66589046 0
1.5159613 0.37988669 -0.055795219 0
1.5475746 0.38780871 0.40704414 0
1.5493536 0.38825452 0.53139895 0
1.5444829 0.38703397 0.65924388 0
1.5077114 0.39806083 -0.055671651 0
1.5384123 0.4061664 0.40594733 0
1.5404243 0.4066976 0.53005081 0
1.5449889 0.40790269 0.66159981 0
1.513474 0.42003667 -0.056075286 0
1.53263 0.42535305 0.40580267 0
1.5349265 0.42599043 0.52996284 0
1.5289489 0.42433146 0.65696716 0
1.5021986 0.43735182 -0.055857144 0
1.5305284 0.44559979 0.40669969 0
1.548911 0.45095173 0.53670931 0
1.5326756 0.44622496 0.66093045 0
1.4969037 0.45633253 -0.055869497 0
1.521485 0.46382618 0.40581644 0
1.5342212 0.4677088 0.53361762 0
1.5160142 0.46215841 0.65620315 0
1.4883814 0.47429723 -0.055769905 0
1.5185444 0.48390916 0.40662515 0
1.5179253 0.48371187 0.53002626 0
1.522615 0.48520631 0.66165239 0
1.4877311 0.49480936 -0.055974569 0
1.4999275 0.49886578 0.40329018 0
1.497576 0.49808371 0.52506912 0
1.5179873 0.50487232 0.66235161 0
1.4860467 0.51511914 -0.056150794 0
1.4996393 0.51983076 0.40494058 0
1.4965682 0.51876622 0.52696431 0
1.4906839 0.51672655 0.65322548 0
1.4761384 0.53259706 -0.056025371 0
1.4871702 0.53657746 0.40336612 0
1.4878623 0.53682715 0.52623737 0
1.4841808 0.53549886 0.65327889 0
1.4667293 0.5501712 -0.055926763 0
1.483453 0.55644429 0.4042263 0
1.47788 0.55435389 0.52513409 0
1.4779193 0.55436862 0.65354365 0
1.4630239 0.56989586 -0.056054663 0
1.4676573 0.57170075 0.40185195 0
1.4725021 0.57358795 0.5257479 0
1.4725571 0.57360935 0.65431464 0
1.4506278 0.58620918 -0.055858113 0
1.448101 0.58518809 0.39848337 0
1.454625 0.58782446 0.52196646 0
1.4487473 0.58544928 0.64695942 0
1.4507221 0.60760695 -0.056151908 0
1.4472533 0.60615414 0.40031874 0
1.4449831 0.60520327 0.52119994 0
1.450194 0.60738575 0.65096933 0
1.4303181 0.62034369 -0.055660088 0
1.4430928 0.62588423 0.40131608 0
1.448501 0.6282298 0.52528054 0
1.4358211 0.62273037 0.64798617 0
1.4379449 0.64528251 -0.056268618 0
1.4346102 0.64378607 0.40117976 0
1.4343288 0.64365977 0.52303892 0
1.42705 0.64039344 0.64761567 0
1.4245697 0.66095376 -0.056066472 0
1.4286683 0.66285533 0.40182036 0
1.4240992 0.66073549 0.52230126 0
1.4196774 0.65868384 0.64798254 0
1.4045175 0.67326969 -0.05560654 0
1.3986408 0.67045259 0.39571813 0
1.4030805 0.67258084 0.51765758 0
1.4022442 0.67217994 0.64383781 0
1.4090666 0.69740325 -0.056129877 0
1.3995602 0.69269818 0.39841458 0
1.3911097 0.68851566 0.51639879 0
1.3973062 0.69158256 0.64551789 0
1.4055068 0.71781349 -0.056343667 0
1.3832259 0.70643431 0.39626557 0
1.3670211 0.69815826 0.51067978 0
1.3739786 0.7017116 0.63877261 0
1.3798816 0.726776 -0.055678867 0
1.3639424 0.71838093 0.39330155 0
1.3678404 0.72043395 0.51433408 0
1.3721704 0.7227146 0.64211202 0
1.3784654 0.74835122 -0.055997521 0
1.3625618 0.73971742 0.39555803 0
1.3482122 0.73192722 0.51037866 0
1.3565432 0.73644996 0.63908803 0
1.3658972 0.76395029 -0.05587332 0
1.4138633 0.79077786 0.057835419 0
1.4071486 0.78702235 0.17327143 0
1.4133669 0.79050022 0.29205891 0
1.3551333 0.75792998 0.39614075 0
1.3380675 0.74838501 0.51006526 0
1.340178 0.74956548 0.63577449 0
1.3593429 0.78291553 -0.056004047 0
1.3779351 0.79362369 0.05677003 0
1.3885142 0.79971677 0.1722032 0
1.3870653 0.79888231 0.28867978 0
1.3358018 0.76935703 0.39329052 0
1.3267857 0.76416421 0.50939238 0
1.3308449 0.76650208 0.63587528 0
1.3467193 0.79839349 -0.05589373 0
1.3675832 0.81076247 0.056759655 0
1.3603913 0.80649883 0.16996142 0
1.3541765 0.80281448 0.28391635 0
1.3196216 0.78232872 0.39139608 0
1.3205622 0.78288639 0.51074737 0
1.3221571 0.78383195 0.63638985 0
1.3387771 0.81663948 -0.055986453 0
1.3525939 0.8250677 0.056564264 0
1.3501898 0.82360119 0.16996913 0
1.3545419 0.82625592 0.28615165 0
1.3114463 0.79996806 0.39192799 0
1.303843 0.79533011 0.50811416 0
1.299302 0.79256016 0.63014275 0
1.3145181 0.82472932 -0.055401873 0
1.335602 0.83795738 0.056290478 0
1.3454554 0.8441394 0.1706977 0
1.3326102 0.83608037 0.28372011 0
1.3025695 0.81723279 0.39231944 0
1.2899945 0.80934316 0.50664878 0
1.2856747 0.806633 0.62841004 0
1.3149314 0.848248 -0.055865038 0
1.3342209 0.86069143 0.056684557 0
1.3342059 0.86068177 0.17063196 0
1.3292266 0.85746968 0.28527591 0
1.2799633 0.82569039 0.38861141 0
1.2738541 0.82174951 0.50433367 0
1.2802811 0.82589543 0.63080698 0
1.300759 0.86249101 -0.05571992 0
1.3201841 0.87537122 0.056552026 0
1.3269153 0.87983441 0.1711029 0
1.3325504 0.88357085 0.28835428 0
1.2687888 0.84129268 0.38840431 0
1.2598537 0.8353681 0.50291556 0
1.2575337 0.83382976 0.6247229 0
1.2955517 0.88272238 -0.055968564 0
1.3325359 0.90792149 0.057566304 0
1.3290403 0.90553987 0.17283358 0
1.3269216 0.90409625 0.28957683 0
1.254097 0.85447723 0.38716993 0
1.2482579 0.8504988 0.50252193 0
1.2444752 0.84792155 0.62349051 0
1.2811947 0.89676732 -0.055831742 0
1.3639863 0.95471692 0.059439622 0
1.3522221 0.94648272 0.17738406 0
1.3551043 0.9485001 0.29831004 0
1.2352881 0.86463523 0.38469401 0
1.2257386 0.85795105 0.49776599 0
1.2231627 0.856148 0.61816496 0
1.2698199 0.91284108 -0.055832542 0
1.2272351 0.88222796 0.38561514 0
1.2091182 0.86920416 0.49542204 0
1.209583 0.86953837 0.61678684 0
1.2551922 0.9265182 -0.05569794 0
1.2074817 0.89130092 0.38290459 0
1.2013977 0.88680989 0.49679473 0
1.1894971 0.87802553 0.61213392 0
1.2504474 0.94756943 -0.056012429 0
1.1888001 0.90085405 0.38054749 0
1.1821915 0.89584619 0.49347836 0
1.1871905 0.8996343 0.61672783 0
1.2380729 0.96297109 -0.055996854 0
1.1720926 0.91165167 0.37884396 0
1.1668885 0.90760398 0.49182212 0
1.1698173 0.90988201 0.61360598 0
1.2281885 0.98035038 -0.056103684 0
1.1549629 0.92190111 0.3770296 0
1.1503313 0.91820407 0.489678 0
1.1647161 0.92968625 0.61702192 0
1.2155297 0.9955588 -0.056093644 0
1.1433009 0.93640101 0.37704194 0
1.1279173 0.92380142 0.48505014 0
1.1336766 0.92851847 0.60672432 0
1.193831 1.0031658 -0.055670828 0
1.1391433 0.95721233 0.37961578 0
1.1231626 0.94378394 0.48807749 0
1.1200511 0.94116938 0.6057269 0
1.1897813 1.025597 -0.056079771 0
1.1131465 0.95953745 0.37494925 0
1.1093647 0.95627743 0.48727563 0
1.1101389 0.95694482 0.60683489 0
1.1811091 1.0443299 -0.056286383 0
1.0978335 0.97069812 0.37387884 0
1.0801442 0.95505726 0.47968522 0
1.085834 0.96008825 0.60011005 0
1.1604364 1.0523808 -0.055928301 0
1.0720448 0.97222006 0.36923626 0
1.0706788 0.97098118 0.48087344 0
1.0697846 0.97017026 0.59794438 0
1.1521776 1.0716373 -0.056176174 0
1.0685763 0.99387997 0.37232259 0
1.0505478 0.97711176 0.47732028 0
1.0549705 0.98122525 0.59652305 0
1.1361181 1.0836989 -0.056054067 0
1.0388457 0.99091446 0.36628214 0
1.0334002 0.98572028 0.47513112 0
1.0399263 0.99194533 0.5950321 0
1.1193908 1.0949912 -0.055904638 0
1.0255458 1.0031917 0.36601779 0
1.0238273 1.0015107 0.47649032 0
1.0147043 0.99258655 0.58770543 0
1.115216 1.1187307 -0.056395214 0
1.011063 1.0142493 0.36537811 0
0.99984998 1.003001 0.47117189 0
1.0001408 1.0032928 0.58654118 0
1.0966779 1.1281949 -0.056171712 0
0.98955321 1.0179917 0.3622086 0
0.98435491 1.0126439 0.46984172 0
0.9818396 1.0100564 0.58322114 0
1.087692 1.1475123 -0.056447096 0
0.97301829 1.0265318 0.36085916 0
0.96583188 1.0189501 0.46708775 0
0.9671759 1.020368 0.58209687 0
1.0711702 1.1589668 -0.056342579 0
0.955679 1.0340096 0.35922897 0
0.94729406 1.0249373 0.46432742 0
0.95320559 1.0313333 0.58145881 0
1.0477618 1.162674 -0.055876974 0
0.93629622 1.0389836 0.35683271 0
0.93623441 1.0389149 0.46528193 0
0.93027616 1.0323032 0.57535559 0
1.0366075 1.1798356 -0.056069974 0
0.91819072 1.0450573 0.35491961 0
0.91639733 1.0430161 0.46191403 0
0.91144943 1.0373845 0.57174551 0
0.91532755 1.0417985 0.69386351 0
1.0198922 1.190719 -0.055972427 0
0.90567261 1.0573682 0.35519934 0
0.89711761 1.0473802 0.4588075 0
0.88604474 1.0344528 0.56393576 0
0.894566 1.0444013 0.68804008 0
1.0065765 1.2055715 -0.056070339 0
0.87709087 1.0504873 0.45529437 0
0.87003255 1.0420336 0.56205142 0
0.87825245 1.0518785 0.68562591 0
0.99567324 1.2235029 -0.056316726 0
0.85939866 1.056046 0.45297739 0
0.85460216 1.0501519 0.56058145 0
0.85629833 1.0522362 0.67877704 0
0.97256953 1.226335 -0.055878956 0
0.83887655 1.0577586 0.55895883 0
0.84834194 1.0696937 0.68309331 0
0.95953685 1.2417001 -0.056024071 0
0.81781393 1.0583018 0.55376011 0
0.82563889 1.0684278 0.67559224 0
0.9362542 1.2436254 -0.055574607 0
0.80712485 1.072103 0.67143631 0
0.92289954 1.2585586 -0.055718191 0
0.78855431 1.0753521 0.66719949 0
0.89888841 1.2587489 -0.055221129 0
0.89472055 1.2868708 -0.055956136 0
0.87544066 1.293593 -0.055764675 0
0.85949743 1.3051422 -0.055791557 0
0.84731734 1.3226062 -0.056077555 0
0.82753032 1.3282479 -0.055870511 0
0.80807269 1.3341576 -0.055686664 0
0.79458737 1.3499645 -0.055924371 0
0.77794743 1.3605982 -0.055954635 0
0.76071006 1.3702061 -0.05595139 0
0.7491982 1.3904419 -0.056387998 0
0.72675693 1.3904389 -0.05601231 0
0.71038306 1.4018298 -0.056106381 0
0.69482476 1.4150393 -0.056280427 0
0.67115396 1.4114809 -0.055798341 0
0.65344435 1.4200714 -0.055808235 0
0.63799018 1.4337553 -0.056025844 0
0.62043375 1.4429466 -0.056075267 0
0.60195208 1.4500082 -0.056050681 0
0.58325016 1.4564816 -0.056012575 0
0.56207609 1.4564829 -0.055736013 0
0.54236418 1.459869 -0.055599831 0
0.52843022 1.479152 -0.056076363 0
0.50861144 1.482329 -0.055949572 0
0.4896006 1.4876852 -0.055914603 0
0.47507146 1.5071881 -0.056418303 0
0.45414966 1.5067241 -0.056182414 0
0.43291625 1.5045868 -0.055895016 0
0.41426861 1.5111269 -0.055939749 0
0.39524072 1.5163455 -0.05594426 0
0.37820542 1.5296493 -0.056254927 0
0.35787031 1.5298229 -0.056091137 0
0.33616796 1.5232797 -0.055691607 0
0.3211146 1.5474056 -0.056421354 0
0.29831639 1.5344087 -0.055806071 0
0.27975544 1.5423589 -0.055962659 0
0.26055035 1.5471679 -0.056013662 0
0.24203448 1.5566641 -0.056242667 0
0.22153208 1.5533971 -0.056019396 0
0.20173301 1.5543499 -0.055957712 0
0.18190467 1.5547054 -0.05588362 0
0.16216746 1.5554609 -0.055832949 0
0.1436293 1.5689566 -0.056247994 0
0.12308866 1.5608237 -0.055896427 0
0.10388294 1.5691482 -0.056143247 0
0.083742172 1.5633301 -0.055892915 0
0.064133406 1.5662653 -0.055964552 0
0.044635255 1.5749979 -0.056252033 0
0.024604172 1.562958 -0.055806533 0
0.0049424213 1.5694097 -0.056030229 0
-0.014690811 1.5557996 -0.05554653 0
-0.03460218 1.5701542 -0.056070141 0
-0.054453917 1.5720289 -0.056157116 0
-0.074066497 1.5674759 -0.056023348 0
-0.093748696 1.5656117 -0.055994473 0
-0.11346975 1.5645214 -0.056002144 0
-0.13291559 1.5601002 -0.055899367 0
-0.15295298 1.5624337 -0.056047544 0
-0.17190355 1.5539637 -0.05581693 0
-0.094773576 0.85672861 0.51118046 0
-0.19211136 1.5569857 -0.056007933 0
-0.10464913 0.84813935 0.50680161 0
-0.21089345 1.5485177 -0.055794425 0
-0.11461924 0.84160948 0.50372225 0
-0.23086271 1.5490156 -0.055912677 0
-0.12515087 0.83972275 0.50349629 0
-0.25058541 1.5474497 -0.055965614 0
-0.13354951 0.82471347 0.49546582 0
-0.27126172 1.5511018 -0.056216776 0
-0.14404787 0.82368016 0.49589545 0
-0.28846169 1.5352753 -0.055770401 0
-0.15404899 0.81989264 0.49474382 0
-0.3118349 1.5517502 -0.056507029 0
-0.16045272 0.7984435 0.48298177 0
-0.32869977 1.5353284 -0.056055311 0
-0.17032446 0.79557091 0.48250327 0
-0.35008278 1.5402076 -0.056389932 0
-0.1782506 0.7842229 0.47694433 0
-0.36467057 1.515819 -0.055660725 0
-0.1873368 0.77869922 0.47498196 0
-0.38599667 1.5200424 -0.05598985 0
-0.19754745 0.7779355 0.47599575 0
-0.40418896 1.5116349 -0.055863213 0
-0.20448999 0.76477653 0.46948248 0
-0.42329198 1.5067881 -0.055876642 0
-0.21141151 0.75255936 0.46358007 0
-0.44219166 1.5012063 -0.055871706 0
-0.22062568 0.74900705 0.46306646 0
-0.46501952 1.5083675 -0.056351695 0
-0.4806909 1.4921985 -0.055969328 0
-0.49911064 1.4850436 -0.055932265 0
-0.51843166 1.4805322 -0.056003787 0
-0.53748298 1.4751242 -0.056050792 0
-0.5572812 1.471586 -0.056178536 0
-0.57507503 1.4626949 -0.056111112 0
-0.59031993 1.4476705 -0.055815484 0
-0.60465145 1.4310122 -0.055462379 0
-0.62386733 1.4261329 -0.055573341 0
-0.63353723 1.3999619 -0.054860033 0
-0.653108 1.3961362 -0.055028025 0
-0.66004062 1.3658775 -0.054158691 0
-0.67952448 1.3621454 -0.054345686 0
-0.69136715 1.3432723 -0.053935766 0
-0.71146971 1.3405731 -0.054182816 0
-0.72447002 1.3245196 -0.053898413 0
-0.73467314 1.3039042 -0.053431731 0
-0.74697036 1.2875482 -0.053142723 0
-0.76159656 1.2754846 -0.053036429 0
-0.77263623 1.2577204 -0.052698139 0
-0.78652126 1.2449007 -0.052571811 0
-0.80436403 1.2383324 -0.052717987 0
-0.8178426 1.225036 -0.052586194 0
-0.83196777 1.2128413 -0.052508265 0
-0.84453773 1.19853 -0.052344933 0
-0.85316074 1.1789558 -0.05195513 0
-0.87054598 1.1716306 -0.052111272 0
-0.88330781 1.1580575 -0.051998161 0
-0.8953281 1.1436617 -0.051853891 0
-0.90885544 1.1312999 -0.051808186 0
-0.92013186 1.1162534 -0.05164564 0
-0.93487924 1.1054842 -0.051687956 0
