# .PCD v0.7 - Point Cloud Data file format
VERSION 0.7
FIELDS x y z intensity
SIZE 4 4 4 4
TYPE F F F F
COUNT 1 1 1 1
WIDTH 1356
HEIGHT 1
VIEWPOINT 0 0 0 1 0 0 0
POINTS 1356
DATA ascii
-0.74109638 -0.73413348 0.34705216 0
-0.68296075 -0.67654407 0.39802343 0
-0.6800831 -0.67369342 0.47896329 0
-0.67955136 -0.67316669 0.56726623 0
-1.0987936 -1.1162299 -0.05591917 0
-0.72572553 -0.7372418 0.34417418 0
-0.68096709 -0.69177312 0.40190634 0
-0.68211061 -0.69293481 0.48649782 0
-0.6871745 -0.69807905 0.58092159 0
-1.0909243 -1.1365111 -0.056242544 0
-0.83966577 -0.87475324 0.043288928 0
-0.84150332 -0.87666762 0.13059506 0
-0.84610116 -0.88145757 0.22035441 0
-0.83776391 -0.87277192 0.30865481 0
-0.71922672 -0.74928135 0.34553933 0
-0.6824165 -0.71093297 0.40801305 0
-0.67615867 -0.70441365 0.48854041 0
-0.68773508 -0.71647376 0.58897573 0
-1.0841235 -1.1582724 -0.056639381 0
-0.81240988 -0.86797488 0.042443868 0
-0.80989909 -0.86529237 0.12737118 0
-0.81786036 -0.87379813 0.21584798 0
-0.81636441 -0.87219983 0.30479291 0
-0.70820826 -0.75664639 0.34479585 0
-0.68548888 -0.73237306 0.41533095 0
-0.68816179 -0.73522878 0.5038622 0
-0.68773425 -0.73477203 0.59685147 0
-1.0587072 -1.1600561 -0.05607025 0
-0.79758906 -0.8739413 0.042241156 0
-0.79717112 -0.87348336 0.1270892 0
-0.79028338 -0.86593628 0.21143094 0
-0.79481536 -0.87090212 0.30081806 0
-0.70407599 -0.77147633 0.34748608 0
-0.68761736 -0.75344217 0.42233548 0
-0.68444395 -0.74996495 0.50801432 0
-0.68030095 -0.74542534 0.59849918 0
-1.035882 -1.1641524 -0.055633355 0
-0.78283107 -0.87976688 0.042042937 0
-0.78477895 -0.88195592 0.12687406 0
-0.78509045 -0.88230604 0.21299715 0
-0.77691573 -0.87311906 0.298181 0
-0.69480157 -0.78083688 0.34773391 0
-0.68279839 -0.7673474 0.42527673 0
-0.68068212 -0.76496905 0.51233125 0
-0.68543673 -0.77031249 0.61150253 0
-1.0293144 -1.1865239 -0.056078613 0
-0.76414549 -0.8808552 0.04163181 0
-0.76451623 -0.88128251 0.12538236 0
-0.76056832 -0.87673169 0.20932281 0
-0.76222998 -0.87864709 0.29676747 0
-0.68579584 -0.79053903 0.34818125 0
-0.6808275 -0.78481179 0.43017033 0
-0.67785859 -0.78138947 0.51757085 0
-0.67969066 -0.78350139 0.61512929 0
-1.0127603 -1.1975777 -0.05599387 0
-0.75315028 -0.8905918 0.041640457 0
-0.74510747 -0.88108128 0.12400902 0
-0.74888253 -0.88554525 0.20915903 0
-0.75298196 -0.89039272 0.29750857 0
-0.6931448 -0.81963593 0.35712403 0
-0.6803301 -0.80448276 0.43622211 0
-0.67977732 -0.80382907 0.52672267 0
-0.6837154 -0.80848587 0.62793559 0
-1.0030888 -1.2168921 -0.056301892 0
-0.74631602 -0.90538949 0.041889612 0
-0.73826796 -0.89562601 0.12473781 0
-0.73826373 -0.89562088 0.20932651 0
-0.74007547 -0.8978188 0.29685247 0
-0.6933046 -0.84107894 0.36263436 0
-0.69002569 -0.83710116 0.44916198 0
-0.6817044 -0.82700628 0.53624249 0
-0.68443918 -0.83032393 0.63815236 0
-0.98102868 -1.2211376 -0.055922333 0
-0.73234254 -0.91158497 0.041746285 0
-0.73392183 -0.91355079 0.12593716 0
-0.73237336 -0.9116233 0.21089447 0
-0.73084497 -0.9097209 0.2977213 0
-0.69528759 -0.86546081 0.36934257 0
-0.68609917 -0.85402346 0.45357031 0
-0.68264252 -0.84972078 0.54535389 0
-0.67868638 -0.84479636 0.64265609 0
-0.96370178 -1.2309999 -0.055813827 0
-0.72707117 -0.92873603 0.042109109 0
-0.72254246 -0.92295122 0.12596881 0
-0.71344298 -0.91132784 0.20873126 0
-0.7256037 -0.92686152 0.30031684 0
-0.69282228 -0.88498771 0.37392309 0
-0.68796819 -0.87878722 0.46208474 0
-0.68571442 -0.87590837 0.5565753 0
-0.69060344 -0.88215339 0.6644063 0
-0.95242095 -1.248668 -0.056066684 0
-0.7169975 -0.94001693 0.042207882 0
-0.71902609 -0.94267648 0.12741515 0
-0.71274734 -0.93444473 0.21195351 0
-0.71524757 -0.93772268 0.3008939 0
-0.69879061 -0.91614681 0.38334009 0
-0.68365383 -0.89630181 0.46673065 0
-0.6842761 -0.89711767 0.56453228 0
-0.69015461 -0.90482461 0.67488253 0
-0.93675172 -1.2607341 -0.056074373 0
-0.71198928 -0.95823592 0.042619996 0
-0.70661598 -0.95100421 0.12732799 0
-0.71381152 -0.96068835 0.21585026 0
-0.71487492 -0.96211958 0.30580956 0
-0.68758202 -0.92538726 0.38355333 0
-0.68286413 -0.91903758 0.47405463 0
-0.67948592 -0.914491 0.57003546 0
-0.67938226 -0.91435152 0.67555398 0
-0.92097819 -1.2726706 -0.056085024 0
-0.71916139 -0.99378633 0.043794941 0
-0.7249884 -1.0018386 0.13290128 0
-0.71464729 -0.98754847 0.21984592 0
-0.7227928 -0.99880451 0.31455198 0
-0.69334525 -0.95811182 0.39346707 0
-0.68096441 -0.94100314 0.48092365 0
-0.67796052 -0.93685222 0.57860672 0
-0.67856348 -0.93768537 0.68642634 0
-0.90288877 -1.281339 -0.055961564 0
-0.6114316 -0.86771625 0.037896883 0
-0.61564595 -0.87369704 0.11486485 0
-0.61835778 -0.87754554 0.19360854 0
-0.76900548 -1.0913379 0.34061682 0
-0.68138146 -0.96698594 0.39355662 0
-0.69064903 -0.980138 0.49644041 0
-0.68462241 -0.97158527 0.59468663 0
-0.88734788 -1.2935745 -0.056003492 0
-0.59619296 -0.86912918 0.037627731 0
-0.60476446 -0.8816247 0.1148968 0
-0.59766752 -0.87127876 0.19055042 0
-0.75863767 -1.1059408 0.34216583 0
-0.67676836 -0.98659188 0.39803615 0
-0.68174714 -0.99384993 0.49899781 0
-0.68191236 -0.9940908 0.60315818 0
-0.86269772 -1.2922239 -0.055470314 0
-0.58859497 -0.8816489 0.037845872 0
-0.58384931 -0.87454045 0.11300647 0
-0.57779902 -0.8654778 0.18767564 0
-0.74394172 -1.1143409 0.34183928 0
-0.68550706 -1.0268123 0.41074777 0
-0.6828959 -1.0229011 0.50922608 0
-0.6834203 -1.0236865 0.61584491 0
-0.85061413 -1.3095353 -0.055749219 0
-0.56590444 -0.87121969 0.037089355 0
-0.57018381 -0.87780792 0.112492 0
-0.56374288 -0.86789191 0.18664499 0
-0.72368896 -1.1141318 0.33895278 0
-0.68929279 -1.0611782 0.42098945 0
-0.68379486 -1.0527141 0.51974005 0
-0.68494153 -1.0544795 0.62913114 0
-0.84086293 -1.3309124 -0.056204062 0
-0.55145997 -0.87284726 0.036860097 0
-0.55509317 -0.87859792 0.11168861 0
-0.55461586 -0.87784237 0.18726812 0
-0.70761877 -1.1200143 0.3380048 0
-0.68429458 -1.083097 0.42623281 0
-0.67922193 -1.0750681 0.52651209 0
-0.6890589 -1.0906379 0.64547634 0
-0.82126844 -1.3368853 -0.05601513 0
-0.53421295 -0.86960769 0.036436327 0
-0.53695309 -0.87406826 0.11024454 0
-0.53602034 -0.87254983 0.18468454 0
-0.69847769 -1.1370028 0.34045038 0
-0.67947108 -1.1060632 0.43186945 0
-0.69023424 -1.1235838 0.54597259 0
-0.68027514 -1.1073722 0.6502589 0
-0.80210358 -1.3433238 -0.055857278 0
-0.52542877 -0.87996238 0.036590062 0
-0.51883048 -0.8689118 0.10876153 0
-0.52048749 -0.87168694 0.18310015 0
-0.68798178 -1.1521982 0.34237915 0
-0.68255633 -1.1431118 0.44294426 0
-0.6823138 -1.1427058 0.55104572 0
-0.68425018 -1.1459486 0.66779894 0
-0.78335184 -1.3502587 -0.055731058 0
-0.50272244 -0.8665396 0.035765864 0
-0.50595969 -0.87211955 0.10835697 0
-0.50461602 -0.86980349 0.18135543 0
-0.69473392 -1.1975086 0.35321569 0
-0.68221289 -1.1759262 0.45229486 0
-0.68079978 -1.1734904 0.56171238 0
-0.68091643 -1.1736915 0.6789155 0
-0.77554822 -1.3764496 -0.05640452 0
-0.49350664 -0.87587976 0.035892036 0
-0.49097008 -0.87137783 0.10748816 0
-0.49307781 -0.87511873 0.18115471 0
-0.69364804 -1.2310925 0.36051664 0
-0.68348408 -1.2130533 0.46322799 0
-0.68173367 -1.2099466 0.57500809 0
-0.75177294 -1.3744365 -0.055929672 0
-0.47908401 -0.8758902 0.035642426 0
-0.47516873 -0.86873198 0.10641526 0
-0.47651488 -0.87119311 0.17908578 0
-0.68899912 -1.2596695 0.36631548 0
-0.68129802 -1.2455899 0.47233915 0
-0.68325216 -1.2491627 0.58950937 0
-0.73398548 -1.382998 -0.055897526 0
-0.46000296 -0.86675167 0.035032067 0
-0.46542448 -0.87696707 0.10669766 0
-0.46394923 -0.87418741 0.17848621 0
-0.68445516 -1.2896714 0.3725042 0
-0.68885601 -1.2979636 0.48887166 0
-0.68210077 -1.2852353 0.60243171 0
-0.71799958 -1.3950171 -0.05601345 0
-0.44827935 -0.87097174 0.034971707 0
-0.44935414 -0.87305999 0.10552549 0
-0.44924879 -0.87285531 0.1770452 0
-0.68230343 -1.3256623 0.3803879 0
-0.68782729 -1.3363947 0.5000447 0
-0.68504173 -1.3309826 0.61978251 0
-0.69987851 -1.4029464 -0.055973522 0
-0.44119456 -0.88439959 0.035285 0
-0.43454996 -0.87108016 0.10461651 0
-0.43255779 -0.86708671 0.17475645 0
-0.67955047 -1.3621975 0.38838527 0
-0.68184066 -1.3667884 0.50816429 0
-0.68534106 -1.3738052 0.63565415 0
-0.68103343 -1.4093198 -0.055881228 0
-0.41887134 -0.86680573 0.034369893 0
-0.41647455 -0.86184579 0.10286947 0
-0.42244816 -0.8742075 0.1751056 0
-0.67963964 -1.4064355 0.39852658 0
-0.68225545 -1.4118485 0.52168196 0
-0.66802698 -1.4280281 -0.056285031 0
-0.4065696 -0.86911583 0.034255777 0
-0.41183779 -0.88037753 0.10445413 0
-0.40851226 -0.8732686 0.17387338 0
-0.68406719 -1.4623169 0.41188759 0
-0.68444955 -1.4631343 0.53740489 0
-0.64883447 -1.4337652 -0.056184676 0
-0.39301863 -0.8684749 0.034032755 0
-0.39660147 -0.87639207 0.10338054 0
-0.39111769 -0.86427426 0.17108838 0
-0.68396837 -1.5114024 0.42325392 0
-0.6765219 -1.4949476 0.54591763 0
-0.63080102 -1.441983 -0.056190982 0
-0.37993342 -0.86851084 0.033844002 0
-0.38161081 -0.87234527 0.10232822 0
-0.3822102 -0.87371546 0.17199095 0
-0.6829322 -1.5611525 0.43474326 0
-0.68382734 -1.5631988 0.56765175 0
-0.61108893 -1.4462476 -0.056052864 0
-0.37246624 -0.88150573 0.034164909 0
-0.36870649 -0.87260765 0.10180631 0
-0.36869785 -0.87258714 0.17084138 0
-0.68175268 -1.6134856 0.44689068 0
-0.59031427 -1.4476566 -0.055814952 0
-0.35752359 -0.87677264 0.033804301 0
-0.36036924 -0.88375115 0.10256885 0
-0.35720381 -0.87598848 0.17061314 0
-0.68465 -1.6790007 0.46261206 0
-0.57105678 -1.4524746 -0.055719048 0
-0.34528592 -0.87822968 0.033690173 0
-0.33859944 -0.86122274 0.099451452 0
-0.34625131 -0.88068515 0.17066517 0
-0.68423682 -1.7403463 0.4771027 0
-0.55612332 -1.4685285 -0.056061815 0
-0.33174521 -0.87602383 0.03344265 0
-0.32885256 -0.86838537 0.099792473 0
-0.32992032 -0.87120497 0.16800964 0
-0.68074882 -1.7976211 0.49041528 0
-0.5359475 -1.4709101 -0.055890664 0
-0.32215634 -0.88415939 0.033595704 0
-0.31971714 -0.87746501 0.10036527 0
-0.32198739 -0.88369578 0.16962311 0
-0.51805854 -1.4794668 -0.055963486 0
-0.29993382 -0.85654819 0.03240047 0
-0.302284 -0.86325985 0.098297298 0
-0.30557051 -0.87264538 0.16675022 0
-0.49711895 -1.4791176 -0.055709071 0
-0.29567036 -0.8797316 0.033133965 0
-0.29498005 -0.87767762 0.099508174 0
-0.29214907 -0.86925441 0.16538617 0
-0.47987619 -1.4896693 -0.055874467 0
-0.27985275 -0.86874086 0.032584704 0
-0.27749568 -0.86142397 0.097261503 0
-0.2761538 -0.85725838 0.16242929 0
-0.46286365 -1.5013745 -0.056090444 0
-0.27096143 -0.87890804 0.032835472 0
-0.2673727 -0.86726737 0.097533397 0
-0.26858276 -0.87119246 0.16441561 0
-0.44540173 -1.5121043 -0.056277305 0
-0.25529692 -0.86671317 0.097101845 0
-0.25674751 -0.87163788 0.16387652 0
-0.42649731 -1.518198 -0.056299761 0
-0.24548081 -0.8738355 0.032404684 0
-0.24489586 -0.87175328 0.0973133 0
-0.24399653 -0.86855191 0.16270578 0
-0.40629426 -1.5195086 -0.056154184 0
-0.23506305 -0.87911731 0.032488212 0
-0.23346126 -0.87312675 0.097130753 0
-0.23378307 -0.87433028 0.16322383 0
-0.38755766 -1.5261896 -0.056216273 0
-0.22218047 -0.8749395 0.097013488 0
-0.22391179 -0.88175744 0.16407099 0
-0.36704791 -1.5257007 -0.056023583 0
-0.21016504 -0.87358886 0.096562639 0
-0.2102031 -0.87374705 0.1620751 0
-0.34898919 -1.5353963 -0.056213781 0
-0.20086876 -0.88373274 0.16344525 0
-0.32921731 -1.5377458 -0.056143571 0
-0.18801494 -0.87820166 0.16197158 0
-0.3099809 -1.5425245 -0.056171075 0
-0.17567408 -0.87418789 0.16081055 0
-0.28951067 -1.5408583 -0.055973206 0
-0.26901099 -1.5382318 -0.055750329 0
-0.25012758 -1.5446225 -0.055863366 0
-0.23079658 -1.5485719 -0.055896662 0
-0.21151304 -1.5530672 -0.055958349 0
-0.19265305 -1.5613759 -0.056165852 0
-0.17304011 -1.5642378 -0.056185968 0
-0.15270554 -1.559906 -0.05595687 0
-0.13271894 -1.5577919 -0.055816658 0
-0.11285044 -1.5559824 -0.055696487 0
-0.094165348 -1.5725697 -0.05624333 0
-0.074045427 -1.5670301 -0.056007415 0
-0.054416079 -1.5709364 -0.056118093 0
-0.034496602 -1.5653634 -0.055899065 0
-0.014811945 -1.5686281 -0.056004543 0
0.004942969 -1.5695837 -0.056036439 0
0.024508413 -1.556875 -0.055589333 0
0.044431012 -1.567791 -0.055994634 0
0.06380593 -1.558268 -0.055678792 0
0.083963789 -1.5674673 -0.056040835 0
0.10331802 -1.5606151 -0.055837937 0
0.061889615 -0.9348405 0.03344807 0
0.12358049 -1.5670604 -0.056119774 0
0.073725089 -0.93486977 0.033479679 0
0.14253867 -1.557043 -0.055820882 0
0.082509033 -0.90130013 0.032312125 0
0.16247168 -1.5583789 -0.055937689 0
0.094885692 -0.91011471 0.032668378 0
0.18233407 -1.5583754 -0.056015532 0
0.10732609 -0.91729611 0.032972049 0
0.11566079 -0.98853123 0.10696146 0
0.11662462 -0.99676889 0.18099225 0
0.11466172 -0.97999245 0.25173301 0
0.11465865 -0.97996622 0.32825306 0
0.11556476 -0.98771048 0.41173729 0
0.20090856 -1.5479976 -0.055729024 0
0.12236238 -0.94280034 0.033941489 0
0.12784998 -0.98508227 0.106754 0
0.1285802 -0.99070859 0.18017153 0
0.12766801 -0.98368025 0.25307322 0
0.12867995 -0.99147713 0.33262521 0
0.12706169 -0.97900856 0.40874436 0
0.12646386 -0.97440219 0.49162155 0
0.22112472 -1.5505407 -0.055916384 0
0.13771656 -0.96567726 0.034824744 0
0.13790864 -0.96702415 0.10497691 0
0.1380294 -0.96787089 0.17632036 0
0.13772304 -0.9657228 0.2488797 0
0.1379908 -0.96760029 0.32517207 0
0.13700846 -0.96071208 0.4017939 0
0.13848096 -0.97103733 0.49076474 0
0.23988429 -1.542835 -0.055743013 0
0.1516736 -0.97550082 0.035245091 0
0.15129137 -0.97304255 0.10582867 0
0.14904857 -0.95861775 0.17496271 0
0.15205216 -0.97793561 0.25250053 0
0.15073498 -0.96946406 0.32641038 0
0.15093096 -0.97072446 0.40674394 0
0.14758578 -0.94920975 0.48063415 0
0.26109084 -1.5503772 -0.056129854 0
0.16468036 -0.97788447 0.035403326 0
0.16621691 -0.98700869 0.10756674 0
0.16658407 -0.98918891 0.18091094 0
0.16682094 -0.9905954 0.25629133 0
0.16865064 -1.0014603 0.33787152 0
0.16535604 -0.98189676 0.412265 0
0.15975808 -0.94865566 0.48133409 0
0.27986246 -1.5429488 -0.055984065 0
0.62649065 -3.4539931 0.12532404 0
0.1719152 -0.9478097 0.48196504 0
0.30024287 -1.5443177 -0.056166459 0
0.67203087 -3.4566321 0.12571687 0
0.18258026 -0.93911278 0.47867379 0
0.31999174 -1.5419947 -0.056224059 0
0.71667093 -3.4535351 0.12592246 0
0.19070742 -0.91899186 0.46960476 0
0.33824977 -1.5327131 -0.056036495 0
0.76125467 -3.4494777 0.12611404 0
0.19659446 -0.89082962 0.45644268 0
0.35793546 -1.5301014 -0.056101352 0
0.80673289 -3.4486194 0.12644404 0
0.20944168 -0.89532065 0.46005866 0
0.37562335 -1.519206 -0.055870865 0
0.85562086 -3.4605529 0.12726653 0
0.55335206 -2.2380285 0.24776208 0
0.55178332 -2.231684 0.41460112 0
0.21723366 -0.87860006 0.45283651 0
0.39602283 -1.5193459 -0.056054961 0
0.90028298 -3.4539456 0.12743035 0
0.22895123 -0.87837392 0.45416987 0
0.41451564 -1.512028 -0.055973109 0
0.94856608 -3.4600828 0.1280873 0
0.24057648 -0.87755036 0.45527431 0
0.43449026 -1.5100572 -0.056098245 0
0.25562981 -0.8884334 0.46255377 0
0.45082796 -1.4957037 -0.055771489 0
0.25134036 -0.83386743 0.43575779 0
0.46841913 -1.4860833 -0.055628292 0
0.26430649 -0.83852565 0.4398964 0
0.49144965 -1.4933037 -0.056125775 0
0.27074325 -0.82267201 0.43333367 0
0.51040822 -1.4875658 -0.056147229 0
0.29075611 -0.84739786 0.44825074 0
0.52731508 -1.4760303 -0.055958021 0
0.54656792 -1.4711841 -0.056030773 0
0.56077498 -1.4531115 -0.055606999 0
0.58426189 -1.4590081 -0.056109738 0
0.60025579 -1.445922 -0.055892732 0
0.61771458 -1.4366226 -0.05582951 0
0.64062178 -1.4396694 -0.056256942 0
0.36711118 -0.82500899 0.37387478 0
0.6529575 -1.4190134 -0.055766653 0
0.67188954 -1.4130278 -0.055859491 0
0.39448011 -0.82961762 0.38034558 0
0.35928091 -0.75559133 0.49617985 0
0.69370252 -1.4127538 -0.056189526 0
1.1121675 -2.2649751 0.45507333 0
0.39357728 -0.80153638 0.36971432 0
0.35880741 -0.73072612 0.48278016 0
0.71037686 -1.4018176 -0.056105889 0
1.1470844 -2.2635915 0.45766118 0
0.40594813 -0.80107516 0.37182993 0
0.37127942 -0.73266184 0.48710927 0
0.72405428 -1.3852681 -0.05580401 0
1.1680738 -2.2347708 0.45477194 0
0.41835952 -0.80040979 0.37393671 0
0.37954047 -0.7261408 0.48591271 0
0.74260843 -1.3782119 -0.055892024 0
1.2057744 -2.2378047 0.45844275 0
0.43109539 -0.80007279 0.37628549 0
0.38864994 -0.72129798 0.48590845 0
0.75940114 -1.3678485 -0.055855118 0
1.2402279 -2.2339232 0.46081042 0
0.44374022 -0.79927373 0.37850764 0
0.39602011 -0.7133193 0.48385456 0
0.77497089 -1.3553922 -0.055740543 0
1.2778052 -2.2348289 0.46427953 0
0.4753941 -0.8314448 0.39654616 0
0.3977764 -0.69569463 0.47525939 0
0.7963466 -1.3529533 -0.056048192 0
1.3144183 -2.2331314 0.4673284 0
0.49335328 -0.83818275 0.40269074 0
0.41007337 -0.69669425 0.47943187 0
0.80651319 -1.3315828 -0.055579193 0
1.3566669 -2.2399068 0.47228387 0
0.49775261 -0.8218078 0.3978034 0
0.42633 -0.70388645 0.48803678 0
0.82929182 -1.3310752 -0.055989437 0
1.3969094 -2.2421436 0.47642663 0
0.43297106 -0.69495088 0.48558301 0
0.85096079 -1.3282933 -0.056318685 0
1.4390491 -2.2462604 0.48111364 0
0.4378477 -0.68345124 0.48136213 0
0.86610085 -1.3151695 -0.056220196 0
1.4651839 -2.2248738 0.48044658 0
0.58408165 -0.8869248 0.43969503 0
0.43983036 -0.66788 0.47425833 0
0.88215876 -1.3035201 -0.056192614 0
1.5106773 -2.2322493 0.4861086 0
0.59316909 -0.87649506 0.4381927 0
0.45743299 -0.6759249 0.48402283 0
0.89395404 -1.2857684 -0.055908199 0
1.5548673 -2.2363558 0.49122757 0
0.59243977 -0.85210234 0.42969337 0
0.44896004 -0.64573634 0.46641648 0
0.91061544 -1.2751707 -0.055941548 0
0.61727417 -0.86439335 0.43977621 0
0.45905882 -0.64283818 0.46846128 0
0.92517698 -1.2616644 -0.055855688 0
0.63423371 -0.86490488 0.44406447 0
0.46542799 -0.63470447 0.46676788 0
0.94336843 -1.2530752 -0.055996895 0
1.6878211 -2.2419307 0.10018646 0
1.684646 -2.2377133 0.30101752 0
0.65228426 -0.86642843 0.44902822 0
0.4721151 -0.62710994 0.46551788 0
0.96187127 -1.2447209 -0.056160372 0
0.66065383 -0.85492694 0.44734347 0
0.48064566 -0.6219852 0.46616957 0
0.96716332 -1.2195183 -0.055568341 0
0.67733103 -0.8540622 0.45131809 0
0.48391527 -0.61017978 0.46185198 0
0.99217188 -1.2192004 -0.056118686 0
0.4943597 -0.60747892 0.46448267 0
1.0018771 -1.1999429 -0.055808559 0
0.49806392 -0.59652859 0.46086887 0
1.01843 -1.1890118 -0.055892177 0
0.51175922 -0.5974763 0.46654275 0
1.0359535 -1.1790913 -0.056034606 0
0.51457381 -0.58567256 0.46234867 0
1.0507008 -1.1659353 -0.056033708 0
1.7639585 -1.9574187 0.094071627 0
0.52117085 -0.57832974 0.46169621 0
1.0655059 -1.1528381 -0.056044638 0
1.7648212 -1.9094715 0.092827991 0
0.5318467 -0.57543856 0.46469778 0
1.0792929 -1.1386511 -0.056011211 0
0.9385125 -0.99012828 0.048705246 0
0.53704512 -0.56658119 0.46296942 0
1.0897558 -1.121074 -0.055817164 0
0.9425984 -0.9696874 0.048279781 0
1.3982817 -1.4384664 0.21559256 0
0.5412451 -0.55679977 0.46050936 0
1.1072158 -1.1107051 -0.055990648 0
0.94604719 -0.94902867 0.047840539 0
1.4041005 -1.4085256 0.2137381 0
0.55108428 -0.55282104 0.46292129 0
1.1289629 -1.1043546 -0.056382686 0
0.97481382 -0.9535656 0.048684169 0
1.3099078 -1.2813554 0.19692792 0
1.3012809 -1.2729164 0.32829645 0
1.2906587 -1.2625259 0.46063673 0
0.56186944 -0.54962224 0.46613035 0
1.1314067 -1.0792049 -0.055821616 0
0.98141599 -0.93613458 0.048421338 0
1.3993795 -1.3348137 0.20783548 0
0.75090182 -0.71625608 0.34524557 0
1.1540023 -1.0733345 -0.056265146 0
1.016935 -0.94584852 0.049582221 0
1.3950936 -1.2975729 0.20475599 0
0.74738044 -0.69513655 0.33957505 0
0.57260853 -0.53258163 0.46376336 0
1.1649425 -1.0564674 -0.056145478 0
1.3947096 -1.2648394 0.067219317 0
1.390362 -1.2608967 0.20171525 0
0.74406695 -0.67478222 0.33418241 0
0.57808918 -0.52425969 0.46281886 0
1.1709602 -1.0353563 -0.055802733 0
1.4053352 -1.2425894 0.066971995 0
1.4062107 -1.2433634 0.20172709 0
1.3943186 -1.2328485 0.33566374 0
0.77279896 -0.68330443 0.34319514 0
0.59017986 -0.52183366 0.46720082 0
1.182946 -1.0197048 -0.05575759 0
1.395596 -1.2030102 0.065780744 0
1.3932531 -1.2009906 0.19768311 0
1.3974392 -1.204599 0.332737 0
0.79323733 -0.68377417 0.34842032 0
0.59396619 -0.51200157 0.46505755 0
1.2038052 -1.0115472 -0.056135949 0
1.3948045 -1.1720421 0.065042637 0
1.3927881 -1.1703478 0.19551063 0
1.4036009 -1.1794337 0.33064166 0
1.4815887 -1.2449663 0.4937346 0
0.82161599 -0.69039685 0.35703847 0
0.83975357 -0.70563769 0.45414111 0
0.60028589 -0.50441504 0.46499559 0
1.2207847 -0.99986279 -0.05633615 0
1.3999084 -1.146571 0.064602256 0
1.4036561 -1.1496406 0.19498864 0
1.4003245 -1.1469119 0.32644188 0
1.5011692 -1.229507 0.49506107 0
0.85245961 -0.69819242 0.36659214 0
0.80619359 -0.66029906 0.43146101 0
0.60453087 -0.49513069 0.46341753 0
1.2232229 -0.97638679 -0.055876859 0
1.3964565 -1.1146634 0.063790172 0
1.396983 -1.1150836 0.19209586 0
1.399392 -1.1170064 0.32291993 0
1.5392108 -1.228611 0.50246465 0
0.83204925 -0.66414875 0.35419035 0
0.79917914 -0.6379115 0.42337444 0
0.61179167 -0.48833725 0.4642328 0
1.2426683 -0.9665454 -0.056204699 0
1.4099202 -1.0966337 0.063769348 0
1.3964299 -1.086141 0.19012406 0
1.3964142 -1.0861287 0.31905147 0
0.81515956 -0.63402981 0.42757684 0
0.62260842 -0.48426384 0.46777639 0
1.253255 -0.94969702 -0.056138195 0
1.404225 -1.0640996 0.062900722 0
1.3941904 -1.0564957 0.18799296 0
1.3940325 -1.056376 0.31544304 0
0.82010728 -0.62146443 0.42603353 0
0.62554032 -0.47402459 0.46545762 0
1.2625973 -0.93198436 -0.056026537 0
1.4120978 -1.0423379 0.062660478 0
1.3949815 -1.0297035 0.18633647 0
1.3990163 -1.0326818 0.3136034 0
0.84179199 -0.62136751 0.43319941 0
0.63532722 -0.46896586 0.46830875 0
1.2835658 -0.92272264 -0.056436934 0
1.4048022 -1.0098764 0.061767559 0
1.3997924 -1.0062751 0.18527184 0
1.393489 -1.0017437 0.30951232 0
0.64657521 -0.46480638 0.47224808 0
1.2837467 -0.89855361 -0.055942953 0
1.4040382 -0.98275113 0.061185002 0
1.3985785 -0.9789297 0.18346509 0
1.4024585 -0.98164546 0.30873451 0
1.4037015 -0.98251551 0.43714136 0
0.65541214 -0.45875323 0.47444561 0
1.2973193 -0.88392675 -0.056044929 0
1.4321938 -0.97582328 0.061871581 0
1.3875606 -0.94541258 0.18044378 0
1.3977884 -0.95238125 0.30504224 0
1.3996881 -0.95367557 0.4321174 0
0.66012722 -0.4497768 0.47372136 0
1.3084079 -0.86756277 -0.05604757 0
1.4771978 -0.97948188 0.063277937 0
1.3955539 -0.92534649 0.17995371 0
1.3963826 -0.92589593 0.30216709 0
1.3967366 -0.92613071 0.42757198 0
0.67251873 -0.44592535 0.47854626 0
1.3121085 -0.84642702 -0.05574511 0
1.516257 -0.97812098 0.064418383 0
1.4023436 -0.90463662 0.17934611 0
1.3952585 -0.9000662 0.29944757 0
1.3998555 -0.90303159 0.42501208 0
0.68299365 -0.44059178 0.48201388 0
1.326924 -0.8325128 -0.055924732 0
1.5397905 -0.96606535 0.064896233 0
1.3923515 -0.8735621 0.17664741 0
1.3976995 -0.87691742 0.29757798 0
1.3930583 -0.8740055 0.41957366 0
0.687181 -0.43113771 0.48109949 0
1.3300915 -0.8113414 -0.055623233 0
1.5856496 -0.96722907 0.066310443 0
1.3894043 -0.8475216 0.17490566 0
1.3997782 -0.85384959 0.29570797 0
1.3991065 -0.85343987 0.41812539 0
0.69178444 -0.42198104 0.48056415 0
1.3459281 -0.79792446 -0.055860892 0
1.6273656 -0.96477276 0.067541569 0
1.3943937 -0.82665688 0.17420954 0
1.3936436 -0.82621223 0.292191 0
1.3927399 -0.82567644 0.41308275 0
0.69718421 -0.41332096 0.4806616 0
1.3641481 -0.78568316 -0.05620202 0
1.4078441 -0.81084985 0.17460048 0
1.393145 -0.8023839 0.2899451 0
1.3857872 -0.79814619 0.40800735 0
0.69952995 -0.4028953 0.47874314 0
1.3717388 -0.76721752 -0.056112275 0
1.3980969 -0.78195965 0.17215683 0
1.3978937 -0.78184599 0.28886151 0
1.3956968 -0.7806173 0.40799853 0
0.70787323 -0.39591557 0.48100305 0
1.3762208 -0.74713272 -0.05590634 0
1.4100955 -0.76552278 0.17243361 0
1.3957253 -0.75772136 0.28641909 0
1.3972679 -0.75855893 0.40563336 0
1.3947535 -0.73460889 -0.056278951 0
1.4144095 -0.74496168 0.17180043 0
1.3980078 -0.73632294 0.28496218 0
1.3960809 -0.73530799 0.40256885 0
1.404577 -0.71733868 -0.056306396 0
1.4087549 -0.71947235 0.16999969 0
1.4019843 -0.7160145 0.28391242 0
1.3993006 -0.7146439 0.40087062 0
1.3942332 -0.71205592 0.52084547 0
1.407428 -0.69659227 -0.056064602 0
1.3967748 -0.69131953 0.16749021 0
1.3926609 -0.68928343 0.28024447 0
1.4018434 -0.69382817 0.39906451 0
1.3909328 -0.6884281 0.51633316 0
1.4082359 -0.67505211 -0.055753753 0
1.4251037 -0.68313783 0.16984223 0
1.40126 -0.67170817 0.28025058 0
1.3975794 -0.66994381 0.39541784 0
1.3954623 -0.66892892 0.51484686 0
1.4273164 -0.66222817 -0.056174576 0
1.4665644 -0.68043792 0.17374854 0
1.4052167 -0.65197456 0.27937782 0
1.3927448 -0.64618802 0.39171672 0
1.3947903 -0.64713711 0.51155192 0
1.4274724 -0.64058298 -0.055858817 0
1.4969009 -0.67173928 0.1763265 0
1.3934438 -0.62531251 0.27544987 0
1.3998816 -0.62820148 0.39146811 0
1.3960333 -0.62647456 0.50907421 0
1.4430258 -0.62585515 -0.056154601 0
1.5240773 -0.661008 0.17853309 0
1.4024563 -0.60825974 0.2756955 0
1.4013404 -0.60777575 0.38970497 0
1.3980761 -0.60635996 0.50699461 0
1.4506952 -0.60759562 -0.056150865 0
1.5661813 -0.65596479 0.18248318 0
1.3971564 -0.58517194 0.27318344 0
1.4095007 -0.59034216 0.38987613 0
1.4028633 -0.5875622 0.50600749 0
1.4482907 -0.58526474 -0.055768121 0
1.5983791 -0.64591652 0.18527234 0
1.3966956 -0.5644148 0.27168217 0
1.4006608 -0.56601715 0.38542891 0
1.391686 -0.56239039 0.49938193 0
1.4659474 -0.57103461 -0.056166675 0
1.635494 -0.63707864 0.18862958 0
1.4059402 -0.54765987 0.27211738 0
1.3809286 -0.53791708 0.37810519 0
1.400691 -0.54561514 0.50010824 0
0.83795112 -0.32640949 0.44994617 0
1.4712216 -0.55185628 -0.056098055 0
1.4017445 -0.52579534 0.27000242 0
1.398013 -0.5243957 0.38094476 0
1.3968863 -0.52397311 0.49635467 0
0.83954847 -0.31491524 0.44863898 0
1.4740974 -0.53186071 -0.055947907 0
1.4074277 -0.50780594 0.26984406 0
1.4002455 -0.50521463 0.37978947 0
1.407089 -0.50768375 0.49766892 0
0.81992877 -0.29583383 0.4361293 0
1.4798455 -0.51296955 -0.055916481 0
1.4096358 -0.48863223 0.26906639 0
1.3986251 -0.48481554 0.37766421 0
1.4010482 -0.48565543 0.49333027 0
1.393842 -0.48315749 0.61078882 0
0.81532437 -0.28262177 0.43175298 0
1.4837738 -0.4934932 -0.05582568 0
1.3999134 -0.46560177 0.2660704 0
1.3951004 -0.46400097 0.37510496 0
1.395143 -0.46401519 0.48915485 0
1.3965776 -0.46449229 0.60937625 0
0.85031968 -0.2828106 0.44836327 0
1.497806 -0.47730049 -0.056123044 0
1.4079593 -0.4486694 0.2665047 0
1.3983649 -0.44561198 0.37444431 0
1.3990755 -0.44583845 0.48852649 0
1.3935019 -0.44406232 0.60554636 0
0.86625838 -0.2760475 0.45489863 0
1.4913298 -0.45463333 -0.055661459 0
1.4093821 -0.4296515 0.26572886 0
1.3965048 -0.42572585 0.37248123 0
1.3871877 -0.42288551 0.48247787 0
1.3980322 -0.42619145 0.6051349 0
0.86811507 -0.26464573 0.45408764 0
1.5029346 -0.43756607 -0.05588451 0
1.4310383 -0.41663411 0.26880151 0
1.393802 -0.4057931 0.37036803 0
1.394311 -0.40594128 0.48313922 0
1.3918492 -0.40522456 0.60020238 0
0.88225389 -0.25686041 0.459755 0
1.508558 -0.41867232 -0.055893146 0
1.4461863 -0.40136224 0.27067608 0
1.4103825 -0.39142552 0.37343454 0
1.3987939 -0.38820934 0.48296046 0
1.4019126 -0.38907486 0.60238147 0
0.87602586 -0.24312475 0.45487803 0
1.5189536 -0.40102896 -0.056086764 0
1.4737711 -0.38910004 0.27490017 0
1.4048742 -0.37091011 0.37071007 0
1.3989898 -0.36935651 0.48138404 0
1.3953602 -0.36839825 0.59752536 0
0.89133906 -0.2353283 0.46125415 0
1.5224888 -0.38152245 -0.056035466 0
1.5080398 -0.37790164 0.28038242 0
1.3936188 -0.34922874 0.36655056 0
1.392608 -0.34897542 0.47763819 0
1.4009225 -0.35105896 0.59796685 0
0.88579577 -0.2219727 0.45690292 0
1.5227441 -0.36127168 -0.055872995 0
1.5349908 -0.36417726 0.28451809 0
1.3953743 -0.33105317 0.36588687 0
1.3969498 -0.33142695 0.47765806 0
1.3937838 -0.33067581 0.59309542 0
0.89307433 -0.21188228 0.45924467 0
1.5386533 -0.34464148 -0.056293037 0
1.5637764 -0.35026878 0.28901318 0
1.4057992 -0.31488362 0.36755154 0
1.4008596 -0.31377724 0.47760609 0
1.4063126 -0.31499863 0.59669167 0
0.90746319 -0.20326182 0.46529078 0
1.5381937 -0.32425475 -0.056122396 0
1.5997386 -0.33722854 0.29485145 0
1.3958625 -0.29425097 0.36395594 0
1.3996891 -0.29505762 0.47590253 0
1.3980738 -0.29471713 0.59157443 0
0.90532565 -0.19084471 0.46292591 0
1.5296972 -0.30239868 -0.055669043 0
1.6389341 -0.32399324 0.30129984 0
1.4068246 -0.27810857 0.36587211 0
1.3993293 -0.27662686 0.47455823 0
1.393118 -0.27539897 0.58796346 0
0.92343938 -0.18255042 0.47097537 0
1.5365413 -0.28369701 -0.055783689 0
1.4237398 -0.26287007 0.3693811 0
1.3912588 -0.25687301 0.470687 0
1.4001988 -0.25852361 0.58953124 0
0.9420675 -0.17393723 0.47932103 0
1.5396867 -0.26427525 -0.05577264 0
1.4092263 -0.24188274 0.36479649 0
1.3991592 -0.24015482 0.47229931 0
1.3997438 -0.24025516 0.58801925 0
0.93833172 -0.16105735 0.47635064 0
1.5476997 -0.24563079 -0.055946428 0
0.98576009 -0.15644702 0.035633367 0
0.98799646 -0.15680195 0.10750819 0
0.98368871 -0.15611829 0.17962733 0
0.98549521 -0.15640499 0.2545782 0
0.99456507 -0.15784444 0.33502725 0
0.98514253 -0.15634902 0.41298935 0
0.95010048 -0.15078761 0.48132309 0
1.5511308 -0.22619112 -0.055963058 0
0.96081954 -0.14010994 0.03466529 0
0.9735496 -0.1419663 0.10573326 0
0.97102529 -0.14159818 0.17697529 0
0.95415908 -0.1391387 0.2460112 0
0.96583718 -0.14084163 0.32472688 0
0.97042787 -0.14151107 0.4060415 0
0.96368676 -0.14052805 0.4872708 0
1.5503559 -0.20617715 -0.055837005 0
0.94508666 -0.12568422 0.034037866 0
0.98055166 -0.1304006 0.10630696 0
0.98670721 -0.13121921 0.17951804 0
0.985964 -0.13112035 0.25376564 0
0.98540223 -0.13104565 0.33072385 0
0.98765922 -0.13134581 0.41252661 0
0.98708397 -0.13126931 0.4982259 0
1.5465295 -0.18588278 -0.055610489 0
0.93955535 -0.11292844 0.033784762 0
0.98467064 -0.118351 0.10658351 0
0.98453283 -0.11833443 0.17883717 0
0.98042643 -0.11784087 0.25193849 0
0.98643321 -0.11856285 0.33054262 0
0.98893487 -0.11886353 0.41240156 0
1.5648865 -0.16812931 -0.056189984 0
0.91725391 -0.098548539 0.032935608 0
1.4150116 -0.15202697 0.36309242 0
1.3960608 -0.14999092 0.46713424 0
1.4022343 -0.1506542 0.5839166 0
1.5635623 -0.14809799 -0.056071036 0
0.90324682 -0.085554019 0.032391407 0
1.4064932 -0.13322066 0.36044753 0
1.3910753 -0.1317603 0.464874 0
1.4086614 -0.13342604 0.5858469 0
1.5595348 -0.12792593 -0.055864405 0
0.91249716 -0.074850559 0.03268674 0
1.4095792 -0.11562534 0.36083665 0
1.4033593 -0.11511514 0.46845758 0
1.3986452 -0.11472844 0.58103436 0
1.5534166 -0.10775183 -0.055592231 0
0.93908268 -0.065138921 0.033607021 0
1.3978112 -0.096958354 0.3574833 0
1.3966894 -0.096880548 0.46578696 0
1.394333 -0.096717089 0.57869112 0
1.5592833 -0.088446699 -0.055757906 0
1.4100311 -0.079980716 0.36032233 0
1.392442 -0.078983016 0.46400201 0
1.3944277 -0.079095647 0.57827121 0
1.5699009 -0.069230989 -0.056101959 0
1.4015102 -0.061805137 0.35791764 0
1.3905492 -0.061321765 0.46307725 0
1.4082965 -0.0621044 0.58365208 0
1.5616539 -0.049175322 -0.05578069 0
1.3947748 -0.043920428 0.35602811 0
1.397118 -0.043994207 0.46504337 0
1.385345 -0.043623485 0.5738669 0
1.5661219 -0.029583355 -0.055922549 0
1.4086142 -0.026608102 0.35944667 0
1.3937684 -0.026327673 0.46378136 0
1.4009968 -0.026464215 0.58016652 0
1.5534016 -0.0097799907 -0.055459537 0
1.4179412 -0.0089271525 0.36176938 0
1.4001786 -0.0088153202 0.46584046 0
1.3954618 -0.008785625 0.57778281 0
1.5812438 0.0099552814 -0.056453563 0
1.4040232 0.0088395262 0.35821837 0
1.3963842 0.0087914318 0.46457809 0
1.4049963 0.0088456525 0.58173048 0
1.5654213 0.029570123 -0.055897534 0
1.4112328 0.026657568 0.3601149 0
1.397053 0.026389716 0.4648743 0
1.3971416 0.026391391 0.57857001 0
1.5508349 0.048834644 -0.055394251 0
1.4057593 0.044266321 0.35883197 0
1.3933159 0.043874487 0.46377784 0
1.3980905 0.044024833 0.57914662 0
1.5737084 0.069398895 -0.056238022 0
1.4131866 0.06232005 0.36089954 0
1.3980118 0.061650861 0.46556243 0
1.4003963 0.061756015 0.58037794 0
1.5675054 0.088913076 -0.056051917 0
1.397999 0.079298228 0.35724765 0
1.3884741 0.078757942 0.46267977 0
1.4033386 0.079601094 0.58196658 0
1.5651737 0.10856736 -0.056012988 0
1.8481848 0.12819825 0.066141129 0
1.8568946 0.1288024 0.20003867 0
1.8688177 0.12962945 0.33784866 0
1.416255 0.098237693 0.3622002 0
1.391721 0.096535914 0.46413001 0
1.3958242 0.096820526 0.57931006 0
1.5669793 0.12853661 -0.05613108 0
1.8132517 0.14873789 0.06495285 0
1.8108466 0.1485406 0.19526404 0
1.5742174 0.12913033 0.28486162 0
1.4052436 0.11526971 0.35972682 0
1.3968296 0.11457951 0.4662779 0
1.3970431 0.11459703 0.58036882 0
1.5603904 0.14779754 -0.055957284 0
1.7941282 0.16993679 0.06433937 0
1.8014076 0.17062628 0.19446251 0
1.4584744 0.13814424 0.26421124 0
1.4190094 0.13440618 0.36365512 0
1.3949569 0.13212797 0.46617121 0
1.3862842 0.1313065 0.57654047 0
1.5593878 0.16753855 -0.055992547 0
1.1960616 0.12850326 0.042946685 0
1.2031269 0.12926234 0.13004331 0
1.2024313 0.12918761 0.21810493 0
1.1868984 0.12751877 0.30455849 0
1.3996903 0.15038086 0.46834871 0
1.3995571 0.15036656 0.58280176 0
1.5529385 0.18665309 -0.055840943 0
1.1086859 0.13325682 0.039866399 0
1.1078416 0.13315535 0.11991587 0
1.112668 0.13373545 0.20211251 0
1.1121589 0.13367426 0.28578958 0
1.3959776 0.16778742 0.4677763 0
1.396968 0.16790645 0.58255786 0
1.5689721 0.20865285 -0.056507479 0
1.1200216 0.14894828 0.040338255 0
1.1126891 0.14797316 0.12063271 0
1.1034658 0.14674656 0.20076068 0
1.1101375 0.14763381 0.28572518 0
1.4037148 0.18667577 0.47111928 0
1.3987995 0.1860221 0.58425218 0
1.5554562 0.22682185 -0.05611911 0
1.1085134 0.16164716 0.039993919 0
1.1212693 0.16350728 0.12177651 0
1.1109846 0.16200753 0.20248374 0
1.1027209 0.16080248 0.28431493 0
1.405372 0.20493609 0.47250411 0
1.4035698 0.20467329 0.58727455 0
1.5443854 0.24510479 -0.055826619 0
1.1061976 0.17556131 0.039986957 0
1.1174892 0.17735337 0.12159885 0
1.1131659 0.17666721 0.20327061 0
1.1117357 0.17644024 0.2871893 0
1.3956162 0.22149406 0.47012454 0
1.4044709 0.22289936 0.58877927 0
1.5511528 0.26624334 -0.056187984 0
1.1033087 0.18937437 0.039965559 0
1.1087397 0.19030656 0.12089796 0
1.1188188 0.19203654 0.2047282 0
1.1165364 0.1916448 0.28902993 0
1.3873379 0.23812579 0.46830893 0
1.3960075 0.23961385 0.58644968 0
1.5485092 0.2859067 -0.056218181 0
1.1174433 0.20631747 0.040568456 0
1.1140836 0.20569716 0.12175345 0
1.1070503 0.20439857 0.20302963 0
1.114 0.20568173 0.2890209 0
1.4007782 0.25863057 0.47390756 0
1.3890849 0.25647163 0.58485192 0
1.534703 0.30338827 -0.055851217 0
1.1091955 0.21927166 0.040366061 0
1.1136513 0.22015251 0.12199949 0
1.1071583 0.21886893 0.20353875 0
1.120115 0.22143029 0.29130769 0
1.3890157 0.27458802 0.47106054 0
1.3957697 0.27592319 0.5890826 0
1.520877 0.32060432 -0.055490576 0
1.1044921 0.23282945 0.040298399 0
1.1169612 0.23545796 0.12267717 0
1.108337 0.23363997 0.20428012 0
1.1100041 0.23399138 0.2894215 0
1.3940125 0.293861 0.47397244 0
1.3983333 0.29477185 0.59168428 0
1.5289487 0.34246778 -0.055937991 0
1.1137493 0.24946766 0.040747538 0
1.104889 0.24748306 0.1216839 0
1.1194835 0.25075206 0.20690012 0
1.1169586 0.2501865 0.29203308 0
1.3916957 0.3117246 0.47448176 0
1.3947173 0.31240141 0.59177184 0
1.5283798 0.36260876 -0.056079783 0
1.11988 0.26569203 0.041090984 0
1.1108668 0.26355362 0.12269801 0
1.1156944 0.26469898 0.20679945 0
1.1126891 0.26398596 0.2917628 0
1.4025065 0.33274525 0.47955805 0
1.4056023 0.33347976 0.59812456 0
1.5191268 0.38067994 -0.055911724 0
1.1042209 0.27670813 0.04064104 0
1.1166446 0.27982143 0.12371557 0
1.1122366 0.2787168 0.20679267 0
1.1134971 0.27903268 0.29287279 0
1.3946283 0.3494817 0.47833112 0
1.3974513 0.35018912 0.5964852 0
1.516855 0.40047488 -0.056009274 0
1.1102353 0.29312056 0.040995006 0
1.1197811 0.29564083 0.12446566 0
1.1072396 0.29232961 0.20653161 0
1.1104881 0.29318726 0.29302913 0
1.3948159 0.36825457 0.47994787 0
1.3985895 0.36925083 0.59890825 0
1.5059917 0.41796011 -0.055798061 0
1.1178931 0.31025052 0.041418735 0
1.1002389 0.30535093 0.12271115 0
1.1084098 0.30761859 0.20745599 0
1.1059804 0.30694437 0.29283637 0
1.402527 0.38924539 0.48424935 0
1.3898646 0.38573116 0.59720463 0
1.5100634 0.43964159 -0.056149587 0
1.1039666 0.32141012 0.041049447 0
1.1008165 0.32049298 0.12321592 0
1.1038285 0.32136989 0.20733951 0
1.1143852 0.3244434 0.29612005 0
1.3828936 0.40261722 0.47918302 0
1.3907793 0.40491307 0.59974098 0
1.4887974 0.45386133 -0.055566944 0
1.4097416 0.42976108 0.37601179 0
1.4081975 0.42929038 0.48978531 0
1.3969768 0.42586976 0.60467809 0
1.4913429 0.47524098 -0.055880874 0
1.4120753 0.44998103 0.37811559 0
1.3832151 0.44078425 0.48298839 0
1.4007199 0.44636247 0.60868293 0
1.4861304 0.49427694 -0.055914342 0
1.3977668 0.46488786 0.37582192 0
1.3841127 0.46034658 0.48528746 0
1.3874227 0.46144745 0.60538167 0
1.4823195 0.51382715 -0.056009959 0
1.4092493 0.48849827 0.38053301 0
1.39063 0.48204413 0.4896619 0
1.3879359 0.48111024 0.60820079 0
1.4667788 0.5292201 -0.055670138 0
1.4031396 0.50625879 0.38057441 0
1.3895363 0.50135064 0.49146074 0
1.3953519 0.50344902 0.61417985 0
1.4668844 0.55022937 -0.055932678 0
1.4068754 0.52771997 0.38335967 0
1.3773593 0.51664847 0.48941609 0
1.3991455 0.52482051 0.61870944 0
1.4489006 0.56439435 -0.055513542 0
1.399114 0.54500085 0.38308445 0
1.3873109 0.54040313 0.49533087 0
1.3931117 0.54266274 0.61901391 0
1.4593154 0.58971989 -0.05619264 0
1.3968636 0.56448269 0.38438401 0
1.3825417 0.55869508 0.49610063 0
1.39239 0.56267482 0.62179226 0
1.4450033 0.60521173 -0.055930555 0
1.3895212 0.58197415 0.3843497 0
1.3729796 0.575046 0.49522853 0
1.3906368 0.58244139 0.62423503 0
1.4425317 0.62564087 -0.056135375 0
1.3979875 0.60632157 0.38877255 0
1.3838532 0.60019141 0.5018369 0
1.375213 0.59644407 0.62063372 0
1.4302977 0.64185083 -0.055969376 0
1.390951 0.62419391 0.38897073 0
1.3833437 0.62078005 0.50444686 0
1.3837953 0.62098271 0.62798601 0
1.4161394 0.65704238 -0.055734679 0
1.3886918 0.64430761 0.39057681 0
1.3773636 0.63905162 0.50516051 0
1.3801292 0.64033478 0.62993163 0
1.4149412 0.67826635 -0.056019224 0
1.3945529 0.66849303 0.39456153 0
1.3701741 0.65680677 0.50551695 0
1.3740964 0.658687 0.63091379 0
1.4120581 0.69888383 -0.056249041 0
1.3778428 0.68194932 0.39223221 0
1.37712 0.68159157 0.51120561 0
1.3793205 0.68268067 0.63720894 0
1.3943696 0.71212554 -0.055897202 0
1.3714942 0.70044273 0.39290467 0
1.3601462 0.69464713 0.50811148 0
1.3699602 0.69965929 0.63690436 0
1.3866733 0.73035312 -0.055952914 0
1.366326 0.71963632 0.39398885 0
1.3600959 0.71635497 0.51142198 0
1.3471339 0.70952797 0.63039601 0
1.3772314 0.74768132 -0.055947389 0
1.3529993 0.73452604 0.39278197 0
1.3491274 0.73242402 0.51072508 0
1.3478748 0.73174399 0.63500422 0
1.3742185 0.7686044 -0.056213707 0
1.3421705 0.75067985 0.39235139 0
1.3463398 0.75301176 0.51321864 0
1.3469993 0.7533806 0.63901043 0
1.3549548 0.78038824 -0.055823263 0
1.3314496 0.76685035 0.39200914 0
1.3399099 0.77172309 0.51443118 0
1.3414347 0.77260125 0.64093506 0
1.345585 0.79772097 -0.05584665 0
1.3361119 0.79210496 0.39628708 0
1.3287967 0.78776819 0.51393223 0
1.3339127 0.79080123 0.64204812 0
1.3398274 0.81728017 -0.056030378 0
1.3276297 0.80983973 0.39676443 0
1.326949 0.80942452 0.51711863 0
1.3386619 0.81656927 0.64923173 0
1.3325378 0.83603489 -0.056161333 0
1.3201896 0.8282876 0.3976264 0
1.3136234 0.82416803 0.5159291 0
1.327896 0.83312261 0.6490469 0
1.3148826 0.84821653 -0.055862967 0
1.3197553 0.85135984 0.40069273 0
1.3162153 0.84907615 0.52110493 0
1.3081516 0.84387445 0.64453906 0
1.3035516 0.86434269 -0.055839542 0
1.30538 0.86555511 0.39960569 0
1.2964123 0.85960889 0.51750922 0
1.3110691 0.86932737 0.65131843 0
1.2970917 0.88377172 -0.056035098 0
1.2953702 0.88259876 0.39991197 0
1.2963597 0.88327289 0.52188671 0
1.2908816 0.87954044 0.64674038 0
1.2855824 0.89983857 -0.056022953 0
1.2948707 0.90633976 0.4032492 0
1.2838216 0.89860606 0.52135319 0
1.2847248 0.89923829 0.64927745 0
1.2663672 0.91035903 -0.055680729 0
1.2841092 0.92311335 0.40348586 0
1.2730074 0.91513252 0.52159989 0
1.2752566 0.91674936 0.65027487 0
1.2492442 0.92212778 -0.055434007 0
1.2708801 0.93809831 0.40300882 0
1.2709464 0.93814725 0.52555412 0
1.2647411 0.93356681 0.65085572 0
1.2515249 0.94838589 -0.05606069 0
1.2589182 0.95398843 0.40299302 0
1.2550322 0.95104367 0.523884 0
1.2588229 0.95391625 0.65393978 0
1.2422493 0.96621948 -0.056185748 0
1.2509657 0.9729991 0.40433735 0
1.2541579 0.97548199 0.52860457 0
1.2488681 0.9713676 0.6550706 0
1.2285925 0.9806729 -0.056122143 0
1.2429039 0.99209642 0.40573737 0
1.2365378 0.98701489 0.52637476 0
1.2384142 0.98851258 0.65606433 0
1.2146214 0.99481487 -0.056051727 0
1.2325392 1.0094901 0.40647128 0
1.2387208 1.0145531 0.53270006 0
1.2268472 1.0048282 0.6565876 0
1.1974826 1.0062343 -0.055841107 0
1.2196641 1.0248733 0.40644905 0
1.2204149 1.0255041 0.53033906 0
1.2164654 1.0221853 0.65786791 0
1.1875471 1.023671 -0.055974461 0
1.2751604 1.0991942 0.060104072 0
1.2739197 1.0981246 0.1807514 0
1.2847184 1.1074331 0.30589762 0
1.2094519 1.0425531 0.40738845 0
1.1991571 1.0336789 0.52671593 0
1.2055486 1.0391885 0.65898865 0
1.1792886 1.0427202 -0.056199625 0
1.2481872 1.1036401 0.059483029 0
1.232138 1.0894494 0.17675561 0
1.2403195 1.0966834 0.29859048 0
1.1946968 1.056344 0.40686661 0
1.2009449 1.0618687 0.53333205 0
1.1952083 1.0567964 0.66055822 0
1.1587001 1.0508062 -0.055844616 0
1.2138231 1.1007965 0.058501326 0
1.2117078 1.0988781 0.1757959 0
1.2179039 1.1044972 0.29651892 0
1.1870478 1.0765144 0.40884584 0
1.1868074 1.0762962 0.53303021 0
1.1810764 1.0710989 0.66014969 0
1.1545498 1.0738437 -0.056291837 0
1.1946563 1.1111467 0.058247291 0
1.202358 1.11831 0.17646845 0
1.1996515 1.1157926 0.29547241 0
1.169605 1.0878465 0.40752384 0
1.168951 1.0872382 0.5311172 0
1.1697751 1.0880047 0.66143817 0
1.1416956 1.0890191 -0.056329254 0
1.1852988 1.1306105 0.058480557 0
1.1828026 1.1282294 0.17566952 0
1.1870453 1.1322764 0.29585576 0
1.1592944 1.1058059 0.40875062 0
1.1631838 1.1095158 0.53480232 0
1.1548605 1.1015766 0.66079587 0
1.118302 1.0939261 -0.055850256 0
1.1717914 1.1462497 0.058521625 0
1.1649519 1.1395591 0.17513566 0
1.165274 1.1398743 0.2939837 0
1.1420671 1.1171732 0.40760431 0
1.1412683 1.1163918 0.53114742 0
1.1431638 1.118246 0.66210777 0
1.1090301 1.1125252 -0.056082398 0
1.1642354 1.1679044 0.058874063 0
1.1615708 1.1652315 0.17681921 0
1.1607648 1.164423 0.29652175 0
1.1336294 1.1372021 0.40967119 0
1.1325227 1.1360918 0.5336929 0
1.1373479 1.1409322 0.66700751 0
1.0986948 1.1302698 -0.056275018 0
1.1625719 1.1959826 0.059546795 0
1.1554034 1.1886082 0.17814463 0
1.1607242 1.1940819 0.30032861 0
1.1161766 1.148254 0.40855688 0
1.1193569 1.1515256 0.53427941 0
1.1128056 1.1447861 0.66101611 0
1.0811851 1.1406474 -0.05610941 0
1.1663218 1.2304665 0.060527682 0
1.1815968 1.2465814 0.18458885 0
1.1762204 1.2409095 0.30835676 0
1.0984383 1.1588495 0.4073731 0
1.1025766 1.1632155 0.53321916 0
1.1019194 1.1625222 0.66319257 0
1.0666617 1.1540887 -0.056105439 0
1.0947841 1.1845162 0.41151702 0
1.0969568 1.1868669 0.53768641 0
1.0921069 1.1816195 0.66618913 0
1.0512706 1.1665676 -0.056064095 0
1.0754757 1.1934274 0.40987551 0
1.078428 1.1967036 0.53594816 0
1.073608 1.1913549 0.66400325 0
1.0314566 1.1739731 -0.055791367 0
1.0598792 1.2063228 0.40968823 0
1.0592974 1.2056606 0.53394341 0
1.0583555 1.2045885 0.66389859 0
1.023837 1.1953245 -0.056188919 0
1.0427233 1.2173742 0.40894979 0
1.0447274 1.219714 0.53429878 0
1.043515 1.2182984 0.66415995 0
1.0019482 1.2000282 -0.055812523 0
1.027117 1.2301728 0.40887201 0
1.033337 1.2376224 0.53640109 0
1.0320956 1.2361355 0.66674596 0
0.98773897 1.213753 -0.055867951 0
1.0163972 1.248969 0.41083279 0
1.0134448 1.2453409 0.53417301 0
1.011296 1.2427005 0.66336572 0
0.97770476 1.2328103 -0.056174003 0
0.99321139 1.2523628 0.40780294 0
1.0004803 1.2615285 0.53567016 0
1.004601 1.2667243 0.66938406 0
0.96345848 1.2467749 -0.056253042 0
0.98446786 1.2739624 0.41076708 0
0.98315299 1.2722608 0.53492808 0
0.97636646 1.2634786 0.66111958 0
0.93957418 1.2480353 -0.055771671 0
0.97085607 1.289587 0.41183051 0
0.96388906 1.2803328 0.53317648 0
0.9646064 1.2812855 0.66402876 0
0.93525195 1.2754036 -0.056463942 0
0.95151299 1.2975788 0.4105238 0
0.95731997 1.3054979 0.53859335 0
0.95178998 1.2979566 0.66640437 0
0.91103649 1.2757604 -0.055967417 0
0.93064386 1.3032173 0.40856773 0
0.93163615 1.3046068 0.53334361 0
0.93276125 1.3061824 0.66454458 0
0.89867193 1.2925541 -0.056203261 0
0.91421181 1.3149049 0.40859044 0
0.9125272 1.312482 0.53182334 0
0.91811514 1.3205191 0.66590393 0
0.8788206 1.2985874 -0.055979975 0
0.89862138 1.3278461 0.40906307 0
0.89977038 1.3295438 0.53410351 0
0.89930636 1.3288581 0.66434592 0
0.86305934 1.3105509 -0.056022767 0
0.8812471 1.338169 0.40879226 0
0.88491017 1.3437313 0.5352841 0
0.88449329 1.3430983 0.66584414 0
0.83834356 1.3085988 -0.055483647 0
0.86125201 1.3443573 0.4073374 0
0.86346525 1.3478119 0.53253615 0
0.8569442 1.3376331 0.65773302 0
0.82441521 1.3232479 -0.055660196 0
0.84424722 1.3550798 0.40733284 0
0.84417373 1.3549619 0.53111905 0
0.85048753 1.365096 0.66591811 0
0.81184471 1.3403853 -0.055946607 0
0.82463545 1.3615034 0.40611014 0
0.82834703 1.3676313 0.53195441 0
0.82610387 1.3639277 0.66022134 0
0.79711717 1.3542626 -0.056102425 0
0.80678004 1.3706791 0.40578467 0
0.81412333 1.3831551 0.53396273 0
0.81194311 1.379451 0.66273391 0
0.77553725 1.3563828 -0.055781279 0
0.79024702 1.3821096 0.40619048 0
0.79144782 1.3842098 0.53048044 0
0.79676247 1.393505 0.66461301 0
0.76620376 1.3801014 -0.056355458 0
0.7773726 1.4002191 0.40860343 0
0.77784663 1.4010729 0.53314704 0
0.77061898 1.3880543 0.6573332 0
0.73905843 1.3716234 -0.055624835 0
0.75754154 1.4059263 0.40745294 0
0.75907916 1.40878 0.53240031 0
0.75702906 1.4049753 0.66077965 0
0.72121823 1.3798423 -0.055585437 0
0.73815709 1.4122498 0.40655953 0
0.73829263 1.4125091 0.53025419 0
0.73534536 1.4068705 0.65726393 0
0.71112382 1.4032916 -0.056164883 0
0.71888417 1.4186054 0.40575102 0
0.72163433 1.4240324 0.53112668 0
0.71452564 1.4100046 0.65447283 0
0.69214433 1.4095806 -0.056063317 0
0.69630635 1.4180566 0.40305424 0
0.69857842 1.4226837 0.52730095 0
0.69925672 1.4240652 0.65686011 0
0.67214 1.4135545 -0.055880316 0
0.67989832 1.4298708 0.40394676 0
0.6779989 1.4258763 0.52527821 0
0.68371117 1.4378895 0.65921324 0
0.65570033 1.4249741 -0.056000907 0
0.65712142 1.4280623 0.40106645 0
0.6596337 1.4335221 0.52499336 0
0.66046154 1.4353212 0.65417105 0
0.64059347 1.4396057 -0.056254458 0
0.64228642 1.4434103 0.40307349 0
0.64099383 1.4405055 0.52455324 0
0.64315528 1.4453629 0.65500468 0
0.62069756 1.4435601 -0.056099117 0
0.61960715 1.4410242 0.40019667 0
0.62304282 1.4490145 0.52475327 0
0.62169343 1.4458762 0.65163797 0
0.60152525 1.4489801 -0.056010943 0
0.60216117 1.4505118 0.40069395 0
0.60582542 1.4593384 0.52568763 0
0.60335594 1.4533898 0.65154845 0
0.58540696 1.4618676 -0.056219704 0
0.58531636 1.4616413 0.40170053 0
0.58541232 1.4618809 0.52390653 0
0.58225381 1.4539934 0.64848077 0
0.56340891 1.4599366 -0.055868179 0
0.56440681 1.4625225 0.39995775 0
0.56541955 1.4651468 0.52248389 0
0.56725365 1.4698993 0.65233731 0
0.54733145 1.4732393 -0.056109045 0
0.54624623 1.4703182 0.40017688 0
0.54075998 1.455551 0.51659274 0
0.54620218 1.4701996 0.64936668 0
0.52417952 1.4672536 -0.055625279 0
0.52328378 1.4647464 0.39683551 0
0.52395827 1.4666342 0.51814359 0
0.52366179 1.4658045 0.64446187 0
0.5064128 1.4759213 -0.055707712 0
0.50253385 1.4646163 0.39505452 0
0.50447482 1.4702731 0.51714396 0
0.50532657 1.4727554 0.64466918 0
0.48778996 1.4821835 -0.05570782 0
0.48466527 1.4726888 0.39555442 0
0.48226237 1.4653875 0.5132488 0
0.486247 1.4774951 0.64401263 0
0.47013655 1.4915318 -0.055832248 0
0.46179959 1.4650824 0.39191845 0
0.46618289 1.4789886 0.51591563 0
0.46699402 1.481562 0.64317113 0
0.45415762 1.5067505 -0.056183398 0
0.44703606 1.4831234 0.39520735 0
0.44309241 1.4700397 0.51080722 0
0.44299856 1.4697282 0.63556188 0
0.43557459 1.5138258 -0.056238245 0
0.45150685 1.5691979 0.058295306 0
0.45294699 1.574203 0.17604233 0
0.45278478 1.5736393 0.29531813 0
0.42676789 1.4832184 0.39376944 0
0.42684305 1.4834796 0.51356888 0
0.42354551 1.4720191 0.63419592 0
0.41097489 1.4991122 -0.05549499 0
0.42396548 1.5464981 0.05724914 0
