# .PCD v0.7 - Point Cloud Data file format
VERSION 0.7
FIELDS x y z intensity
SIZE 4 4 4 4
TYPE F F F F
COUNT 1 1 1 1
WIDTH 1358
HEIGHT 1
VIEWPOINT 0 0 0 1 0 0 0
POINTS 1358
DATA ascii
-0.6830703 -0.78739715 0.6181879 0
-1.0081646 -1.1921434 -0.055739786 0
-0.75442791 -0.89210254 0.041711092 0
-0.75435686 -0.89201856 0.12554841 0
-0.76073688 -0.8995629 0.21246989 0
-0.75105029 -0.88810855 0.29674533 0
-0.6932168 -0.8197211 0.35716113 0
-0.68022937 -0.80436367 0.43615752 0
-0.68015313 -0.80427349 0.52701384 0
-0.68057996 -0.80477822 0.62505591 0
-0.997172 -1.2097142 -0.05596979 0
-0.73249012 -0.88861668 0.041113585 0
-0.73912066 -0.89666045 0.12488189 0
-0.73907006 -0.89659905 0.20955512 0
-0.74118263 -0.89916199 0.29729655 0
-0.68896347 -0.83581257 0.36036375 0
-0.69210428 -0.83962286 0.45051503 0
-0.67593747 -0.82001013 0.53170609 0
-0.67659509 -0.82080787 0.63083869 0
-0.98283321 -1.2233838 -0.056025196 0
-0.72748339 -0.90553659 0.041469298 0
-0.73091662 -0.90981007 0.12542148 0
-0.7272746 -0.90527666 0.20942624 0
-0.73251504 -0.91179973 0.29840162 0
-0.69018787 -0.85911292 0.36663356 0
-0.68252629 -0.84957612 0.45120832 0
-0.68158466 -0.84840405 0.54450876 0
-0.68058038 -0.84715396 0.64444953 0
-0.96455789 -1.2320936 -0.05586341 0
-0.72141558 -0.92151183 0.04178156 0
-0.71890485 -0.91830468 0.12533464 0
-0.71906972 -0.91851526 0.21037747 0
-0.72402245 -0.9248417 0.29966238 0
-0.69031447 -0.88178432 0.37256959 0
-0.68171954 -0.87080544 0.45788777 0
-0.68275267 -0.87212509 0.55417132 0
-0.6827901 -0.87217295 0.65688938 0
-0.94969559 -1.2450949 -0.055906247 0
-0.71207118 -0.93355823 0.041917879 0
-0.71337593 -0.93526888 0.12641393 0
-0.71962482 -0.94346142 0.21399871 0
-0.72025996 -0.94429415 0.30300254 0
-0.68813884 -0.90218186 0.37749681 0
-0.68377107 -0.89645559 0.4668107 0
-0.68248087 -0.89476407 0.56305122 0
-0.68246514 -0.89474332 0.66736323 0
-0.93862373 -1.2632535 -0.056186434 0
-0.71754199 -0.96570909 0.042952385 0
-0.71035266 -0.95603329 0.12800133 0
-0.7173205 -0.96541095 0.21691135 0
-0.7111209 -0.95706719 0.30420366 0
-0.6889205 -0.92718863 0.38429996 0
-0.68011385 -0.91533607 0.47214532 0
-0.67982149 -0.91494268 0.57031703 0
-0.68961877 -0.92812836 0.68573278 0
-0.92054749 -1.2720754 -0.056058798 0
-0.71750051 -0.99149126 0.043693796 0
-0.72314674 -0.99929363 0.13256368 0
-0.71895117 -0.99349588 0.22116992 0
-0.72110617 -0.99647379 0.31381798 0
-0.69281393 -0.95737767 0.39316559 0
-0.67653257 -0.93487895 0.47779372 0
-0.6797145 -0.93927598 0.58010364 0
-0.68012643 -0.9398452 0.68800741 0
-0.90060174 -1.2780935 -0.055819813 0
-0.61250836 -0.86924428 0.037963618 0
-0.61234152 -0.86900753 0.11424832 0
-0.62358207 -0.88495958 0.19524427 0
-0.77099639 -1.0941634 0.34149864 0
-0.68063515 -0.96592677 0.39312553 0
-0.68349749 -0.96998888 0.4912999 0
-0.6789459 -0.96352941 0.58975583 0
-0.88578993 -1.2913033 -0.055905163 0
-0.5951941 -0.8676731 0.037564691 0
-0.6031245 -0.87923402 0.11458524 0
-0.59557623 -0.8682301 0.18988368 0
-0.75492585 -1.1005298 0.34049168 0
-0.68172342 -0.99381542 0.40095043 0
-0.67445022 -0.98321253 0.4936569 0
-0.68444794 -0.99778718 0.60540098 0
-0.87115663 -1.3048944 -0.056014214 0
-0.58059502 -0.86966586 0.037331484 0
-0.581963 -0.87171495 0.11264136 0
-0.58583611 -0.87751639 0.19028616 0
-0.74716622 -1.1191708 0.34332094 0
-0.68690062 -1.0288997 0.41158277 0
-0.68521112 -1.026369 0.51095247 0
-0.68361962 -1.0239851 0.61602455 0
-0.85644543 -1.3185127 -0.056131404 0
-0.57076931 -0.87870926 0.037408199 0
-0.56061316 -0.86307365 0.11060378 0
-0.56437063 -0.8688584 0.18685283 0
-0.72799349 -1.1207587 0.34096888 0
-0.6846844 -1.0540836 0.41817483 0
-0.68059355 -1.0477856 0.5173068 0
-0.68212587 -1.0501446 0.62654489 0
-0.83585763 -1.3229899 -0.055869501 0
-0.5464285 -0.86488348 0.036523789 0
-0.55504596 -0.87852317 0.11167911 0
-0.55078697 -0.871782 0.18597528 0
-0.71315175 -1.1287719 0.34064773 0
-0.68458062 -1.0835497 0.42641097 0
-0.68157142 -1.0787868 0.52833331 0
-0.6828807 -1.0808592 0.63968891 0
-0.82350403 -1.3405244 -0.05616761 0
-0.5306114 -0.86374497 0.036190681 0
-0.53440487 -0.86992019 0.10972135 0
-0.534895 -0.87071806 0.18429683 0
-0.69429171 -1.1301887 0.33841005 0
-0.68121386 -1.1089002 0.43297714 0
-0.6778152 -1.1033677 0.5361492 0
-0.68282497 -1.1115228 0.65269619 0
-0.80099535 -1.3414677 -0.055780102 0
-0.51803237 -0.86757529 0.036074992 0
-0.52627718 -0.88138324 0.11032257 0
-0.52615184 -0.88117331 0.18509278 0
-0.69375581 -1.1618682 0.3452526 0
-0.67814976 -1.1357319 0.44008464 0
-0.68745667 -1.1513187 0.55519909 0
-0.68205953 -1.1422799 0.66566092 0
-0.79280251 -1.3665488 -0.056403421 0
-0.50782585 -0.87533629 0.036128942 0
-0.50723761 -0.87432235 0.10863066 0
-0.50796926 -0.87558353 0.18256056 0
-0.69393307 -1.1961281 0.35280854 0
-0.68805367 -1.1859939 0.45616719 0
-0.68532217 -1.1812856 0.56544369 0
-0.68228382 -1.1760485 0.6802789 0
-0.76619494 -1.3598493 -0.055724267 0
-0.4905194 -0.87057799 0.035674777 0
-0.49440125 -0.87746751 0.10823935 0
-0.49009502 -0.86982477 0.18005884 0
-0.69411469 -1.2319207 0.36075917 0
-0.6831224 -1.2124114 0.46298283 0
-0.68310589 -1.2123821 0.5761655 0
-0.75478661 -1.3799462 -0.056153879 0
-0.47930348 -0.87629139 0.035658751 0
-0.47892812 -0.87560511 0.10725719 0
-0.47822228 -0.87431467 0.17972746 0
-0.69211936 -1.2653742 0.3679744 0
-0.68820298 -1.258214 0.47712636 0
-0.67756832 -1.2387711 0.58460534 0
-0.73894286 -1.3923389 -0.056275062 0
-0.46168065 -0.86991286 0.035159834 0
-0.46075007 -0.86815941 0.10562605 0
-0.46724018 -0.88038826 0.17975228 0
-0.68574893 -1.2921091 0.37320831 0
-0.68141669 -1.2839463 0.48359209 0
-0.68176037 -1.2845938 0.60213101 0
-0.71932793 -1.397598 -0.056117076 0
-0.45332339 -0.88077193 0.035365213 0
-0.45072126 -0.87571621 0.10584655 0
-0.44538966 -0.86535734 0.17552434 0
-0.67886788 -1.3189873 0.3784726 0
-0.68384862 -1.3286644 0.49715221 0
-0.68581951 -1.3324937 0.62048614 0
-0.69915956 -1.4015051 -0.055916023 0
-0.43818635 -0.87836951 0.035044417 0
-0.43514204 -0.87226695 0.10475904 0
-0.43474296 -0.87146699 0.17563927 0
-0.68397021 -1.3710573 0.39091131 0
-0.68017191 -1.3634434 0.50692064 0
-0.68262118 -1.368353 0.63313144 0
-0.68438351 -1.4162524 -0.056156114 0
-0.42646655 -0.88252312 0.034993105 0
-0.42000681 -0.86915541 0.10374194 0
-0.41635293 -0.86159414 0.17257911 0
-0.68409419 -1.4156536 0.4011386 0
-0.67881167 -1.4047221 0.51904869 0
-0.66710871 -1.4260651 -0.056207661 0
-0.41177022 -0.88023305 0.034693956 0
-0.40733871 -0.8707599 0.10331303 0
-0.40538919 -0.86659247 0.17254412 0
-0.68293566 -1.459898 0.41120628 0
-0.68441617 -1.4630629 0.53737873 0
-0.64410484 -1.4233137 -0.055775117 0
-0.39921987 -0.88217807 0.03456974 0
-0.39561707 -0.87421674 0.10312393 0
-0.39306888 -0.86858588 0.17194189 0
-0.68287152 -1.5089787 0.42257521 0
-0.68165219 -1.5062842 0.55005747 0
-0.62720662 -1.4337664 -0.055870797 0
-0.37815088 -0.86443603 0.033685215 0
-0.38049662 -0.86979824 0.10202945 0
-0.38147187 -0.8720277 0.17165871 0
-0.68134433 -1.5575227 0.43373245 0
-0.67966145 -1.5536758 0.56419361 0
-0.61221856 -1.448921 -0.056156479 0
-0.37442255 -0.8861357 0.034344357 0
-0.36897653 -0.87324673 0.10188087 0
-0.36472252 -0.86317891 0.16899936 0
-0.68579763 -1.6230587 0.44954216 0
-0.59136391 -1.4502307 -0.055914197 0
-0.35932037 -0.88117898 0.033974189 0
-0.3567313 -0.87482965 0.10153341 0
-0.3550095 -0.8706072 0.16956505 0
-0.68381715 -1.6769583 0.46204931 0
-0.57710767 -1.4678649 -0.056309439 0
-0.34432301 -0.87578046 0.033596218 0
-0.34238747 -0.87085754 0.10056406 0
-0.34514633 -0.87787467 0.17012054 0
-0.68654567 -1.7462188 0.47871259 0
-0.55378544 -1.462355 -0.055826139 0
-0.32891443 -0.86854875 0.033157285 0
-0.33218145 -0.87717581 0.10080265 0
-0.32796797 -0.86604953 0.16701543 0
-0.68111289 -1.7985824 0.49067757 0
-0.53856486 -1.4780935 -0.056163616 0
-0.3176854 -0.87188888 0.033129457 0
-0.31986886 -0.87788141 0.1004129 0
-0.31891188 -0.87525499 0.16800292 0
-0.51631826 -1.4744968 -0.05577549 0
-0.30313662 -0.8656947 0.032746453 0
-0.30856153 -0.88118714 0.10033864 0
-0.30490044 -0.87073183 0.16638458 0
-0.49955085 -1.4863534 -0.055981599 0
-0.2935051 -0.87328911 0.032891318 0
-0.29643175 -0.88199699 0.099997886 0
-0.29537934 -0.87886572 0.16721484 0
-0.48262182 -1.4981925 -0.056194156 0
-0.28197679 -0.87533456 0.032832019 0
-0.27975887 -0.86844945 0.098054737 0
-0.28049254 -0.870727 0.16498126 0
-0.45982027 -1.4915028 -0.055721644 0
-0.26559415 -0.86149842 0.032185059 0
-0.26815164 -0.86979401 0.097817548 0
-0.26851076 -0.87095892 0.16437152 0
-0.44623196 -1.5149227 -0.056382205 0
-0.25514442 -0.8661955 0.032237954 0
-0.26047957 -0.88430786 0.09907306 0
-0.25908047 -0.87955809 0.16536561 0
-0.42273569 -1.5048078 -0.055803206 0
-0.2437005 -0.86749816 0.032169677 0
-0.24629724 -0.87674177 0.097870164 0
-0.24352698 -0.86688048 0.16239268 0
-0.40713099 -1.522638 -0.056269832 0
-0.23382713 -0.87449509 0.097282976 0
-0.23356754 -0.87352419 0.16307335 0
-0.38834745 -1.5292997 -0.056330837 0
-0.22030714 -0.86756247 0.096195519 0
-0.22169143 -0.87301368 0.16244403 0
-0.36537012 -1.5187268 -0.055767499 0
-0.21041535 -0.87462932 0.16223878 0
-0.34854245 -1.5334309 -0.05614182 0
-0.1988391 -0.87480313 0.16179374 0
-0.32667309 -1.525862 -0.055709686 0
-0.30904567 -1.5378705 -0.0560016 0
-0.17541167 -0.87288207 0.16057034 0
-0.28936797 -1.5400989 -0.055945624 0
-0.16586195 -0.88276458 0.16199122 0
-0.26962349 -1.5417342 -0.055877265 0
-0.2511906 -1.551187 -0.056100778 0
-0.23072051 -1.5480615 -0.055878237 0
-0.21231613 -1.558964 -0.056170814 0
-0.19316708 -1.5655419 -0.056315713 0
-0.17189924 -1.5539247 -0.055815529 0
-0.15272534 -1.5601083 -0.055964123 0
-0.13335243 -1.5652275 -0.056083079 0
-0.11256141 -1.5519972 -0.055553839 0
-0.093274169 -1.557687 -0.055711046 0
-0.073413573 -1.553658 -0.055529483 0
-0.05488494 -1.5844721 -0.056601625 0
-0.034571659 -1.5687693 -0.056020688 0
-0.014718014 -1.5586804 -0.055649385 0
0.0049219471 -1.5629084 -0.055798121 0
0.024581455 -1.5615149 -0.055755004 0
0.044414185 -1.5671972 -0.055973429 0
0.063804805 -1.5582403 -0.055677805 0
0.083924472 -1.5667334 -0.056014594 0
0.10389961 -1.5694001 -0.056152258 0
0.06135447 -0.92675716 0.033158854 0
0.12279925 -1.5571539 -0.055765003 0
0.073419295 -0.93099219 0.033340815 0
0.14281252 -1.5600345 -0.055928133 0
0.083444208 -0.91151559 0.032678358 0
0.16225748 -1.5563244 -0.055863943 0
0.096255496 -0.92325342 0.033139993 0
0.18275701 -1.5619901 -0.056145467 0
0.10924762 -0.9337191 0.033562373 0
0.11639276 -0.99478728 0.10763838 0
0.11648052 -0.99553734 0.18076862 0
0.11650842 -0.99577576 0.25578731 0
0.11555207 -0.98760206 0.33081079 0
0.11639774 -0.99482983 0.41470507 0
0.20257676 -1.5608511 -0.056191761 0
0.12220093 -0.94155645 0.033896707 0
0.1275197 -0.98253751 0.10647823 0
0.12892362 -0.99335474 0.18065277 0
0.12804487 -0.98658395 0.25382024 0
0.12783691 -0.9849816 0.33044606 0
0.128712 -0.99172419 0.41405326 0
0.12559763 -0.96772796 0.48825416 0
0.22159532 -1.5538405 -0.056035388 0
0.13761877 -0.96499151 0.034800015 0
0.13804999 -0.96801537 0.10508451 0
0.1377544 -0.96594256 0.17596906 0
0.13876316 -0.97301614 0.2507593 0
0.13830069 -0.96977323 0.32590231 0
0.13751511 -0.96426475 0.40327972 0
0.13625383 -0.95542055 0.48287198 0
0.24098654 -1.5499243 -0.055999152 0
0.15145086 -0.97406828 0.035193332 0
0.15048096 -0.96783024 0.10526177 0
0.14955369 -0.9618665 0.17555566 0
0.1512208 -0.97258866 0.25111994 0
0.15105811 -0.9715423 0.32711011 0
0.15170318 -0.97569114 0.40882501 0
0.14767388 -0.94977635 0.48092106 0
0.26051351 -1.546949 -0.056005739 0
0.16678755 -0.99039716 0.035856336 0
0.16687821 -0.99093544 0.10799469 0
0.16566256 -0.98371685 0.17991017 0
0.16612758 -0.98647821 0.25522611 0
0.16570166 -0.98394907 0.33196357 0
0.16579008 -0.98447412 0.41334715 0
0.15866013 -0.94213587 0.47802606 0
0.27928546 -1.5397676 -0.055868637 0
0.62630779 -3.452985 0.12528746 0
0.17373036 -0.95781708 0.48705384 0
0.30050078 -1.5456443 -0.056214705 0
0.67125744 -3.4526541 0.12557219 0
0.18223624 -0.9373433 0.47777185 0
0.3171868 -1.528478 -0.055731218 0
0.7164312 -3.4523802 0.12588035 0
0.18976103 -0.91443139 0.46727437 0
0.34016058 -1.5413715 -0.056353051 0
0.76248986 -3.4550745 0.12631866 0
0.19936515 -0.90338445 0.46287552 0
0.35771468 -1.5291576 -0.056066744 0
0.80564153 -3.4439542 0.12627299 0
0.20985319 -0.89707977 0.46096256 0
0.37569728 -1.5195051 -0.055881865 0
0.85446119 -3.4558625 0.12709403 0
0.55199474 -2.2325389 0.24715437 0
0.55201405 -2.2326171 0.41477451 0
0.21759835 -0.8800751 0.45359674 0
0.39584932 -1.5186802 -0.0560304 0
0.9016847 -3.4593232 0.12762876 0
0.22848992 -0.87660414 0.45325479 0
0.41253811 -1.5048144 -0.055706073 0
0.94579202 -3.4499638 0.12771271 0
0.24135312 -0.88038331 0.45674405 0
0.43485495 -1.5113246 -0.056145329 0
0.25606218 -0.88993603 0.46333611 0
0.45363024 -1.5050008 -0.056118157 0
0.25435549 -0.84387064 0.4409852 0
0.47044533 -1.4925114 -0.055868916 0
0.26651746 -0.84553999 0.44357619 0
0.48780304 -1.4822232 -0.055709314 0
0.27350622 -0.83106756 0.43775591 0
0.50935423 -1.484494 -0.056031287 0
0.2939387 -0.85667342 0.45315725 0
0.53159004 -1.4879967 -0.056411676 0
0.54726684 -1.4730653 -0.056102421 0
0.56340903 -1.459937 -0.05586819 0
0.58022147 -1.4489183 -0.055721711 0
0.60558873 -1.4587684 -0.056389313 0
0.62162286 -1.4457121 -0.056182742 0
0.63038629 -1.4166671 -0.055358101 0
0.36951253 -0.83040553 0.37632036 0
0.65572751 -1.4250332 -0.056003228 0
0.6737141 -1.416865 -0.056011185 0
0.39328253 -0.82709897 0.37919089 0
0.35646728 -0.74967408 0.49229413 0
0.69104284 -1.4073372 -0.055974092 0
1.1110758 -2.2627516 0.45462662 0
0.3961989 -0.80687541 0.37217698 0
0.36274648 -0.73874813 0.48808017 0
0.70819968 -1.3975213 -0.055933934 0
1.1470182 -2.2634609 0.45763481 0
0.40594053 -0.80106014 0.37182295 0
0.37321424 -0.73647994 0.48964772 0
0.7281242 -1.3930548 -0.056117687 0
1.1692046 -2.2369344 0.45521224 0
0.42034161 -0.80420196 0.37570834 0
0.38051826 -0.72801149 0.48716456 0
0.7425915 -1.3781804 -0.055890746 0
1.2036358 -2.2338355 0.45762962 0
0.43472397 -0.80680704 0.37945271 0
0.39115122 -0.72594011 0.48903567 0
0.76227266 -1.3730206 -0.056066319 0
1.2372251 -2.2285144 0.45969471 0
0.43998432 -0.79250854 0.37530386 0
0.39358327 -0.70893002 0.48087725 0
0.77755725 -1.3599157 -0.055926569 0
1.2771213 -2.2336328 0.46403104 0
0.47217819 -0.82582027 0.39386362 0
0.40208107 -0.70322329 0.48040256 0
0.79741037 -1.3547606 -0.056123059 0
1.3177927 -2.2388642 0.46852809 0
0.49769279 -0.84555531 0.40623274 0
0.41092005 -0.69813275 0.48042178 0
0.81352103 -1.343153 -0.056062125 0
1.3569697 -2.2404068 0.47238925 0
0.5005424 -0.82641381 0.40003297 0
0.4241994 -0.70036876 0.48559782 0
0.83280706 -1.3367175 -0.056226771 0
1.3953841 -2.2396955 0.4759064 0
0.42834887 -0.68753189 0.48039913 0
0.83909535 -1.3097723 -0.055533402 0
1.4411581 -2.249552 0.48181871 0
0.43668965 -0.68164361 0.48008898 0
0.86683673 -1.3162868 -0.056267962 0
1.4694647 -2.231374 0.4818503 0
0.57875335 -0.87883383 0.43568394 0
0.4471913 -0.67905754 0.48219547 0
0.87303376 -1.2900366 -0.055611361 0
1.5130697 -2.2357843 0.4868784 0
0.59482151 -0.87893677 0.43941337 0
0.45126233 -0.66680682 0.47749346 0
0.9004057 -1.2950478 -0.056311689 0
1.5488322 -2.2276754 0.4893209 0
0.59508348 -0.85590476 0.43161082 0
0.45448938 -0.65368921 0.47216082 0
0.91242933 -1.2777108 -0.056052983 0
0.60994393 -0.85412854 0.43455377 0
0.45913878 -0.64295018 0.4685429 0
0.93246192 -1.2715988 -0.056295499 0
0.6309545 -0.86043304 0.4417685 0
0.46683812 -0.63662744 0.46818209 0
0.94226366 -1.2516078 -0.055931319 0
1.6902121 -2.2451067 0.10032839 0
1.6864532 -2.240114 0.30134046 0
0.65626287 -0.87171322 0.45176709 0
0.46982104 -0.62406278 0.46325591 0
0.95572251 -1.2367641 -0.055801366 0
0.66215426 -0.85686857 0.44835943 0
0.48719424 -0.63045949 0.47252092 0
0.97631907 -1.231063 -0.056094386 0
0.68224716 -0.86026102 0.45459378 0
0.48820657 -0.61559081 0.46594763 0
0.98712379 -1.2129971 -0.055833157 0
0.4958221 -0.60927594 0.4658567 0
1.0055865 -1.2043859 -0.056015193 0
0.50164604 -0.60081887 0.46418345 0
1.0231866 -1.1945652 -0.056153223 0
0.50973761 -0.59511608 0.46469972 0
1.0244404 -1.1659874 -0.05541186 0
0.51881266 -0.59049708 0.46615732 0
1.0525503 -1.1679877 -0.056132346 0
0.52525598 -0.58286285 0.46531516 0
1.0655165 -1.1528497 -0.056045201 0
0.52971482 -0.57313192 0.46283504 0
1.0881659 -1.1480122 -0.056471687 0
0.53874838 -0.56837809 0.46443775 0
1.0935158 -1.1249419 -0.056009747 0
0.55208278 -0.56794888 0.46973041 0
1.1103985 -1.113898 -0.056151602 0
0.54859668 -0.55032557 0.46083164 0
1.1239407 -1.0994419 -0.056131866 0
1.2997587 -1.2714275 0.32791242 0
1.2973173 -1.2690394 0.46301317 0
0.56150347 -0.54926425 0.46582675 0
1.1357743 -1.0833709 -0.056037102 0
0.74794644 -0.71343708 0.34388676 0
1.1526381 -1.0720656 -0.05619863 0
0.74619323 -0.69403237 0.33903566 0
0.5721848 -0.53218752 0.46342018 0
1.1591599 -1.0512233 -0.055866782 0
0.75006336 -0.68022025 0.33687559 0
0.5769425 -0.52321976 0.4619008 0
1.1735911 -1.0376827 -0.055928111 0
0.77152985 -0.68218231 0.34263158 0
0.58154833 -0.5142017 0.46036789 0
1.1888239 -1.0247717 -0.056034643 0
0.79016727 -0.68112779 0.34707186 0
0.59031183 -0.50885153 0.46219629 0
1.2018158 -1.0098754 -0.056043174 0
1.483088 -1.2462261 0.4942342 0
0.82465774 -0.69295281 0.35836026 0
0.83411968 -0.70090359 0.4510943 0
0.60157555 -0.50549877 0.46599463 0
1.2105144 -0.99145108 -0.0558622 0
1.5052303 -1.2328331 0.49640036 0
0.85016894 -0.69631636 0.36560708 0
0.80390072 -0.6584211 0.4302339 0
1.2264019 -0.97892433 -0.056022078 0
1.3994603 -1.117061 0.06392739 0
1.5418619 -1.2307272 0.50333011 0
0.83213735 -0.66421902 0.35422784 0
0.81491798 -0.65047443 0.4317123 0
0.61378115 -0.4899253 0.46574244 0
1.2445753 -0.9680286 -0.056290947 0
0.81830078 -0.63647306 0.42922452 0
0.6195839 -0.48191136 0.46550402 0
1.2417239 -0.94095886 -0.055621665 0
0.82013983 -0.62148911 0.42605042 0
0.62057334 -0.47026071 0.46176174 0
1.2624758 -0.93189472 -0.05602115 0
0.84641707 -0.62478155 0.43557957 0
0.63788038 -0.47085047 0.4701907 0
1.2659534 -0.91006154 -0.055662535 0
1.404978 -1.0100029 0.061775293 0
0.65539759 -0.47114858 0.47869182 0
1.2829845 -0.89802009 -0.055909738 0
0.65657634 -0.45956811 0.47528836 0
1.2915006 -0.87996215 -0.055793554 0
0.66943628 -0.45611951 0.48040172 0
1.3111969 -0.86941212 -0.056167044 0
0.67550033 -0.44790232 0.48066786 0
1.3204468 -0.85180593 -0.056099363 0
0.67780805 -0.43724662 0.47835422 0
1.332509 -0.83601683 -0.056160118 0
0.67781043 -0.42525861 0.4745391 0
1.3464729 -0.82133389 -0.056308288 0
0.69976127 -0.4268468 0.48610547 0
1.346415 -0.79821312 -0.055881105 0
0.69104916 -0.40968385 0.47643191 0
1.3498749 -0.77746242 -0.055613972 0
0.70392424 -0.40542617 0.48175052 0
1.3716801 -0.76718473 -0.056109875 0
1.4073945 -0.78715986 0.17330171 0
0.70450318 -0.39403069 0.4787131 0
1.3774563 -0.74780339 -0.055956528 0
1.4044245 -0.76244414 0.17174016 0
1.3861727 -0.73008943 -0.055932712 0
1.3906764 -0.71023935 -0.055749148 0
1.4055525 -0.7178368 0.52507401 0
1.4065048 -0.69613528 -0.056027822 0
1.3968688 -0.69136608 0.51853663 0
1.4253494 -0.68325567 -0.056431297 0
1.4023829 -0.6722464 0.51740021 0
1.4279246 -0.66251034 -0.056198511 0
1.3971238 -0.64821976 0.51240778 0
1.4297386 -0.64159995 -0.055947501 0
1.3948858 -0.62595958 0.50865573 0
1.4440835 -0.62631387 -0.056195758 0
1.3921689 -0.60379797 0.50485241 0
1.4530115 -0.60856581 -0.056240521 0
1.392351 -0.58315939 0.27224389 0
1.4043517 -0.58818561 0.38845187 0
1.3975514 -0.58533746 0.5040915 0
1.4560062 -0.5883826 -0.056065213 0
1.5963358 -0.64509082 0.1850355 0
1.3902228 -0.56179905 0.27042308 0
1.394726 -0.56361884 0.3837958 0
1.3912191 -0.56220168 0.49921438 0
1.4674741 -0.57162935 -0.056225173 0
1.6352558 -0.63698584 0.18860212 0
1.4103664 -0.549384 0.27297407 0
1.3917204 -0.54212081 0.38106003 0
1.3931961 -0.54269564 0.4974322 0
0.84046096 -0.32738715 0.45129383 0
1.4714091 -0.55192661 -0.056105208 0
1.4194885 -0.53245121 0.27342027 0
1.3884504 -0.52080876 0.37833902 0
1.3976182 -0.52424759 0.49661466 0
0.83100057 -0.3117089 0.44407111 0
1.4811367 -0.53440046 -0.056215074 0
1.4105252 -0.50892359 0.27043793 0
1.3920484 -0.50225705 0.37756613 0
1.402784 -0.50613052 0.49614632 0
0.83116049 -0.29988629 0.44210359 0
1.4723366 -0.51036668 -0.055632751 0
1.4241755 -0.49367225 0.27184168 0
1.3934693 -0.48302835 0.37627199 0
1.3928307 -0.48280698 0.49043679 0
1.4002213 -0.48536882 0.61358434 0
0.81950337 -0.28407037 0.43396595 0
1.4859698 -0.49422356 -0.0559083 0
1.4097514 -0.46887383 0.26794025 0
1.3968055 -0.46456814 0.37556344 0
1.3976184 -0.46483847 0.49002272 0
1.4066781 -0.46785167 0.61378348 0
0.84740996 -0.28184286 0.44682905 0
1.4989939 -0.47767907 -0.056167558 0
1.4174161 -0.45168298 0.26829472 0
1.4052607 -0.44780946 0.37629083 0
1.3973556 -0.44529036 0.48792592 0
1.401665 -0.44666362 0.60909361 0
0.85927016 -0.27382058 0.45122889 0
1.502172 -0.45793858 -0.056066129 0
1.407576 -0.4291009 0.26538834 0
1.3970878 -0.42590359 0.37263674 0
1.3970815 -0.42590165 0.48591906 0
1.3940864 -0.42498857 0.60342693 0
0.87189549 -0.26579818 0.45606509 0
1.5008979 -0.43697312 -0.055808775 0
1.4391841 -0.41900572 0.27033159 0
1.3902495 -0.40475881 0.36942405 0
1.399973 -0.40758976 0.48510119 0
1.4032295 -0.40853783 0.60510987 0
0.88584304 -0.25790533 0.46162534 0
1.523836 -0.42291245 -0.056459207 0
1.4547142 -0.40372899 0.2722722 0
1.3996683 -0.38845202 0.37059772 0
1.3976415 -0.38788953 0.48256257 0
1.4017127 -0.38901937 0.60229558 0
0.87017298 -0.24150039 0.45183891 0
1.5068297 -0.39782807 -0.055639096 0
1.4939854 -0.39443696 0.27867073 0
1.4125465 -0.37293574 0.37273458 0
1.4005791 -0.36977613 0.48193091 0
1.3988228 -0.36931241 0.59900808 0
0.87108147 -0.22997998 0.45077118 0
1.5323251 -0.38398734 -0.056397494 0
1.5056809 -0.37731051 0.27994382 0
1.3954252 -0.34968138 0.3670257 0
1.3991721 -0.35062033 0.47988951 0
1.3891063 -0.34809792 0.59292322 0
0.88796121 -0.22251534 0.45801988 0
1.5255085 -0.36192757 -0.055974428 0
1.5489441 -0.36748767 0.2871044 0
1.4004555 -0.33225867 0.36721921 0
1.4013124 -0.33246195 0.47914976 0
1.3997864 -0.33209991 0.59564972 0
0.89108413 -0.21141011 0.45822126 0
1.5282331 -0.34230748 -0.055911805 0
1.5720493 -0.35212183 0.29054216 0
1.3917686 -0.31174093 0.36388323 0
1.3945727 -0.31236905 0.47546265 0
1.3958911 -0.31266433 0.59226984 0
0.88814968 -0.19893581 0.45538801 0
1.5392706 -0.32448176 -0.056161687 0
1.6135571 -0.34014151 0.29739836 0
1.4030293 -0.29576179 0.36582464 0
1.4119753 -0.29764763 0.48007992 0
1.3937151 -0.29379833 0.58973014 0
0.9058997 -0.19096571 0.46321943 0
1.532943 -0.30304033 -0.055787168 0
1.6288705 -0.32200378 0.29944974 0
1.4143258 -0.27959144 0.36782295 0
1.3954506 -0.2758601 0.47324282 0
1.3986512 -0.2764928 0.59029877 0
0.92571902 -0.18300106 0.47213802 0
1.5386392 -0.28408435 -0.055859853 0
1.4024267 -0.25893497 0.36385155 0
1.3946748 -0.25750369 0.47184268 0
1.3943859 -0.25745034 0.58708382 0
0.94944286 -0.17529897 0.48307362 0
1.554307 -0.26678473 -0.056302238 0
1.3982137 -0.23999253 0.36194575 0
1.3965542 -0.23970769 0.47141996 0
1.4016623 -0.24058446 0.58882523 0
0.94403261 -0.16203587 0.47924474 0
1.551017 -0.24615727 -0.056066342 0
0.99453247 -0.15783927 0.035950474 0
0.98572439 -0.15644136 0.10726096 0
0.9945215 -0.15783753 0.18160547 0
0.99463636 -0.15785576 0.25693959 0
0.98773539 -0.15676053 0.33272663 0
0.98326755 -0.15605144 0.41220331 0
0.94893366 -0.15060243 0.48073196 0
1.5424917 -0.22493134 -0.055651367 0
0.96564603 -0.14081377 0.034839425 0
0.96556556 -0.14080203 0.10486615 0
0.96446979 -0.14064224 0.17578052 0
0.95949435 -0.1399167 0.24738678 0
0.96235955 -0.14033452 0.32355765 0
0.95857757 -0.13978301 0.40108314 0
0.96142948 -0.14019889 0.48612946 0
1.5542333 -0.20669279 -0.055976652 0
0.95533967 -0.12704773 0.034407135 0
0.99429041 -0.13222766 0.10779645 0
0.98465353 -0.13094608 0.1791444 0
0.98804313 -0.13139686 0.25430077 0
0.98597604 -0.13112196 0.33091646 0
0.98271585 -0.1306884 0.41046187 0
0.97156525 -0.12920552 0.49039289 0
1.5540302 -0.1867843 -0.055880196 0
0.94713211 -0.1138391 0.034057207 0
0.98562598 -0.11846582 0.10668691 0
0.98066509 -0.11786955 0.17813459 0
0.98707324 -0.11863977 0.25364652 0
0.98909152 -0.11888236 0.33143339 0
0.98960811 -0.11894445 0.41268232 0
1.5566783 -0.16724744 -0.055895258 0
0.91897178 -0.098733105 0.032997292 0
1.4062631 -0.15108703 0.36084753 0
1.4035009 -0.15079027 0.4696238 0
1.3901944 -0.14936064 0.57890296 0
1.5642238 -0.14816064 -0.056094751 0
0.90939206 -0.08613608 0.03261178 0
1.4071662 -0.13328442 0.36062002 0
1.4059502 -0.13316923 0.46984497 0
1.3914907 -0.13179965 0.57870579 0
1.5627996 -0.12819375 -0.055981357 0
0.91406441 -0.074979126 0.032742884 0
1.4046848 -0.11522386 0.35958374 0
1.395404 -0.11446258 0.46580201 0
1.3935095 -0.11430718 0.57890087 0
1.5722495 -0.10905817 -0.056266211 0
0.9296273 -0.064483054 0.033268642 0
1.4115031 -0.097908087 0.36098495 0
1.3972219 -0.09691748 0.46596456 0
1.4098344 -0.097792335 0.58512467 0
1.5628531 -0.088649184 -0.055885557 0
1.3984997 -0.07932663 0.35737559 0
1.4026864 -0.079564102 0.46741572 0
1.4034129 -0.079605311 0.58199739 0
1.5644706 -0.06899152 -0.055907901 0
1.4146373 -0.062384028 0.36127004 0
1.3833479 -0.061004195 0.46067905 0
1.3983703 -0.061666664 0.57953823 0
1.5698897 -0.049434662 -0.056074865 0
1.4121127 -0.044466384 0.36045375 0
1.393759 -0.043888438 0.46392533 0
1.3972127 -0.043997195 0.57878304 0
1.5649414 -0.029561056 -0.05588039 0
1.4015566 -0.026474789 0.35764575 0
1.3959486 -0.026368856 0.46450683 0
1.3933725 -0.026320197 0.57700926 0
1.569106 -0.0098788636 -0.056020219 0
1.394789 -0.0087813893 0.35586238 0
1.3904768 -0.0087542403 0.46261272 0
1.3977877 -0.0088002682 0.57874578 0
1.5637347 0.0098450463 -0.055828448 0
1.4136055 0.0088998545 0.36066315 0
1.4009651 0.008820273 0.46610218 0
1.3965824 0.0087926798 0.57824677 0
1.5686679 0.029631447 -0.056013457 0
1.4008032 0.026460556 0.3574535 0
1.4006491 0.026457647 0.46607092 0
1.393798 0.026328232 0.57718545 0
1.5728723 0.049528584 -0.056181401 0
1.3979999 0.044021979 0.35685131 0
1.4065495 0.044291198 0.46818274 0
1.3969051 0.043987505 0.57865554 0
1.5775763 0.069569468 -0.056376249 0
1.4086151 0.062118456 0.35973209 0
1.398526 0.061673529 0.46573362 0
1.3904665 0.061318118 0.57626259 0
1.5664499 0.088853203 -0.056014176 0
1.4117306 0.080077119 0.36075667 0
1.3965305 0.079214931 0.46536443 0
1.4045904 0.079672106 0.58248574 0
1.5602057 0.10822275 -0.055835195 0
1.8494225 0.12828411 0.066185415 0
1.8626037 0.12919842 0.2006537 0
1.8610455 0.12909032 0.3364436 0
1.4040933 0.097394109 0.35908991 0
1.4011323 0.097188726 0.46726865 0
1.3961542 0.096843414 0.57944697 0
1.5561854 0.1276512 -0.055744424 0
1.8040951 0.1479868 0.064624853 0
1.8015244 0.14777593 0.19425884 0
1.5710577 0.12887114 0.28428984 0
1.4058243 0.11531734 0.35987547 0
1.3823662 0.11339311 0.46144983 0
1.4046395 0.11522014 0.58352453 0
1.5688505 0.14859888 -0.056260675 0
1.8027065 0.17074932 0.064647004 0
1.8007656 0.17056549 0.1943932 0
1.4651006 0.13877186 0.26541162 0
1.399156 0.1325257 0.35856721 0
1.4084208 0.13340326 0.47067064 0
1.4017231 0.13276885 0.58296132 0
1.5515934 0.16670112 -0.055712678 0
1.1923677 0.1281064 0.042814046 0
1.1927601 0.12814856 0.12892279 0
1.2037822 0.12933275 0.21834995 0
1.2031752 0.12926753 0.3087351 0
1.3883867 0.14916642 0.46456644 0
1.3959018 0.14997382 0.58127964 0
1.5585228 0.18732429 -0.056041744 0
1.1185194 0.13443875 0.040219996 0
1.1087795 0.13326807 0.12001739 0
1.1134861 0.13383378 0.20226111 0
1.1138631 0.13387908 0.28622749 0
1.3974763 0.16796754 0.4682785 0
1.4003621 0.16831441 0.58397329 0
1.5566601 0.20701551 -0.056064054 0
1.1114072 0.14780267 0.040027998 0
1.1021978 0.14657794 0.11949528 0
1.1067954 0.14718936 0.20136645 0
1.1104732 0.14767845 0.28581157 0
1.392863 0.18523264 0.46747717 0
1.4056325 0.18693081 0.58710611 0
1.5518219 0.22629191 -0.055987995 0
1.1153023 0.16263714 0.040238857 0
1.1036402 0.16093653 0.11986187 0
1.1087765 0.16168553 0.20208129 0
1.1061019 0.1612955 0.28518665 0
1.3918235 0.2029604 0.46794894 0
1.3946888 0.20337823 0.58355862 0
1.538112 0.24410917 -0.05559985 0
1.1156417 0.17706016 0.040328346 0
1.1008294 0.17470932 0.11978602 0
1.1088508 0.17598239 0.20248267 0
1.107495 0.1757672 0.2860938 0
1.3957881 0.22152135 0.47018245 0
1.4016382 0.22244978 0.58759171 0
1.5540514 0.26674086 -0.056292981 0
1.1199495 0.19223063 0.040568344 0
1.1064414 0.18991207 0.12064735 0
1.1097426 0.19047871 0.20306741 0
1.109822 0.19049235 0.28729182 0
1.3954051 0.23951043 0.47103202 0
1.4017175 0.24059394 0.58884847 0
1.5555109 0.28719944 -0.056472372 0
1.1134578 0.20558161 0.040423762 0
1.1059178 0.20418948 0.12086105 0
1.107215 0.20442899 0.20305984 0
1.1218237 0.20712623 0.29105067 0
1.4045372 0.25932461 0.47517928 0
1.4019825 0.25885296 0.59028226 0
1.5431436 0.30505684 -0.05615839 0
1.1104928 0.21952812 0.040413275 0
1.1128846 0.22000095 0.12191551 0
1.1083118 0.21909697 0.2037508 0
1.1165322 0.22072203 0.29037592 0
1.3965708 0.27608156 0.47362274 0
1.3997046 0.27670103 0.5907433 0
1.5358396 0.32375848 -0.056036502 0
1.1272818 0.23763357 0.041129898 0
1.1136953 0.23476951 0.12231848 0
1.1001387 0.23191173 0.20276906 0
1.1077386 0.23351382 0.28883079 0
1.4060621 0.29640108 0.47806939 0
1.3956947 0.29421565 0.59056777 0
1.5296872 0.34263319 -0.05596501 0
1.1055613 0.24763362 0.040447969 0
1.1038451 0.24724922 0.12156893 0
1.103321 0.24713182 0.20391299 0
1.1035696 0.24718751 0.2885325 0
1.4001141 0.31361023 0.47735187 0
1.3908374 0.31153235 0.59012556 0
1.5320313 0.36347511 -0.056213766 0
1.1098559 0.26331377 0.040723171 0
1.1078025 0.26282662 0.12235955 0
1.1075776 0.26277325 0.20529495 0
1.1071358 0.26266843 0.29030663 0
1.3981811 0.33171907 0.47807905 0
1.3996794 0.33207455 0.59560418 0
1.5230371 0.38165981 -0.056055643 0
1.1080911 0.27767798 0.040783484 0
1.1070706 0.27742225 0.12265484 0
1.1009386 0.27588561 0.20469208 0
1.1107934 0.27835515 0.29216164 0
1.3953701 0.34966761 0.47858554 0
1.4006791 0.35099798 0.59786296 0
1.5184762 0.40090293 -0.056069139 0
1.1095492 0.29293939 0.040969666 0
1.1110883 0.29334575 0.12349943 0
1.1100097 0.29306099 0.20704833 0
1.108964 0.29278487 0.29262695 0
1.396969 0.36882299 0.48068869 0
1.3973795 0.36893138 0.5983901 0
1.5073922 0.41834876 -0.055849951 0
1.1081625 0.30754998 0.041058209 0
1.1107066 0.30825603 0.12387864 0
1.1090393 0.30779329 0.2075738 0
1.1076463 0.30740672 0.29327747 0
1.3876545 0.3851178 0.47911435 0
1.4040127 0.38965771 0.60328388 0
1.4900731 0.43382159 -0.055406272 0
1.1077561 0.3225134 0.041190356 0
1.105073 0.32173219 0.12369235 0
1.109 0.32287553 0.2083109 0
1.1090454 0.32288876 0.2947011 0
1.3976142 0.406903 0.4842838 0
1.3994857 0.40744787 0.60349542 0
1.4998499 0.45723069 -0.055979457 0
1.3941604 0.42501116 0.37185591 0
1.3961358 0.42561334 0.48559013 0
1.3985763 0.42635733 0.6053704 0
1.4944504 0.47623125 -0.055997316 0
1.4095529 0.44917727 0.37744018 0
1.394787 0.44447184 0.48702905 0
1.3985822 0.44568127 0.60775399 0
1.4876008 0.494766 -0.055969667 0
1.4069164 0.46793091 0.37828198 0
1.4044586 0.46711349 0.492421 0
1.3853357 0.46075332 0.60447097 0
1.4740947 0.51097614 -0.055699185 0
1.4016491 0.48586375 0.37848073 0
1.3928678 0.4828198 0.49044985 0
1.3959185 0.48387733 0.61169881 0
1.4700027 0.53038329 -0.055792496 0
1.3937029 0.50285399 0.37801489 0
1.3928113 0.50253236 0.4926191 0
1.3854328 0.49987015 0.60981387 0
1.4708159 0.55170411 -0.056082588 0
1.4024737 0.52606893 0.38216025 0
1.3847491 0.51942039 0.49204189 0
1.3795953 0.51748717 0.61006427 0
1.4674131 0.57160556 -0.056222834 0
1.389606 0.54129714 0.38048109 0
1.3857511 0.53979558 0.49477401 0
1.3888272 0.54099381 0.61711013 0
1.4465001 0.58454108 -0.05569917 0
1.3962424 0.56423163 0.38421306 0
1.3852432 0.5597868 0.49707004 0
1.3818213 0.55840391 0.61707258 0
1.4486697 0.60674733 -0.056072466 0
1.4015033 0.58699262 0.38766399 0
1.3720629 0.57466209 0.4948979 0
1.3897239 0.58205903 0.62382525 0
1.4388258 0.62403357 -0.055991162 0
1.3939788 0.60458297 0.38765776 0
1.3864105 0.60130048 0.50276423 0
1.3871439 0.60161859 0.62601811 0
1.4310932 0.6422078 -0.056000505 0
1.3862244 0.62207276 0.38764894 0
1.3815471 0.61997384 0.50379169 0
1.3812205 0.61982727 0.62681758 0
1.4230517 0.66024947 -0.05600673 0
1.398127 0.64868522 0.3932305 0
1.3722302 0.63666993 0.50327778 0
1.3838164 0.64204556 0.63161457 0
1.4102348 0.67601037 -0.055832896 0
1.3839953 0.66343212 0.39157447 0
1.3643665 0.65402287 0.50337428 0
1.3694754 0.65647191 0.62879211 0
1.4016813 0.693748 -0.055835687 0
1.3734499 0.67977512 0.3909817 0
1.3753484 0.68071479 0.510548 0
1.3707579 0.67844278 0.63325334 0
1.3945162 0.71220046 -0.055903077 0
1.3747675 0.70211452 0.39384243 0
1.3637484 0.69648689 0.50945723 0
1.3646314 0.6969378 0.63442695 0
1.389876 0.73203999 -0.056082144 0
1.3652694 0.71907985 0.39368421 0
1.3594429 0.71601111 0.51117647 0
1.3542029 0.71325111 0.63370395 0
1.3789861 0.74863392 -0.056018673 0
1.3651878 0.74114305 0.39632037 0
1.3488321 0.73226368 0.51061326 0
1.3576733 0.73706353 0.63962048 0
1.3794296 0.77151901 -0.056426875 0
1.3410323 0.75004327 0.39201868 0
1.3432953 0.75130898 0.51205814 0
1.3479639 0.75392014 0.63946807 0
1.3542151 0.77996218 -0.055792786 0
1.3405688 0.77210253 0.394694 0
1.3464515 0.77549076 0.51694268 0
1.3581716 0.78224093 0.64893192 0
1.3442922 0.79695457 -0.055792995 0
1.3383274 0.79341841 0.3969442 0
1.3308433 0.78898156 0.51472378 0
1.3284092 0.78753847 0.63939911 0
1.3314629 0.81217796 -0.055680584 0
1.3217212 0.80623561 0.39499864 0
1.3324987 0.81280977 0.51928139 0
1.3236909 0.80743706 0.64197099 0
1.3304551 0.83472818 -0.056073554 0
1.3238808 0.83060354 0.39873818 0
1.3195931 0.8279134 0.51827371 0
1.32587 0.83185154 0.64805663 0
1.3104935 0.84538513 -0.055676494 0
1.3137933 0.84751385 0.39888263 0
1.3186287 0.85063308 0.52206045 0
1.315526 0.84863162 0.6481725 0
1.3043653 0.86488223 -0.0558744 0
1.3034481 0.86427408 0.39901426 0
1.3063616 0.86620599 0.52148086 0
1.3097892 0.86847866 0.65068257 0
1.2930353 0.88100779 -0.055859856 0
1.3005338 0.88611686 0.40150607 0
1.3004211 0.88604015 0.52352178 0
1.2983618 0.88463706 0.65048802 0
1.2735876 0.89144272 -0.055500239 0
1.2783675 0.89478844 0.39810979 0
1.2914504 0.90394574 0.52445114 0
1.284693 0.899216 0.64926142 0
1.2697817 0.91281366 -0.055830862 0
1.2876697 0.92567283 0.40460458 0
1.2785506 0.91911739 0.52387118 0
1.2751379 0.91666406 0.65021437 0
1.2538835 0.92555231 -0.05563987 0
1.2747512 0.9409557 0.40423641 0
1.2662586 0.9346869 0.52361566 0
1.2617824 0.93138278 0.64933306 0
1.2524375 0.94907743 -0.056101568 0
1.2588892 0.95396644 0.40298373 0
1.2677172 0.96065617 0.52917904 0
1.2617383 0.95612544 0.65545428 0
1.2321942 0.9583987 -0.055730965 0
1.2462692 0.96934623 0.40281937 0
1.2489722 0.97144854 0.52641886 0
1.2490448 0.97150505 0.65516329 0
1.227127 0.97950304 -0.056055196 0
1.23971 0.98954695 0.40469471 0
1.2390909 0.98905283 0.52746159 0
1.2435721 0.99262971 0.65879679 0
1.210169 0.99116814 -0.055846255 0
1.2294309 1.0069443 0.4054462 0
1.2303828 1.0077239 0.52911443 0
1.2313498 1.008516 0.6589973 0
1.1936873 1.0030451 -0.055664126 0
1.2116235 1.0181168 0.40376955 0
1.2153361 1.0212364 0.52813202 0
1.22403 1.0285419 0.66195893 0
1.1823615 1.019201 -0.055730041 0
1.2711047 1.095698 0.059912905 0
1.2787013 1.1022464 0.18142982 0
1.268925 1.0938191 0.30213714 0
1.2104974 1.0434543 0.40774062 0
1.2062154 1.0397632 0.52981621 0
1.2014641 1.0356675 0.65675592 0
1.1767855 1.0405071 -0.056080341 0
1.2330811 1.0902833 0.058763135 0
1.2457833 1.1015146 0.1787131 0
1.2434483 1.0994499 0.29934371 0
1.1961603 1.0576382 0.40736505 0
1.1995308 1.0606183 0.53270411 0
1.2000896 1.0611124 0.66325593 0
1.1662928 1.0576919 -0.056210555 0
1.2154576 1.1022787 0.058580101 0
1.2141383 1.1010822 0.1761485 0
1.2252129 1.1111257 0.29829845 0
1.1809995 1.0710292 0.40676263 0
1.1780008 1.0683098 0.52907491 0
1.1864263 1.0759506 0.66313994 0
1.1520402 1.0715095 -0.05616948 0
1.1999167 1.1160394 0.058503773 0
1.1964563 1.1128209 0.17560227 0
1.199331 1.1154946 0.2953935 0
1.1711502 1.0892837 0.40806222 0
1.1705911 1.0887637 0.53186238 0
1.1731589 1.091152 0.66335154 0
1.1331581 1.0808754 -0.055908024 0
1.1795863 1.1251615 0.058198709 0
1.1823099 1.1277595 0.17559636 0
1.1901861 1.1352724 0.29663861 0
1.1602278 1.1066961 0.40907973 0
1.1491697 1.0961483 0.528359 0
1.153547 1.1003238 0.66004437 0
1.1135626 1.08929 -0.055613559 0
1.1645789 1.1391943 0.058161419 0
1.1726348 1.1470747 0.17629069 0
1.1673231 1.1418786 0.29450065 0
1.1412979 1.1164209 0.4073298 0
1.1420516 1.1171581 0.53151202 0
1.1451817 1.1202198 0.66327643 0
1.1148278 1.1183411 -0.056375578 0
1.1806803 1.1844013 0.059705667 0
1.1640612 1.1677297 0.17719831 0
1.1599472 1.1636027 0.2963129 0
1.1272199 1.1307724 0.40735492 0
1.1305639 1.1341269 0.53276986 0
1.1274403 1.1309935 0.66119713 0
1.0976441 1.1291889 -0.056221202 0
1.1497216 1.1827631 0.058888607 0
1.1553011 1.1885028 0.17812885 0
1.1573519 1.1906126 0.29945606 0
1.1188437 1.1509978 0.40953314 0
1.124961 1.1572909 0.53695434 0
1.1201087 1.152299 0.66535419 0
1.0764927 1.135697 -0.055865891 0
1.1705241 1.2348999 0.060745768 0
1.1746258 1.2392272 0.18349984 0
1.1726195 1.2371104 0.30741271 0
1.1140538 1.175324 0.41316441 0
1.1025915 1.1632313 0.53322637 0
1.1083397 1.1692954 0.66705662 0
1.0648234 1.1520997 -0.056008741 0
1.0911134 1.1805446 0.41013724 0
1.0867454 1.1758186 0.53268117 0
1.0983751 1.1884015 0.67001277 0
1.05566 1.1714385 -0.056298185 0
1.0717567 1.1893005 0.40845817 0
1.0714248 1.1889322 0.53246772 0
1.076404 1.1944575 0.6657325 0
1.0374553 1.1808006 -0.056115836 0
1.0601026 1.2065771 0.40977454 0
1.0589615 1.2052784 0.53377414 0
1.0590521 1.2053814 0.66433561 0
1.0218225 1.1929725 -0.056078359 0
1.0442529 1.2191598 0.40954965 0
1.0430541 1.2177603 0.53344291 0
1.0498033 1.2256401 0.66816223 0
1.0015135 1.1995076 -0.055788308 0
1.0330061 1.2372261 0.41121632 0
1.0332402 1.2375064 0.53635085 0
1.0299035 1.2335101 0.66532993 0
0.98913395 1.2154672 -0.055946857 0
1.0118103 1.2433324 0.40897876 0
1.0138294 1.2458135 0.53437573 0
1.0103979 1.2415968 0.66277659 0
0.96989673 1.2229649 -0.055725388 0
0.99529207 1.2549865 0.40865725 0
1.0064822 1.2690964 0.53888363 0
0.99878639 1.2593925 0.66550964 0
0.95821482 1.2399893 -0.055946883 0
0.97742701 1.264851 0.40782928 0
0.98248601 1.2713977 0.53456521 0
0.9774816 1.2649217 0.66187465 0
0.94446182 1.2545276 -0.056061797 0
0.97042483 1.2890142 0.41164759 0
0.96384144 1.2802695 0.53315008 0
0.96673173 1.2841086 0.66549182 0
0.92669398 1.2637331 -0.055947274 0
0.95185328 1.2980429 0.41067064 0
0.94991392 1.2953982 0.53442663 0
0.94905454 1.2942263 0.66448915 0
0.90891725 1.2727927 -0.055837225 0
0.9374184 1.312704 0.41154185 0
0.9335407 1.3072739 0.53443396 0
0.93499267 1.3093071 0.66613436 0
0.90005225 1.2945395 -0.056289583 0
0.91595447 1.3174115 0.40936929 0
0.91750687 1.3196442 0.53472555 0
0.91717738 1.3191704 0.66522378 0
0.87484634 1.2927148 -0.055726819 0
0.90045089 1.3305494 0.40989587 0
0.90023053 1.3302238 0.53437668 0
0.90096062 1.3313026 0.66556799 0
0.86109769 1.3075721 -0.055895429 0
0.88135475 1.3383323 0.40884215 0
0.88189584 1.339154 0.53346074 0
0.88826573 1.3488266 0.66868401 0
0.84599912 1.3205485 -0.055990309 0
0.86091352 1.3438289 0.40717727 0
0.86584848 1.351532 0.534006 0
0.86037815 1.3429933 0.66036868 0
0.82820523 1.3293312 -0.055916075 0
0.84541422 1.3569529 0.40789589 0
0.84567499 1.3573714 0.53206354 0
0.84561324 1.3572724 0.66210157 0
0.81603217 1.347299 -0.056235176 0
0.83194262 1.3735677 0.40970871 0
0.83019996 1.3706906 0.5331443 0
0.82911807 1.3689044 0.66263032 0
0.7903415 1.3427509 -0.055625539 0
0.81100881 1.3778638 0.40791163 0
0.81292903 1.381126 0.5331794 0
0.80715501 1.3713162 0.6588257 0
0.77617949 1.3575062 -0.055827476 0
0.79708886 1.3940758 0.40970722 0
0.79035217 1.3822935 0.52974606 0
0.79486769 1.390191 0.66303247 0
0.75982988 1.3686208 -0.055886652 0
0.77272856 1.3918542 0.40616244 0
0.77092725 1.3886095 0.52840436 0
0.77034116 1.3875538 0.65709621 0
0.74177778 1.3766702 -0.055829503 0
0.76092172 1.4121996 0.409271 0
0.76141566 1.4131163 0.53403908 0
0.75309938 1.3976822 0.65734959 0
0.72725874 1.391399 -0.056050986 0
0.73825616 1.4124393 0.40661409 0
0.74257177 1.4206961 0.53332758 0
0.73904592 1.4139504 0.66057158 0
0.71107912 1.4032034 -0.056161355 0
0.71928132 1.4193891 0.40597516 0
0.71680397 1.4145005 0.5275715 0
0.71779877 1.4164636 0.65747082 0
0.68626082 1.3975985 -0.055586752 0
0.698183 1.4218786 0.40414056 0
0.70434469 1.434427 0.53165346 0
0.69968635 1.4249402 0.6572637 0
0.67506361 1.4197031 -0.05612338 0
0.67962772 1.4293017 0.403786 0
0.68135589 1.4329362 0.527879 0
0.67884636 1.4276586 0.65452278 0
0.65840882 1.4308602 -0.056232229 0
0.65966678 1.433594 0.40261999 0
0.66077667 1.4360059 0.52590299 0
0.65987682 1.4340504 0.65359193 0
0.6365338 1.4304824 -0.055897951 0
0.63863337 1.4352008 0.40078095 0
0.64125019 1.4410815 0.52476299 0
0.64318186 1.4454226 0.65503174 0
0.62023979 1.4424955 -0.05605774 0
0.62421852 1.4517488 0.40317506 0
0.61728901 1.4356328 0.51990712 0
0.6206733 1.4435036 0.65056866 0
0.60024488 1.4458958 -0.055891719 0
0.60471845 1.4566718 0.40239564 0
0.60200155 1.4501274 0.52236962 0
0.60287386 1.4522285 0.65102786 0
0.57994318 1.4482235 -0.055694986 0
0.58340597 1.4568706 0.4003894 0
0.58395356 1.458238 0.52260101 0
0.58473361 1.460186 0.65124267 0
0.56627786 1.4673709 -0.056152668 0
0.56418788 1.4619552 0.3998026 0
0.56848228 1.473083 0.52531403 0
0.56614399 1.467024 0.6510613 0
0.54137039 1.4571941 -0.055497956 0
0.54733002 1.4732355 0.40097085 0
0.54541069 1.4680692 0.52103561 0
0.54371428 1.463503 0.64640892 0
0.52965033 1.4825672 -0.056205839 0
0.52267814 1.4630511 0.39637622 0
0.52692115 1.4749278 0.52107364 0
0.52652669 1.4738237 0.64798766 0
0.50622278 1.4753674 -0.055686809 0
0.50406706 1.4690846 0.39625981 0
0.50603181 1.4748108 0.51874 0
0.50420344 1.4694822 0.6432364 0
0.48981142 1.4883258 -0.05593868 0
0.48896739 1.4857612 0.39906558 0
0.48554933 1.4753752 0.516747 0
0.48522031 1.4743754 0.64265281 0
0.47132483 1.4953017 -0.055973362 0
0.4650121 1.4752743 0.39464483 0
0.46301612 1.4689419 0.51241106 0
0.46408337 1.4723278 0.63916242 0
0.45266941 1.5018132 -0.055999294 0
0.44736034 1.4841993 0.39549404 0
0.44383281 1.4724962 0.51166075 0
0.44282907 1.469166 0.63531876 0
0.43028826 1.4954534 -0.055555712 0
0.45377919 1.5770953 0.058588691 0
0.45211378 1.5713072 0.17571849 0
0.45127147 1.5683799 0.29433113 0
0.4268733 1.4835848 0.39386669 0
0.4240047 1.4736151 0.51015389 0
0.42278373 1.4693716 0.63305527 0
0.41255024 1.5048587 -0.055707712 0
0.42305884 1.5431908 0.057126712 0
0.42476055 1.5493982 0.17265658 0
0.41899952 1.5283837 0.28581241 0
0.40757579 1.4867134 0.3933036 0
0.40467155 1.4761195 0.50921643 0
0.40642312 1.4825088 0.63645983 0
0.39795184 1.5267466 -0.056328002 0
0.39925203 1.5317348 0.056512039 0
0.400451 1.5363346 0.17062542 0
0.40273699 1.5451049 0.28796813 0
0.38809586 1.488934 0.3925671 0
0.38860643 1.4908928 0.51258403 0
0.38590011 1.48051 0.63346535 0
0.37778047 1.5279306 -0.05619172 0
0.38143986 1.542731 0.056736026 0
0.38098779 1.5409026 0.17058641 0
0.38120073 1.5417639 0.28642812 0
0.36821094 1.4892267 0.39139077 0
0.36576432 1.4793313 0.50698537 0
0.36720574 1.4851612 0.63342679 0
0.3574321 1.5279497 -0.056022454 0
0.36208174 1.5478259 0.056751221 0
0.35855356 1.5327437 0.16916992 0
0.35734996 1.5275985 0.28293809 0
0.34754285 1.4856752 0.38927636 0
0.34737986 1.4849784 0.50738138 0
0.34659162 1.4816089 0.63000035 0
0.34018749 1.5414935 -0.05635751 0
0.33968511 1.5392171 0.056274284 0
0.33584726 1.5218266 0.16748495 0
0.33929282 1.5374395 0.28394696 0
0.3300952 1.4957622 0.39079925 0
0.32568029 1.4757569 0.50278956 0
0.32902563 1.4909157 0.63214588 0
0.31866014 1.5355779 -0.055990092 0
0.32242194 1.5537053 0.056651056 0
0.32381645 1.5604254 0.17127062 0
0.32288826 1.5559527 0.28659248 0
0.3090086 1.4890684 0.38800296 0
0.30844015 1.4863292 0.50502819 0
0.30760685 1.4823136 0.62680662 0
0.30038866 1.5450675 -0.056193732 0
0.30488107 1.5681746 0.057034124 0
0.30724609 1.5803391 0.17301796 0
0.30628279 1.5753844 0.28943831 0
0.28901899 1.4865869 0.38637742 0
0.28862625 1.4845668 0.50315458 0
0.28855696 1.4842105 0.62602264 0
0.28048721 1.5463933 -0.056109037 0
0.29017606 1.5998101 0.058047209 0
0.29280323 1.6142944 0.1763178 0
0.29198727 1.6097958 0.29506165 0
0.27193743 1.4992563 0.38874948 0
0.26899746 1.4830475 0.50145185 0
0.26645726 1.4690427 0.61816078 0
0.26073918 1.5482892 -0.056054257 0
0.25175825 1.4949597 0.38678274 0
0.2491691 1.4795851 0.49918067 0
0.24674578 1.4651952 0.61518562 0
0.24116036 1.5510422 -0.056039542 0
0.23045976 1.4822204 0.3827056 0
0.22892103 1.4723238 0.49571905 0
0.22815643 1.4674064 0.61485898 0
0.22255349 1.5605593 -0.056277681 0
0.21150243 1.4830686 0.38220662 0
0.20888008 1.4646804 0.49222097 0
0.2086167 1.4628336 0.6117937 0
0.20088726 1.5478336 -0.05572312 0
0.19122039 1.4733504 0.37905154 0
0.18972047 1.4617935 0.49040905 0
0.19179253 1.4777588 0.61697686 0
0.18227042 1.5578314 -0.055995982 0
0.17265618 1.4756602 0.37905639 0
0.17181712 1.4684891 0.49189046 0
0.17234993 1.4730428 0.61405307 0
0.1624611 1.5582775 -0.055934045 0
0.15316513 1.4691133 0.37684938 0
0.15287153 1.4662971 0.49047258 0
0.15301375 1.4676613 0.6109581 0
0.1435495 1.568085 -0.056216747 0
0.13343252 1.4575707 0.3734279 0
0.13318603 1.4548781 0.48605341 0
0.1346723 1.4711134 0.61164075 0
0.12296717 1.5592831 -0.055841252 0
0.11548783 1.4644415 0.37478593 0
0.11569314 1.4670449 0.48959267 0
0.1147812 1.4554812 0.60449249 0
0.10369646 1.5663315 -0.056042466 0
0.096401237 1.4561373 0.3723205 0
0.095426723 1.4414173 0.48060092 0
0.095772929 1.4466468 0.60027492 0
0.083666593 1.5619192 -0.055842478 0
0.07789363 1.4541473 0.37153143 0
0.077255681 1.442238 0.48051205 0
0.077637061 1.4493576 0.60094649 0
0.064198576 1.567857 -0.056021426 0
0.059151005 1.4445852 0.3688688 0
0.058587521 1.4308239 0.47642568 0
0.058614966 1.4314941 0.59318668 0
0.044719648 1.5779759 -0.05635839 0
0.041144822 1.4518347 0.3705582 0
0.040573772 1.4316845 0.47650436 0
0.040589653 1.4322449 0.59323895 0
0.02465779 1.5663639 -0.055928145 0
0.02266063 1.4394963 0.3673071 0
0.022502584 1.4294565 0.47563079 0
0.022438349 1.4253761 0.59023005 0
0.0049551828 1.573462 -0.0561749 0
0.0045131003 1.4330837 0.36562735 0
0.004488071 1.425136 0.4741368 0
0.004468658 1.4189715 0.58750814 0
-0.014698082 1.5565696 -0.055574019 0
-0.013436967 1.4230139 0.36307257 0
-0.013255103 1.4037541 0.46704161 0
-0.013471823 1.4267052 0.59073359 0
-0.034420479 1.5619092 -0.055775709 0
-0.030964935 1.4051058 0.35857451 0
-0.031232337 1.4172398 0.4716219 0
-0.031004952 1.4069217 0.58265758 0
-0.054392092 1.5702441 -0.056093361 0
-0.048733268 1.4068795 0.3591553 0
-0.048118882 1.3891429 0.46243691 0
-0.048400469 1.397272 0.57886779 0
-0.073720284 1.560149 -0.055761475 0
-0.066295229 1.4030119 0.35835263 0
-0.065773129 1.3919625 0.46361452 0
-0.065611511 1.3885423 0.57554787 0
-0.093235917 1.5570481 -0.055688195 0
-0.083550677 1.3953038 0.35662431 0
-0.082862325 1.3838083 0.4612096 0
-0.082316279 1.3746892 0.57019025 0
-0.082803488 1.3828257 0.69312263 0
-0.11291777 1.5569106 -0.055729717 0
-0.099838674 1.3765761 0.3521311 0
-0.10011118 1.3803333 0.46043506 0
-0.099939242 1.3779627 0.57202464 0
-0.099463023 1.3713967 0.68796718 0
-0.13328831 1.5644751 -0.056056116 0
-0.11710671 1.3745431 0.45895913 0
-0.11646488 1.3670096 0.5680415 0
-0.11702962 1.3736382 0.68977624 0
-0.1533992 1.5669918 -0.056211051 0
-0.13260776 1.3546047 0.45282337 0
-0.13285384 1.3571185 0.56458181 0
-0.13266799 1.35522 0.68131232 0
-0.17328691 1.5664688 -0.056266107 0
-0.15040782 1.3596478 0.56637704 0
-0.14943103 1.3508179 0.6799913 0
-0.19252577 1.5603445 -0.056128751 0
-0.16594718 1.3449355 0.5610745 0
-0.16571316 1.3430389 0.67707223 0
-0.21011919 1.5428326 -0.055589586 0
-0.18212217 1.3372601 0.67526156 0
-0.23047478 1.5464128 -0.055818729 0
-0.19711761 1.3225968 0.66905749 0
