# .PCD v0.7 - Point Cloud Data file format
VERSION 0.7
FIELDS x y z intensity
SIZE 4 4 4 4
TYPE F F F F
COUNT 1 1 1 1
WIDTH 1364
HEIGHT 1
VIEWPOINT 0 0 0 1 0 0 0
POINTS 1364
DATA ascii
-0.67981827 -1.3208338 0.49422219 0
-0.68052995 -1.3222165 0.61570048 0
-0.70185769 -1.4069136 -0.05613181 0
-0.44101185 -0.88403338 0.035270389 0
-0.43536699 -0.87271792 0.10481321 0
-0.43521145 -0.87240613 0.17582856 0
-0.68185902 -1.3668252 0.3897047 0
-0.68008989 -1.363279 0.50685954 0
-0.68621457 -1.3755561 0.6364643 0
-0.67808098 -1.4032099 -0.055638969 0
-0.42294437 -0.87523437 0.034704097 0
-0.42123243 -0.8716917 0.10404467 0
-0.41949815 -0.86810279 0.17388281 0
-0.68299508 -1.4133791 0.4004941 0
-0.68083048 -1.4088998 0.52059239 0
-0.66275746 -1.4167634 -0.055841044 0
-0.40800771 -0.87219006 0.034376945 0
-0.40801552 -0.87220675 0.10348469 0
-0.41123456 -0.87908798 0.17503205 0
-0.68408316 -1.4623511 0.41189721 0
-0.68221128 -1.4583496 0.53564751 0
-0.64307261 -1.4210328 -0.055685733 0
-0.39612567 -0.87534064 0.034301803 0
-0.39240283 -0.86711407 0.10228609 0
-0.39430428 -0.87131578 0.1724823 0
-0.68108678 -1.5050348 0.42147076 0
-0.67910492 -1.5006554 0.54800195 0
-0.63134438 -1.443225 -0.056239381 0
-0.38027975 -0.86930257 0.033874854 0
-0.37703535 -0.86188596 0.10110132 0
-0.38707703 -0.88484079 0.17418098 0
-0.68773085 -1.5721221 0.43779802 0
-0.68542278 -1.5668459 0.5689761 0
-0.61120045 -1.4465115 -0.056063093 0
-0.36377352 -0.86093289 0.033367563 0
-0.36941859 -0.87429291 0.10200293 0
-0.36766928 -0.87015295 0.1703648 0
-0.68280375 -1.6159731 0.44757968 0
-0.58864659 -1.4435669 -0.055657271 0
-0.35661033 -0.87453294 0.033717953 0
-0.35546568 -0.87172592 0.1011732 0
-0.35711399 -0.87576813 0.17057022 0
-0.68242109 -1.6735346 0.46110597 0
-0.57866365 -1.4718226 -0.056461263 0
-0.34395233 -0.8748377 0.033560053 0
-0.34081551 -0.86685926 0.10010234 0
-0.34074402 -0.8666774 0.16795066 0
-0.68022156 -1.7301335 0.47430295 0
-0.55523193 -1.4661746 -0.055971954 0
-0.33178493 -0.87612879 0.033446658 0
-0.32976002 -0.8707816 0.10006785 0
-0.3319408 -0.87654036 0.16903856 0
-0.68276763 -1.8029522 0.49186966 0
-0.53523928 -1.4689665 -0.055816811 0
-0.31823403 -0.87339455 0.033186667 0
-0.3186962 -0.874663 0.10004478 0
-0.32125413 -0.88168329 0.16923682 0
-0.51864725 -1.481148 -0.056027077 0
-0.30735582 -0.87774384 0.033202235 0
-0.31052104 -0.88678306 0.10097583 0
-0.30307707 -0.86552471 0.16538955 0
-0.49803877 -1.4818544 -0.05581215 0
-0.29625222 -0.88146287 0.033199169 0
-0.29400426 -0.87477428 0.099179 0
-0.29223973 -0.86952406 0.16543749 0
-0.48189175 -1.4959263 -0.056109153 0
-0.27950555 -0.86766315 0.032544281 0
-0.28169385 -0.87445617 0.098732948 0
-0.28094676 -0.87213707 0.16524844 0
-0.46169749 -1.4975919 -0.055949125 0
-0.26583531 -0.86228067 0.032214284 0
-0.26992422 -0.87554371 0.098464161 0
-0.26623902 -0.86359012 0.16298085 0
-0.44568723 -1.5130734 -0.056313377 0
-0.25764224 -0.87467533 0.032553557 0
-0.25705171 -0.87267053 0.097769275 0
-0.25594378 -0.86890924 0.16336352 0
-0.42678109 -1.5192082 -0.056337219 0
-0.24693416 -0.87900901 0.032596536 0
-0.24518168 -0.87277073 0.097426876 0
-0.24705602 -0.87944281 0.16474597 0
-0.40607795 -1.5186996 -0.056124289 0
-0.23421983 -0.87596381 0.03237167 0
-0.23209392 -0.86801302 0.096561879 0
-0.23574492 -0.88166749 0.16459358 0
-0.38806626 -1.5281924 -0.056290049 0
-0.22201391 -0.87428361 0.096940763 0
-0.22133295 -0.87160206 0.16218135 0
-0.36556387 -1.5195321 -0.05579707 0
-0.20769829 -0.86333537 0.16014381 0
-0.34503326 -1.517992 -0.055576574 0
-0.19713327 -0.86729825 0.16040573 0
-0.32776189 -1.5309477 -0.055895369 0
-0.18775925 -0.87700737 0.1617513 0
-0.30975556 -1.5414031 -0.056130238 0
-0.17588618 -0.87524337 0.16100471 0
-0.28985438 -1.5426875 -0.056039661 0
-0.16522361 -0.87936717 0.16136779 0
-0.26820165 -1.5336039 -0.055582598 0
-0.24966897 -1.5417904 -0.055760935 0
-0.23093143 -1.5494767 -0.055929322 0
-0.21260558 -1.5610894 -0.056247391 0
-0.19324976 -1.5662119 -0.056339819 0
-0.17255837 -1.559883 -0.056029547 0
-0.15276138 -1.5604765 -0.055977333 0
-0.13357632 -1.5678556 -0.056177244 0
-0.11408974 -1.5730699 -0.056308135 0
-0.09343297 -1.560339 -0.055805892 0
-0.074011803 -1.5663185 -0.055981982 0
-0.054355357 -1.5691835 -0.056055475 0
-0.034526814 -1.5667344 -0.055948019 0
-0.014852399 -1.5729122 -0.0561575 0
0.0049380055 -1.5680076 -0.055980172 0
0.024639882 -1.5652264 -0.055887524 0
0.044624094 -1.574604 -0.056237966 0
0.064419791 -1.5732595 -0.056214459 0
0.08362399 -1.5611238 -0.055814039 0
0.10375416 -1.567203 -0.056073651 0
0.061156329 -0.92376423 0.03305177 0
0.12282625 -1.5574962 -0.055777259 0
0.073568277 -0.9328813 0.033408467 0
0.14207414 -1.5519687 -0.055638969 0
0.082884997 -0.90540701 0.03245936 0
0.16189918 -1.5528877 -0.05574058 0
0.094985262 -0.91106975 0.032702658 0
0.18189079 -1.5545866 -0.055879351 0
0.10913593 -0.93276453 0.03352806 0
0.11567008 -0.98861068 0.10697006 0
0.1162183 -0.99329615 0.18036167 0
0.11580708 -0.98978156 0.25424758 0
0.11623838 -0.99346775 0.33277559 0
0.11572624 -0.98909062 0.41231263 0
0.20272388 -1.5619845 -0.056232568 0
0.12334128 -0.95034289 0.034213025 0
0.12832019 -0.98870522 0.10714663 0
0.12922531 -0.99567914 0.1810755 0
0.12849081 -0.99001986 0.25470421 0
0.12887287 -0.99296367 0.33312392 0
0.1276128 -0.98325485 0.41051725 0
0.12796298 -0.98595291 0.49744931 0
0.22136261 -1.5522087 -0.05597654 0
0.13829549 -0.96973681 0.03497114 0
0.13702475 -0.96082628 0.10430409 0
0.13785996 -0.96668279 0.17610392 0
0.13857426 -0.97169149 0.25041792 0
0.13659276 -0.95779711 0.3218776 0
0.13799582 -0.96763557 0.40468946 0
0.13735481 -0.96314061 0.48677373 0
0.24079931 -1.54872 -0.055955641 0
0.1510863 -0.97172362 0.035108615 0
0.15177235 -0.97613603 0.10616511 0
0.15048875 -0.96788037 0.1766533 0
0.15118395 -0.97235161 0.25105876 0
0.15186177 -0.97671115 0.32885042 0
0.15074714 -0.96954226 0.4062486 0
0.15081938 -0.97000688 0.49116483 0
0.26046184 -1.5466422 -0.05599463 0
0.16801728 -0.99769944 0.036120709 0
0.16516562 -0.98076606 0.1068864 0
0.16744353 -0.99429238 0.18184431 0
0.16586071 -0.98489356 0.25481611 0
0.16540341 -0.98217803 0.33136606 0
0.16543837 -0.98238564 0.41247031 0
0.15865889 -0.9421286 0.47802234 0
0.28011715 -1.544353 -0.056035016 0
0.62824732 -3.4636781 0.12567544 0
0.17355764 -0.95686483 0.48656961 0
0.29914805 -1.5386864 -0.05596165 0
0.67259252 -3.4595211 0.12582193 0
0.1829441 -0.94098425 0.47962767 0
0.3190271 -1.5373461 -0.056054566 0
0.71680731 -3.4541924 0.12594643 0
0.19135924 -0.92213291 0.47120982 0
0.33765507 -1.5300182 -0.055937972 0
0.76111758 -3.4488564 0.12609133 0
0.19956815 -0.90430427 0.46334681 0
0.35645878 -1.5237889 -0.0558699 0
0.80879736 -3.4574444 0.12676761 0
0.20863885 -0.8918888 0.45829517 0
0.37474349 -1.5156475 -0.055739991 0
0.85364616 -3.4525664 0.12697281 0
0.5531804 -2.2373345 0.24768524 0
0.55175829 -2.2315829 0.41458234 0
0.21859869 -0.88412094 0.45568201 0
0.39387798 -1.5111172 -0.055751368 0
0.89966387 -3.4515703 0.12734272 0
0.22759503 -0.87317085 0.45147955 0
0.41347939 -1.508248 -0.05583318 0
0.94796675 -3.4578965 0.12800637 0
0.23882747 -0.87117046 0.45196441 0
0.43550912 -1.5135982 -0.056229789 0
0.25588432 -0.88931793 0.4630143 0
0.45207027 -1.4998254 -0.055925172 0
0.25205797 -0.83624822 0.43700191 0
0.47231084 -1.4984299 -0.056090463 0
0.26451993 -0.83920282 0.44025165 0
0.48830107 -1.4837365 -0.055766191 0
0.27263725 -0.82842708 0.43636507 0
0.51005447 -1.4865347 -0.056108315 0
0.29461074 -0.85863203 0.45419329 0
0.52513945 -1.4699405 -0.05572715 0
0.54630941 -1.4704882 -0.056004267 0
0.56522894 -1.4646528 -0.056048654 0
0.5848316 -1.4604307 -0.056164451 0
0.6016435 -1.4492649 -0.056021951 0
0.61498612 -1.430277 -0.055582911 0
0.63645279 -1.4303004 -0.055890836 0
0.36774999 -0.82644457 0.37452537 0
0.65883404 -1.4317843 -0.056268547 0
0.67661208 -1.4229597 -0.056252114 0
1.8550438 -3.901279 0.15422447 0
0.39578167 -0.83235484 0.3816005 0
0.3579174 -0.75272375 0.49429679 0
0.69057781 -1.4063902 -0.055936426 0
1.8623055 -3.7926621 0.15084574 0
1.1093842 -2.2593067 0.45393446 0
0.39711574 -0.80874258 0.37303823 0
0.36035973 -0.73388743 0.48486879 0
0.70619833 -1.393572 -0.05577587 0
1.8971279 -3.743685 0.14983603 0
1.1423422 -2.2542336 0.45576918 0
0.40734076 -0.80382323 0.3731055 0
0.37565175 -0.74128997 0.49284568 0
0.7293328 -1.395367 -0.056210835 0
1.9678313 -3.7648752 0.15166387 0
1.1693314 -2.2371771 0.45526159 0
0.41628665 -0.79644394 0.37208393 0
0.37945017 -0.725968 0.48579711 0
0.74588192 -1.3842871 -0.056138396 0
1.2018697 -2.2305579 0.45695817 0
0.43386865 -0.80521971 0.37870616 0
0.38740835 -0.71899366 0.48435614 0
0.76539248 -1.3786402 -0.056295786 0
1.2393577 -2.2323558 0.4604871 0
0.44103989 -0.79440987 0.37620428 0
0.39678523 -0.71469748 0.48478937 0
0.77678156 -1.358559 -0.055870775 0
1.2784011 -2.2358711 0.46449608 0
0.47347635 -0.82809073 0.39494649 0
0.39481613 -0.69051725 0.47172251 0
0.79678828 -1.3537037 -0.056079276 0
1.3124652 -2.2298133 0.46663398 0
0.49510106 -0.84115213 0.40411732 0
0.40861288 -0.69421297 0.47772437 0
0.8146981 -1.3450963 -0.056143239 0
1.3673639 -2.2575679 0.4760077 0
0.50075644 -0.82676721 0.40020403 0
0.4221175 -0.69693148 0.48321459 0
0.82907587 -1.3307287 -0.055974856 0
1.3977402 -2.2434773 0.47670999 0
0.4309333 -0.69168013 0.48329765 0
0.84295094 -1.3157905 -0.055788577 0
1.4361906 -2.2417984 0.48015797 0
0.44044432 -0.68750435 0.48421681 0
0.86029208 -1.3063489 -0.055843137 0
1.4684085 -2.2297702 0.48150393 0
0.5793606 -0.87975597 0.43614107 0
0.45034051 -0.68383962 0.48559117 0
0.87700438 -1.2959038 -0.055864286 0
1.5099905 -2.2312343 0.48588753 0
0.58718866 -0.86765808 0.43377474 0
0.45147949 -0.66712773 0.47772327 0
0.89152503 -1.2822748 -0.05575629 0
1.549566 -2.2287309 0.48955274 0
0.60045242 -0.8636269 0.43550491 0
0.45083493 -0.64843297 0.46836427 0
0.91049033 -1.2749956 -0.055933867 0
0.62116915 -0.86984766 0.44255117 0
0.45730084 -0.64037639 0.46666729 0
0.92585152 -1.2625842 -0.055896409 0
0.62604469 -0.85373753 0.43833086 0
0.46603486 -0.63553202 0.46737647 0
0.94562274 -1.2560695 -0.056130707 0
1.6860934 -2.2396359 0.1000839 0
1.6883698 -2.2426596 0.30168289 0
0.65276062 -0.8670612 0.44935614 0
0.47491673 -0.63083136 0.46828038 0
0.95638025 -1.2376152 -0.05583977 0
0.66496247 -0.8605026 0.45026097 0
0.48155341 -0.62315995 0.46704999 0
0.96342617 -1.2148061 -0.055353623 0
0.67895168 -0.85610569 0.45239794 0
0.48664469 -0.61362135 0.46445698 0
0.98443353 -1.2096913 -0.055680994 0
0.4962166 -0.6097607 0.46622735 0
1.00295 -1.201228 -0.055868324 0
0.50492048 -0.60474068 0.46721339 0
1.0259292 -1.1977671 -0.05630374 0
0.51233101 -0.59814382 0.46706396 0
1.0353929 -1.1784532 -0.056004282 0
0.51968324 -0.59148788 0.46693951 0
1.0513849 -1.1666945 -0.056070197 0
1.7612076 -1.9543662 0.093924925 0
0.52558535 -0.58322835 0.46560693 0
1.0725322 -1.1604403 -0.05641422 0
1.7706524 -1.9157808 0.093134709 0
0.5276531 -0.57090122 0.46103364 0
1.0789881 -1.1383295 -0.055995394 0
0.94078451 -0.99252522 0.048823152 0
0.53400159 -0.56337029 0.46034572 0
1.0817424 -1.1128302 -0.055406719 0
0.93239367 -0.95918941 0.047757097 0
1.3995589 -1.4397804 0.2157895 0
0.54067308 -0.55621129 0.46002263 0
1.1141112 -1.1176223 -0.056339342 0
0.95826936 -0.96128935 0.048458599 0
1.4008391 -1.4052539 0.21324164 0
1.1196153 -1.0952108 -0.055915847 0
0.96135473 -0.94039989 0.048011996 0
1.2946361 -1.2664167 0.19463202 0
1.301562 -1.2731916 0.32836738 0
1.2971663 -1.2688917 0.46295929 0
0.55724925 -0.54510278 0.46229741 0
1.1295805 -1.0774629 -0.055731513 0
0.99243236 -0.94664264 0.048964866 0
1.4041789 -1.3393917 0.20854828 0
0.74627537 -0.71184307 0.34311843 0
1.1468257 -1.0666595 -0.055915236 0
1.0140668 -0.9431808 0.049442373 0
1.4022082 -1.30419 0.20580019 0
0.74576724 -0.69363612 0.33884209 0
0.57584494 -0.53559184 0.46638459 0
1.1655868 -1.0570518 -0.056176532 0
1.4013788 -1.2708875 0.067540742 0
1.3941196 -1.2643044 0.20226039 0
0.74896055 -0.67922014 0.33638027 0
0.57681108 -0.52310055 0.46179557 0
1.1705824 -1.0350223 -0.055784728 0
1.3989146 -1.2369123 0.066666014 0
1.3942257 -1.2327665 0.20000781 0
1.3908223 -1.2297571 0.33482206 0
0.76225495 -0.67398149 0.33851263 0
0.585096 -0.51733857 0.46317634 0
1.1856332 -1.0220213 -0.05588425 0
1.3990668 -1.206002 0.065944336 0
1.4010557 -1.2077165 0.19879021 0
1.3986233 -1.2056197 0.33301893 0
0.79211491 -0.68280667 0.34792733 0
0.59297454 -0.51114678 0.46428111 0
1.2000387 -1.0083822 -0.055960305 0
1.4007386 -1.1770287 0.065319359 0
1.3973491 -1.1741804 0.19615087 0
1.4025756 -1.1785722 0.33040014 0
1.487644 -1.2500544 0.49575245 0
0.82577509 -0.6938917 0.3588458 0
0.82831872 -0.69602907 0.4479571 0
0.59572518 -0.5005827 0.46146277 0
1.203739 -0.98590189 -0.055549536 0
1.4004257 -1.1469947 0.064626127 0
1.3950236 -1.1425701 0.19378945 0
1.403438 -1.1494619 0.32716766 0
1.5014237 -1.2297153 0.49514499 0
0.85143602 -0.69735414 0.36615199 0
0.80588168 -0.6600436 0.43129408 0
0.61063319 -0.50012863 0.46809539 0
1.2249966 -0.97780257 -0.05595788 0
1.4071898 -1.1232308 0.064280473 0
1.3947965 -1.1133384 0.1917952 0
1.398782 -1.1165196 0.32277918 0
1.5463543 -1.234313 0.50479662 0
0.81753862 -0.65256619 0.34801337 0
0.80296153 -0.64093065 0.4253782 0
0.61936718 -0.49438408 0.46998113 0
1.2431163 -0.96689385 -0.056224961 0
1.4103456 -1.0969645 0.063788585 0
1.4046495 -1.0925341 0.19124314 0
1.4049389 -1.0927593 0.32099921 0
0.817496 -0.63584709 0.4288024 0
0.61736077 -0.4801822 0.46383372 0
1.2496217 -0.9469437 -0.055975445 0
1.4064473 -1.0657837 0.063000277 0
1.3960639 -1.0579153 0.18824558 0
1.3933816 -1.0558827 0.31529576 0
0.81612855 -0.61844939 0.42396662 0
0.63330525 -0.47990876 0.47123542 0
1.2596149 -0.92978299 -0.0558942 0
1.4031099 -1.0357035 0.062261648 0
1.3828319 -1.0207354 0.18471359 0
1.4011286 -1.0342411 0.31407693 0
0.85323542 -0.62981445 0.43908837 0
0.62996572 -0.46500826 0.46435672 0
1.2648761 -0.9092871 -0.055615168 0
1.4056954 -1.0105186 0.061806835 0
1.3978139 -1.0048527 0.18500997 0
1.3998715 -1.0063318 0.31092992 0
0.64529777 -0.46388808 0.47131506 0
1.2826122 -0.89775956 -0.055893518 0
1.3999345 -0.97987884 0.061006177 0
1.3999234 -0.97987103 0.18364151 0
1.3982986 -0.97873378 0.30781874 0
1.3968675 -0.97773206 0.43501309 0
0.64398432 -0.45075434 0.46617311 0
1.2950602 -0.88238746 -0.055947334 0
1.4404268 -0.98143291 0.062227257 0
1.396987 -0.95183522 0.18166962 0
1.4007477 -0.9543975 0.30568802 0
1.396987 -0.95183516 0.4312835 0
0.65872878 -0.44882399 0.47271782 0
1.3059691 -0.8659457 -0.055943105 0
1.4754349 -0.97831297 0.063202418 0
1.398648 -0.92739809 0.18035269 0
1.3953992 -0.92524385 0.3019543 0
1.3930895 -0.92371243 0.42645553 0
0.66616571 -0.44171286 0.47402561 0
1.3200959 -0.85157955 -0.05608445 0
1.5071195 -0.97222644 0.064030178 0
1.4007314 -0.90359664 0.17913993 0
1.3977939 -0.90170163 0.2999917 0
1.4009377 -0.90372968 0.42534062 0
0.68136978 -0.43954426 0.48086786 0
1.3276794 -0.83298671 -0.055956569 0
1.5522429 -0.97387797 0.065421052 0
1.4022028 -0.87974274 0.17789724 0
1.3913668 -0.8729443 0.29622972 0
1.3993652 -0.87796247 0.42147323 0
0.68481201 -0.42965141 0.47944093 0
1.3445117 -0.82013762 -0.056226276 0
1.5983152 -0.97495502 0.066840112 0
1.3909445 -0.84846103 0.17509954 0
1.4013052 -0.85478097 0.29603055 0
1.4018183 -0.85509396 0.41893578 0
0.68975663 -0.42074409 0.47915548 0
1.3455935 -0.79772604 -0.055847004 0
1.621629 -0.96137184 0.067303479 0
1.4021237 -0.83123964 0.17517529 0
1.3970375 -0.8282243 0.29290256 0
1.3921385 -0.82531995 0.41290441 0
0.70181865 -0.41606846 0.48385674 0
1.3590363 -0.78273898 -0.055991415 0
1.4029678 -0.80804133 0.17399573 0
1.3972975 -0.80477554 0.29080933 0
1.3966117 -0.8043806 0.41119432 0
0.70793885 -0.40773842 0.48449802 0
1.3602802 -0.76080865 -0.055643547 0
1.4084957 -0.78777575 0.1734373 0
1.4035221 -0.78499401 0.29002458 0
1.3970776 -0.78138953 0.40840214 0
0.71277064 -0.3986547 0.48433086 0
1.3702953 -0.74391586 -0.055665627 0
1.4099058 -0.76541984 0.17241044 0
1.397444 -0.75865448 0.28677177 0
1.3970022 -0.75841463 0.40555623 0
1.3867857 -0.73041236 -0.055957451 0
1.3985509 -0.73660898 0.16987416 0
1.3960687 -0.73530161 0.28456694 0
1.3954519 -0.73497677 0.4023875 0
1.3965839 -0.71325648 -0.055985969 0
1.410228 -0.72022468 0.17017744 0
1.4002995 -0.71515405 0.28357124 0
1.3944472 -0.71216518 0.39948022 0
1.4008375 -0.71542883 0.52331263 0
1.4013443 -0.69358116 -0.055822261 0
1.4111598 -0.69843924 0.16921516 0
1.3979769 -0.6919145 0.28131419 0
1.3994226 -0.69263011 0.39837542 0
1.3959068 -0.69088995 0.51817954 0
1.4086602 -0.67525548 -0.05577055 0
1.426865 -0.68398213 0.17005214 0
1.4067261 -0.67432839 0.28134379 0
1.3946781 -0.66855305 0.39459693 0
1.3968048 -0.66957253 0.51534224 0
1.4096651 -0.65403849 -0.055479873 0
1.4587882 -0.67682999 0.17282727 0
1.3945347 -0.64701849 0.27725407 0
1.3946089 -0.64705288 0.392241 0
1.3934534 -0.6465168 0.51106155 0
1.434171 -0.64358896 -0.05612094 0
1.498461 -0.67243934 0.17651027 0
1.4030211 -0.62961036 0.27734306 0
1.3964067 -0.62664211 0.39049637 0
1.4048408 -0.63042694 0.51228595 0
1.4271789 -0.61898214 -0.055537924 0
1.5266175 -0.66210973 0.17883067 0
1.3954166 -0.60520655 0.27431163 0
1.3931168 -0.60420913 0.38741806 0
1.3966464 -0.60573989 0.50647616 0
1.4543163 -0.60911226 -0.056291025 0
1.5597728 -0.65328074 0.1817365 0
1.3943739 -0.58400655 0.27263939 0
1.3881208 -0.58138758 0.3839623 0
1.4093189 -0.59026599 0.50833595 0
1.4529597 -0.58715153 -0.055947907 0
1.5990529 -0.64618886 0.18535043 0
1.4007075 -0.56603605 0.27246255 0
1.3846619 -0.55955189 0.38102642 0
1.4003479 -0.56589073 0.5024901 0
1.4698739 -0.57256413 -0.056317117 0
1.6243707 -0.63274574 0.18734668 0
1.4077524 -0.54836577 0.27246815 0
1.3941883 -0.54308212 0.38173574 0
1.3967355 -0.54407436 0.49869591 0
0.83787912 -0.32638144 0.44990748 0
1.4647089 -0.54941338 -0.055849727 0
1.405924 -0.52736306 0.27080747 0
1.4054863 -0.52719897 0.38298115 0
1.3963916 -0.52378756 0.49617887 0
0.83942527 -0.31486902 0.44857314 0
1.4796332 -0.53385806 -0.056158014 0
1.4077692 -0.50792921 0.26990953 0
1.4074565 -0.50781637 0.38174531 0
1.4025117 -0.50603229 0.49605 0
0.82774585 -0.29865426 0.44028732 0
1.4802194 -0.51309913 -0.055930603 0
1.4054062 -0.48716614 0.26825908 0
1.4001197 -0.48533359 0.37806776 0
1.3871127 -0.48082489 0.48842341 0
1.3992947 -0.48504767 0.61317831 0
0.81668437 -0.28309318 0.43247315 0
1.4811587 -0.49262345 -0.055727292 0
1.4079283 -0.4682675 0.26759374 0
1.3938615 -0.46358895 0.37477189 0
1.385466 -0.46079665 0.48576191 0
1.3980019 -0.46496603 0.60999775 0
0.84873217 -0.28228262 0.44752622 0
1.4938051 -0.47602555 -0.055973131 0
1.4009175 -0.44642541 0.2651718 0
1.3947346 -0.44445515 0.37347224 0
1.3972793 -0.44526604 0.48789927 0
1.3985195 -0.44566125 0.60772675 0
0.86222869 -0.27476335 0.45278251 0
1.4982625 -0.45674679 -0.055920213 0
1.4112871 -0.43023226 0.26608804 0
1.4005836 -0.42696929 0.37356916 0
1.4051265 -0.42835417 0.48871717 0
1.4001391 -0.42683375 0.60604686 0
0.87532747 -0.26684442 0.45786023 0
1.5064092 -0.43857768 -0.056013707 0
1.4274055 -0.41557646 0.26811913 0
1.4030993 -0.40849993 0.37283856 0
1.3921506 -0.40531233 0.48239067 0
1.4009051 -0.40786114 0.6041075 0
0.87815452 -0.25566691 0.45761877 0
1.5045364 -0.4175562 -0.055744141 0
1.4574105 -0.40447727 0.27277684 0
1.3981434 -0.3880288 0.37019396 0
1.3948318 -0.38710973 0.48159245 0
1.4049838 -0.38992721 0.60370111 0
0.87942296 -0.24406756 0.456642 0
1.5127245 -0.39938438 -0.055856757 0
1.4847944 -0.39201036 0.27695632 0
1.3929635 -0.36776549 0.36756712 0
1.387495 -0.36632174 0.47742879 0
1.3918024 -0.36745894 0.5960018 0
0.88114285 -0.23263635 0.4559778 0
1.5164391 -0.38000643 -0.055812802 0
1.5051299 -0.37717244 0.27984139 0
1.3896443 -0.34823275 0.36550519 0
1.393059 -0.34908846 0.47779286 0
1.3912628 -0.34863833 0.5938437 0
0.88216263 -0.22106226 0.45502892 0
1.5251788 -0.36184934 -0.055962332 0
1.5423679 -0.36592746 0.28588548 0
1.398735 -0.3318505 0.36676809 0
1.3910837 -0.33003521 0.47565228 0
1.4015468 -0.33251759 0.59639883 0
0.8887136 -0.21084769 0.45700225 0
1.5365831 -0.34417778 -0.056217302 0
1.5790876 -0.35369834 0.291843 0
1.400265 -0.31364402 0.36610463 0
1.3958392 -0.31265271 0.47589442 0
1.4062248 -0.31497899 0.59665442 0
0.89867532 -0.20129344 0.46078491 0
1.53681 -0.32396305 -0.056071907 0
1.6040114 -0.33812925 0.29563898 0
1.3984768 -0.2948021 0.36463764 0
1.3954973 -0.29417402 0.47447729 0
1.3971374 -0.29451975 0.59117818 0
0.911084 -0.19205858 0.46587035 0
1.5449746 -0.30541879 -0.05622502 0
1.6406926 -0.32434085 0.30162311 0
1.4111644 -0.27896649 0.36700076 0
1.3932577 -0.2754266 0.47249916 0
1.3950431 -0.27577955 0.58877593 0
0.92293209 -0.18245012 0.4707166 0
1.5481298 -0.28583664 -0.056204405 0
1.4113237 -0.26057762 0.36615977 0
1.406437 -0.25967541 0.47582206 0
1.3921739 -0.25704193 0.58615243 0
0.94593424 -0.17465115 0.48128843 0
1.5507883 -0.26618078 -0.056174781 0
1.4069487 -0.24149181 0.36420691 0
1.4083158 -0.24172647 0.47539017 0
1.3992722 -0.2401742 0.58782113 0
0.94029003 -0.16139348 0.47734478 0
1.5502055 -0.24602847 -0.056037005 0
0.99450958 -0.15783563 0.035949644 0
0.98554444 -0.15641281 0.10724138 0
0.98279601 -0.15597661 0.17946433 0
1.0047095 -0.15945444 0.25954175 0
0.98052806 -0.15561667 0.33029878 0
0.97757703 -0.15514831 0.40981776 0
0.95874256 -0.15215917 0.48570117 0
1.5543971 -0.22666743 -0.056080904 0
0.97179413 -0.1417103 0.03506124 0
0.9700371 -0.14145409 0.10535178 0
0.95981741 -0.13996382 0.1749326 0
0.96856207 -0.14123899 0.24972472 0
0.95766258 -0.13964958 0.32197845 0
0.96369642 -0.14052947 0.40322497 0
0.96283096 -0.14040326 0.4868381 0
1.5465879 -0.20567605 -0.055701301 0
0.9469983 -0.12593843 0.034106717 0
0.98691195 -0.13124643 0.10699651 0
0.99840248 -0.13277452 0.18164584 0
0.98136449 -0.13050869 0.25258183 0
0.98471457 -0.13095421 0.33049306 0
0.99079829 -0.13176326 0.41383773 0
0.9808861 -0.13044508 0.49509755 0
1.5609534 -0.18761644 -0.056129143 0
0.93530834 -0.11241797 0.033632044 0
0.98373955 -0.11823908 0.10648272 0
0.98517334 -0.11841141 0.17895351 0
0.98404902 -0.11827628 0.2528694 0
0.9762156 -0.11733476 0.32711881 0
0.98361033 -0.11822355 0.41018113 0
1.5655926 -0.16820519 -0.056215346 0
0.9237085 -0.099242009 0.03316737 0
1.4071869 -0.15118629 0.36108458 0
1.3934097 -0.14970608 0.46624717 0
1.3964663 -0.15003447 0.58151466 0
1.5703 -0.14873616 -0.056312654 0
0.91633898 -0.086794086 0.032860905 0
1.4058626 -0.13316093 0.36028591 0
1.395283 -0.13215886 0.46628019 0
1.4006091 -0.13266334 0.58249807 0
1.5619978 -0.12812798 -0.055952631 0
0.90901548 -0.074564964 0.032562025 0
1.4074359 -0.11544953 0.36028799 0
1.3988363 -0.11474412 0.46694773 0
1.3952084 -0.11444653 0.57960659 0
1.5770895 -0.10939389 -0.056439418 0
0.93755561 -0.065032996 0.033552371 0
1.4054971 -0.097491488 0.35944894 0
1.3934268 -0.096654229 0.46469885 0
1.3931121 -0.096632399 0.57818437 0
1.5531741 -0.088100165 -0.055539452 0
1.4098625 -0.079971157 0.36027926 0
1.3898174 -0.078834139 0.46312737 0
1.3975928 -0.079275183 0.57958382 0
1.562807 -0.068918154 -0.055848449 0
1.4140922 -0.062359985 0.36113083 0
1.3899533 -0.061295487 0.46287879 0
1.3897495 -0.061286502 0.57596546 0
1.5677552 -0.04936745 -0.055998627 0
1.4030684 -0.044181585 0.35814509 0
1.3919418 -0.043831214 0.46332046 0
1.3971637 -0.043995652 0.57876277 0
1.5642205 -0.02954744 -0.055854656 0
1.4139959 -0.026709761 0.36081997 0
1.4059148 -0.026557112 0.46782309 0
1.3990481 -0.026427405 0.57935953 0
1.574069 -0.0099101095 -0.056197409 0
1.4048554 -0.0088447658 0.35843071 0
1.4046147 -0.0088432506 0.46731639 0
1.3962301 -0.0087904613 0.57810092 0
1.5759313 0.0099218348 -0.056263894 0
1.3991067 0.0088085728 0.35696399 0
1.393204 0.0087714093 0.46352002 0
1.3957165 0.0087872287 0.57788825 0
1.5682371 0.029623309 -0.055998076 0
1.4039961 0.026520871 0.35826826 0
1.4026884 0.026496168 0.46674952 0
1.4107925 0.026649252 0.58422303 0
1.5615563 0.049172252 -0.055777207 0
1.4068363 0.044300232 0.3591069 0
1.3897853 0.04376331 0.46260265 0
1.3973552 0.04400168 0.57884204 0
1.5604733 0.068815239 -0.055765055 0
1.4036639 0.061900105 0.35846764 0
1.3921654 0.061393041 0.46361548 0
1.4057106 0.061990365 0.58258033 0
1.5671538 0.088893138 -0.056039348 0
1.4145025 0.080234349 0.36146498 0
1.4000107 0.079412334 0.46652412 0
1.3935932 0.079048313 0.57792515 0
1.572042 0.10904377 -0.056258783 0
1.8602079 0.12903224 0.0665714 0
1.871815 0.12983735 0.201646 0
1.8570033 0.12880996 0.33571285 0
1.4141147 0.09808924 0.36165285 0
1.4019257 0.097243756 0.4675332 0
1.3929495 0.096621126 0.57811695 0
1.5670998 0.12854649 -0.056135397 0
1.8068798 0.14821522 0.064724594 0
1.8042705 0.14800119 0.19455495 0
1.5634891 0.1282503 0.28292027 0
1.4149253 0.11606388 0.36220521 0
1.3967184 0.11457039 0.46624079 0
1.3959774 0.1145096 0.57992607 0
1.5591002 0.14767534 -0.055911016 0
1.8039263 0.17086487 0.064690746 0
1.8066807 0.17112574 0.19503173 0
1.4584572 0.13814262 0.26420811 0
1.4075754 0.13332316 0.36072487 0
1.3919381 0.13184203 0.46516237 0
1.400102 0.1326153 0.58228713 0
1.5524118 0.16678905 -0.055742059 0
1.2044613 0.12940572 0.043248292 0
1.2088573 0.12987803 0.13066271 0
1.1998874 0.1289143 0.21764348 0
1.1953957 0.12843172 0.30673888 0
1.3966322 0.15005229 0.46732545 0
1.403491 0.1507892 0.58443993 0
1.5617449 0.18771155 -0.056157604 0
1.1139903 0.13389438 0.040057138 0
1.1117862 0.13362947 0.12034285 0
1.1055263 0.13287705 0.20081523 0
1.1063663 0.13297802 0.28430107 0
1.4001769 0.16829215 0.46918344 0
1.4035164 0.16869353 0.58528864 0
1.5633935 0.20791095 -0.05630656 0
1.1052243 0.14698042 0.039805319 0
1.116811 0.14852132 0.12107959 0
1.1059047 0.1470709 0.2012044 0
1.1150341 0.14828502 0.28698549 0
1.396432 0.18570727 0.46867502 0
1.4015018 0.18638147 0.58538085 0
1.5470949 0.22560261 -0.055817451 0
1.1246724 0.16400352 0.040576916 0
1.1090915 0.16173147 0.12045392 0
1.0956872 0.15977679 0.19969568 0
1.1098975 0.16184901 0.2861653 0
1.3868291 0.20223211 0.46626979 0
1.3888187 0.20252223 0.58110249 0
1.5388969 0.24423373 -0.055628221 0
1.1016619 0.17484146 0.039822999 0
1.1119589 0.17647567 0.12099709 0
1.1115619 0.17641267 0.20297773 0
1.1106515 0.17626818 0.28690922 0
1.3969129 0.22169986 0.47056139 0
1.3996298 0.22213106 0.58674985 0
1.5506378 0.26615494 -0.056169331 0
1.1218185 0.19255145 0.040636051 0
1.1152401 0.1914223 0.12160677 0
1.1066091 0.18994085 0.20249401 0
1.1106051 0.19062674 0.28749454 0
1.3947717 0.23940173 0.47081822 0
1.3989342 0.24011621 0.58767921 0
1.5423341 0.28476655 -0.055993993 0
1.1129053 0.20547961 0.040403705 0
1.1141236 0.20570454 0.12175782 0
1.1073872 0.20446077 0.2030914 0
1.0996315 0.20302883 0.28529307 0
1.3912046 0.256863 0.47066867 0
1.4008746 0.2586484 0.5898158 0
1.5392007 0.30427736 -0.056014895 0
1.1128789 0.21999982 0.040500108 0
1.1050254 0.2184473 0.12105454 0
1.1047972 0.21840219 0.20310469 0
1.1022111 0.21789095 0.28665143 0
1.3980023 0.27636454 0.47410819 0
1.3994652 0.27665374 0.59064227 0
1.5290173 0.32232034 -0.055787586 0
1.1058673 0.23311934 0.040348571 0
1.1063154 0.23321381 0.12150794 0
1.1039783 0.23272114 0.20347674 0
1.1084224 0.23365797 0.28900909 0
1.3943101 0.29392374 0.47407365 0
1.3988698 0.29488492 0.59191126 0
1.5285213 0.34237203 -0.055922352 0
1.1010468 0.24662243 0.040282805 0
1.1061484 0.24776514 0.1218226 0
1.113342 0.24937643 0.20576505 0
1.1130891 0.24931976 0.29102138 0
1.4000285 0.31359106 0.4773227 0
1.3921692 0.31183067 0.59069067 0
1.5315583 0.36336288 -0.05619641 0
1.1168675 0.26497731 0.040980447 0
1.1095731 0.26324669 0.12255512 0
1.1020186 0.2614544 0.20426457 0
1.1142416 0.26435432 0.2921699 0
1.4110492 0.33477205 0.48247907 0
1.4032265 0.33291611 0.59711361 0
1.5233544 0.38173935 -0.056067321 0
1.0957018 0.27457333 0.040327493 0
1.1086904 0.27782816 0.1228343 0
1.1035944 0.27655116 0.20518588 0
1.1130006 0.27890825 0.29274219 0
1.392388 0.34892032 0.47756273 0
1.3971491 0.35011339 0.59635621 0
1.5111369 0.39896521 -0.055798132 0
1.1120648 0.2936036 0.04106256 0
1.1076978 0.29245064 0.12312258 0
1.1058551 0.29196408 0.20627338 0
1.1033888 0.29131296 0.29115584 0
1.3988816 0.36932796 0.48134682 0
1.4007683 0.36982608 0.59984124 0
1.5172582 0.42108691 -0.056215495 0
1.1109746 0.30833039 0.041162398 0
1.1121141 0.30864665 0.12403561 0
1.1145959 0.30933544 0.20861381 0
1.0965253 0.30432028 0.29033288 0
1.4000186 0.38854921 0.48338327 0
1.4012932 0.38890296 0.60211533 0
1.5005405 0.43686908 -0.055795491 0
1.1159873 0.32490981 0.041496418 0
1.1076791 0.32249096 0.12398406 0
1.1009946 0.32054484 0.2068072 0
1.1122196 0.32381287 0.29554456 0
1.3999635 0.40758696 0.48509789 0
1.3922977 0.40535516 0.6003958 0
1.5045923 0.45867643 -0.056156464 0
1.3995939 0.42666757 0.37330517 0
1.413211 0.43081874 0.49152905 0
1.4045142 0.42816752 0.60794061 0
1.4926516 0.47565797 -0.05592991 0
1.408893 0.44896692 0.37726346 0
1.3880738 0.44233257 0.48468494 0
1.3930809 0.44392818 0.60536343 0
1.4929712 0.49655214 -0.056171719 0
1.4077461 0.46820685 0.37850505 0
1.3918629 0.46292421 0.48800474 0
1.3944826 0.46379554 0.60846215 0
1.4939599 0.51786214 -0.056449797 0
1.4031262 0.48637578 0.37887961 0
1.4035089 0.48650843 0.49419677 0
1.384632 0.47996497 0.60675299 0
1.464891 0.528539 -0.055598486 0
1.4037572 0.50648165 0.38074195 0
1.3868341 0.50037575 0.49050507 0
1.385174 0.49977675 0.6096999 0
1.472805 0.55245024 -0.056158435 0
1.3967323 0.52391535 0.3805958 0
1.3951879 0.52333599 0.49575114 0
1.3908648 0.52171439 0.61504769 0
1.4582531 0.56803751 -0.055871882 0
1.4015549 0.54595166 0.38375279 0
1.3825293 0.53854054 0.49362367 0
1.3814476 0.5381192 0.6138311 0
1.4576068 0.58902943 -0.056126848 0
1.3945301 0.56353962 0.38374186 0
1.384279 0.55939716 0.49672404 0
1.3915288 0.56232685 0.62140769 0
1.4408054 0.60345352 -0.055768069 0
1.3862168 0.58059013 0.38343567 0
1.3813111 0.5785355 0.49823368 0
1.3848711 0.58002657 0.62164694 0
1.438933 0.62408006 -0.05599533 0
1.381657 0.59923887 0.38423112 0
1.3912023 0.60337877 0.50450194 0
1.3820376 0.59940398 0.62371367 0
1.433957 0.64349294 -0.056112569 0
1.3939797 0.62555295 0.38981766 0
1.3845745 0.62133241 0.50489569 0
1.3849652 0.6215077 0.62851697 0
1.4252932 0.66128945 -0.056094944 0
1.3852016 0.64268821 0.38959515 0
1.3858588 0.64299315 0.50827622 0
1.3769166 0.63884425 0.62846529 0
1.4173601 0.6794259 -0.05611499 0
1.386713 0.6647349 0.3923434 0
1.3766654 0.65991843 0.50791186 0
1.3727549 0.65804398 0.6302979 0
1.4161865 0.70092714 -0.056413494 0
1.3708975 0.67851186 0.39025512 0
1.3615519 0.67388636 0.50542653 0
1.3676308 0.67689502 0.6318087 0
1.4027047 0.71638238 -0.056231335 0
1.3756161 0.70254785 0.39408547 0
1.3608348 0.69499886 0.50836879 0
1.3557918 0.69242334 0.63031745 0
1.393099 0.73373747 -0.056212191 0
1.3605018 0.71656871 0.3923094 0
1.3586017 0.71556801 0.51086015 0
1.3574506 0.71496171 0.63522375 0
1.3826927 0.75064617 -0.056169245 0
1.3613179 0.7390421 0.39519691 0
1.352991 0.73452151 0.51218766 0
1.3535491 0.73482454 0.63767749 0
1.373521 0.76821429 -0.056185175 0
1.3474417 0.75362808 0.39389232 0
1.3479159 0.75389332 0.51381946 0
1.3469752 0.75336719 0.63899904 0
1.3601035 0.78335357 -0.056035381 0
1.3392589 0.77134812 0.39430833 0
1.3469967 0.77580476 0.51715201 0
1.3335644 0.76806837 0.63717467 0
1.3488089 0.79963225 -0.055980455 0
1.3402855 0.79457933 0.39752498 0
1.3364398 0.79229939 0.51688832 0
1.3368359 0.79253411 0.64345509 0
1.3375647 0.81589997 -0.055935755 0
1.324442 0.8078953 0.39581177 0
1.3310403 0.81192017 0.51871306 0
1.3305511 0.81162179 0.64529812 0
1.3285578 0.83353782 -0.055993591 0
1.311102 0.82258612 0.39488935 0
1.3278559 0.83309752 0.52151901 0
1.31926 0.82770443 0.64482582 0
1.3153553 0.84852147 -0.05588305 0
1.324761 0.85458899 0.40221256 0
1.311286 0.84589636 0.51915342 0
1.3122419 0.84651303 0.64655441 0
1.308157 0.86739641 -0.056036826 0
1.31171 0.86975229 0.40154344 0
1.3038502 0.86454076 0.52047831 0
1.3080411 0.86731958 0.64981419 0
1.2952485 0.88251579 -0.05595547 0
1.2908998 0.87955278 0.39853182 0
1.2998338 0.88564003 0.52328533 0
1.2990621 0.88511419 0.65083885 0
1.2810321 0.89665353 -0.05582466 0
1.2910575 0.90367073 0.40206167 0
1.2908378 0.90351701 0.52420241 0
1.2859099 0.90006769 0.64987636 0
1.268891 0.91217333 -0.055791698 0
1.2837194 0.92283309 0.40336335 0
1.2879649 0.92588508 0.52772856 0
1.2770177 0.91801542 0.65117294 0
1.2633594 0.93254691 -0.056060355 0
1.2638288 0.9328934 0.40077278 0
1.2662498 0.93468046 0.52361202 0
1.2671337 0.93533289 0.65208697 0
1.2548292 0.95088983 -0.056208704 0
1.2661605 0.95947653 0.40531138 0
1.2566569 0.95227486 0.52456218 0
1.2569778 0.95251805 0.65298128 0
1.2438965 0.96750063 -0.056260247 0
1.2453226 0.96860987 0.40251338 0
1.2564588 0.97727162 0.52957439 0
1.246628 0.96962529 0.65389568 0
1.2278099 0.98004818 -0.056086391 0
1.2437116 0.99274105 0.406001 0
1.240557 0.99022299 0.52808565 0
1.2471336 0.99547255 0.66068357 0
1.2074504 0.98894161 -0.055720806 0
1.2327029 1.0096241 0.40652525 0
1.2385685 1.0144284 0.53263462 0
1.2286211 1.006281 0.65753698 0
1.2028934 1.0107809 -0.056093428 0
1.2163785 1.0221123 0.40535411 0
1.2179511 1.0234338 0.52926838 0
1.2192495 1.0245249 0.65937364 0
1.1863662 1.0226531 -0.055918798 0
1.2702399 1.0949527 0.05987215 0
1.27968 1.1030899 0.18156868 0
1.2689756 1.0938628 0.30214918 0
1.1996168 1.0340751 0.40407562 0
1.2071885 1.040602 0.53024358 0
1.2064217 1.0399411 0.65946591 0
1.1754225 1.0393019 -0.056015387 0
1.2394785 1.0959398 0.059068006 0
1.2373145 1.0940263 0.17749819 0
1.2395525 1.0960053 0.29840586 0
1.191938 1.0539048 0.40592712 0
1.1939396 1.0556746 0.53022105 0
1.2000448 1.0610727 0.66323113 0
1.1642095 1.0558026 -0.056110147 0
1.2167532 1.1034536 0.058642544 0
1.2184458 1.1049887 0.17677344 0
1.2153018 1.1021373 0.29588538 0
1.1880529 1.0774258 0.409192 0
1.1853229 1.0749501 0.53236347 0
1.1843526 1.0740701 0.66198093 0
1.1488848 1.0685747 -0.056015633 0
1.1930183 1.1096232 0.058167432 0
1.194767 1.1112496 0.17535432 0
1.2021028 1.1180725 0.29607615 0
1.1802908 1.0977854 0.4112471 0
1.1725429 1.090579 0.53274924 0
1.1664311 1.0848944 0.65954733 0
1.126561 1.0745828 -0.055582538 0
1.1815325 1.127018 0.058294736 0
1.1801659 1.1257143 0.17527792 0
1.1804808 1.1260148 0.29421964 0
1.157057 1.1036718 0.40796179 0
1.1597873 1.106276 0.53324074 0
1.1532426 1.1000333 0.65987009 0
1.1215727 1.0971255 -0.056013603 0
1.1642636 1.1388859 0.058145676 0
1.1746584 1.1490542 0.17659491 0
1.1700701 1.1445657 0.29519364 0
1.1404345 1.1155761 0.40702161 0
1.1409024 1.1160338 0.53097719 0
1.1474464 1.1224352 0.66458821 0
1.1115321 1.1150352 -0.056208923 0
1.1565779 1.1602229 0.058486838 0
1.159379 1.1630328 0.17648557 0
1.1641698 1.1678387 0.29739156 0
1.1313452 1.1349106 0.40884569 0
1.1315087 1.1350747 0.53321511 0
1.1419832 1.1455821 0.66972589 0
1.0904857 1.1218247 -0.055854548 0
1.1552144 1.1884137 0.059169948 0
1.1622639 1.1956657 0.17920241 0
1.1686565 1.2022421 0.30238104 0
1.1197881 1.1519693 0.40987882 0
1.1149064 1.1469473 0.53215516 0
1.1149678 1.1470104 0.66230047 0
1.0858052 1.1455216 -0.056349177 0
1.1652426 1.2293278 0.060471673 0
1.1721691 1.2366353 0.18311606 0
1.1746325 1.2392342 0.30794045 0
1.1028188 1.163471 0.40899771 0
1.110095 1.1711473 0.5368551 0
1.1075845 1.1684988 0.66660208 0
1.0623339 1.1494062 -0.055877801 0
1.0851994 1.1741457 0.40791419 0
1.0935657 1.1831979 0.53602421 0
1.0980043 1.1880003 0.66978657 0
1.0524164 1.1678391 -0.056125205 0
1.0753497 1.1932876 0.4098275 0
1.069258 1.1865277 0.53139091 0
1.0717692 1.1893144 0.662866 0
1.0358746 1.1790015 -0.056030333 0
1.0641508 1.2111846 0.41133937 0
1.060277 1.2067755 0.53443718 0
1.0601737 1.2066581 0.66503918 0
1.0243636 1.1959394 -0.056217819 0
1.0455172 1.220636 0.41004553 0
1.0443667 1.2192928 0.53411424 0
1.0487862 1.2244525 0.66751486 0
1.0065936 1.205592 -0.056071293 0
1.0287414 1.2321181 0.4095186 0
1.0252709 1.2279618 0.53221405 0
1.0315987 1.2355404 0.66642499 0
0.99479377 1.2224221 -0.056266982 0
1.0097226 1.2407669 0.40813485 0
1.0104375 1.2416455 0.53258795 0
1.0108948 1.2422074 0.66310251 0
0.97414535 1.228322 -0.055969492 0
0.99360591 1.2528603 0.40796494 0
0.99808955 1.2585139 0.53439009 0
0.99213207 1.251002 0.66107577 0
0.96114302 1.2437786 -0.056117851 0
0.98431438 1.2737637 0.41070303 0
0.98007858 1.2682824 0.53325534 0
0.98619998 1.2762038 0.66777807 0
0.94288605 1.2524344 -0.055968259 0
0.96275324 1.278824 0.40839332 0
0.96787745 1.2856305 0.53538263 0
0.97105324 1.2898489 0.66846675 0
0.93394923 1.2736272 -0.056385294 0
0.94808048 1.2928979 0.40904289 0
0.95107228 1.2969779 0.53507835 0
0.95038629 1.2960423 0.66542161 0
0.90869945 1.2724876 -0.055823844 0
0.93386304 1.3077253 0.40998101 0
0.9382413 1.3138562 0.53712493 0
0.93640178 1.3112804 0.66713828 0
0.89320338 1.2846887 -0.055861253 0
0.92528123 1.3308262 0.41353771 0
0.91981179 1.3229594 0.53606886 0
0.91597676 1.3174436 0.66435301 0
0.88273108 1.3043658 -0.05622907 0
0.9069069 1.3400891 0.41283473 0
0.89273256 1.3191444 0.52992588 0
0.89979076 1.329574 0.66470379 0
0.85866582 1.3038794 -0.055737574 0
0.8837347 1.3419464 0.4099462 0
0.88179988 1.3390083 0.53340268 0
0.87941831 1.3353919 0.66202366 0
0.84676415 1.3217427 -0.056040939 0
0.86495072 1.3501307 0.4090867 0
0.86842304 1.3555509 0.53559387 0
0.86152077 1.3447769 0.6612457 0
0.82860655 1.3299754 -0.055943172 0
0.84864068 1.3621316 0.40945259 0
0.84454286 1.3555543 0.53135127 0
0.84801203 1.3611226 0.66397983 0
0.80790949 1.3338882 -0.055675417 0
0.82390857 1.3603033 0.40575218 0
0.83504438 1.3786888 0.53625536 0
0.82543743 1.3628274 0.65968877 0
0.79224223 1.3459802 -0.055759318 0
0.80891162 1.3743007 0.40685681 0
0.81461954 1.3839982 0.53428817 0
0.8093347 1.3750194 0.66060483 0
0.77293283 1.3518277 -0.055593953 0
0.78670067 1.3759072 0.40436763 0
0.79219109 1.3855097 0.53097862 0
0.79708815 1.3940744 0.66488463 0
0.75836611 1.3659841 -0.055778988 0
0.77506727 1.3960667 0.4073917 0
0.77471441 1.395431 0.53100014 0
0.77463245 1.3952835 0.66075665 0
0.73308867 1.3605441 -0.055175524 0
0.7596705 1.4098775 0.40859804 0
0.75754511 1.4059329 0.53132439 0
0.75996661 1.410427 0.66334367 0
0.72839761 1.3935779 -0.056138761 0
0.73941922 1.4146646 0.4072547 0
0.74599123 1.4272381 0.53578347 0
0.74130845 1.4182791 0.66259384 0
0.70972288 1.4005271 -0.056054242 0
0.72070187 1.4221925 0.40677696 0
0.71766502 1.4161996 0.52820522 0
0.71699148 1.4148705 0.65673137 0
0.68952775 1.4042517 -0.05585137 0
0.70010597 1.4257947 0.40525365 0
0.70396662 1.4336571 0.53136808 0
0.70109808 1.4278151 0.65858978 0
0.67609185 1.4218656 -0.056208864 0
0.68400764 1.4385129 0.40638822 0
0.68089592 1.4319689 0.52752268 0
0.68632501 1.4433866 0.66173345 0
0.655191 1.4238671 -0.055957407 0
0.66175634 1.438135 0.40389532 0
0.66266012 1.4400991 0.52740198 0
0.66544098 1.4461424 0.65910304 0
0.63470149 1.4263647 -0.055737048 0
0.64164704 1.4419734 0.40267223 0
0.64024252 1.438817 0.52393842 0
0.63922155 1.4365226 0.65099847 0
0.62126738 1.4448854 -0.056150615 0
0.61979687 1.4414654 0.40031916 0
0.62616712 1.4562807 0.5273847 0
0.6218273 1.4461876 0.65177828 0
0.60477686 1.4568126 -0.056313712 0
0.60161549 1.4491974 0.40033087 0
0.60349399 1.4537225 0.52366465 0
0.60075623 1.4471276 0.64874113 0
0.58300263 1.4558634 -0.0559888 0
0.58598334 1.4633067 0.40215823 0
0.58103287 1.4509447 0.51998723 0
0.5803802 1.4493147 0.64639407 0
0.56714207 1.4696102 -0.056238364 0
0.56314337 1.4592485 0.39906242 0
0.56587917 1.4663377 0.52290863 0
0.56510001 1.4643188 0.64986074 0
0.54347801 1.4628669 -0.055714011 0
0.54365873 1.4633535 0.39828128 0
0.54268855 1.4607421 0.51843512 0
0.54180247 1.458357 0.64413601 0
0.5307194 1.4855597 -0.056319289 0
0.52535826 1.470553 0.39840868 0
0.52380413 1.4662027 0.51799119 0
0.52529424 1.4703739 0.6464709 0
0.51045382 1.4876987 -0.056152243 0
0.50691098 1.4773731 0.3984955 0
0.50322479 1.46663 0.51586252 0
0.50710249 1.4779314 0.64693487 0
0.4919723 1.4948918 -0.056185462 0
0.48219907 1.4651951 0.39354166 0
0.48653558 1.4783719 0.51779658 0
0.48396903 1.4705733 0.64099556 0
0.46969965 1.4901457 -0.055780359 0
0.46596563 1.4782994 0.39545405 0
0.46547407 1.4767399 0.51513124 0
0.46477345 1.4745171 0.64011288 0
0.4481537 1.4868314 -0.055440657 0
0.44622883 1.4804454 0.3944937 0
0.44555718 1.478217 0.51364863 0
0.44515067 1.4768683 0.63864946 0
0.43351126 1.5066547 -0.055971842 0
0.45054129 1.565842 0.058170635 0
0.45192719 1.5706587 0.17564596 0
0.45006692 1.5641934 0.29354548 0
0.42814857 1.488017 0.39504337 0
0.42566574 1.4793879 0.51215237 0
0.4237372 1.4726853 0.63448292 0
0.4137904 1.5093824 -0.055875171 0
0.42661154 1.5561501 0.057606447 0
0.42456776 1.548695 0.17257823 0
0.42217699 1.5399742 0.28797987 0
0.41028309 1.4965888 0.39591607 0
0.40540779 1.4788052 0.51014292 0
0.4061195 1.4814013 0.63598442 0
0.39659569 1.5215437 -0.056136049 0
0.39825875 1.5279241 0.056371443 0
0.40110615 1.5388482 0.17090456 0
0.40348455 1.5479729 0.28850266 0
0.38762459 1.487126 0.39209041 0
0.38589349 1.4804847 0.50900567 0
0.38569525 1.479724 0.63312906 0
0.37563124 1.5192381 -0.055872042 0
0.38002026 1.5369895 0.056524873 0
0.38001898 1.5369842 0.1701526 0
0.38060454 1.5393525 0.28598014 0
0.3687433 1.4913797 0.39195663 0
0.36608338 1.4806218 0.50742769 0
0.36646676 1.4821724 0.63215202 0
0.35888091 1.5341431 -0.05624954 0
0.35935268 1.5361599 0.056323484 0
0.35874251 1.5335515 0.16925907 0
0.36090955 1.5428152 0.28575647 0
0.34792334 1.4873017 0.38970253 0
0.34810445 1.4880759 0.50843966 0
0.34696412 1.4832011 0.63067746 0
0.33542758 1.5199249 -0.055568956 0
0.34049508 1.5428872 0.056408465 0
0.34144086 1.5471729 0.17027445 0
0.33942905 1.5380567 0.28406096 0
0.32581756 1.4763789 0.38573498 0
0.32703131 1.4818788 0.50487524 0
0.32711521 1.482259 0.62847549 0
0.31906438 1.5375259 -0.056061119 0
0.32242242 1.5537077 0.056651141 0
0.32087624 1.546257 0.16971551 0
0.32229593 1.5530982 0.28606674 0
0.31030682 1.4953244 0.38963306 0
0.30703765 1.4795707 0.5027318 0
0.30631152 1.4760717 0.62416714 0
0.29686546 1.5269457 -0.055534642 0
0.30559331 1.571838 0.057167362 0
0.30479431 1.5677284 0.17163731 0
0.30510655 1.5693343 0.28832674 0
0.28961197 1.4896369 0.38717017 0
0.28721073 1.4772861 0.50068694 0
0.28767169 1.4796571 0.62410206 0
0.28022185 1.5449302 -0.056055959 0
0.29160339 1.6076794 0.058332734 0
0.28896722 1.5931455 0.17400786 0
0.28778696 1.5866385 0.29081711 0
0.27193356 1.4992349 0.38874394 0
0.26753515 1.4749854 0.49872586 0
0.26945886 1.4855912 0.62512428 0
0.26014447 1.5447577 -0.055926405 0
0.2500121 1.4845909 0.38410005 0
0.24906455 1.4789642 0.49897122 0
0.24877623 1.4772522 0.6202479 0
0.24120106 1.5513039 -0.056048997 0
0.22991455 1.4787138 0.38180017 0
0.22878322 1.4714376 0.49542063 0
0.22925162 1.4744502 0.61781043 0
0.22319895 1.5650853 -0.056440901 0
0.21200512 1.4865934 0.38311502 0
0.20949654 1.4690031 0.49367362 0
0.21020122 1.4739443 0.61644047 0
0.20346543 1.5676982 -0.056438264 0
0.19186939 1.478351 0.38033804 0
0.19145718 1.4751749 0.49489829 0
0.19117698 1.4730159 0.61499667 0
0.18271139 1.5616003 -0.056131452 0
0.17317715 1.4801129 0.38020018 0
0.17096531 1.4612087 0.4894518 0
0.17263763 1.4755017 0.61507809 0
0.16192496 1.5531349 -0.055749457 0
0.15278409 1.4654585 0.37591186 0
0.15274644 1.4650974 0.49007127 0
0.15330075 1.4704142 0.61210406 0
0.14341214 1.5665846 -0.056162953 0
0.13321587 1.4552041 0.3728216 0
0.13397126 1.4634557 0.48891905 0
0.13373193 1.4608413 0.6073699 0
0.12319838 1.562215 -0.05594625 0
0.11533406 1.4624916 0.37428692 0
0.11461543 1.453379 0.48503199 0
0.11436708 1.4502299 0.60231155 0
0.10334782 1.5610652 -0.055854041 0
0.095890284 1.4484195 0.37034711 0
0.095231444 1.4384677 0.47961745 0
0.0955019 1.4425528 0.59857619 0
0.083909109 1.5664467 -0.056004342 0
0.077861026 1.4535387 0.37137592 0
0.077216879 1.4415135 0.48027074 0
0.077230342 1.441765 0.59779829 0
0.064302884 1.5704045 -0.056112446 0
0.059365597 1.449826 0.37020701 0
0.058814242 1.4363608 0.47826934 0
0.058464069 1.4278089 0.59165961 0
0.044112761 1.5565611 -0.055593554 0
0.040900901 1.4432276 0.36836141 0
0.040652454 1.434461 0.47742841 0
0.040624201 1.4334641 0.59374392 0
0.024747919 1.5720894 -0.056132574 0
0.022651237 1.4388995 0.36715481 0
0.022481387 1.42811 0.47518274 0
0.022359198 1.420348 0.588148 0
0.0049454528 1.5703723 -0.056064595 0
0.0044716853 1.4199328 0.36227211 0
0.0044747023 1.4208909 0.47272447 0
0.0044494173 1.4128621 0.58497858 0
-0.014756719 1.5627794 -0.055795729 0
-0.013412163 1.420387 0.36240238 0
-0.013305577 1.4090993 0.46882001 0
-0.013357808 1.4146308 0.58573407 0
-0.034707867 1.5749501 -0.056241401 0
-0.031263903 1.4186721 0.36203656 0
-0.031040104 1.4085168 0.46871912 0
-0.030860141 1.4003506 0.57993621 0
-0.054327983 1.5683932 -0.056027245 0
-0.048665006 1.4049089 0.3586522 0
-0.048532274 1.401077 0.46640974 0
-0.048424099 1.3979542 0.57915044 0
-0.074010134 1.566283 -0.055980716 0
-0.066007651 1.3969258 0.35679814 0
-0.0661349 1.3996189 0.46616456 0
-0.06589298 1.3944989 0.57801694 0
-0.093327545 1.5585784 -0.055742927 0
-0.083112687 1.3879893 0.35475481 0
-0.082286291 1.3741884 0.45800337 0
-0.082740158 1.381768 0.57312638 0
-0.082908273 1.3845756 0.69399971 0
-0.11359112 1.5661949 -0.056062046 0
-0.10040446 1.3843771 0.35412663 0
-0.099653386 1.3740213 0.45832959 0
-0.10012581 1.3805351 0.57309252 0
-0.099318437 1.369403 0.68696707 0
-0.13317248 1.5631155 -0.056007404 0
-0.11618806 1.3637604 0.45535877 0
-0.11637087 1.3659061 0.56758296 0
-0.11630382 1.3651192 0.68549836 0
-0.15322867 1.5652499 -0.056148566 0
-0.13312036 1.3598411 0.45457381 0
-0.13344625 1.3631699 0.56709933 0
-0.13272962 1.3558495 0.68162888 0
-0.17239748 1.5584286 -0.055977307 0
-0.14998281 1.3558059 0.56477666 0
-0.14888725 1.3459022 0.67751682 0
-0.19370686 1.5699166 -0.05647308 0
-0.16585092 1.3441554 0.56074905 0
-0.16634686 1.3481748 0.67966139 0
-0.21183154 1.5554059 -0.056042608 0
-0.18046775 1.3251123 0.66912746 0
-0.23010312 1.5439191 -0.055728715 0
-0.19724198 1.3234313 0.66947961 0
-0.25285473 1.5614636 -0.056472447 0
-0.27063727 1.547531 -0.05608736 0
-0.28996378 1.5432699 -0.056060813 0
-0.3088789 1.5370406 -0.05597138 0
-0.32899815 1.5367221 -0.056106195 0
-0.3478038 1.5301812 -0.056022845 0
-0.36737028 1.5270408 -0.05607279 0
-0.38746431 1.525822 -0.056202736 0
-0.40493172 1.5144128 -0.055965867 0
-0.42415288 1.5098526 -0.055990282 0
-0.4433082 1.5049969 -0.056012787 0
-0.45918515 1.4894427 -0.05564468 0
-0.47934291 1.4880139 -0.055812377 0
-0.50229681 1.4945238 -0.056289323 0
-0.52342081 1.4947803 -0.056542743 0
-0.53969246 1.4811882 -0.056281205 0
-0.55545253 1.4667572 -0.055994194 0
-0.57467097 1.4616672 -0.056071687 0
-0.59316671 1.4546518 -0.056084655 0
-0.61331338 1.451512 -0.056256901 0
-0.62747639 1.4343832 -0.055894829 0
-0.64679438 1.429257 -0.056008015 0
-0.66184485 1.4148127 -0.05576415 0
-0.6786027 1.4042896 -0.055681776 0
-0.69988585 1.402961 -0.055974111 0
-0.71773446 1.3945019 -0.055992763 0
-0.73860013 1.3916931 -0.056248963 0
-0.74828959 1.368068 -0.055670518 0
-0.76964647 1.365975 -0.055975292 0
-0.78642797 1.3555611 -0.055949911 0
-0.80858237 1.3541741 -0.056308452 0
-0.82009149 1.3349693 -0.055934854 0
-0.83768517 1.3258827 -0.055991657 0
-0.84973919 1.3081882 -0.055691876 0
-0.86789978 1.300016 -0.0558048 0
-0.88545817 1.2908196 -0.055884223 0
-0.90189826 1.2799335 -0.055900171 0
-0.91629028 1.2661926 -0.055799544 0
-0.94093722 1.2663672 -0.056324922 0
-0.95120144 1.2470691 -0.055994891 0
-0.96073782 1.2272139 -0.055642165 0
-0.9821986 1.2225939 -0.055989023 0
-0.99838722 1.2111884 -0.056037996 0
-1.0125741 1.1973575 -0.055983577 0
-1.0321347 1.1897749 -0.056232266 0
-1.0430043 1.1721567 -0.056015871 0
-1.0576844 1.1589353 -0.05601608 0
-1.0644871 1.137293 -0.055613492 0
-1.0829155 1.1281679 -0.055829659 0
-1.1039166 1.1214343 -0.056179889 0
-1.1155714 1.1050901 -0.056060392 0
-1.1292346 1.0907989 -0.056052309 0
-1.1456714 1.0791237 -0.056189235 0
-1.1475008 1.0538971 -0.055623677 0
-1.1690257 1.0468389 -0.056023646 0
-1.1841877 1.0338469 -0.056121923 0
-1.1943121 1.0164723 -0.055990703 0
