# .PCD v0.7 - Point Cloud Data file format
VERSION 0.7
FIELDS x y z intensity
SIZE 4 4 4 4
TYPE F F F F
COUNT 1 1 1 1
WIDTH 1351
HEIGHT 1
VIEWPOINT 0 0 0 1 0 0 0
POINTS 1351
DATA ascii
-0.86633986 -1.2976794 -0.055704501 0
-1.9562261 -2.9302063 0.12578274 0
-0.52316004 -0.78363478 0.4714309 0
-0.85569978 -1.3173647 -0.056082532 0
-1.9237069 -2.9615803 0.12607968 0
-0.50298977 -0.77436143 0.46200514 0
-0.84078336 -1.3307865 -0.056198742 0
-1.8910428 -2.9931304 0.12639907 0
-0.49335048 -0.78087193 0.46214637 0
-0.81976795 -1.3344426 -0.055912785 0
-1.8565873 -3.022208 0.1266297 0
-1.2141842 -1.9764851 0.24929026 0
-1.2115678 -1.972226 0.41744283 0
-0.4814871 -0.78377903 0.46024209 0
-0.80524242 -1.3485806 -0.056075864 0
-1.8277338 -3.0609989 0.12728061 0
-1.1786467 -1.9739397 0.24707764 0
-1.1816981 -1.9790502 0.4157047 0
-0.46958047 -0.78643036 0.45829046 0
-0.78705931 -1.3566493 -0.055994827 0
-1.793344 -3.0911763 0.12758631 0
-0.46095848 -0.79455131 0.45960394 0
-0.77188969 -1.3699564 -0.056138437 0
-0.44569874 -0.79102987 0.45428455 0
-0.74930686 -1.3699278 -0.055746201 0
-0.43741783 -0.79971355 0.45607215 0
-0.7357865 -1.3863915 -0.056034688 0
-0.40369871 -0.76066154 0.43086776 0
-0.72133005 -1.4014879 -0.056273267 0
-0.40288243 -0.78276908 0.44048178 0
-0.69924641 -1.4016792 -0.055922966 0
-0.4051581 -0.81216252 0.45411518 0
-0.68197101 -1.4112599 -0.055958159 0
-0.66208118 -1.4153178 -0.055784062 0
-0.64908397 -1.4343165 -0.056206282 0
-0.63282418 -1.4466079 -0.056371205 0
-0.60857344 -1.4402943 -0.055822127 0
-0.59116876 -1.4497521 -0.055895746 0
-0.57147521 -1.4535388 -0.05575987 0
-0.34047219 -0.86598605 0.38526553 0
-0.55177706 -1.4570516 -0.05562368 0
-0.31959364 -0.84393579 0.37363568 0
-0.53826016 -1.4772571 -0.056131836 0
-0.28609213 -0.78518105 0.49559718 0
-0.52196127 -1.490612 -0.056385074 0
-0.30561906 -0.87278408 0.38287807 0
-0.27178723 -0.77616739 0.48770905 0
-0.49813658 -1.4821454 -0.05582311 0
-0.80316949 -2.389734 0.45467582 0
-0.28097665 -0.83601218 0.36516568 0
-0.26339567 -0.78370208 0.49032053 0
-0.48258027 -1.4980637 -0.056189321 0
-0.77279508 -2.3989713 0.45454583 0
-0.27815586 -0.8634733 0.37560084 0
-0.25114176 -0.77961391 0.48574573 0
-0.46281496 -1.5012165 -0.056084543 0
-0.74539888 -2.417824 0.45630333 0
-0.26843229 -0.87070435 0.37724602 0
-0.24049327 -0.78007954 0.48411059 0
-0.44414312 -1.5078313 -0.056118276 0
-0.71980941 -2.443697 0.45943916 0
-0.2543436 -0.86347675 0.37269738 0
-0.22857608 -0.77599806 0.4797534 0
-0.42111093 -1.4990243 -0.05558873 0
-0.69317406 -2.4674847 0.46223375 0
-0.24786176 -0.88231093 0.37944946 0
-0.21782912 -0.7754041 0.47765255 0
-0.40529978 -1.5157894 -0.056016739 0
-0.66627061 -2.4917996 0.46518013 0
-0.24722941 -0.9246186 0.39627412 0
-0.20759052 -0.77637225 0.47660089 0
-0.38608861 -1.5204046 -0.056003187 0
-0.63935709 -2.5177677 0.46848786 0
-0.23866817 -0.93986762 0.4014897 0
-0.19947737 -0.78553545 0.48064592 0
-0.36655581 -1.5236553 -0.055948474 0
-0.6138581 -2.5516119 0.47330949 0
-0.19053444 -0.79199076 0.48308942 0
-0.34806824 -1.5313447 -0.05606544 0
-0.58836269 -2.5885329 0.47874588 0
-0.18078101 -0.79535562 0.48371497 0
-0.32653087 -1.5251976 -0.055685431 0
-0.55585891 -2.5963693 0.4788627 0
-0.17021845 -0.79507577 0.48220295 0
-0.31062084 -1.5457089 -0.056287035 0
-0.52797717 -2.6273155 0.48330578 0
-0.20672323 -1.0286944 0.4344314 0
-0.1604716 -0.79853743 0.4830386 0
-0.29307371 -1.5598217 -0.056662075 0
-0.49786213 -2.6497641 0.48624349 0
-0.19494887 -1.0375735 0.43710974 0
-0.14859794 -0.79088056 0.47723722 0
-0.2683351 -1.5343671 -0.055610258 0
-0.47119784 -2.6943564 0.4932985 0
-0.18093938 -1.0346296 0.43487519 0
-0.13595521 -0.77740556 0.46803588 0
-0.25100917 -1.5500666 -0.056060258 0
-0.16882797 -1.0425699 0.43728444 0
-0.12727775 -0.7859832 0.47219771 0
-0.23082379 -1.5487545 -0.055903252 0
-0.15836005 -1.0625458 0.44479132 0
-0.11519257 -0.77290571 0.46343291 0
-0.21148938 -1.5528935 -0.055952087 0
-0.37836048 -2.7781703 0.10009987 0
-0.37820321 -2.7770154 0.30119893 0
-0.14742985 -1.0825266 0.45234242 0
-0.10724377 -0.78745395 0.47130895 0
-0.19155142 -1.5524477 -0.055844687 0
-0.13322566 -1.0797406 0.45044163 0
-0.096653908 -0.78334129 0.46808186 0
-0.17063588 -1.5425042 -0.055405315 0
-0.087064259 -0.78703839 0.46959868 0
-0.15281391 -1.5610131 -0.055996582 0
-0.076947927 -0.78603262 0.46838334 0
-0.13365437 -1.5687716 -0.056210067 0
-0.06660255 -0.78174913 0.46529424 0
-0.11387835 -1.5701551 -0.056203805 0
-0.05653787 -0.77954435 0.46352148 0
-0.09398973 -1.5696369 -0.056138441 0
-0.046638265 -0.77886325 0.46273059 0
-0.074147306 -1.569186 -0.056084473 0
-0.1239767 -2.6237299 0.093775056 0
-0.054065082 -1.5608035 -0.055756118 0
-0.047966924 -1.384756 0.049467225 0
-0.026972016 -0.77865446 0.46205637 0
-0.034608856 -1.5704572 -0.05608096 0
-0.029967502 -1.359845 0.048560008 0
-0.017377418 -0.78854066 0.46775594 0
-0.014759866 -1.5631127 -0.055807628 0
-0.012839987 -1.359792 0.048548494 0
-0.018866977 -1.9980676 0.21474051 0
-0.0074508903 -0.78907096 0.46797776 0
0.0049562589 -1.5738038 -0.056187101 0
0.0042840117 -1.3603393 0.048566107 0
0.00572793 -1.8188391 0.19547033 0
0.0057615368 -1.8295106 0.32995147 0
0.0057170819 -1.8153944 0.46316755 0
0.0024754081 -0.78603774 0.46616036 0
0.024714308 -1.5699543 -0.056056339 0
0.021159833 -1.3441594 0.04799417 0
0.030662509 -1.9478084 0.20935555 0
0.016276743 -1.0339656 0.34403694 0
0.012211599 -0.77573091 0.46010259 0
0.044394098 -1.5664885 -0.055948112 0
0.038766321 -1.3679069 0.048855647 0
0.054630857 -1.9277024 0.20725201 0
0.029124103 -1.0276721 0.34203777 0
0.022053262 -0.77817053 0.4616777 0
0.063808575 -1.5583324 -0.055681098 0
0.077570856 -1.8944347 0.06769044 0
0.078263514 -1.9113508 0.20558366 0
0.041650128 -1.017179 0.33869311 0
0.031871814 -0.77837312 0.46199939 0
0.083806269 -1.5645267 -0.055935699 0
0.10070996 -1.8800912 0.067217909 0
0.10022215 -1.8709844 0.20136166 0
0.054621037 -1.0196859 0.33972993 0
0.041882358 -0.78187549 0.46435443 0
0.10296343 -1.5552591 -0.0556463 0
0.12325956 -1.8618314 0.066615291 0
0.12209444 -1.8442322 0.19863221 0
0.12350851 -1.8655916 0.33719355 0
0.068148598 -1.0293822 0.34321913 0
0.051911175 -0.78411651 0.46603662 0
0.12297869 -1.5594294 -0.05584649 0
0.14455701 -1.8330529 0.065645531 0
0.14436446 -1.8306111 0.19734532 0
0.14451241 -1.8324872 0.33151275 0
0.082009032 -1.0399141 0.34704754 0
0.086605482 -1.0981994 0.45610571 0
0.061707534 -0.78248137 0.46548972 0
0.14278114 -1.5596917 -0.05591584 0
0.16539215 -1.8066865 0.064770743 0
0.16668184 -1.8207747 0.19649561 0
0.16460554 -1.7980939 0.32563987 0
0.17602399 -1.9228252 0.49262556 0
0.097975627 -1.0702518 0.35755542 0
0.098235846 -1.0730944 0.44615746 0
0.071642563 -0.78259856 0.46605915 0
0.16322793 -1.5656326 -0.056198057 0
0.1873492 -1.7969965 0.064502813 0
0.18610816 -1.7850928 0.19288248 0
0.18675055 -1.7912545 0.32480136 0
0.20345564 -1.9514846 0.50058478 0
0.11409927 -1.0944055 0.36607578 0
0.10949046 -1.0501993 0.43717697 0
0.082018279 -0.78669441 0.46907619 0
0.18330495 -1.5666733 -0.056313802 0
0.20764785 -1.7747275 0.063792273 0
0.20510058 -1.7529565 0.18967411 0
0.20723176 -1.7711712 0.32160741 0
0.23075168 -1.9721916 0.50660163 0
0.12346142 -1.0552018 0.35345423 0
0.12007108 -1.0262252 0.42779258 0
0.091623053 -0.78308517 0.46757501 0
0.20405073 -1.572208 -0.056600619 0
0.22849537 -1.7605536 0.063381195 0
0.22639404 -1.7443628 0.18903774 0
0.22728838 -1.7512538 0.31848526 0
0.12979652 -1.0000803 0.41754204 0
0.10059489 -0.77508217 0.46351606 0
0.22047783 -1.5460047 -0.055752806 0
0.24871531 -1.7440076 0.062893286 0
0.24754937 -1.735832 0.18843612 0
0.2456239 -1.7223305 0.31376284 0
0.14587583 -1.0228906 0.42779851 0
0.11089257 -0.7775858 0.46581143 0
0.23926987 -1.5388833 -0.055600237 0
0.26646793 -1.7138097 0.061920375 0
0.26674637 -1.7156007 0.18658972 0
0.26467943 -1.7023069 0.31069762 0
0.16216359 -1.042968 0.43701479 0
0.12045343 -0.77470589 0.46495798 0
0.26122257 -1.5511594 -0.056158174 0
0.28796422 -1.7099534 0.06190715 0
0.28555608 -1.6956538 0.18479671 0
0.28564027 -1.6961535 0.31020641 0
0.13195007 -0.78352952 0.47121355 0
0.28039953 -1.5459099 -0.056091499 0
0.30835307 -1.7000244 0.06168336 0
0.30289817 -1.6699502 0.18239668 0
0.30429542 -1.6776536 0.30749938 0
0.3032518 -1.6718998 0.43351507 0
0.14121264 -0.77853912 0.46924451 0
0.30345774 -1.5608536 -0.056767866 0
0.33334127 -1.7145615 0.062358178 0
0.32034189 -1.6476982 0.18039253 0
0.32134476 -1.6528566 0.30367193 0
0.32296103 -1.66117 0.43175313 0
0.15390544 -0.7916221 0.47826013 0
0.31650984 -1.525216 -0.055612277 0
0.36204332 -1.7446352 0.063612722 0
0.34099591 -1.6432108 0.18035705 0
0.33924419 -1.6347694 0.30110982 0
0.34212068 -1.6486309 0.42957976 0
0.16385841 -0.78961033 0.47825339 0
0.33874869 -1.5349739 -0.056119151 0
0.39016613 -1.767962 0.064637274 0
0.35689589 -1.6172043 0.17798176 0
0.35521668 -1.6095953 0.29727328 0
0.35539225 -1.6103909 0.42074838 0
0.17575 -0.79637694 0.48365387 0
0.35698202 -1.5260258 -0.055951916 0
0.42047921 -1.7974633 0.065904208 0
0.37418565 -1.5995677 0.17654534 0
0.37521476 -1.603967 0.29708287 0
0.37368524 -1.5974287 0.41855797 0
0.18508177 -0.79118699 0.48187914 0
0.3748827 -1.5162106 -0.0557607 0
0.44847363 -1.8138486 0.066706739 0
0.39161652 -1.5838904 0.17534539 0
0.38961676 -1.5758024 0.29275179 0
0.39373186 -1.592446 0.4185183 0
0.19785146 -0.80020893 0.48885268 0
0.39641771 -1.5208609 -0.056110855 0
0.47989506 -1.8411226 0.067926638 0
0.40805963 -1.5655253 0.17386733 0
0.40721449 -1.5622829 0.29116967 0
0.41048038 -1.5748125 0.4152095 0
0.20467909 -0.78525358 0.48125273 0
0.4127965 -1.505757 -0.055740964 0
0.4289017 -1.5645039 0.17433989 0
0.42205685 -1.539536 0.28789791 0
0.42285562 -1.5424496 0.40804836 0
0.21587919 -0.78746206 0.48423383 0
0.43470913 -1.5108179 -0.056126501 0
0.44333097 -1.5407829 0.17230497 0
0.43869406 -1.5246674 0.28612781 0
0.44001272 -1.5292504 0.40599015 0
0.22309475 -0.7753588 0.47848073 0
0.45363861 -1.5050286 -0.056119192 0
0.46190369 -1.5324495 0.17200986 0
0.45679322 -1.5154946 0.28546321 0
0.45850551 -1.5211754 0.40534705 0
0.46974051 -1.4902754 -0.055785216 0
0.47592539 -1.5098972 0.17013767 0
0.47648019 -1.5116572 0.2858479 0
0.4728868 -1.5002571 0.40132788 0
0.47494531 -1.5067878 0.52561283 0
0.49028921 -1.4897777 -0.055993248 0
0.4941783 -1.5015949 0.16988988 0
0.49102834 -1.4920235 0.28328198 0
0.48966303 -1.4878749 0.39963332 0
0.48803368 -1.4829241 0.519391 0
0.51257491 -1.4938804 -0.056385569 0
0.50755441 -1.4792485 0.16807139 0
0.50088942 -1.4598236 0.27834383 0
0.50568074 -1.4737877 0.39752835 0
0.5037294 -1.4681005 0.51637977 0
0.52207637 -1.4613665 -0.055402096 0
0.53752613 -1.5046127 0.17170869 0
0.51691312 -1.446914 0.27710149 0
0.52264553 -1.4629596 0.39635146 0
0.5205819 -1.4571834 0.51480478 0
0.54659319 -1.4712521 -0.056033362 0
0.56148994 -1.5113493 0.17327063 0
0.53614986 -1.4431421 0.27765006 0
0.53658366 -1.4443096 0.39309812 0
0.53591073 -1.4424983 0.51196021 0
0.56593329 -1.4664779 -0.056118499 0
0.59345746 -1.5378001 0.17714582 0
0.5516485 -1.4294623 0.27633274 0
0.54832888 -1.4208604 0.38856438 0
0.54902965 -1.4226762 0.50733858 0
0.58471173 -1.4601314 -0.056152936 0
0.61809826 -1.5435036 0.17868525 0
0.56506765 -1.4110765 0.27413231 0
0.56637424 -1.4143394 0.3887006 0
0.56874478 -1.4202589 0.50899011 0
0.60669756 -1.4614393 -0.056492556 0
0.65127444 -1.568818 0.18255071 0
0.57885951 -1.3943819 0.27228346 0
0.58109194 -1.3997593 0.38667393 0
0.57903373 -1.3948014 0.50243992 0
0.61886525 -1.4392987 -0.055933513 0
0.68182999 -1.5857363 0.18550371 0
0.59288859 -1.3788847 0.27069369 0
0.59338212 -1.3800325 0.38325822 0
0.594203 -1.3819416 0.50046313 0
0.35421637 -0.82380319 0.44866902 0
0.64193839 -1.4426281 -0.056372564 0
0.7170825 -1.6114995 0.18955885 0
0.61614245 -1.384657 0.27332833 0
0.6072222 -1.3646104 0.38106856 0
0.6071589 -1.3644682 0.49686462 0
0.36839843 -0.82790178 0.45339182 0
0.65497094 -1.423389 -0.055938613 0
0.62617803 -1.360816 0.27015722 0
0.62130535 -1.3502266 0.37920654 0
0.62131453 -1.3502464 0.4944956 0
0.37747285 -0.82032752 0.45181108 0
0.67440635 -1.4183208 -0.056068733 0
0.6396305 -1.3451849 0.26863176 0
0.63472503 -1.3348684 0.37710804 0
0.63658923 -1.338789 0.49319616 0
0.37369022 -0.78589505 0.43540391 0
0.68717724 -1.3994648 -0.055660985 0
0.65446973 -1.3328546 0.26779395 0
0.65266252 -1.3291742 0.3777912 0
0.65289629 -1.3296503 0.49281916 0
0.65314358 -1.3301538 0.61354285 0
0.38161924 -0.77718335 0.4332054 0
0.70984077 -1.4007597 -0.056063548 0
0.67028522 -1.322703 0.26742893 0
0.6652959 -1.3128574 0.37550485 0
0.66579759 -1.3138474 0.49003056 0
0.66388983 -1.3100827 0.60809273 0
0.40438402 -0.79798859 0.44760522 0
0.7249493 -1.3869805 -0.055872992 0
0.68350196 -1.3076831 0.26611122 0
0.67607999 -1.2934833 0.37236893 0
0.67861843 -1.2983398 0.48739517 0
0.67679322 -1.2948478 0.60492909 0
0.4253951 -0.81387031 0.45948175 0
0.74432218 -1.3813925 -0.056021009 0
0.69924194 -1.2977277 0.26585603 0
0.69341856 -1.2869201 0.37296364 0
0.69337416 -1.2868377 0.48631638 0
0.69031358 -1.2811576 0.60254645 0
0.43659693 -0.81028312 0.46052384 0
0.75974965 -1.3684762 -0.055880748 0
0.72595394 -1.3076026 0.26973039 0
0.70593739 -1.2715485 0.37105557 0
0.70165271 -1.2638309 0.48092264 0
0.70518595 -1.270195 0.60151923 0
0.44996652 -0.81048864 0.46382418 0
0.77762365 -1.3600318 -0.055931345 0
0.75708097 -1.3241035 0.27507886 0
0.71748143 -1.2548456 0.36878863 0
0.71957302 -1.2585037 0.48230523 0
0.71924841 -1.257936 0.59995526 0
0.45426813 -0.79449636 0.45790944 0
0.79513955 -1.3509027 -0.055963237 0
0.78290612 -1.3301187 0.2783545 0
0.72669101 -1.234612 0.36550248 0
0.7305854 -1.2412282 0.47917232 0
0.73189282 -1.2434496 0.59739435 0
0.46253231 -0.78581947 0.45622915 0
0.81459105 -1.3449197 -0.056135867 0
0.8129741 -1.34225 0.28301314 0
0.73832673 -1.2190045 0.3636055 0
0.75169498 -1.241076 0.48272938 0
0.74125248 -1.223835 0.59240824 0
0.47207513 -0.77941334 0.45592502 0
0.83268827 -1.3365269 -0.056218751 0
0.84441388 -1.3553473 0.28799382 0
0.7615096 -1.2222797 0.36741352 0
0.75862074 -1.2176429 0.47729263 0
0.75914198 -1.2184795 0.594396 0
0.48716503 -0.78193623 0.46095267 0
0.84742355 -1.322772 -0.056084584 0
0.87954503 -1.3729115 0.29405606 0
0.77785897 -1.2141863 0.36789584 0
0.77286458 -1.2063904 0.47665885 0
0.77390712 -1.2080177 0.59399933 0
0.50115347 -0.78226733 0.46483114 0
0.85869539 -1.3039242 -0.055739492 0
0.9078182 -1.378517 0.29768151 0
0.7810933 -1.1860859 0.36233297 0
0.78016573 -1.1846774 0.47192398 0
0.78777492 -1.1962318 0.5930348 0
0.51639789 -0.78414738 0.4697749 0
0.88024312 -1.3006895 -0.056070589 0
0.93964148 -1.3884593 0.30235958 0
0.80775869 -1.1935829 0.36770129 0
0.80101466 -1.1836176 0.47548214 0
0.79954869 -1.1814514 0.59065181 0
0.54114997 -0.79962909 0.48309395 0
0.89398307 -1.2858101 -0.055910014 0
0.81191099 -1.1677665 0.36286893 0
0.80670887 -1.1602843 0.47015217 0
0.81329936 -1.1697632 0.58988166 0
0.55287129 -0.79519123 0.48458037 0
0.91210204 -1.2772524 -0.056032877 0
0.58061182 -0.81305367 0.035668544 0
0.57776916 -0.80907297 0.10684504 0
0.58114004 -0.8137933 0.18034719 0
0.57747072 -0.80865508 0.253519 0
0.58140659 -0.81416661 0.33284399 0
0.5814541 -0.81423312 0.41425624 0
0.55667603 -0.77953541 0.47927362 0
0.92425048 -1.260401 -0.055799752 0
0.57663643 -0.78635943 0.034813255 0
0.57621688 -0.78578734 0.10471987 0
0.57912141 -0.78974825 0.17662057 0
0.58192968 -0.79357791 0.25106961 0
0.57528538 -0.78451699 0.32365862 0
0.57459879 -0.78358072 0.40231055 0
0.57048517 -0.77797097 0.48269013 0
0.94030482 -1.2490058 -0.055815041 0
0.58358598 -0.77517653 0.034640763 0
0.58770198 -0.78064388 0.10501233 0
0.57858801 -0.76853782 0.17349267 0
0.58948398 -0.78301084 0.25005504 0
0.59134388 -0.78548139 0.3271026 0
0.5846675 -0.77661324 0.40248132 0
0.58472019 -0.77668315 0.48642084 0
0.95847791 -1.2403297 -0.055962246 0
0.58032763 -0.75097984 0.033883344 0
0.60406989 -0.78170383 0.10616973 0
0.61016345 -0.78958929 0.17996511 0
0.60301006 -0.78033233 0.25160462 0
0.60793728 -0.78670841 0.33077529 0
0.60364521 -0.78115427 0.40874168 0
0.97128165 -1.2247112 -0.05580496 0
0.58264041 -0.73466462 0.033475589 0
0.88219476 -1.1123794 0.36222059 0
0.87425381 -1.1023666 0.46808684 0
0.87851763 -1.1077429 0.58537239 0
0.9909113 -1.2176514 -0.056047387 0
0.58618903 -0.72032058 0.033155702 0
0.89770412 -1.1031165 0.36285645 0
0.89120042 -1.0951246 0.46973968 0
0.88637137 -1.0891906 0.58142066 0
1.0089369 -1.2083986 -0.056201819 0
0.593144 -0.71040547 0.033040494 0
0.9066118 -1.0858443 0.36090159 0
0.89362323 -1.0702879 0.46387625 0
0.89943027 -1.077243 0.58104265 0
1.0188953 -1.189555 -0.05591771 0
0.60243565 -0.70334053 0.033062104 0
0.91680932 -1.0703702 0.35956708 0
0.91565841 -1.0690265 0.4682897 0
0.91756076 -1.0712475 0.58399457 0
1.0380927 -1.1815261 -0.056150313 0
0.61489135 -0.69985092 0.033259403 0
0.93197548 -1.0607467 0.360248 0
0.93201429 -1.0607908 0.46978581 0
0.92366123 -1.0512836 0.57940584 0
1.0435469 -1.1579968 -0.055652194 0
0.94198817 -1.0452998 0.35900196 0
0.93539602 -1.0379846 0.4648653 0
0.93251646 -1.0347892 0.57674116 0
1.0646478 -1.1519098 -0.05599951 0
0.95364797 -1.031812 0.35846552 0
0.94762957 -1.0253003 0.4644919 0
0.94689095 -1.0245012 0.57760686 0
1.0793718 -1.1387345 -0.056015305 0
0.97085422 -1.0242486 0.36005655 0
0.96427107 -1.0173035 0.46633291 0
0.95983374 -1.0126221 0.57767797 0
1.0870246 -1.1182642 -0.055677272 0
0.98121619 -1.009415 0.35915703 0
0.97927922 -1.0074223 0.46741906 0
0.9726575 -1.0006104 0.5777669 0
1.1105523 -1.1140523 -0.056159377 0
0.99410236 -0.9972353 0.35924888 0
0.98739725 -0.99050903 0.46530363 0
0.99095702 -0.99408007 0.5811553 0
1.1196585 -1.095253 -0.055918001 0
1.0026083 -0.9807542 0.35783139 0
0.99924618 -0.97746533 0.46505022 0
0.99007338 -0.96849251 0.57343948 0
1.1369396 -1.0844826 -0.056094602 0
1.0204912 -0.97340697 0.35981065 0
1.0141264 -0.96733582 0.46626955 0
1.0137346 -0.96696198 0.58004546 0
1.1465572 -1.0664097 -0.055902146 0
1.0389069 -0.96628457 0.36198491 0
1.0217338 -0.9503119 0.46422851 0
1.0234057 -0.95186692 0.57867503 0
1.157209 -1.049454 -0.055772755 0
1.0397251 -0.94290978 0.35810459 0
1.0344142 -0.93809336 0.46458593 0
1.0355085 -0.93908584 0.57878613 0
1.1761544 -1.0399491 -0.056050267 0
1.0542331 -0.93214691 0.35903025 0
1.0487262 -0.92727768 0.46573269 0
1.0418562 -0.92120332 0.57580477 0
1.1839861 -1.0206014 -0.055806614 0
1.3686497 -1.1797824 0.064510643 0
1.3706294 -1.1814889 0.19447315 0
1.3230538 -1.1404784 0.31502545 0
1.0699122 -0.92226923 0.36038628 0
1.0538818 -0.9084509 0.46290538 0
1.0604596 -0.91412109 0.57967871 0
1.1995807 -1.0079974 -0.055938948 0
1.3925118 -1.1701157 0.064935729 0
1.4002843 -1.1766468 0.1965629 0
1.1374859 -0.95581955 0.26795378 0
1.0754827 -0.90371883 0.35840106 0
1.0770591 -0.90504354 0.46804291 0
1.0694954 -0.89868778 0.57838613 0
1.2108128 -0.99169552 -0.055875972 0
1.0013888 -0.8201704 0.046211578 0
1.0065633 -0.82440841 0.13982655 0
1.0052489 -0.82333195 0.23434235 0
1.0060118 -0.82395679 0.33176628 0
1.0866307 -0.88998628 0.4672952 0
1.0886087 -0.89160633 0.58260477 0
1.223526 -0.97662878 -0.055890705 0
0.9031623 -0.72091174 0.04125648 0
0.91538632 -0.73066908 0.12587263 0
0.91056871 -0.72682357 0.21012038 0
0.90967417 -0.72610956 0.29695681 0
1.0952828 -0.87426388 0.4662447 0
1.0942993 -0.87347895 0.57971781 0
1.2332677 -0.95923358 -0.055779517 0
0.88359189 -0.68725634 0.039964017 0
0.88292909 -0.68674082 0.12021088 0
0.88740838 -0.69022477 0.20275427 0
0.88373804 -0.68737006 0.28564197 0
1.1117882 -0.86474705 0.46859834 0
1.1095648 -0.86301768 0.58200163 0
1.2497971 -0.94707662 -0.055983301 0
0.89638835 -0.67926902 0.04015274 0
0.89128256 -0.67539996 0.12018075 0
0.88323665 -0.66930288 0.19985966 0
0.88768566 -0.67267424 0.28415757 0
1.1221534 -0.8503502 0.46841684 0
1.1295292 -0.85593951 0.58677363 0
1.2591007 -0.92940336 -0.055871379 0
0.90439594 -0.66757852 0.040131699 0
0.89534801 -0.66089982 0.11959729 0
0.90404141 -0.66731685 0.20264988 0
0.9064576 -0.66910034 0.2874468 0
1.129631 -0.83383548 0.46711823 0
1.1427718 -0.84353536 0.58808839 0
1.2804408 -0.9204762 -0.05629953 0
0.91661251 -0.65892935 0.040302414 0
0.91605341 -0.65852737 0.12124576 0
0.91336709 -0.6565963 0.20287089 0
0.91774666 -0.65974462 0.28836936 0
1.1461883 -0.82396543 0.46963722 0
1.1532656 -0.82905316 0.58806962 0
1.2826492 -0.89778543 -0.055895127 0
0.91774744 -0.6423738 0.039993484 0
0.92851347 -0.64990944 0.12180211 0
0.92210424 -0.64542335 0.20299025 0
0.92248297 -0.64568841 0.28728005 0
1.1662296 -0.81629789 0.47359967 0
1.1603435 -0.81217802 0.58641732 0
1.292276 -0.88049054 -0.055827059 0
0.938182 -0.639229 0.040529992 0
0.93900663 -0.63979089 0.12211208 0
0.93290281 -0.6356321 0.20358931 0
0.92639554 -0.63119835 0.28600061 0
1.1711501 -0.79796153 0.47148001 0
1.1776743 -0.80240679 0.5900228 0
1.3071752 -0.86674541 -0.055994768 0
0.94785833 -0.62849408 0.040602904 0
0.93847716 -0.62227374 0.12101463 0
0.94233203 -0.62482977 0.20391384 0
0.94113928 -0.62403893 0.28810355 0
1.1923721 -0.79062325 0.47597787 0
1.1925184 -0.79072022 0.59242433 0
1.3251665 -0.85485047 -0.056299876 0
0.95347309 -0.61507511 0.04050843 0
0.94863409 -0.61195356 0.12132107 0
0.95405161 -0.61544836 0.20475663 0
0.95085931 -0.61338907 0.28869173 0
1.1893191 -0.76721686 0.47086531 0
1.1944104 -0.77050126 0.5884977 0
1.3302951 -0.83462787 -0.056066815 0
0.96548253 -0.60574424 0.040691368 0
0.96888274 -0.60787749 0.122922 0
0.96572751 -0.60589796 0.20560874 0
0.96658438 -0.60643554 0.29112446 0
1.2177542 -0.76401961 0.47827622 0
1.2112658 -0.75994873 0.59204054 0
1.349699 -0.82330173 -0.0564432 0
0.97717702 -0.59606743 0.040864665 0
0.9719252 -0.59286386 0.12235115 0
0.97594965 -0.59531873 0.20617272 0
0.97310781 -0.59358525 0.29081494 0
1.2271427 -0.74854374 0.47822365 0
1.2342596 -0.75288504 0.59859818 0
1.3469121 -0.79850775 -0.055901732 0
0.97934896 -0.58060044 0.040646531 0
0.98745751 -0.58540756 0.12336869 0
0.99050957 -0.58721691 0.20767 0
0.99331677 -0.58888113 0.29461497 0
1.2426018 -0.73666805 0.48059499 0
1.2495581 -0.7407921 0.60144597 0
1.3523667 -0.77889758 -0.05571663 0
0.99576324 -0.5735113 0.0410248 0
0.99160588 -0.57111686 0.12297872 0
0.98866236 -0.56942153 0.2057631 0
0.99561936 -0.57342845 0.29313305 0
1.2560474 -0.72342229 0.48223385 0
1.2524203 -0.72133327 0.59840417 0
1.3705056 -0.76652777 -0.05606183 0
1.0091413 -0.56441563 0.041279878 0
1.0085466 -0.56408304 0.12418894 0
1.0008539 -0.55978048 0.20681699 0
1.008063 -0.56381255 0.29468307 0
1.2615677 -0.70559847 0.48090392 0
1.2647077 -0.70735466 0.59997165 0
1.3852297 -0.75202352 -0.056272309 0
1.01069 -0.54869068 0.041057348 0
1.0210963 -0.55434012 0.12486484 0
1.0158377 -0.5514853 0.20846172 0
1.0191224 -0.55326849 0.29585594 0
1.2781354 -0.69388342 0.48385039 0
1.2748742 -0.69211292 0.60061258 0
1.3837297 -0.72880274 -0.055834137 0
1.2963252 -0.68276727 0.37380368 0
1.2948997 -0.68201649 0.48690695 0
1.2867056 -0.6777007 0.60211837 0
1.3947749 -0.71233255 -0.055913448 0
1.3193514 -0.67381263 0.37796682 0
1.3043532 -0.66615283 0.48726887 0
1.307573 -0.66779721 0.60790014 0
1.4097383 -0.69773567 -0.056156632 0
1.3326069 -0.65956026 0.37935486 0
1.3234549 -0.65503061 0.49128443 0
1.3137867 -0.65024543 0.60693413 0
1.4155618 -0.67856383 -0.056043793 0
1.3461581 -0.64529449 0.38086918 0
1.3406467 -0.64265257 0.49462304 0
1.3264036 -0.63582498 0.60901576 0
1.4228398 -0.66015112 -0.055998389 0
1.3546336 -0.62850571 0.38099775 0
1.3481826 -0.62551266 0.49445814 0
1.3396354 -0.62154698 0.61144906 0
1.433364 -0.64322686 -0.056089368 0
1.3673319 -0.61359465 0.38236576 0
1.3623918 -0.61137784 0.49680659 0
1.3571204 -0.60901231 0.61588067 0
1.4383844 -0.62384212 -0.055973984 0
1.3701842 -0.59426302 0.3810406 0
1.3655785 -0.59226543 0.49520975 0
1.3683327 -0.59346002 0.61752868 0
1.4396209 -0.60295743 -0.055722222 0
1.3873849 -0.58107936 0.38375878 0
1.3775295 -0.57695162 0.49686965 0
1.3837352 -0.57955074 0.62113702 0
1.4660919 -0.59245831 -0.056453574 0
1.3983876 -0.56509852 0.38480335 0
1.4036025 -0.56720591 0.50365794 0
1.3949089 -0.56369275 0.62291712 0
1.4539804 -0.56637311 -0.055708174 0
1.4063082 -0.54780322 0.38505423 0
1.3988974 -0.54491651 0.49946782 0
1.4048471 -0.54723412 0.62422848 0
1.4692132 -0.55110294 -0.056021478 0
1.4286526 -0.53588861 0.38929373 0
1.4188069 -0.53219551 0.50414366 0
1.4159162 -0.53111118 0.62612557 0
1.4713197 -0.53085852 -0.055842482 0
1.4398929 -0.51951957 0.39054304 0
1.4349434 -0.51773381 0.50752068 0
1.43142 -0.5164625 0.63005561 0
1.4875066 -0.51562518 -0.056205958 0
1.4480983 -0.50196481 0.39102322 0
1.4380459 -0.4984802 0.50635773 0
1.4387385 -0.49872032 0.63046277 0
1.4849741 -0.4938924 -0.055870838 0
1.46297 -0.48657399 0.39335331 0
1.4502132 -0.48233116 0.50846308 0
1.4540136 -0.48359513 0.63443762 0
1.4948637 -0.47636294 -0.056012802 0
1.4702232 -0.46851081 0.39368603 0
1.4573488 -0.46440816 0.50887424 0
1.465133 -0.46688873 0.63667363 0
1.5011188 -0.45761749 -0.056026816 0
1.4737586 -0.44927675 0.39308667 0
1.4651614 -0.4466559 0.50959796 0
1.4599752 -0.44507489 0.6319468 0
1.5003965 -0.43682715 -0.055790134 0
1.4804959 -0.43103328 0.39340478 0
1.480283 -0.43097126 0.5129292 0
1.476245 -0.42979568 0.63659608 0
1.5153385 -0.42055413 -0.056144368 0
1.484199 -0.41191196 0.39297938 0
1.4920349 -0.41408664 0.51515371 0
1.4820324 -0.41131064 0.6368078 0
1.5032719 -0.39688873 -0.055507723 0
1.5038378 -0.39703816 0.396824 0
1.4912994 -0.39372781 0.51314723 0
1.5056651 -0.39752054 0.64476043 0
1.5241798 -0.38194618 -0.056097701 0
1.5072122 -0.37769422 0.39642799 0
1.5021127 -0.37641639 0.51519626 0
1.507243 -0.37770197 0.64334852 0
1.5176224 -0.36005655 -0.055685066 0
1.5193572 -0.36046815 0.39839691 0
1.5125434 -0.35885158 0.51718289 0
1.5194466 -0.36048937 0.6465686 0
1.5266389 -0.34195039 -0.055853479 0
1.5272285 -0.34208244 0.39929971 0
1.5351243 -0.34385103 0.52338195 0
1.5237327 -0.34129944 0.64651239 0
1.5378389 -0.32417995 -0.056109447 0
1.5237639 -0.32121292 0.39730489 0
1.5268149 -0.32185608 0.51912606 0
1.5270529 -0.32190624 0.64615005 0
1.5439347 -0.30521321 -0.056187179 0
1.5363506 -0.30371398 0.39955789 0
1.5340695 -0.30326304 0.52025306 0
1.5404325 -0.30452088 0.65013731 0
1.5441376 -0.28509954 -0.056059469 0
1.5429211 -0.28487492 0.40030199 0
1.5417508 -0.28465885 0.52160102 0
1.5392841 -0.28420341 0.64809084 0
1.5576274 -0.26735467 -0.05642252 0
1.5508168 -0.26618567 0.40144902 0
1.541203 -0.26453555 0.52024752 0
1.5445931 -0.26511741 0.6488691 0
1.5513482 -0.24620983 -0.056078315 0
1.5665456 -0.24862176 0.40467814 0
1.5471858 -0.24554922 0.521182 0
1.5495692 -0.2459275 0.64960712 0
1.5594593 -0.22740562 -0.056263544 0
1.5702155 -0.2289741 0.40484923 0
1.5633122 -0.22796746 0.52560562 0
1.5607243 -0.22759007 0.65303028 0
1.5550969 -0.20680761 -0.056007754 0
1.5702519 -0.20882304 0.40414861 0
1.5605981 -0.20753922 0.52377295 0
1.5601505 -0.20747969 0.65164542 0
1.5552869 -0.18693535 -0.055925388 0
1.5736876 -0.189147 0.4043878 0
1.5736084 -0.18913747 0.52729839 0
1.5735841 -0.18913455 0.65620959 0
1.5443852 -0.16592669 -0.055453856 0
1.5787816 -0.1696222 0.40511584 0
1.5907574 -0.17090885 0.53228146 0
1.5762097 -0.16934587 0.65636319 0
1.5682634 -0.14854327 -0.05623962 0
1.5802678 -0.1496803 0.40498143 0
1.5844817 -0.15007944 0.52950722 0
1.5821811 -0.14986153 0.65801185 0
1.5492259 -0.12708032 -0.055495128 0
1.5833182 -0.12987685 0.40531194 0
1.601503 -0.13136852 0.53460026 0
1.5872138 -0.13019639 0.65937072 0
1.5645403 -0.10852342 -0.05599032 0
1.6743375 -0.11613943 0.059919637 0
1.6683536 -0.11572437 0.17972761 0
1.6714486 -0.11593905 0.30216789 0
1.5826761 -0.1097814 0.40476158 0
1.5823307 -0.10975744 0.52769709 0
1.5940731 -0.11057194 0.66158944 0
1.5650991 -0.088776588 -0.055965874 0
1.6379021 -0.09290617 0.058569215 0
1.646508 -0.093394317 0.17723349 0
1.6443152 -0.093269937 0.29702681 0
1.593925 -0.090411671 0.40731499 0
1.5832323 -0.089805149 0.52757883 0
1.5937517 -0.090401836 0.66093117 0
1.5620258 -0.068883702 -0.055820536 0
1.6359469 -0.072143547 0.05846218 0
1.6258161 -0.071696788 0.17489512 0
1.6419775 -0.072409488 0.29641631 0
1.5960128 -0.070382498 0.4075897 0
1.5908885 -0.070156522 0.52979374 0
1.5907922 -0.070152275 0.65928525 0
1.5618968 -0.049182974 -0.055789366 0
1.637262 -0.05155617 0.058481339 0
1.6347455 -0.051476926 0.17577204 0
1.6382151 -0.051586177 0.29559639 0
1.588257 -0.050013036 0.40541607 0
1.5987859 -0.050344583 0.53217041 0
1.5963959 -0.050269324 0.66129291 0
1.566046 -0.029581923 -0.055919837 0
1.6324117 -0.030835541 0.058289599 0
1.6459254 -0.031090807 0.176918 0
1.6339536 -0.030864665 0.29473394 0
1.6022313 -0.030265445 0.40885341 0
1.5977248 -0.030180318 0.53164852 0
1.5915352 -0.0300634 0.65907031 0
1.5729209 -0.0099028824 -0.056156419 0
1.6381937 -0.010313829 0.058486786 0
1.6330584 -0.010281499 0.17550713 0
1.6342056 -0.010288721 0.29473269 0
1.5988544 -0.010066155 0.40792704 0
1.6020461 -0.01008625 0.53300196 0
1.605013 -0.010104928 0.66454625 0
1.5699055 0.0098838974 -0.056048766 0
1.6498878 0.010387453 0.058904286 0
1.6472706 0.010370976 0.17703453 0
1.6490211 0.010381998 0.29740471 0
1.6074412 0.010120216 0.41011783 0
1.6041592 0.010099554 0.533705 0
1.5957482 0.010046599 0.66071022 0
1.563489 0.029533621 -0.05582853 0
1.6738589 0.031618457 0.059769578 0
1.6761522 0.031661779 0.18016705 0
1.6756943 0.031653132 0.3022632 0
1.5992959 0.030209996 0.40810436 0
1.6109155 0.030429488 0.5360378 0
1.6088865 0.03039116 0.66625565 0
1.5643933 0.049261585 -0.055878539 0
1.6068684 0.050599098 0.4101668 0
1.5992453 0.050359052 0.5323233 0
1.6129845 0.050791688 0.66816461 0
1.5601268 0.068799965 -0.055752672 0
1.6085534 0.070935518 0.41079232 0
1.6069101 0.070863053 0.53512919 0
1.6042808 0.070747107 0.66487551 0
1.5532401 0.088103913 -0.05554181 0
1.6176037 0.091754787 0.4133659 0
1.6042712 0.09099853 0.53458959 0
1.6025132 0.090898812 0.66456461 0
1.5631944 0.10843007 -0.055942152 0
1.599901 0.11097619 0.40916675 0
1.5948002 0.11062238 0.53185564 0
1.6091957 0.11162092 0.66786581 0
1.5647367 0.12835266 -0.056050748 0
1.6009816 0.13132575 0.40983355 0
1.5977671 0.13106208 0.53335315 0
1.6089181 0.13197677 0.66838729 0
1.5766042 0.1493333 -0.056538731 0
1.5948845 0.15106477 0.40872732 0
1.5957725 0.15114889 0.53328043 0
1.6080984 0.15231638 0.66879058 0
1.5591738 0.16751556 -0.055984866 0
1.5976866 0.17165333 0.40996689 0
1.5970285 0.17158262 0.53437984 0
1.6016034 0.17207412 0.66693759 0
1.5710868 0.1888344 -0.056493524 0
1.5871856 0.19076937 0.40785637 0
1.5879737 0.19086409 0.532112 0
1.5929736 0.19146505 0.66429532 0
1.5508673 0.20624514 -0.055855423 0
1.5876877 0.21114178 0.40863621 0
1.5957355 0.21221203 0.53556591 0
1.5951074 0.21212851 0.66624624 0
1.5538324 0.22658508 -0.05606053 0
1.5917768 0.23211826 0.41040841 0
1.5859549 0.2312693 0.53321844 0
1.5909799 0.23200206 0.66568971 0
1.545082 0.24521534 -0.055851802 0
1.5887473 0.25214532 0.41041338 0
1.586838 0.25184232 0.53453916 0
1.5853925 0.2516129 0.66462487 0
1.5468431 0.26550362 -0.056031872 0
1.5891063 0.27275777 0.41136077 0
1.5846809 0.27199817 0.53492385 0
1.593035 0.27343208 0.66921908 0
1.5477103 0.28575918 -0.056189176 0
1.5729955 0.29042768 0.40810463 0
1.5805745 0.29182702 0.5347358 0
1.5812798 0.29195723 0.66577244 0
1.5360591 0.30365634 -0.05590057 0
1.5677395 0.30991909 0.40772116 0
1.5770704 0.31176367 0.53483605 0
1.5785263 0.31205148 0.66621476 0
1.5361453 0.32382292 -0.056047656 0
1.5734168 0.33167985 0.41025135 0
1.5722669 0.33143744 0.53457999 0
1.5709732 0.33116472 0.66473424 0
1.5314602 0.3430303 -0.056029875 0
1.5637046 0.35025272 0.40883654 0
1.5604255 0.34951824 0.53200817 0
1.5686799 0.35136715 0.66558331 0
1.5233637 0.36141869 -0.055895731 0
1.5503721 0.36782646 0.40652949 0
1.5582653 0.36969912 0.53281653 0
1.5526942 0.36837739 0.66071641 0
1.5254589 0.3822667 -0.056144778 0
1.5475587 0.38780472 0.40703994 0
1.5600637 0.39093837 0.53507233 0
1.5539188 0.38939855 0.66327155 0
1.5178727 0.40074357 -0.056046851 0
1.5421251 0.40714663 0.40692702 0
1.5443586 0.4077363 0.53140461 0
1.5490507 0.40897509 0.66333914 0
1.5171382 0.42105359 -0.056211047 0
1.5499802 0.43016827 0.41039658 0
1.5353562 0.42610967 0.53011119 0
1.5347213 0.42593345 0.65944743 0
1.498553 0.43629044 -0.055721585 0
1.5296777 0.44535214 0.40647364 0
1.5377718 0.44770864 0.53284949 0
1.5347774 0.44683686 0.6618368 0
1.4992076 0.45703489 -0.055955485 0
1.5351171 0.46798193 0.40945244 0
1.522332 0.46408439 0.52948242 0
1.5250378 0.46490926 0.66010898 0
1.4920964 0.47548109 -0.055909108 0
1.5078425 0.48049882 0.40375948 0
1.5178971 0.4837029 0.53001642 0
1.5086581 0.48075873 0.65558749 0
1.4837584 0.4934881 -0.055825103 0
1.5047189 0.50045937 0.40457845 0
1.5044886 0.50038278 0.52749276 0
1.5091553 0.50193489 0.65849787 0
1.4737897 0.5108704 -0.055687655 0
1.4985825 0.51946449 0.40465522 0
1.5026034 0.52085829 0.52908945 0
1.4921535 0.51723599 0.65386951 0
1.4787416 0.53353637 -0.056124177 0
1.4817424 0.53461903 0.40189391 0
1.484452 0.53559667 0.52503121 0
1.4921943 0.53839016 0.65680611 0
1.4633917 0.54891932 -0.055799503 0
1.4873121 0.55789185 0.40527788 0
1.4662941 0.55000794 0.52101725 0
1.4785348 0.55459952 0.65381587 0
1.4626892 0.56976545 -0.05604184 0
1.4698441 0.57255256 0.40245071 0
1.4672117 0.57152718 0.52385902 0
1.4739034 0.57413375 0.65491283 0
1.4617945 0.59072167 -0.056288097 0
1.458425 0.58936012 0.40132427 0
1.4576814 0.58905959 0.52306318 0
1.4534299 0.58734155 0.64905053 0
1.4461852 0.60570675 -0.055976301 0
1.4487362 0.60677522 0.40072891 0
1.4490786 0.60691857 0.52267712 0
1.4546572 0.60925508 0.65297282 0
1.4397422 0.62443101 -0.056026824 0
1.4344379 0.62213045 0.39890918 0
1.4411539 0.62504327 0.52261621 0
1.4407153 0.62485307 0.65019488 0
1.4283919 0.64099562 -0.055894803 0
1.4209508 0.63765633 0.39735994 0
1.4224516 0.63832986 0.51870781 0
1.4307121 0.6420368 0.64927763 0
1.4162569 0.65709692 -0.055739306 0
1.4168192 0.65735775 0.39848778 0
1.4186039 0.65818584 0.52028579 0
1.4150416 0.656533 0.64586663 0
1.4161254 0.67883402 -0.056066107 0
1.4203129 0.68084133 0.40184984 0
1.3987225 0.67049181 0.51604974 0
1.4159167 0.678734 0.65011555 0
1.4063475 0.69605744 -0.056021564 0
1.3887886 0.68736684 0.39534819 0
1.3929129 0.68940812 0.51706815 0
1.3942176 0.69005388 0.64409101 0
1.4021574 0.7161029 -0.056209397 0
1.3747628 0.70211208 0.39384103 0
1.3809168 0.70525503 0.51587081 0
1.382356 0.70599008 0.64266729 0
1.3892332 0.73170143 -0.056056205 0
1.366148 0.71954256 0.39393753 0
1.3664737 0.71971411 0.51382011 0
1.3783085 0.72594744 0.6449843 0
1.3847868 0.75178307 -0.056254316 0
1.358761 0.73765397 0.39445463 0
1.3594314 0.73801792 0.51462573 0
1.357371 0.73689938 0.63947803 0
1.3608943 0.76115215 -0.055668671 0
1.4142119 0.79097283 0.057849679 0
1.405688 0.78620541 0.17309156 0
1.4201342 0.79428518 0.2934573 0
1.3412838 0.75018394 0.3920922 0
1.344911 0.75221258 0.51267397 0
1.3407881 0.74990672 0.63606393 0
1.3557866 0.78086722 -0.055857528 0
1.3902144 0.80069602 0.057275932 0
1.3887503 0.79985279 0.17223249 0
1.3801377 0.79489231 0.28723797 0
1.3374168 0.7702871 0.39376599 0
1.3346617 0.76870036 0.51241624 0
1.3323456 0.76736641 0.63659233 0
1.3471293 0.79863656 -0.055910747 0
1.3649735 0.80921537 0.056651346 0
1.3506823 0.80074286 0.16874842 0
1.3537797 0.80257916 0.28383312 0
1.3221991 0.78385687 0.39216059 0
1.3188711 0.7818839 0.51009339 0
1.3176076 0.78113484 0.63420004 0
1.3336216 0.81349474 -0.055770859 0
1.3517194 0.82453424 0.056527693 0
1.3491557 0.82297033 0.16983894 0
1.3453158 0.82062811 0.28420261 0
1.302413 0.79445785 0.38922837 0
1.3037167 0.79525304 0.50806493 0
1.3080071 0.79787016 0.6343646 0
1.3326769 0.83612216 -0.056167196 0
1.346748 0.84495038 0.056760237 0
1.3391814 0.84020311 0.16990173 0
1.3436954 0.84303522 0.28608021 0
1.294145 0.81194723 0.38978207 0
1.2884431 0.80836987 0.5060395 0
1.2860775 0.80688572 0.62860692 0
1.3126017 0.84674513 -0.055766061 0
1.3218774 0.85272872 0.056160137 0
1.3180155 0.85023749 0.16856135 0
1.3241358 0.8541857 0.28418335 0
1.2801554 0.82581437 0.38866976 0
1.2763177 0.82333875 0.5053091 0
1.2732636 0.82136852 0.62734938 0
1.3142482 0.87143528 -0.056297749 0
1.3229127 0.87718046 0.056668907 0
1.3337917 0.88439399 0.1719896 0
1.330534 0.88223392 0.28791794 0
1.2658757 0.83936107 0.38751256 0
1.2570962 0.83353966 0.50181478 0
1.2592467 0.83496559 0.62557387 0
1.2923666 0.88055229 -0.05583097 0
1.329936 0.90615016 0.05745399 0
1.3278929 0.9047581 0.17268437 0
1.3321303 0.90764517 0.29071352 0
1.256855 0.85635644 0.38802138 0
1.236131 0.8422361 0.49763989 0
1.2461177 0.84904063 0.62431341 0
1.2906837 0.90340918 -0.05624526 0
1.355023 0.94844317 0.059049025 0
1.3585482 0.95091063 0.17821392 0
1.3544086 0.94801319 0.29815692 0
1.2421429 0.86943322 0.38682872 0
1.2285259 0.85990202 0.49889788 0
1.2304645 0.86125886 0.6218552 0
1.2682699 0.91172683 -0.055764388 0
1.2256662 0.88110006 0.38512215 0
1.2135732 0.87240678 0.49724743 0
1.2110214 0.87057239 0.61752033 0
1.2562373 0.92728966 -0.055744316 0
1.2091333 0.89251995 0.38342831 0
1.2004359 0.88609999 0.49639702 0
1.1993845 0.88532388 0.61722213 0
1.2561699 0.95190585 -0.056268763 0
1.1942354 0.90497291 0.38228741 0
1.1855491 0.89839053 0.4948799 0
1.1805512 0.89460307 0.61327875 0
1.2248741 0.95270514 -0.055399887 0
1.1723701 0.91186756 0.37893367 0
1.1689382 0.90919828 0.49268603 0
1.1637716 0.90517968 0.61043483 0
1.2320673 0.98344654 -0.056280874 0
1.1631116 0.9284054 0.37968966 0
1.1629014 0.92823768 0.49502891 0
1.1481318 0.91644853 0.60823625 0
1.2180669 0.99763685 -0.05621073 0
1.1437331 0.93675506 0.37718451 0
1.1345736 0.9292531 0.48791263 0
1.1379461 0.93201524 0.60900927 0
1.1999559 1.0083127 -0.055956446 0
1.1230377 0.94367892 0.37424862 0
1.1147964 0.93675375 0.48444185 0
1.107187 0.93035972 0.5987699 0
1.1878769 1.0239553 -0.055990003 0
1.1088445 0.95582902 0.37350014 0
1.1000029 0.9482075 0.48316357 0
1.1044024 0.9519999 0.60369909 0
1.179835 1.0432034 -0.056225661 0
1.0953637 0.96851444 0.37303773 0
1.0832896 0.95783854 0.48108211 0
1.0821424 0.95682412 0.59806979 0
1.1561178 1.0484644 -0.055720162 0
1.0782511 0.97784841 0.3713738 0
1.0674008 0.96800846 0.4794012 0
1.0591748 0.96054834 0.59201413 0
1.1488632 1.0685546 -0.056014579 0
1.0631258 0.98881048 0.37042347 0
1.0507106 0.97726303 0.47739419 0
1.0529202 0.97931832 0.59536374 0
1.1384757 1.0859476 -0.056170385 0
1.0414103 0.99336082 0.3671864 0
1.0378803 0.98999369 0.47719097 0
1.0315524 0.98395771 0.5902406 0
1.1214122 1.0969684 -0.056005582 0
1.0292315 1.0067972 0.36733323 0
1.0108742 0.98883986 0.47046188 0
1.0139331 0.99183208 0.58725876 0
1.11701 1.1205304 -0.056485936 0
1.0108867 1.0140725 0.36531439 0
1.0037954 1.0069588 0.47303113 0
1.0037256 1.006889 0.58864361 0
1.0968878 1.1284108 -0.056182463 0
0.99216336 1.0206767 0.36316401 0
0.9921273 1.0206397 0.47355154 0
0.98321056 1.0114667 0.58403552 0
1.0701332 1.1289878 -0.05553586 0
0.96626985 1.0194122 0.35835639 0
0.97166717 1.0251063 0.46990979 0
0.96214205 1.0150573 0.57906723 0
1.0656601 1.153005 -0.056052752 0
0.95838541 1.0369377 0.36024627 0
0.95413804 1.0323423 0.46768209 0
0.94725144 1.0248913 0.5778268 0
1.0481658 1.1631223 -0.055898521 0
0.93218064 1.0344166 0.35526422 0
0.93400437 1.0364403 0.46417367 0
0.9368813 1.0396328 0.57944077 0
1.0440329 1.188287 -0.05647162 0
0.91896456 1.045938 0.35521874 0
0.91351688 1.0397376 0.46046209 0
0.91361946 1.0398544 0.57310677 0
0.91127616 1.0371872 0.69079238 0
1.0242318 1.1957854 -0.056210585 0
0.8985309 1.0490302 0.3523984 0
0.89467317 1.0445263 0.45755735 0
0.89678717 1.0469944 0.57077295 0
0.89746308 1.0477836 0.69026828 0
1.0138768 1.2143151 -0.056476995 0
0.8824023 1.0568486 0.45805147 0
0.87747055 1.0509419 0.56685644 0
0.88145018 1.0557084 0.68812233 0
0.99012578 1.216686 -0.056002956 0
0.86841685 1.0671277 0.45773077 0
0.86093992 1.0579399 0.56473869 0
0.85948944 1.0561576 0.68130666 0
0.97416753 1.22835 -0.055970766 0
0.84236127 1.0621526 0.56128079 0
0.83829731 1.0570282 0.67500526 0
0.96548772 1.2494009 -0.056371521 0
0.82997924 1.0740445 0.56199747 0
0.81875396 1.0595182 0.66995853 0
0.93655115 1.2440199 -0.055592235 0
0.80971605 1.075545 0.67359191 0
0.92569649 1.2623729 -0.055887051 0
0.78939706 1.0765013 0.66791248 0
0.90703839 1.2701616 -0.055721804 0
0.89142507 1.282131 -0.055750038 0
0.87758887 1.2967674 -0.055901516 0
0.8670705 1.3166418 -0.056283135 0
0.84430611 1.3179058 -0.055878263 0
0.83154261 1.3346879 -0.056141399 0
0.81219113 1.3409573 -0.055970479 0
0.79007196 1.342293 -0.055606574 0
0.77471954 1.3549527 -0.055722464 0
0.76324594 1.3747739 -0.056137908 0
0.7459299 1.3843762 -0.05614201 0
0.72570348 1.3884234 -0.055931117 0
0.71229482 1.4056025 -0.056257371 0
0.69450229 1.4143826 -0.056254305 0
0.67151976 1.4122502 -0.05582875 0
0.65779412 1.4295243 -0.056179732 0
0.63120341 1.4185034 -0.055429857 0
0.61940527 1.4405546 -0.055982318 0
0.60252416 1.4513862 -0.056103952 0
0.58649439 1.4645829 -0.056324132 0
0.56657892 1.468151 -0.056182522 0
0.54618102 1.4701427 -0.055991109 0
0.52890968 1.480494 -0.056127243 0
0.50946051 1.4848037 -0.056042977 0
0.49043927 1.4902335 -0.056010384 0
0.47132424 1.4952998 -0.055973295 0
0.45122558 1.497023 -0.055820677 0
0.4384709 1.5238918 -0.056612194 0
0.41334993 1.5077757 -0.055815697 0
0.39244998 1.5056387 -0.055549245 0
0.3763051 1.5219635 -0.055972271 0
0.35874566 1.5335649 -0.05622834 0
0.33844465 1.533596 -0.056068778 0
0.31926268 1.5384815 -0.056095961 0
0.29642072 1.5246582 -0.055451445 0
0.27964389 1.5417438 -0.055940337 0
0.26101574 1.5499313 -0.056113709 0
0.24052797 1.5469749 -0.05589259 0
0.22121778 1.5511931 -0.055939917 0
0.20025317 1.5429479 -0.05554723 0
0.18343335 1.5677707 -0.056353249 0
0.16317138 1.5650902 -0.056178588 0
0.14331104 1.5654802 -0.056123361 0
0.12327591 1.5631982 -0.055981461 0
0.10381918 1.5681851 -0.056108788 0
0.083656386 1.5617287 -0.055835664 0
0.064226657 1.5685428 -0.056045927 0
0.044568218 1.5726324 -0.05616755 0
0.024757747 1.5727136 -0.056154862 0
0.0049343309 1.5668408 -0.055938516 0
-0.014808735 1.5682881 -0.055992402 0
-0.034899112 1.5836282 -0.056551296 0
-0.054199379 1.5646806 -0.055894617 0
-0.073596157 1.5575221 -0.055667587 0
-0.093633898 1.5636946 -0.055925906 0
-0.1135296 1.5653466 -0.056031682 0
-0.13370021 1.5693096 -0.056229342 0
-0.1530588 1.5635147 -0.05608632 0
-0.17203757 1.5551751 -0.055860445 0
-0.095644727 0.86460364 0.51587921 0
-0.19256392 1.5606536 -0.056139871 0
-0.10460136 0.84775221 0.50657028 0
-0.2133622 1.5666449 -0.056447566 0
-0.11421487 0.83864039 0.50194514 0
-0.23114929 1.5509385 -0.055982083 0
-0.12419256 0.83329278 0.49964091 0
-0.25100392 1.5500343 -0.056059089 0
-0.13501118 0.83373976 0.50088859 0
-0.26805675 1.5327754 -0.055552572 0
-0.14383654 0.82247174 0.49516794 0
-0.28907204 1.5385238 -0.055888407 0
-0.15228623 0.81051069 0.48908255 0
-0.30972511 1.5412515 -0.056124721 0
-0.16377121 0.81495696 0.49297085 0
-0.32845584 1.534189 -0.056013707 0
-0.17067802 0.79722238 0.48350486 0
-0.34580275 1.5213776 -0.055700522 0
-0.17915303 0.78819317 0.47935897 0
-0.36554652 1.5194601 -0.055794425 0
-0.18680044 0.77646971 0.47362205 0
-0.3850109 1.5161605 -0.055846859 0
-0.19615448 0.77244997 0.47263932 0
-0.4056114 1.5169548 -0.056059804 0
-0.20372243 0.76190591 0.46772027 0
-0.42153728 1.5005419 -0.055645011 0
-0.21397839 0.76169664 0.46920869 0
-0.44497171 1.5106443 -0.056222972 0
-0.22086243 0.74981081 0.46356338 0
-0.46101975 1.4953935 -0.055866998 0
-0.48008066 1.4903042 -0.055898279 0
-0.49912131 1.4850754 -0.055933461 0
-0.51711881 1.476783 -0.055861969 0
-0.53218645 1.4605879 -0.055498447 0
-0.55398357 1.4628781 -0.05584611 0
-0.57123578 1.4529299 -0.055736512 0
-0.58934915 1.4452899 -0.055723701 0
-0.60495353 1.4317271 -0.055490088 0
-0.62203926 1.421954 -0.055410497 0
-0.63672566 1.4070076 -0.055136129 0
-0.64579242 1.3804977 -0.054411646 0
-0.66526788 1.3766948 -0.054587606 0
-0.68071294 1.3645278 -0.054440737 0
-0.69169825 1.3439157 -0.053961597 0
-0.70512301 1.3286144 -0.053699471 0
-0.72068375 1.3175973 -0.053616725 0
-0.72770339 1.2915342 -0.052924834 0
-0.74899811 1.2910434 -0.053286985 0
-0.7620132 1.2761823 -0.053065442 0
-0.78047097 1.270474 -0.053232513 0
-0.78790402 1.2470894 -0.052664239 0
-0.79801828 1.2285631 -0.052302089 0
-0.81819195 1.2255594 -0.052608654 0
-0.83045435 1.2106351 -0.052412748 0
-0.84596807 1.2005597 -0.052433588 0
-0.85724503 1.1845998 -0.052203853 0
-0.87258852 1.1743795 -0.052233536 0
-0.88296837 1.1576123 -0.051978178 0
-0.89554054 1.1439332 -0.051866196 0
-0.90630549 1.1281258 -0.051662829 0
-0.91918564 1.1151054 -0.051592533 0
-0.93738347 1.1084454 -0.05182641 0
-0.94697148 1.0916046 -0.051592447 0
-0.96453339 1.0839689 -0.051801492 0
-0.97511393 1.0684605 -0.051643059 0
-0.98561513 1.0530266 -0.05149287 0
-1.0006505 1.0424651 -0.051588487 0
-1.0135342 1.0296175 -0.051580194 0
-1.0252671 1.0156343 -0.051522363 0
-1.0427171 1.0072261 -0.051757801 0
-1.0508405 0.98980111 -0.05153827 0
-1.0670834 0.98003954 -0.051725544 0
-1.0751978 0.96281803 -0.051527105 0
-1.0913213 0.95277059 -0.051720735 0
-1.1018946 0.93781632 -0.051658064 0
-1.1154749 0.92541033 -0.051744319 0
-1.1273177 0.91151756 -0.051757138 0
-1.140649 0.89878243 -0.051845476 0
-1.1619878 0.89211285 -0.052300632 0
-1.1658816 0.87199128 -0.051977556 0
-1.18053 0.85998225 -0.052143693 0
-1.1997979 0.85110301 -0.052517205 0
-1.207448 0.83387679 -0.052388299 0
-1.225068 0.8234579 -0.052698713 0
-1.2301008 0.80454141 -0.052475248 0
-1.2349749 0.78570724 -0.052256968 0
-1.2581674 0.77838361 -0.052819405 0
-1.272583 0.76531541 -0.053015817 0
-1.2831661 0.74984354 -0.053059138 0
-1.2963215 0.73579335 -0.053215779 0
-1.3156568 0.72501904 -0.053630482 0
-1.3182323 0.70494711 -0.053369388 0
-1.3403852 0.6952337 -0.053907558 0
-1.3483822 0.67797446 -0.053881563 0
-1.375463 0.67002845 -0.054622237 0
-1.3857617 0.65358633 -0.054700043 0
-1.4003088 0.63901925 -0.054952282 0
-1.4159256 0.6247263 -0.055252038 0
-1.434571 0.61149114 -0.055674732 0
-1.4474527 0.5955587 -0.055879183 0
-1.4613662 0.57987726 -0.056129973 0
-1.4695053 0.56179553 -0.056166425 0
-1.4746443 0.54257911 -0.056097258 0
-0.97722459 0.35955903 0.34642565 0
-1.471786 0.52058244 -0.055734735 0
-0.98055327 0.3468295 0.34603 0
-1.4777695 0.50185519 -0.055717591 0
-0.98459482 0.33437154 0.34594294 0
-1.4801495 0.48196408 -0.0555741 0
-0.98932117 0.32214129 0.34615088 0
-1.493346 0.46554774 -0.055845045 0
-0.98400033 0.30676019 0.34291047 0
-1.5006567 0.44717482 -0.055903431 0
-0.99839973 0.29750922 0.34659544 0
-0.74742001 0.22272077 0.46251702 0
-1.4944612 0.42491567 -0.055468909 0
-0.99408793 0.28264603 0.34383577 0
-0.74888575 0.21292844 0.46172825 0
-1.5210434 0.41184586 -0.056258596 0
-0.9932977 0.26895061 0.34236392 0
-0.76335782 0.20669086 0.46900916 0
-1.5239359 0.39210245 -0.056178506 0
-0.99754977 0.25666547 0.34268835 0
-0.75457001 0.19414777 0.46207121 0
-1.5140986 0.36930898 -0.055640019 0
-1.0064702 0.24549159 0.3446635 0
-0.78503609 0.19148085 0.47921303 0
-1.5394624 0.35501993 -0.056403335 0
-1.0065061 0.2321133 0.34364766 0
-0.7876991 0.18165359 0.4794043 0
-1.5313764 0.33290502 -0.055949051 0
-1.0055367 0.21859303 0.34234971 0
-0.79350072 0.17249866 0.40629324 0
-0.78963262 0.17165777 0.47922751 0
-1.5269501 0.31186146 -0.055639453 0
-1.0076238 0.2057952 0.34215093 0
-0.80680573 0.1647805 0.41201067 0
-0.79600531 0.16257463 0.48181447 0
-1.5340924 0.29324839 -0.05576073 0
-1.0278969 0.19648692 0.34816712 0
-0.82693791 0.15807274 0.34858119 0
-0.80118906 0.15315074 0.40812522 0
-0.80938935 0.15471825 0.48869771 0
-1.5425413 0.27477801 -0.055937625 0
-1.0292922 0.18335125 0.34783015 0
-0.83777517 0.14923568 0.35232937 0
-0.826994 0.14731519 0.42029199 0
-0.81824917 0.14575745 0.49289989 0
-1.5452977 0.25523779 -0.055916604 0
-1.0222677 0.16884859 0.3447105 0
-0.83719945 0.13828075 0.35132712 0
-0.82417893 0.13613014 0.41795698 0
-0.83327031 0.13763177 0.50086468 0
-1.5640309 0.23814204 -0.056481473 0
