# .PCD v0.7 - Point Cloud Data file format
VERSION 0.7
FIELDS x y z intensity
SIZE 4 4 4 4
TYPE F F F F
COUNT 1 1 1 1
WIDTH 1350
HEIGHT 1
VIEWPOINT 0 0 0 1 0 0 0
POINTS 1350
DATA ascii
-0.57838702 -0.70166731 0.032464009 0
-0.98549086 -1.226692 -0.056176696 0
-0.58327609 -0.72603416 0.033248935 0
-0.97780448 -1.2490143 -0.0566306 0
-0.58147579 -0.74275744 0.033676796 0
-0.61137533 -0.78095013 0.10658782 0
-0.61652207 -0.7875244 0.1803752 0
-0.61015165 -0.77938706 0.2525329 0
-0.60887706 -0.7777589 0.32861701 0
-0.60932511 -0.77833122 0.40926287 0
-0.94760156 -1.2423495 -0.055782977 0
-0.57968551 -0.75999451 0.034124661 0
-0.59312433 -0.77761346 0.10510471 0
-0.59540898 -0.78060871 0.17705996 0
-0.59204382 -0.77619684 0.24906392 0
-0.59077919 -0.77453882 0.32408756 0
-0.59403074 -0.7788018 0.40554494 0
-0.59228641 -0.77651495 0.48864022 0
-0.93071252 -1.2526062 -0.055712868 0
-0.58977872 -0.79375798 0.035304416 0
-0.58125353 -0.78228432 0.10473844 0
-0.58710402 -0.79015815 0.17753504 0
-0.58608127 -0.78878164 0.25071412 0
-0.58220387 -0.78356326 0.3247703 0
-0.58491576 -0.78721309 0.40605736 0
-0.5807097 -0.78155231 0.48716995 0
-0.91849971 -1.2692457 -0.055934094 0
-0.57950974 -0.80080616 0.035290539 0
-0.58058298 -0.80228925 0.10642959 0
-0.582151 -0.80445606 0.17908628 0
-0.58249623 -0.80493313 0.25349638 0
-0.58295327 -0.8055647 0.33082065 0
-0.57909989 -0.80023986 0.40898296 0
-0.56905377 -0.78635746 0.48566008 0
-0.89633268 -1.272035 -0.055555213 0
-2.0242863 -2.8727758 0.12546642 0
-0.55097908 -0.78192472 0.47859946 0
-0.88820648 -1.2948261 -0.05605768 0
-1.982168 -2.8896015 0.12510124 0
-0.54131293 -0.7891252 0.47879663 0
-0.87123859 -1.3050171 -0.056019481 0
-1.9592358 -2.9347143 0.12597625 0
-0.52332354 -0.78387964 0.47157821 0
-0.85241264 -1.312304 -0.055867091 0
-1.9198673 -2.9556692 0.12582803 0
-0.50386333 -0.77570635 0.46280757 0
-0.83429313 -1.3205137 -0.055764932 0
-1.8910036 -2.9930682 0.12639645 0
-0.49195945 -0.77867019 0.46084332 0
-0.82548493 -1.3437489 -0.056302719 0
-1.8538702 -3.0177851 0.12644438 0
-1.2167797 -1.9807101 0.24982315 0
-1.2140225 -1.976222 0.41828862 0
-0.4846487 -0.78892559 0.46326423 0
-0.79844469 -1.337196 -0.055602476 0
-1.8246655 -3.0558603 0.12706694 0
-1.1814165 -1.9785784 0.24765827 0
-1.1810172 -1.9779096 0.41546515 0
-0.47073007 -0.78835565 0.45941243 0
-0.78781515 -1.3579521 -0.056048598 0
-1.7967693 -3.09708 0.12782998 0
-0.46085402 -0.79437125 0.45949978 0
-0.76672912 -1.3607974 -0.055763118 0
-0.44184387 -0.78418827 0.45035544 0
-0.74664134 -1.3650545 -0.055547889 0
-0.43279514 -0.79126203 0.45125228 0
-0.73467577 -1.3842987 -0.055950098 0
-0.40635237 -0.7656616 0.4337 0
-0.71097142 -1.3813618 -0.055465154 0
-0.40208626 -0.78122216 0.43961129 0
-0.69971997 -1.4026284 -0.055960841 0
-0.40405858 -0.8099584 0.45288277 0
-0.67956471 -1.4062805 -0.055760719 0
-0.66501111 -1.421581 -0.056030925 0
-0.64342225 -1.4218054 -0.055716008 0
-0.6293208 -1.4385992 -0.056059126 0
-0.61230457 -1.4491247 -0.056164373 0
-0.59240651 -1.4527876 -0.056012779 0
-0.5765689 -1.4664946 -0.056256875 0
-0.33615777 -0.85501236 0.38038349 0
-0.55523354 -1.466179 -0.055972122 0
-0.31777081 -0.8391223 0.37150458 0
-0.53809035 -1.4767911 -0.05611413 0
-0.28295153 -0.77656162 0.49015671 0
-0.5197497 -1.4842962 -0.056146167 0
-0.3015855 -0.86126506 0.37782481 0
-0.27436176 -0.78351969 0.49232891 0
-0.50084847 -1.4902142 -0.056127012 0
-0.8029446 -2.389065 0.45454854 0
-0.28612196 -0.8513214 0.37185267 0
-0.26117638 -0.77709889 0.48618928 0
-0.47899121 -1.4869221 -0.055771429 0
-0.77188081 -2.3961332 0.45400804 0
-0.27661899 -0.85870236 0.37352556 0
-0.24919656 -0.77357554 0.48198345 0
-0.46385422 -1.5045875 -0.056210481 0
-0.74541306 -2.41787 0.456312 0
-0.26592639 -0.86257607 0.37372434 0
-0.23856457 -0.7738235 0.48022816 0
-0.44338071 -1.5052431 -0.056021947 0
-0.7205146 -2.4460912 0.45988926 0
-0.25722739 -0.87326699 0.37692308 0
-0.23065338 -0.78305024 0.48411337 0
-0.42578533 -1.5156636 -0.056205776 0
-0.6922003 -2.4640181 0.46158439 0
-0.24919301 -0.88704979 0.38148746 0
-0.21814744 -0.77653718 0.47835052 0
-0.40663686 -1.52079 -0.056201536 0
-0.66705453 -2.4947314 0.46572748 0
-0.24875183 -0.93031234 0.39871436 0
-0.20847633 -0.77968514 0.4786346 0
-0.38552129 -1.5181704 -0.055920891 0
-0.63827872 -2.513521 0.46769765 0
-0.23995364 -0.94492966 0.4036521 0
-0.20038435 -0.78910708 0.4828313 0
-0.36585161 -1.5207281 -0.055840988 0
-0.61492127 -2.556031 0.47412923 0
-0.19091287 -0.79356378 0.4840489 0
-0.34721309 -1.5275824 -0.055927698 0
-0.5862965 -2.5794423 0.47706461 0
-0.18308367 -0.80548626 0.48987618 0
-0.32810962 -1.5325719 -0.055954669 0
-0.55831677 -2.6078496 0.4809801 0
-0.16946009 -0.79153353 0.48005465 0
-0.30880421 -1.536669 -0.055957846 0
-0.5275262 -2.6250715 0.48289299 0
-0.20416705 -1.0159744 0.42905957 0
-0.15874682 -0.78995466 0.47784683 0
-0.28889999 -1.537608 -0.05585514 0
-0.50024229 -2.6624322 0.48856813 0
-0.19772674 -1.052358 0.44333825 0
-0.14732391 -0.78409982 0.47314554 0
-0.26890215 -1.5376096 -0.055727776 0
-0.47000369 -2.6875281 0.49204832 0
-0.18279651 -1.0452487 0.43933868 0
-0.13719013 -0.78446692 0.47228721 0
-0.24858731 -1.5351108 -0.055519361 0
-0.16894361 -1.0432841 0.43758401 0
-0.12625104 -0.77964294 0.46838865 0
-0.23069289 -1.5478762 -0.05587155 0
-0.15845606 -1.06319 0.44506097 0
-0.11475688 -0.7699824 0.46168008 0
-0.21225701 -1.55853 -0.056155175 0
-0.37852672 -2.7793908 0.10014384 0
-0.37833303 -2.7779689 0.30130234 0
-0.14537369 -1.0674287 0.44603369 0
-0.10553821 -0.77493066 0.46381345 0
-0.19301403 -1.5643014 -0.056271091 0
-0.13368414 -1.0834565 0.45199174 0
-0.096267603 -0.78021044 0.46621102 0
-0.17216267 -1.556306 -0.055901065 0
-0.086596504 -0.78280997 0.46707577 0
-0.1522667 -1.5554233 -0.055796061 0
-0.076066218 -0.77702588 0.46301636 0
-0.13304077 -1.5615696 -0.055952013 0
-0.11318209 -1.5605551 -0.055860169 0
-0.056519147 -0.77928627 0.463368 0
-0.094208114 -1.5732839 -0.056268875 0
-0.046875294 -0.7828216 0.46508229 0
-0.074259549 -1.5715615 -0.056169372 0
-0.12372199 -2.6183395 0.093582399 0
-0.03668201 -0.7763046 0.46089953 0
-0.054400098 -1.5704751 -0.056101613 0
-0.048035659 -1.3867403 0.049538109 0
-0.027394349 -0.79084682 0.46929136 0
-0.034461673 -1.5637784 -0.055842459 0
-0.029994514 -1.3610708 0.048603777 0
-0.017181654 -0.77965742 0.46248648 0
-0.014848991 -1.5725515 -0.056144617 0
-0.012796982 -1.3552376 0.048385888 0
-0.018899826 -2.0015466 0.2151144 0
0.0049175364 -1.5615078 -0.05574812 0
0.0042600883 -1.3527427 0.048294898 0
0.0057528578 -1.8267547 0.19632103 0
0.0057623265 -1.8297614 0.32999671 0
0.0057431385 -1.8236684 0.46527851 0
0.0024528552 -0.7788763 0.46191326 0
0.024698019 -1.5689195 -0.056019392 0
0.021422373 -1.3608371 0.048589662 0
0.030640125 -1.9463866 0.20920272 0
0.016397564 -1.0416405 0.34659067 0
0.012218552 -0.77617252 0.46036455 0
0.044437144 -1.5680073 -0.05600236 0
0.038425032 -1.3558643 0.048425537 0
0.054439414 -1.9209472 0.20652573 0
0.029339604 -1.0352762 0.34456864 0
0.022328544 -0.78788418 0.46744066 0
0.064268611 -1.5695673 -0.056082536 0
0.077980801 -1.9044464 0.068048164 0
0.07763169 -1.8959204 0.20392399 0
0.041232053 -1.0069689 0.33529338 0
0.031778075 -0.77608383 0.46064058 0
0.083815105 -1.5646917 -0.055941597 0
0.10072596 -1.8803897 0.067228585 0
0.10028038 -1.8720716 0.20147868 0
0.054465108 -1.016775 0.33876008 0
0.10448998 -1.5783175 -0.056471318 0
0.1225527 -1.8511543 0.06623327 0
0.12250958 -1.8505028 0.19930759 0
0.12326898 -1.8619736 0.3365396 0
0.06816978 -1.0297022 0.34332585 0
0.052350562 -0.79075342 0.46998125 0
0.12379174 -1.5697391 -0.056215707 0
0.14501148 -1.8388157 0.065851912 0
0.14407879 -1.8269888 0.1969548 0
0.14507219 -1.8395855 0.3327969 0
0.083542503 -1.0593594 0.35353693 0
0.085451983 -1.0835724 0.45003083 0
0.14261031 -1.5578257 -0.055848945 0
0.16623481 -1.8158915 0.065100752 0
0.16546063 -1.8074346 0.19505596 0
0.16556761 -1.8086033 0.32754314 0
0.17559808 -1.9181727 0.49143362 0
0.0976163 -1.0663266 0.35624409 0
0.098610938 -1.0771917 0.44786102 0
0.071334474 -0.7792331 0.46405491 0
0.16347004 -1.5679549 -0.056281418 0
0.18632179 -1.7871419 0.064149089 0
0.18632606 -1.7871828 0.19310831 0
0.18664037 -1.7901975 0.3246097 0
0.20352268 -1.9521276 0.50074971 0
0.11363848 -1.0899857 0.36459738 0
0.10790657 -1.0350069 0.43085271 0
0.081308343 -0.77988487 0.46501592 0
0.18227972 -1.5579108 -0.055998836 0
0.20968135 -1.7921075 0.064416997 0
0.20780708 -1.7760885 0.19217704 0
0.20742495 -1.7728225 0.32190725 0
0.23040207 -1.9692036 0.50583404 0
0.12361466 -1.0565115 0.35389295 0
0.11819347 -1.0101776 0.42110294 0
0.090832055 -0.77632469 0.46353838 0
0.20124255 -1.5505711 -0.055821672 0
0.22679222 -1.7474309 0.062908769 0
0.22709626 -1.7497735 0.1896241 0
0.22679923 -1.7474849 0.31779987 0
0.13187966 -1.0161309 0.42424327 0
0.10081619 -0.77678734 0.46453577 0
0.22193679 -1.556235 -0.056121737 0
0.24850751 -1.7425505 0.062840745 0
0.24870797 -1.7439561 0.18931805 0
0.24543957 -1.7210379 0.31352738 0
0.14621472 -1.0252669 0.42879233 0
0.11073408 -0.77647442 0.46514565 0
0.24043435 -1.5463728 -0.055870835 0
0.26823989 -1.7252061 0.062332131 0
0.26598158 -1.7106818 0.18605472 0
0.26466 -1.7021821 0.31067482 0
0.16125903 -1.0371503 0.43457708 0
0.1215869 -0.78199589 0.46933323 0
0.2598519 -1.5430204 -0.055863503 0
0.28555343 -1.6956379 0.061388869 0
0.28569493 -1.6964781 0.18488654 0
0.285025 -1.6925001 0.30953825 0
0.13109043 -0.77842492 0.46814367 0
0.27969676 -1.5420353 -0.055950917 0
0.30735204 -1.6945055 0.061483111 0
0.30191529 -1.6645314 0.18180482 0
0.30474037 -1.6801068 0.30794904 0
0.30359253 -1.6737784 0.43400219 0
0.14051087 -0.77467006 0.46691257 0
0.29916582 -1.5387778 -0.055964973 0
0.33488175 -1.7224849 0.062646352 0
0.32140535 -1.6531682 0.18099141 0
0.3229593 -1.6611611 0.30519769 0
0.32253632 -1.6589855 0.43118536 0
0.15438616 -0.79409468 0.47975397 0
0.31957331 -1.5399784 -0.056150541 0
0.36458692 -1.7568926 0.064059645 0
0.33965415 -1.636745 0.17964737 0
0.34057224 -1.6411691 0.30228859 0
0.33880034 -1.6326306 0.42541063 0
0.16496587 -0.79494703 0.48148572 0
0.33803618 -1.5317452 -0.056001112 0
0.39099354 -1.7717112 0.064774349 0
0.35774317 -1.6210437 0.1784043 0
0.35878569 -1.6257676 0.30026013 0
0.35816702 -1.6229643 0.42403346 0
0.17446473 -0.79055303 0.4801169 0
0.35494548 -1.5173199 -0.055632714 0
0.4190003 -1.7911413 0.065672405 0
0.37593094 -1.6070285 0.17736879 0
0.37308377 -1.5948575 0.29539561 0
0.37164086 -1.5886892 0.41626808 0
0.18627729 -0.79629761 0.48499179 0
0.37566075 -1.5193573 -0.055876426 0
0.45195112 -1.8279133 0.067223988 0
0.39050856 -1.5794094 0.1748493 0
0.39072958 -1.5803032 0.29358795 0
0.38961977 -1.5758145 0.41414732 0
0.19622436 -0.7936281 0.48483241 0
0.39570078 -1.5181105 -0.056009378 0
0.48361287 -1.8553861 0.068452872 0
0.40977833 -1.572119 0.17459963 0
0.40894067 -1.5689054 0.29240394 0
0.4077886 -1.5644854 0.41248673 0
0.20640267 -0.79186618 0.48530531 0
0.41196197 -1.5027128 -0.055628274 0
0.42787668 -1.5607649 0.17392324 0
0.42575237 -1.5530161 0.29041874 0
0.42323887 -1.5438477 0.40841821 0
0.21263491 -0.77562797 0.47695667 0
0.43449828 -1.5100851 -0.056099281 0
0.44555658 -1.5485178 0.17316997 0
0.44242489 -1.5376338 0.28856114 0
0.44119123 -1.5333463 0.40707755 0
0.22618218 -0.78608906 0.48510247 0
0.45085606 -1.495797 -0.055774968 0
0.46014401 -1.5266114 0.17135458 0
0.4594 -1.524143 0.28709224 0
0.4590725 -1.5230565 0.40584829 0
0.46858808 -1.4866192 -0.055648357 0
0.47398731 -1.5037485 0.16944483 0
0.47388074 -1.5034105 0.28428847 0
0.47476426 -1.5062135 0.40292126 0
0.47620341 -1.5107793 0.5270052 0
0.48879391 -1.485234 -0.055822477 0
0.49301445 -1.4980584 0.16948976 0
0.48837602 -1.4839642 0.28175181 0
0.48834193 -1.4838606 0.3985551 0
0.49076742 -1.4912306 0.52230036 0
0.5092442 -1.4841733 -0.05601918 0
0.51442826 -1.4992819 0.17034757 0
0.50521076 -1.472418 0.28074521 0
0.50303006 -1.4660624 0.3954446 0
0.50654835 -1.4763163 0.51926953 0
0.52905077 -1.4808888 -0.056142211 0
0.53824764 -1.5066323 0.17193918 0
0.51776713 -1.4493045 0.27755928 0
0.52061152 -1.4572662 0.39480895 0
0.52226752 -1.4619017 0.51647168 0
0.54925615 -1.4784199 -0.056306355 0
0.56498116 -1.5207466 0.174348 0
0.53394359 -1.4372035 0.27650753 0
0.53218943 -1.4324819 0.38987893 0
0.53713721 -1.4457996 0.51313186 0
0.56673425 -1.4685534 -0.056197923 0
0.59043318 -1.5299635 0.17624308 0
0.55014503 -1.4255666 0.27557963 0
0.54732186 -1.418251 0.38785079 0
0.55352306 -1.43432 0.51149082 0
0.58574402 -1.4627092 -0.056252073 0
0.62247479 -1.5544325 0.17995045 0
0.56467801 -1.4101036 0.27394328 0
0.56528646 -1.411623 0.38795406 0
0.56633478 -1.4142408 0.50683337 0
0.60237551 -1.4510281 -0.056090109 0
0.65207362 -1.5707431 0.18277472 0
0.57786745 -1.3919921 0.27181682 0
0.58169687 -1.4012165 0.38707647 0
0.57966691 -1.3963267 0.50298935 0
0.61801058 -1.4373111 -0.055856265 0
0.6819973 -1.5861253 0.18554921 0
0.59001815 -1.3722088 0.26938316 0
0.58960378 -1.3712451 0.38081783 0
0.58907169 -1.3700076 0.49614134 0
0.35224989 -0.81922972 0.44617817 0
0.6343478 -1.4255698 -0.055705983 0
0.71467459 -1.6060883 0.18892233 0
0.61302161 -1.3776435 0.27194387 0
0.60612625 -1.3621476 0.38038078 0
0.60911918 -1.3688735 0.49846879 0
0.36183676 -0.81315577 0.44531631 0
0.65982533 -1.4339385 -0.056353208 0
0.62710768 -1.3628362 0.2705583 0
0.62399274 -1.3560668 0.38084674 0
0.62083793 -1.3492107 0.49411631 0
0.3764514 -0.81810772 0.45058846 0
0.6699155 -1.4088763 -0.055695377 0
0.64265662 -1.351549 0.26990268 0
0.63468444 -1.3347831 0.37708393 0
0.63643193 -1.3384582 0.4930743 0
0.37867063 -0.79636919 0.44120681 0
0.68695313 -1.3990084 -0.055642828 0
0.65945876 -1.343015 0.26983535 0
0.64770669 -1.3190813 0.37492251 0
0.65424788 -1.3324028 0.49383938 0
0.64636928 -1.3163577 0.60717928 0
0.3833679 -0.78074455 0.43519041 0
0.70868027 -1.3984697 -0.055971894 0
0.66953683 -1.3212261 0.26713032 0
0.66055387 -1.3034997 0.37282836 0
0.6639896 -1.3102796 0.48869988 0
0.66697055 -1.316162 0.61091453 0
0.40735912 -0.80385947 0.45089829 0
0.71989 -1.377301 -0.055483062 0
0.68207318 -1.3049495 0.26555493 0
0.68290031 -1.306532 0.3761254 0
0.67597812 -1.2932884 0.48549888 0
0.68073452 -1.3023884 0.60845184 0
0.42387494 -0.81096196 0.45783979 0
0.74371809 -1.3802713 -0.055975541 0
0.69655722 -1.2927451 0.26483527 0
0.69451547 -1.2889558 0.3735536 0
0.69034332 -1.2812127 0.48419058 0
0.69133157 -1.2830468 0.60343498 0
0.43195951 -0.80167645 0.45563227 0
0.75869405 -1.3665748 -0.055803105 0
0.72267908 -1.3017039 0.26851359 0
0.70313811 -1.2665064 0.3695842 0
0.70421469 -1.2684455 0.48267862 0
0.70124847 -1.2631028 0.59816056 0
0.4468427 -0.80486196 0.46060416 0
0.78053343 -1.365121 -0.056140635 0
0.75504011 -1.3205341 0.27433732 0
0.71932638 -1.2580724 0.36973694 0
0.7241506 -1.2665097 0.48537341 0
0.71952218 -1.2584147 0.60018361 0
0.45227218 -0.79100549 0.45589745 0
0.79061466 -1.3432151 -0.055644765 0
0.78113246 -1.3271053 0.27772388 0
0.72739011 -1.2357997 0.36585408 0
0.73371971 -1.2465534 0.48122805 0
0.72990423 -1.2400711 0.59577119 0
0.46244898 -0.78567785 0.45614696 0
0.81178176 -1.3402814 -0.055942267 0
0.81638008 -1.3478734 0.28419882 0
0.74614143 -1.2319069 0.36745402 0
0.74763101 -1.2343662 0.48011956 0
0.74592489 -1.2315493 0.59614241 0
0.46524262 -0.76813263 0.44932625 0
0.83298224 -1.3369986 -0.056238595 0
0.8412497 -1.3502685 0.28691465 0
0.75910264 -1.2184163 0.36625224 0
0.7616809 -1.2225547 0.47921795 0
0.75602478 -1.2134762 0.59195524 0
0.4832024 -0.77557588 0.45720324 0
0.83629453 -1.3054003 -0.055348035 0
0.87524754 -1.3662034 0.29261929 0
0.77090836 -1.2033368 0.36460847 0
0.774508 -1.2089556 0.47767243 0
0.76975435 -1.2015356 0.59081197 0
0.49841714 -0.77799612 0.46229312 0
0.86065274 -1.3068964 -0.055866547 0
0.91247165 -1.3855833 0.29920742 0
0.78180784 -1.187171 0.36266443 0
0.78820914 -1.1968913 0.47678947 0
0.78809822 -1.1967229 0.59327817 0
0.50989985 -0.77428013 0.46386355 0
0.88478523 -1.3074011 -0.056359917 0
0.9424172 -1.3925608 0.30325276 0
0.80755579 -1.1932832 0.36760893 0
0.79437077 -1.1738003 0.47153836 0
0.79982919 -1.1818659 0.590859 0
0.53434277 -0.78957051 0.47701707 0
0.89656538 -1.2895242 -0.056071512 0
0.82070047 -1.1804082 0.36679724 0
0.81343371 -1.1699566 0.47407141 0
0.81334198 -1.1698246 0.58991259 0
0.55378491 -0.79650533 0.48538119 0
0.91909772 -1.2870488 -0.056462638 0
0.57670307 -0.80758005 0.035428416 0
0.58089769 -0.81345397 0.1074236 0
0.5783025 -0.80981982 0.17946661 0
0.5837453 -0.81744152 0.25627363 0
0.58224565 -0.81534159 0.33332434 0
0.57875156 -0.81044865 0.41233084 0
0.55962926 -0.7836709 0.48181617 0
0.92797107 -1.2654747 -0.056024373 0
0.57907116 -0.78967971 0.034960248 0
0.58314741 -0.79523849 0.1059794 0
0.58144933 -0.79292285 0.17733055 0
0.58651644 -0.79983282 0.25304854 0
0.57965177 -0.79047143 0.32611519 0
0.5760861 -0.78560895 0.4033519 0
0.57293051 -0.78130573 0.48475918 0
0.94381702 -1.2536711 -0.056023523 0
0.5826658 -0.77395433 0.034586143 0
0.58059031 -0.77119744 0.10374159 0
0.58391559 -0.77561444 0.17509018 0
0.591887 -0.78620285 0.25107443 0
0.59204 -0.78640604 0.32748765 0
0.58946049 -0.78297973 0.40578076 0
0.5868358 -0.77949333 0.48818079 0
0.96367145 -1.2470505 -0.056265477 0
0.58666182 -0.75917667 0.034253176 0
0.60435164 -0.78206843 0.10621925 0
0.60648 -0.78482264 0.17887868 0
0.60218543 -0.77926522 0.25126055 0
0.60480779 -0.7826587 0.32907256 0
0.59594536 -0.77119023 0.40352795 0
0.9709779 -1.2243282 -0.055787507 0
0.5824374 -0.73440856 0.033463921 0
0.88333464 -1.1138169 0.36268863 0
0.87351489 -1.1014348 0.46769121 0
0.87827039 -1.1074312 0.58520764 0
0.99352407 -1.2208619 -0.056195166 0
0.58751684 -0.72195226 0.033230808 0
0.89391446 -1.0984596 0.36132464 0
0.88462216 -1.0870411 0.46627235 0
0.89519727 -1.100036 0.58721006 0
1.0108571 -1.2106984 -0.056308787 0
0.58868772 -0.70506823 0.032792259 0
0.91354114 -1.0941435 0.36366001 0
0.90035897 -1.0783553 0.46737272 0
0.90311474 -1.0816559 0.58342284 0
1.0169754 -1.1873137 -0.055812351 0
0.60925215 -0.71129876 0.033436202 0
0.92004621 -1.0741493 0.36083657 0
0.90220815 -1.0533234 0.46141091 0
0.9049558 -1.0565313 0.57597202 0
1.0315542 -1.1740842 -0.055796649 0
0.60931695 -0.69350636 0.032957885 0
0.92812759 -1.056367 0.35876063 0
0.92518294 -1.0530156 0.46634245 0
0.92093825 -1.0481844 0.57769775 0
1.052995 -1.1684811 -0.056156058 0
0.94175625 -1.0450424 0.35891357 0
0.93114883 -1.0332716 0.46275455 0
0.93895125 -1.0419297 0.58072096 0
1.0695041 -1.1571641 -0.056254949 0
0.9572798 -1.0357416 0.35983068 0
0.95276171 -1.0308532 0.46700749 0
0.94777012 -1.0254524 0.57814318 0
1.080909 -1.1403562 -0.056095082 0
0.96941298 -1.0227282 0.35952204 0
0.95691508 -1.0095429 0.4627755 0
0.96380508 -1.0168118 0.58006811 0
1.0929779 -1.1243887 -0.055982202 0
0.97316986 -1.0011374 0.35621178 0
0.97557521 -1.0036119 0.46565109 0
0.97807467 -1.0061831 0.58098471 0
1.1043791 -1.1078595 -0.055847201 0
0.99470168 -0.99783653 0.35946545 0
0.98163027 -0.98472387 0.46258599 0
0.98503524 -0.98813957 0.57768244 0
1.1170638 -1.0927149 -0.055788416 0
1.0049075 -0.9830032 0.35865194 0
0.99472117 -0.97303897 0.46294427 0
0.99716431 -0.97542888 0.57754648 0
1.1350108 -1.0826427 -0.055999435 0
1.0220324 -0.97487694 0.36035401 0
1.0159351 -0.96906096 0.4671011 0
1.0120056 -0.96531272 0.57905614 0
1.1503791 -1.0699645 -0.056088489 0
1.0347825 -0.96244848 0.36054787 0
1.0227177 -0.95122701 0.46467555 0
1.0187036 -0.94749343 0.57601625 0
1.1672097 -1.0585235 -0.056254748 0
1.0365349 -0.94001663 0.3570058 0
1.0394763 -0.94268417 0.46685949 0
1.0303651 -0.93442136 0.57591128 0
1.1707649 -1.0351837 -0.055793427 0
1.0597887 -0.93705916 0.36092228 0
1.0384994 -0.91823524 0.46119103 0
1.0431035 -0.92230612 0.5764941 0
1.1855181 -1.021922 -0.055878825 0
1.3622413 -1.1742581 0.064208582 0
1.373548 -1.1840047 0.19488725 0
1.3233358 -1.1407214 0.31509259 0
1.0668435 -0.91962397 0.35935265 0
1.0549968 -0.90941209 0.46339518 0
1.0554284 -0.90978414 0.5769285 0
1.1990981 -1.0075918 -0.055916443 0
1.3907592 -1.168643 0.064854003 0
1.3858401 -1.1645094 0.19453532 0
1.1420914 -0.9596895 0.26903871 0
1.078162 -0.90597028 0.35929394 0
1.0735197 -0.90206933 0.46650481 0
1.06822 -0.89761603 0.57769638 0
1.2101111 -0.99112082 -0.055843588 0
1.0201513 -0.83553743 0.047077421 0
1.0055641 -0.82359004 0.13968776 0
1.0107502 -0.82783771 0.23562481 0
1.0145059 -0.83091366 0.33456746 0
1.0875981 -0.89077854 0.46771121 0
1.0914577 -0.89393979 0.58412951 0
1.2196226 -0.97351301 -0.055712394 0
0.90694606 -0.72393197 0.041429322 0
0.90571535 -0.72294962 0.1245428 0
0.89387161 -0.71349579 0.2062674 0
0.91147459 -0.72754669 0.29754454 0
1.0979613 -0.87640196 0.46738493 0
1.1044446 -0.88157696 0.58509237 0
1.2379519 -0.96287698 -0.055991381 0
0.88083303 -0.68511051 0.039839238 0
0.87740993 -0.68244803 0.11945944 0
0.87928706 -0.68390805 0.20089872 0
0.88460308 -0.68804288 0.28592157 0
1.115685 -0.867778 0.47024077 0
1.1104578 -0.86371225 0.58247006 0
1.2449406 -0.94339651 -0.055765759 0
0.88739645 -0.67245507 0.039749958 0
0.89600337 -0.67897731 0.1208173 0
0.8878687 -0.67281294 0.20090781 0
0.89199185 -0.67593741 0.28553602 0
1.1339515 -0.85929066 0.47334167 0
1.1214364 -0.8498069 0.58256954 0
1.262928 -0.93222845 -0.056041211 0
0.90197009 -0.66578788 0.040024053 0
0.90286469 -0.66644824 0.12060133 0
0.90136075 -0.66533816 0.20204899 0
0.90531719 -0.66825861 0.28708518 0
1.1368605 -0.83917195 0.47010773 0
1.1362033 -0.83868682 0.58470809 0
1.2759824 -0.91727114 -0.056103498 0
0.91551691 -0.65814173 0.040254239 0
0.90696436 -0.65199351 0.12004277 0
0.91889423 -0.66056955 0.20409854 0
0.919411 -0.66094106 0.28889233 0
1.1490921 -0.82605296 0.47082704 0
1.1479689 -0.82524544 0.58536869 0
1.2773128 -0.89405018 -0.055662576 0
0.93076724 -0.65148693 0.040560856 0
0.92574823 -0.64797395 0.12143936 0
0.92056918 -0.64434892 0.20265232 0
0.92670739 -0.64864528 0.28859562 0
1.1643691 -0.81499565 0.47284412 0
1.1661563 -0.81624657 0.58935493 0
1.2977196 -0.8841995 -0.056062222 0
0.92474592 -0.63007438 0.039949547 0
0.9423967 -0.64210069 0.12255293 0
0.92849267 -0.63262719 0.20262685 0
0.93837088 -0.63935775 0.28969768 0
1.1777743 -0.80247492 0.47414678 0
1.1771801 -0.80207002 0.58977515 0
1.300317 -0.86219805 -0.055700991 0
0.94014102 -0.62337703 0.040272322 0
0.95265365 -0.63167369 0.12284266 0
0.9457283 -0.62708175 0.20464878 0
0.9443754 -0.62618464 0.28909418 0
1.1930153 -0.79104972 0.47623461 0
1.1844739 -0.7853862 0.58842796 0
1.3155473 -0.84864533 -0.055891205 0
0.94439131 -0.60921657 0.040122591 0
0.95099276 -0.61347514 0.12162273 0
0.96455115 -0.62222147 0.20701002 0
0.94783187 -0.61143607 0.28777254 0
1.2072598 -0.77879018 0.47796822 0
1.2016158 -0.77514929 0.59204781 0
1.3255538 -0.83165312 -0.055866983 0
0.96532869 -0.60564768 0.040684883 0
0.9509421 -0.59662157 0.12064587 0
0.96943474 -0.60822386 0.20639803 0
0.95907116 -0.60172176 0.28886157 0
1.2149155 -0.76223862 0.47716135 0
1.2119632 -0.76038629 0.59238142 0
1.3416685 -0.81840324 -0.056107372 0
0.97769862 -0.59638554 0.040886477 0
0.97743344 -0.59622383 0.12304456 0
0.96951592 -0.59139425 0.20481358 0
0.96728468 -0.59003317 0.28907469 0
1.2288626 -0.7495929 0.47889391 0
1.2370359 -0.75457847 0.59994453 0
1.3448672 -0.79729551 -0.055816863 0
0.98063004 -0.58135992 0.040699698 0
0.98266715 -0.58256763 0.1227702 0
0.99087161 -0.58743155 0.20774591 0
0.98250949 -0.58247417 0.29140958 0
1.242684 -0.73671687 0.48062682 0
1.253209 -0.74295652 0.60320324 0
1.3631506 -0.78510857 -0.056160919 0
0.9883095 -0.56921834 0.040717714 0
1.0040025 -0.57825667 0.12451614 0
1.0007006 -0.57635498 0.20826851 0
0.99977553 -0.57582217 0.2943567 0
1.2494817 -0.71964079 0.47971308 0
1.2615304 -0.72658026 0.60275698 0
1.3669604 -0.76454496 -0.055916812 0
1.007939 -0.56374323 0.041230701 0
1.0021924 -0.56052911 0.12340651 0
0.99923879 -0.55887717 0.20648326 0
1.0039676 -0.56152201 0.29348588 0
1.2674003 -0.70886064 0.48312724 0
1.2655506 -0.7078262 0.6003716 0
1.3794522 -0.748887 -0.056037609 0
1.01175 -0.54926616 0.041100409 0
1.018309 -0.55282694 0.12452399 0
1.0187265 -0.55305356 0.20905453 0
1.0167493 -0.5519802 0.29516703 0
1.2846588 -0.69742483 0.48631984 0
1.281129 -0.69550854 0.60355926 0
1.3836677 -0.72877014 -0.055831637 0
1.2964982 -0.68285841 0.37385359 0
1.2965449 -0.68288302 0.48752558 0
1.2902963 -0.67959189 0.60379869 0
1.3968258 -0.71337998 -0.055995665 0
1.3152699 -0.67172813 0.37679756 0
1.3007661 -0.66432089 0.48592883 0
1.3098789 -0.66897488 0.60897219 0
1.40424 -0.69501442 -0.055937611 0
1.3246247 -0.65560961 0.37708259 0
1.3235571 -0.65508121 0.49132237 0
1.3112864 -0.64900798 0.60577911 0
1.4172316 -0.67936426 -0.056109902 0
1.3380724 -0.64141858 0.37858149 0
1.34197 -0.64328688 0.49511126 0
1.328604 -0.63687974 0.61002606 0
1.4295697 -0.66327363 -0.056263257 0
1.3628362 -0.63231146 0.3833048 0
1.3357351 -0.61973739 0.4898929 0
1.3520015 -0.62728447 0.61709332 0
1.4326738 -0.6429171 -0.056062356 0
1.3596673 -0.61015517 0.38022241 0
1.3608876 -0.61070281 0.49625808 0
1.3521147 -0.60676593 0.61360896 0
1.4454699 -0.62691516 -0.056249712 0
1.3807938 -0.5988645 0.38399109 0
1.3712739 -0.59473562 0.49727514 0
1.3660986 -0.59249103 0.6165204 0
1.4313562 -0.59949589 -0.055402327 0
1.3969009 -0.58506495 0.38639095 0
1.387289 -0.58103925 0.50038987 0
1.3779011 -0.57710725 0.61851817 0
1.4475641 -0.58497113 -0.055740144 0
1.3963774 -0.56428617 0.38425022 0
1.3977253 -0.5648309 0.50154901 0
1.387852 -0.56084096 0.6197657 0
1.4750935 -0.57459736 -0.056517102 0
1.4138458 -0.55073935 0.38711804 0
1.4058464 -0.54762334 0.50194889 0
1.4045236 -0.54710805 0.62408465 0
1.4743029 -0.55301207 -0.056215547 0
1.4200103 -0.53264689 0.38693881 0
1.4205222 -0.53283888 0.50475317 0
1.4286224 -0.53587729 0.63174427 0
1.470824 -0.53067964 -0.055823669 0
1.4361618 -0.51817334 0.38953105 0
1.4257158 -0.51440442 0.50425696 0
1.4258459 -0.51445132 0.6276021 0
1.4903792 -0.51662087 -0.056314494 0
1.4426512 -0.50007659 0.38955233 0
1.4370018 -0.49811831 0.50599009 0
1.4415942 -0.49971023 0.63171417 0
1.4883304 -0.49500865 -0.055997115 0
1.4544209 -0.48373058 0.39105466 0
1.4442891 -0.48036081 0.50638604 0
1.4531386 -0.48330411 0.63405579 0
1.498511 -0.47752517 -0.05614946 0
1.4625473 -0.46606478 0.39163065 0
1.4428068 -0.45977417 0.50379652 0
1.4555796 -0.46384442 0.63252223 0
1.4979589 -0.45665422 -0.055908877 0
1.4763397 -0.45006359 0.39377511 0
1.4674429 -0.4473514 0.51039147 0
1.4697976 -0.44806921 0.6361984 0
1.5140474 -0.4408015 -0.056297727 0
1.4880646 -0.43323684 0.39541599 0
1.4735895 -0.42902252 0.51060981 0
1.4808327 -0.43113133 0.63857442 0
1.5096555 -0.4189769 -0.055933807 0
1.4831914 -0.4116323 0.39271256 0
1.4844377 -0.41197819 0.51253062 0
1.4826301 -0.41147655 0.63706464 0
1.5216608 -0.40174371 -0.056186724 0
1.4952955 -0.39478281 0.3945699 0
1.4986764 -0.39567545 0.51568562 0
1.4907359 -0.39357901 0.63836741 0
1.5271987 -0.38270268 -0.056208812 0
1.5004555 -0.37600106 0.39465085 0
1.5000641 -0.37590301 0.51449358 0
1.5073863 -0.37773788 0.64340961 0
1.5237392 -0.36150777 -0.055909507 0
1.5179884 -0.36014342 0.39803803 0
1.5141006 -0.35922101 0.51771533 0
1.5162561 -0.35973242 0.64521092 0
1.5293509 -0.34255785 -0.055952702 0
1.529196 -0.34252319 0.39981416 0
1.5343895 -0.34368646 0.52313143 0
1.5282497 -0.34231123 0.64842898 0
1.5374439 -0.32409665 -0.056095034 0
1.5287904 -0.32227248 0.39861545 0
1.5237906 -0.32121855 0.51809782 0
1.5357591 -0.32374153 0.64983392 0
1.5401844 -0.30447182 -0.056050695 0
1.545984 -0.30561835 0.40206322 0
1.5419786 -0.30482653 0.52293527 0
1.5420395 -0.30483857 0.65081561 0
1.5372394 -0.2838259 -0.055809032 0
1.5463384 -0.28550589 0.40118861 0
1.5485663 -0.28591722 0.52390683 0
1.5432607 -0.28493765 0.64976519 0
1.5473558 -0.26559159 -0.056050442 0
1.5398724 -0.26430714 0.39861593 0
1.543079 -0.26485753 0.52088076 0
1.5572717 -0.2672936 0.65419525 0
1.5539941 -0.24662974 -0.056173954 0
1.553668 -0.24657801 0.40135154 0
1.5638049 -0.24818678 0.52678025 0
1.5593556 -0.24748066 0.65370977 0
1.5627517 -0.22788571 -0.056382325 0
1.5630527 -0.22792961 0.40300244 0
1.5532151 -0.22649507 0.5222109 0
1.558416 -0.22725347 0.6520645 0
1.5549239 -0.20678461 -0.056001522 0
1.5624762 -0.20778897 0.40214729 0
1.5615669 -0.20766805 0.5240981 0
1.5698326 -0.20876728 0.65568942 0
1.5623275 -0.18778159 -0.056178551 0
1.5752621 -0.18933624 0.4047924 0
1.5811408 -0.19004281 0.52982235 0
1.5738792 -0.18917003 0.65633267 0
1.5614985 -0.16776532 -0.056068338 0
1.5800819 -0.1697619 0.40544951 0
1.5899663 -0.17082386 0.53201675 0
1.5761325 -0.16933757 0.65633106 0
1.5753919 -0.14921847 -0.056495257 0
1.5925119 -0.15084004 0.40811929 0
1.5908953 -0.15068692 0.53165054 0
1.5876627 -0.15038073 0.66029155 0
1.5628984 -0.12820186 -0.055984892 0
1.5854323 -0.13005027 0.40585309 0
1.5869551 -0.13017517 0.52974397 0
1.5817711 -0.12974995 0.65710974 0
1.5736147 -0.10915286 -0.056315064 0
1.6635761 -0.11539299 0.059534524 0
1.6818627 -0.11666142 0.18118292 0
1.6743532 -0.11614054 0.30269301 0
1.6013231 -0.11107484 0.40953049 0
1.5889399 -0.11021589 0.52990127 0
1.5910525 -0.11036243 0.66033578 0
1.5716317 -0.089147136 -0.056199472 0
1.6426286 -0.093174264 0.058738224 0
1.6475397 -0.093452834 0.17734455 0
1.6504802 -0.09361963 0.29814041 0
1.5880705 -0.090079591 0.40581894 0
1.6039211 -0.090978667 0.53447294 0
1.5959221 -0.090524949 0.66183126 0
1.5738565 -0.069405422 -0.056243315 0
1.6334536 -0.072033599 0.058373079 0
1.6254359 -0.071680024 0.17485423 0
1.6415558 -0.072390892 0.29634017 0
1.5977104 -0.070457354 0.40802324 0
1.5974395 -0.070445418 0.53197533 0
1.5947542 -0.070326991 0.6609273 0
1.5742406 -0.049571671 -0.056230277 0
1.6280251 -0.051265303 0.058151402 0
1.6318725 -0.051386457 0.17546313 0
1.6394672 -0.051625609 0.29582232 0
1.6040853 -0.050511461 0.40945637 0
1.5974448 -0.050302353 0.53172398 0
1.6021087 -0.050449215 0.66365939 0
1.5782044 -0.029811589 -0.056353983 0
1.6119516 -0.030449057 0.057559017 0
1.6296811 -0.030783962 0.17517194 0
1.6277746 -0.030747946 0.29361939 0
1.5956463 -0.030141057 0.40717307 0
1.5920284 -0.030072717 0.52975303 0
1.5915868 -0.030064376 0.65909171 0
1.5752486 -0.0099175358 -0.056239519 0
1.6373637 -0.010308604 0.058457155 0
1.6380346 -0.010312827 0.17604192 0
1.6401167 -0.010325937 0.29579878 0
1.5990404 -0.010067326 0.40797448 0
1.5995209 -0.010070351 0.53216183 0
1.6097583 -0.010134804 0.666511 0
1.5640464 0.0098470096 -0.055839583 0
1.64011 0.010325894 0.058555201 0
1.6538498 0.010412399 0.1777416 0
1.6640799 0.010476805 0.30012059 0
1.6057361 0.010109481 0.40968281 0
1.6014159 0.010082282 0.53279227 0
1.6037976 0.010097276 0.66404301 0
1.5727379 0.029708328 -0.056158789 0
1.6805862 0.031745534 0.060009796 0
1.6756762 0.03165279 0.18011588 0
1.6790185 0.031715922 0.30286279 0
1.6036321 0.030291906 0.40921086 0
1.6032746 0.030285154 0.53349531 0
1.6104269 0.030420257 0.6668936 0
1.5723069 0.049510777 -0.056161206 0
1.6042975 0.05051814 0.40951055 0
1.6140581 0.050825495 0.53725392 0
1.6109195 0.05072666 0.66730917 0
1.5702008 0.069244213 -0.056112673 0
1.5958046 0.070373312 0.40753654 0
1.5996739 0.070543945 0.53271943 0
1.6103847 0.071016282 0.66740513 0
1.5560061 0.0882608 -0.055640716 0
1.5952824 0.090488665 0.40766189 0
1.6047757 0.091027148 0.53475773 0
1.6074473 0.091178685 0.66661078 0
1.5603312 0.10823146 -0.055839688 0
1.5975991 0.11081653 0.4085781 0
1.6019524 0.1111185 0.53424084 0
1.6106988 0.11172517 0.66848958 0
1.5662664 0.12847812 -0.056105539 0
1.6072448 0.13183951 0.41143689 0
1.5932043 0.13068779 0.53183001 0
1.5979608 0.13107796 0.66383535 0
1.5615019 0.14790283 -0.055997144 0
1.599875 0.15153746 0.41000623 0
1.5949916 0.15107492 0.53301942 0
1.6069911 0.15221149 0.66833001 0
1.5492008 0.16644406 -0.055626765 0
1.5934635 0.17119959 0.40888321 0
1.5942292 0.17128186 0.53344315 0
1.6033461 0.17226137 0.66766334 0
1.5544403 0.18683359 -0.055894945 0
1.5876808 0.19082889 0.40798363 0
1.5893791 0.19103301 0.53258294 0
1.5979317 0.19206098 0.66636294 0
1.5584339 0.20725138 -0.056127936 0
1.597711 0.21247473 0.41121596 0
1.5960661 0.21225598 0.53567684 0
1.5869612 0.21104516 0.6628437 0
1.5632678 0.22796097 -0.056400947 0
1.5922695 0.2321901 0.41053542 0
1.5951202 0.23260581 0.53629994 0
1.5923727 0.23220515 0.66627246 0
1.5486177 0.24577649 -0.055979613 0
1.5963166 0.25334662 0.41236871 0
1.5946819 0.25308719 0.53718144 0
1.5890604 0.25219503 0.66616255 0
1.5424371 0.26474735 -0.055872273 0
1.5888858 0.27271992 0.4113037 0
1.5851917 0.27208585 0.53509629 0
1.5867537 0.27235398 0.66658044 0
1.5331419 0.28306934 -0.05566027 0
1.582018 0.29209352 0.41044545 0
1.5871022 0.29303223 0.53694421 0
1.5714899 0.29014969 0.6616506 0
1.5429821 0.30502489 -0.056152511 0
1.5798931 0.31232166 0.41088194 0
1.5780356 0.31195447 0.53516334 0
1.5790845 0.31216183 0.66645038 0
1.5440294 0.3254849 -0.056335311 0
1.5683283 0.33060718 0.40892455 0
1.5814453 0.33337229 0.53770077 0
1.5623804 0.32935336 0.66109836 0
1.5384171 0.34458858 -0.056284398 0
1.5602701 0.34948343 0.40793857 0
1.5543511 0.34815764 0.52993715 0
1.5512931 0.3474727 0.65820616 0
1.5278014 0.36247155 -0.05605856 0
1.5551162 0.36895198 0.40777344 0
1.5552692 0.36898831 0.5317921 0
1.5593389 0.36995384 0.66354394 0
1.5276011 0.38280353 -0.056223623 0
1.5511427 0.38870284 0.40798262 0
1.5480772 0.38793465 0.53096116 0
1.561002 0.39117351 0.66629487 0
1.5198271 0.4012596 -0.056119017 0
1.5451374 0.40794191 0.40772188 0
1.5514337 0.40960422 0.53383911 0
1.5384225 0.40616906 0.65878791 0
1.5149891 0.42045715 -0.056131423 0
1.5429749 0.42822412 0.40854177 0
1.5423235 0.42804331 0.53251678 0
1.5338705 0.42569733 0.65908188 0
1.5105718 0.43978962 -0.056168493 0
1.5314231 0.44586027 0.40693739 0
1.5284402 0.44499183 0.529616 0
1.53611 0.44722486 0.66241151 0
1.5039802 0.45848984 -0.056133617 0
1.5333829 0.46745324 0.40898988 0
1.5230356 0.46429887 0.52972716 0
1.531873 0.46699294 0.66306758 0
1.5003901 0.47812396 -0.056219872 0
1.5145198 0.48262668 0.40554747 0
1.5136175 0.48233914 0.52852207 0
1.5157425 0.48301631 0.65866601 0
1.4875524 0.49474993 -0.055967845 0
1.5125307 0.50305754 0.40667883 0
1.509582 0.50207686 0.52927858 0
1.5045887 0.5004161 0.65650535 0
1.4905702 0.5166871 -0.056321714 0
1.4974473 0.51907098 0.40434867 0
1.5003549 0.52007884 0.52829766 0
1.4987327 0.51951653 0.65675253 0
1.4806916 0.53423989 -0.056198183 0
1.4894054 0.53738385 0.40397236 0
1.4952177 0.53948098 0.52883887 0
1.4889818 0.53723109 0.65539211 0
1.4691573 0.55108202 -0.056019347 0
1.4770615 0.55404681 0.40248469 0
1.4760306 0.55366015 0.52447695 0
1.4869961 0.55777329 0.65755743 0
1.4675926 0.57167548 -0.056229711 0
1.4679751 0.57182449 0.40193895 0
1.4686093 0.57207155 0.52435803 0
1.469997 0.57261211 0.65317708 0
1.4603592 0.59014171 -0.056232832 0
1.4613186 0.59052944 0.40212053 0
1.4599317 0.58996898 0.52387071 0
1.4567159 0.58866948 0.65051794 0
1.4463983 0.60579598 -0.055984545 0
1.4557921 0.60973042 0.40268061 0
1.4499922 0.60730124 0.52300668 0
1.4506437 0.60757411 0.65117121 0
1.4399781 0.6245333 -0.056035999 0
1.434561 0.62218392 0.39894345 0
1.4408506 0.62491173 0.52250624 0
1.4349723 0.62236226 0.64760303 0
1.4254351 0.6396687 -0.055779092 0
1.4218622 0.6380654 0.39761487 0
1.4337341 0.64339292 0.52282208 0
1.4300946 0.64175963 0.64899731 0
1.415804 0.65688676 -0.055721484 0
1.4187323 0.65824538 0.39902583 0
1.4243188 0.66083735 0.52238178 0
1.4207567 0.65918463 0.64847517 0
1.4122168 0.67696041 -0.055911362 0
1.3981878 0.6702354 0.39558995 0
1.4099036 0.67585152 0.52017492 0
1.4022859 0.6721999 0.643857 0
1.4113337 0.69852531 -0.056220185 0
1.3936014 0.68974894 0.39671826 0
1.3910744 0.6884982 0.51638567 0
1.3949316 0.69040728 0.64442092 0
1.3929338 0.71139228 -0.055839647 0
1.3763881 0.70294213 0.39430666 0
1.3746291 0.70204383 0.51352191 0
1.3777359 0.70363045 0.64051938 0
1.3947835 0.73462474 -0.056280166 0
1.361804 0.71725464 0.39268491 0
1.3579565 0.7152282 0.51061755 0
1.3700575 0.72160167 0.64112318 0
1.3860554 0.75247175 -0.056305848 0
1.3521823 0.73408252 0.39254481 0
1.3619126 0.73936498 0.51556504 0
1.3523616 0.73417979 0.63711798 0
1.3677769 0.76500154 -0.055950206 0
1.4059429 0.78634799 0.05751143 0
1.4120163 0.78974479 0.1738708 0
1.4121377 0.78981274 0.29180491 0
1.3419104 0.75053436 0.39227533 0
1.3451743 0.75235993 0.51277435 0
1.3429191 0.75109857 0.63707489 0
1.3657888 0.78662807 -0.056269616 0
1.3852047 0.79781061 0.057069533 0
1.3774585 0.79334921 0.17083207 0
1.3749242 0.79188961 0.28615296 0
1.3308904 0.76652825 0.39184448 0
1.3346993 0.768722 0.51243067 0
1.3338488 0.76823217 0.63731056 0
1.3512208 0.80106223 -0.056080561 0
1.3607568 0.80671549 0.056476336 0
1.3616301 0.80723321 0.1701162 0
1.3590354 0.80569494 0.28493503 0
1.321812 0.78362739 0.39204577 0
1.3134052 0.77864337 0.50797927 0
1.3188045 0.78184432 0.63477606 0
1.3450328 0.82045549 -0.056248065 0
1.3481858 0.8223787 0.056379918 0
1.346885 0.82158524 0.16955309 0
1.3442935 0.82000446 0.28398663 0
1.3119349 0.80026615 0.39207402 0
1.3051054 0.7961002 0.50860614 0
1.3028555 0.79472768 0.6318661 0
1.3267742 0.83241886 -0.055918422 0
1.3383257 0.83966625 0.056405272 0
1.3388355 0.83998609 0.16985784 0
1.3338865 0.8368811 0.28399184 0
1.2996497 0.8154009 0.39144003 0
1.2990049 0.8149963 0.51018763 0
1.2864599 0.80712563 0.62879384 0
1.3204237 0.85179108 -0.056098383 0
1.3329483 0.85987049 0.056630488 0
1.3268749 0.85595256 0.16969438 0
1.3294287 0.85760003 0.2853193 0
1.2810873 0.82641548 0.38895267 0
1.268559 0.81833369 0.50223732 0
1.2710533 0.81994271 0.62626034 0
1.3032489 0.86414206 -0.055826582 0
1.3330104 0.88387591 0.057101458 0
1.3210278 0.87593061 0.17034371 0
1.3319814 0.88319361 0.28823113 0
1.2722336 0.84357679 0.38945884 0
1.2626294 0.83720857 0.50402355 0
1.2469165 0.82678986 0.61944848 0
1.297449 0.88401514 -0.056050532 0
1.3378522 0.91154385 0.057795975 0
1.3245276 0.90246511 0.17224672 0
1.3165073 0.89700055 0.2873041 0
1.2570328 0.85647756 0.38807628 0
1.2396842 0.84465718 0.49907038 0
1.2404325 0.84516698 0.62146509 0
1.282424 0.89762771 -0.055885311 0
1.3453519 0.94167399 0.058627583 0
1.3564525 0.9494437 0.17793901 0
1.3569903 0.94982022 0.29872525 0
1.2379895 0.86652607 0.38553527 0
1.2168415 0.85172355 0.4941529 0
1.2247078 0.85722959 0.61894596 0
1.2700247 0.91298825 -0.055841543 0
1.2261785 0.88146836 0.38528314 0
1.2143598 0.87297219 0.49756971 0
1.2132553 0.8721782 0.61865938 0
1.2578579 0.92848599 -0.055816233 0
1.2129506 0.8953377 0.38463882 0
1.1965923 0.88326287 0.49480766 0
1.1897758 0.87823129 0.61227739 0
1.2520082 0.94875216 -0.056082342 0
1.1979661 0.9077999 0.38348162 0
1.1833491 0.89672333 0.49396154 0
1.173847 0.88952279 0.60979605 0
1.244277 0.96779662 -0.056277458 0
1.1723536 0.9118548 0.37892836 0
1.1681958 0.90862083 0.49237314 0
1.1708153 0.9106583 0.61412948 0
1.221861 0.97529978 -0.055814646 0
1.1585438 0.92475945 0.37819859 0
1.1471686 0.91567963 0.48833171 0
1.1487558 0.91694653 0.60856676 0
1.211244 0.99204868 -0.055895872 0
1.1479242 0.94018769 0.37856665 0
1.1248772 0.92131144 0.48374277 0
1.1409281 0.93445766 0.61060524 0
1.1985191 1.0071052 -0.055889443 0
1.1226934 0.94338965 0.37413391 0
1.1209855 0.94195449 0.48713139 0
1.1140969 0.93616605 0.60250682 0
1.1902703 1.0260185 -0.056102816 0
1.1075759 0.95473552 0.37307283 0
1.0979615 0.94644791 0.48226693 0
1.1067599 0.95403206 0.6049878 0
1.1733059 1.0374304 -0.055914517 0
1.0895115 0.96333987 0.37104467 0
1.0854869 0.95978135 0.4820579 0
1.0950708 0.9682554 0.60521501 0
1.1607211 1.052639 -0.055942021 0
1.0778815 0.97751313 0.37124649 0
1.0658309 0.9665848 0.47869614 0
1.0684682 0.96897644 0.59720856 0
1.1418514 1.0620329 -0.055672709 0
1.0632904 0.98896354 0.37048078 0
1.0559503 0.98213649 0.47977489 0
1.0478269 0.97458094 0.59248376 0
1.1345286 1.0821828 -0.05597565 0
1.0462251 0.99795341 0.368884 0
1.0352138 0.98745024 0.47596499 0
1.0385443 0.99062711 0.59424132 0
1.1228347 1.0983599 -0.056076627 0
1.0272759 1.0048841 0.36663526 0
1.0196017 0.99737716 0.47452369 0
1.0239019 1.0015837 0.59303266 0
1.1069889 1.1104777 -0.055979181 0
1.0103183 1.0135022 0.36510897 0
1.0010424 1.0041971 0.47173378 0
1.0069377 1.0101111 0.59052736 0
1.0987507 1.1303272 -0.056277879 0
0.99460429 1.0231879 0.36405748 0
0.9741165 1.0021113 0.46495485 0
0.99189746 1.0204033 0.58919561 0
1.0811414 1.1406014 -0.056107141 0
0.97342902 1.026965 0.36101148 0
0.96436214 1.0173995 0.46637696 0
0.96729726 1.0204961 0.58216989 0
1.0605079 1.1474304 -0.055781748 0
0.95658726 1.0349922 0.35957035 0
0.95495361 1.0332247 0.46808186 0
0.94373882 1.0210906 0.57568407 0
1.0569627 1.172884 -0.056367658 0
0.94033307 1.0434631 0.35837117 0
0.93362397 1.0360183 0.46398464 0
0.93301088 1.0353378 0.57704699 0
1.0363208 1.1795093 -0.056054469 0
0.92080998 1.0480384 0.35593209 0
0.91716564 1.0438905 0.46230131 0
0.91304898 1.0392051 0.5727489 0
0.91331905 1.0395124 0.69234103 0
1.0303918 1.2029773 -0.056548651 0
0.90622771 1.0580163 0.35541704 0
0.89127427 1.0405582 0.4558191 0
0.89650631 1.0466665 0.57059419 0
0.89715904 1.0474286 0.69003445 0
1.0091974 1.2087106 -0.056216329 0
0.8748672 1.0478239 0.45414004 0
0.87590468 1.0490665 0.56584483 0
0.87275869 1.0452986 0.68133712 0
0.99117362 1.2179736 -0.056062222 0
0.86056817 1.0574831 0.45359382 0
0.85351992 1.048822 0.55987155 0
0.85340953 1.0486864 0.67648715 0
0.97695005 1.2318586 -0.05613064 0
0.84060061 1.0599325 0.56010759 0
0.84514701 1.0656651 0.68052071 0
0.95980179 1.2420429 -0.056039542 0
0.82477075 1.0673044 0.55847073 0
0.81947058 1.0604457 0.67054492 0
0.94707233 1.2579951 -0.056216754 0
0.80340517 1.0671622 0.66834193 0
0.92728978 1.2645457 -0.055983242 0
0.79019493 1.0775894 0.66858763 0
0.91285181 1.2783024 -0.056078937 0
0.89768481 1.2911344 -0.056141522 0
0.88276505 1.3044159 -0.056231234 0
0.85204649 1.2938279 -0.055307899 0
0.84764504 1.3231177 -0.05609924 0
0.82464033 1.3236094 -0.055675395 0
0.81753457 1.3497796 -0.056338713 0
0.7894358 1.3412122 -0.055561796 0
0.77882934 1.3621405 -0.056018066 0
0.76042175 1.3696868 -0.055930182 0
0.74403161 1.3808532 -0.055999137 0
0.7247386 1.3865775 -0.055856757 0
0.70951271 1.4001124 -0.056037642 0
0.6922583 1.4098126 -0.056072544 0
0.67052895 1.4101664 -0.055746377 0
0.65525287 1.4240016 -0.055962689 0
0.63902032 1.4360703 -0.056116305 0
0.61949134 1.4407549 -0.055990096 0
0.59720117 1.4385639 -0.055608302 0
0.58393687 1.4581964 -0.056078523 0
0.56643391 1.4677752 -0.056168139 0
0.54978919 1.4798546 -0.056360994 0
0.52744484 1.4763938 -0.055971798 0
0.50971377 1.4855417 -0.056070831 0
0.49413997 1.5014784 -0.056433018 0
0.47353476 1.5023128 -0.056235809 0
0.45246717 1.5011421 -0.055974275 0
0.43149698 1.4996542 -0.055711772 0
0.4156718 1.5162452 -0.056129225 0
0.39427581 1.5126436 -0.05580768 0
0.37736773 1.5262613 -0.056130331 0
0.35622853 1.5228046 -0.055833813 0
0.34040633 1.5424851 -0.056393765 0
0.3187215 1.5358735 -0.056000873 0
0.29917109 1.538805 -0.05596596 0
0.28090298 1.5486854 -0.056192208 0
0.26005283 1.5442135 -0.055906702 0
0.23979624 1.5422686 -0.055722553 0
0.22142315 1.5526333 -0.055991851 0
0.20171736 1.5542294 -0.055953376 0
0.1828547 1.5628251 -0.056175482 0
0.16235209 1.5572318 -0.055896513 0
0.14333741 1.5657682 -0.056133687 0
0.12335511 1.5642025 -0.056017429 0
0.10334545 1.5610294 -0.05585276 0
0.084050305 1.5690825 -0.05609858 0
0.064264998 1.5694792 -0.056079388 0
0.044310749 1.5635474 -0.05584307 0
0.024595486 1.5624062 -0.055786826 0
0.0049258331 1.5641423 -0.05584218 0
-0.014830735 1.5706179 -0.056075588 0
-0.034638174 1.5717876 -0.056128468 0
-0.054694422 1.578972 -0.056405146 0
-0.074054189 1.5672154 -0.056014042 0
-0.093935259 1.5687273 -0.056105904 0
-0.11311142 1.5595807 -0.055825289 0
-0.13309141 1.5621638 -0.055973306 0
-0.15287618 1.5616492 -0.056019399 0
-0.17192557 1.5541627 -0.055824079 0
-0.094798893 0.85695744 0.51131701 0
-0.19215995 1.5573796 -0.0560221 0
-0.10455666 0.84738994 0.5063538 0
-0.2096059 1.5390637 -0.055453788 0
-0.11483509 0.84319443 0.50467086 0
-0.22957978 1.5404077 -0.055601966 0
-0.1236968 0.82996637 0.49764642 0
-0.24919999 1.5388943 -0.055656195 0
-0.13307679 0.82179415 0.49371198 0
-0.2691893 1.5392514 -0.05578728 0
-0.14406915 0.82380182 0.4959687 0
-0.28899214 1.5380986 -0.055872958 0
-0.1515339 0.80650657 0.48666635 0
-0.30904424 1.5378635 -0.056001343 0
-0.16091113 0.80072457 0.48436162 0
-0.3278814 1.5315058 -0.055915747 0
-0.17042163 0.7960248 0.48277852 0
-0.3471646 1.527369 -0.055919886 0
-0.17857888 0.78566724 0.47782272 0
-0.36926463 1.5349151 -0.056361932 0
-0.18586929 0.77259922 0.47126117 0
-0.38692829 1.5237112 -0.056124985 0
-0.19549376 0.76984811 0.47104731 0
-0.40445793 1.5126408 -0.055900384 0
-0.20534222 0.76796377 0.47143906 0
-0.42228302 1.5031965 -0.055743452 0
-0.20989433 0.74715865 0.46025321 0
-0.44321162 1.504669 -0.056000579 0
-0.22179262 0.75296873 0.46551576 0
-0.45918614 1.4894459 -0.055644799 0
-0.48374146 1.5016682 -0.056324523 0
-0.50177032 1.4929571 -0.056230318 0
-0.51824367 1.4799954 -0.05598348 0
-0.53789747 1.4762617 -0.056094013 0
-0.557163 1.4712739 -0.056166623 0
-0.57445425 1.461116 -0.056050543 0
-0.58861852 1.4434981 -0.055654619 0
-0.60123223 1.42292 -0.055148747 0
-0.62222248 1.4223729 -0.055426817 0
-0.63308048 1.3989527 -0.054820485 0
-0.65021199 1.3899454 -0.054784019 0
-0.66517609 1.3765049 -0.054580078 0
-0.67828721 1.3596653 -0.054246735 0
-0.70098776 1.3619645 -0.054686304 0
-0.71016675 1.338118 -0.054083582 0
-0.72213453 1.3202497 -0.053724658 0
-0.73530662 1.3050284 -0.053477805 0
-0.74900508 1.2910554 -0.053287484 0
-0.76891017 1.2877331 -0.05354574 0
-0.7739625 1.2598792 -0.052788597 0
-0.78589362 1.2439073 -0.05252986 0
-0.79965895 1.2310889 -0.052409619 0
-0.81185746 1.216071 -0.052201357 0
-0.82740211 1.2061856 -0.052220114 0
-0.84309477 1.1964821 -0.052255496 0
-0.85445523 1.1807446 -0.052033965 0
-0.86774892 1.1678661 -0.051943835 0
-0.88044506 1.1543041 -0.051829636 0
-0.89564532 1.1440669 -0.051872265 0
-0.90471143 1.1261415 -0.051571965 0
-0.92377532 1.1206734 -0.051850144 0
-0.9300012 1.0997161 -0.051418256 0
-0.94658428 1.0911583 -0.051571354 0
-0.96639764 1.086064 -0.051901612 0
-0.97994 1.0737486 -0.051898655 0
-0.98577356 1.0531958 -0.051501147 0
-1.0025561 1.0444503 -0.05168673 0
-1.013474 1.0295564 -0.051577132 0
-1.027776 1.0181197 -0.051648445 0
-1.0456824 1.0100906 -0.051904991 0
-1.0528848 0.9917267 -0.051638532 0
-1.0597466 0.97330135 -0.051369909 0
-1.0855213 0.97206241 -0.052021839 0
-1.0895398 0.95121515 -0.051636297 0
-1.0977247 0.93426728 -0.051462572 0
-1.1165942 0.92633897 -0.051796243 0
-1.1319344 0.91525054 -0.0519691 0
-1.1375558 0.89634514 -0.051704884 0
-1.1593505 0.89008808 -0.052181929 0
-1.1667031 0.87260556 -0.052014176 0
-1.190552 0.86728305 -0.052586365 0
-1.2003634 0.85150421 -0.05254196 0
-1.2070405 0.8335954 -0.052370619 0
-1.2167954 0.81789738 -0.052342854 0
-1.23483 0.80763453 -0.052676991 0
-1.24889 0.79456025 -0.052845776 0
-1.2646275 0.78238022 -0.053090606 0
-1.2725677 0.76530617 -0.05301518 0
-1.2766107 0.74601281 -0.052788071 0
-1.2997414 0.73773444 -0.053356167 0
-1.3128763 0.72348684 -0.053517144 0
-1.3262223 0.70921993 -0.05369287 0
-1.3392677 0.69465411 -0.053862616 0
-1.3701563 0.68892252 -0.054751653 0
-1.3670663 0.66593814 -0.054288782 0
-1.3867649 0.65405947 -0.054739643 0
-1.4048722 0.64110166 -0.055131357 0
-1.4102392 0.62221742 -0.055030145 0
-1.4302206 0.60963678 -0.055505898 0
-1.4375066 0.59146637 -0.05549521 0
-1.4580959 0.5785796 -0.056004368 0
-1.4590328 0.55779177 -0.055766147 0
-1.4699122 0.540838 -0.055917244 0
-0.97742647 0.3596333 0.34649721 0
-1.4821211 0.52423805 -0.05612611 0
-0.98020875 0.34670764 0.3459084 0
-1.4807519 0.50286806 -0.055830039 0
-0.97473222 0.33102217 0.34247768 0
-1.4771749 0.48099551 -0.055462413 0
-0.98191589 0.31973001 0.34355989 0
-1.4967915 0.46662185 -0.055973891 0
-0.98096979 0.30581546 0.34185436 0
-1.512067 0.4505749 -0.05632849 0
-0.99221998 0.29566777 0.34445015 0
-0.75085211 0.22374348 0.46464086 0
-1.4998462 0.42644677 -0.055668779 0
