# .PCD v0.7 - Point Cloud Data file format
VERSION 0.7
FIELDS x y z intensity
SIZE 4 4 4 4
TYPE F F F F
COUNT 1 1 1 1
WIDTH 1340
HEIGHT 1
VIEWPOINT 0 0 0 1 0 0 0
POINTS 1340
DATA ascii
-1.0163288 -0.22093913 0.11177522 0
-1.0093824 -0.21942906 0.1862926 0
-1.3039234 -0.28345913 0.3404426 0
-1.2284859 -0.26705983 0.41825607 0
-1.242942 -0.27020243 0.52664232 0
-1.2380037 -0.26912892 0.63389045 0
-1.5301076 -0.35286257 -0.05606059 0
-1.0021843 -0.23111664 0.036718361 0
-1.0045511 -0.23166245 0.11079195 0
-1.0008661 -0.23081264 0.18524255 0
-1.2997648 -0.29974255 0.34031534 0
-1.2569386 -0.28986627 0.42915189 0
-1.270992 -0.29310718 0.54004836 0
-1.2578102 -0.29006729 0.64585096 0
-1.5163049 -0.36984712 -0.055721097 0
-0.99772608 -0.24335879 0.036664385 0
-0.99208349 -0.24198249 0.10974427 0
-0.9943518 -0.24253576 0.18458749 0
-1.2950515 -0.31588045 0.34009573 0
-1.2792521 -0.31202674 0.43807706 0
-1.2820524 -0.31270981 0.54637778 0
-1.266246 -0.30885437 0.65212774 0
-1.5212268 -0.3914054 -0.056078635 0
-0.9861176 -0.25372401 0.036352325 0
-0.97945255 -0.25200912 0.10868945 0
-0.97804403 -0.25164673 0.18213399 0
-1.3168514 -0.33882046 0.34691361 0
-1.2969772 -0.33370692 0.44555068 0
-1.3044038 -0.33561772 0.55766022 0
-1.3026669 -0.33517087 0.6730051 0
-1.5115246 -0.4092685 -0.055906523 0
-0.98172206 -0.26581633 0.036310799 0
-0.97123897 -0.26297787 0.10813689 0
-0.96157908 -0.2603623 0.17966412 0
-1.3404851 -0.36295694 0.35431567 0
-1.3275875 -0.3594647 0.45758495 0
-1.3258907 -0.35900524 0.56873387 0
-1.515857 -0.43099907 -0.056263041 0
-0.96557069 -0.2745378 0.035838436 0
-0.9593662 -0.27277371 0.10718892 0
-0.95842922 -0.27250728 0.17970249 0
-1.3693671 -0.38934806 0.36321682 0
-1.3483826 -0.38338158 0.46637943 0
-1.3471857 -0.38304126 0.57989126 0
-1.5013785 -0.44738993 -0.05593032 0
-0.95457977 -0.28445148 0.035560623 0
-0.95979202 -0.28600466 0.10763035 0
-0.94085377 -0.28036132 0.17705506 0
-1.3745489 -0.40959647 0.36593029 0
-1.3858829 -0.41297382 0.4811106 0
-1.3840326 -0.41242248 0.59793997 0
-1.4980779 -0.46702287 -0.056021996 0
-0.93990988 -0.29301509 0.035148796 0
-0.93823421 -0.29249272 0.10561752 0
-0.93952084 -0.2928938 0.1774842 0
-1.4043179 -0.43779337 0.37529317 0
-1.4075233 -0.43879265 0.49050233 0
-1.4139071 -0.44078279 0.61319584 0
-1.5008738 -0.48871231 -0.05635222 0
-0.9286623 -0.30238965 0.034867812 0
-0.92736536 -0.30196735 0.10481375 0
-0.93007171 -0.30284858 0.17640561 0
-1.4397177 -0.46879876 0.38630047 0
-1.4357773 -0.46751568 0.50236017 0
-1.4236321 -0.463561 0.61989594 0
-1.4827933 -0.50356132 -0.055907011 0
-0.91912496 -0.31213778 0.034654547 0
-0.93167812 -0.31640086 0.10574311 0
-0.92181009 -0.31304964 0.1755724 0
-1.457601 -0.49500597 0.39274022 0
-1.4603493 -0.49593928 0.51310199 0
-1.4582189 -0.4952158 0.63762087 0
-1.4731239 -0.5210557 -0.055785403 0
-0.9095661 -0.32172078 0.034444153 0
-0.90460646 -0.31996652 0.10311966 0
-0.91170937 -0.32247889 0.17440815 0
-1.4943215 -0.52855343 0.40439555 0
-1.4980674 -0.52987838 0.5286569 0
-1.4763758 -0.54321623 -0.056163125 0
-0.9053688 -0.33312047 0.034441326 0
-0.89755619 -0.33024591 0.10278187 0
-0.90312165 -0.33229366 0.17355202 0
-1.5195221 -0.55909139 0.41308784 0
-1.525305 -0.56121916 0.54071987 0
-1.4680035 -0.56122136 -0.056109026 0
-0.89727247 -0.34302947 0.034294933 0
-0.89840639 -0.34346297 0.10336629 0
-0.88871974 -0.33975974 0.171593 0
-1.553974 -0.59408808 0.42445379 0
-1.5602934 -0.59650397 0.55574197 0
-1.4600377 -0.57935011 -0.056078952 0
-0.87835634 -0.34853607 0.033737004 0
-0.88395733 -0.35075861 0.10220394 0
-0.87971371 -0.34907469 0.17068928 0
-1.5921781 -0.63178402 0.43702722 0
-1.5981526 -0.6341548 0.57202542 0
-1.4430102 -0.59373087 -0.055707686 0
-0.86808968 -0.35717809 0.033512767 0
-0.87220037 -0.35886943 0.10135903 0
-0.87029141 -0.35808402 0.16972253 0
-1.6337163 -0.67219746 0.45071644 0
-1.4477187 -0.61709541 -0.056184985 0
-0.86235833 -0.36758339 0.033467542 0
-0.85991651 -0.36654255 0.10045993 0
-0.86186171 -0.36737171 0.16896734 0
-1.6737199 -0.71342921 0.46419442 0
-1.4294209 -0.63068062 -0.055778649 0
-0.86547738 -0.38186082 0.033772528 0
-0.85710442 -0.37816656 0.10067975 0
-0.86190706 -0.38028553 0.16990156 0
-1.7226523 -0.76005846 0.48038182 0
-1.4253051 -0.65042609 -0.055933207 0
-0.84443176 -0.38534939 0.033138011 0
-0.84322983 -0.38480091 0.099611245 0
-0.84164482 -0.38407761 0.16684756 0
-1.4194332 -0.66946733 -0.05602916 0
-0.83704138 -0.39478564 0.03304046 0
-0.83771563 -0.39510363 0.09953969 0
-0.83547574 -0.3940472 0.16659504 0
-1.4081978 -0.68597454 -0.055922192 0
-0.83231205 -0.40544367 0.033052683 0
-0.83491093 -0.40670964 0.099807046 0
-0.82584554 -0.40229362 0.16567175 0
-1.3914336 -0.6996209 -0.055601902 0
-0.81263196 -0.4085961 0.032472901 0
-0.81673896 -0.4106611 0.098245107 0
-0.80984122 -0.40719286 0.16347679 0
-1.3888336 -0.72036302 -0.055856053 0
-0.80937093 -0.41980618 0.032551248 0
-0.80972767 -0.4199912 0.09803012 0
-0.81894881 -0.42477402 0.16638182 0
-1.389273 -0.74293739 -0.056245517 0
-0.79711938 -0.42627314 0.032271836 0
-0.80490828 -0.4304384 0.098095074 0
-0.80381364 -0.42985299 0.16439354 0
-1.3738403 -0.75708222 -0.056002237 0
-0.80291438 -0.44246209 0.032729425 0
-0.79739016 -0.43941784 0.09784542 0
-0.80153775 -0.44170347 0.16505253 0
-1.3621924 -0.77318168 -0.055919867 0
-0.7838937 -0.44493881 0.032179914 0
-0.7895726 -0.44816217 0.16373776 0
-1.3536298 -0.79102045 -0.055972826 0
-0.7816121 -0.45675054 0.032319795 0
-0.77522087 -0.45301571 0.16193171 0
-1.3500358 -0.81189448 -0.056242496 0
-0.77386421 -0.46539217 0.097047552 0
-0.77860063 -0.46824059 0.16385631 0
-1.3437703 -0.83134311 -0.056413122 0
-0.75737786 -0.46856287 0.16061896 0
-1.3182106 -0.83866286 -0.055779018 0
-0.75812906 -0.48233169 0.16205347 0
-1.315125 -0.86015105 -0.056102317 0
-1.3017215 -0.87498236 -0.055996113 0
-0.73700511 -0.49539512 0.1601546 0
-1.2914391 -0.89188188 -0.056032468 0
-0.73398525 -0.50689822 0.16087267 0
-1.2811307 -0.90879828 -0.056077287 0
-1.2696737 -0.92492092 -0.05608115 0
-1.2569774 -0.94012398 -0.056038804 0
-1.2393671 -0.95152062 -0.055783451 0
-1.2303497 -0.96946269 -0.055922605 0
-1.2144893 -0.98200214 -0.055759341 0
-1.2046893 -0.99942362 -0.055882771 0
-1.1851325 -1.0086596 -0.055560354 0
-1.1849961 -1.0345527 -0.056160238 0
-1.165627 -1.0437955 -0.055860773 0
-1.1621747 -1.0673741 -0.056334976 0
-1.1435739 -1.0771481 -0.056086365 0
-1.1203412 -1.0822082 -0.055610862 0
-1.1186306 -1.1081207 -0.056214124 0
-1.1045349 -1.1220623 -0.056211352 0
-1.0914532 -1.1370623 -0.056269817 0
-1.0764402 -1.1500636 -0.056237973 0
-1.0537839 -1.1546613 -0.055809502 0
-1.0400258 -1.1688094 -0.055855911 0
-1.0267084 -1.1835198 -0.055936635 0
-0.6009559 -0.69274122 0.032740992 0
-1.0141336 -1.1992017 -0.056069799 0
-0.60035855 -0.70991731 0.033192851 0
-0.9940986 -1.2059857 -0.055797286 0
-0.58249068 -0.70664561 0.03269434 0
-0.98634416 -1.2277541 -0.056225337 0
-0.5798955 -0.7218262 0.033056229 0
-0.96983451 -1.2388337 -0.056169011 0
-0.58566177 -0.74810445 0.03391923 0
-0.60278219 -0.76997352 0.10508968 0
-0.61038017 -0.77967894 0.17857829 0
-0.60580117 -0.77382982 0.2507323 0
-0.61578315 -0.78658056 0.33234432 0
-0.61346143 -0.78361481 0.4120411 0
-0.95533282 -1.2524855 -0.056238096 0
-0.5755713 -0.75460058 0.033882469 0
-0.59944427 -0.78589916 0.10622463 0
-0.59529895 -0.78046447 0.17702724 0
-0.59577113 -0.78108352 0.25063196 0
-0.59871995 -0.7849496 0.32844371 0
-0.59127766 -0.77519244 0.40366542 0
-0.59454924 -0.77948159 0.49050704 0
-0.92730767 -1.2480237 -0.055509049 0
-0.58957964 -0.79348999 0.035292499 0
-0.57769656 -0.77749705 0.10409749 0
-0.5828492 -0.78443182 0.17624843 0
-0.58396649 -0.78593552 0.24980949 0
-0.58295017 -0.78456765 0.32518661 0
-0.57610792 -0.77535897 0.39994285 0
-0.57667869 -0.77612716 0.48378828 0
-0.92071241 -1.2723033 -0.056068841 0
-0.58592004 -0.80966437 0.035680909 0
-0.58194596 -0.80417275 0.10667945 0
-0.58422399 -0.80732065 0.17972399 0
-0.58214551 -0.80444849 0.25334376 0
-0.58064538 -0.8023755 0.32951093 0
-0.57828873 -0.79911888 0.40841007 0
-0.56148702 -0.77590114 0.47920218 0
-0.90488762 -1.2841758 -0.056085456 0
-2.0160456 -2.8610811 0.12495566 0
-0.55344588 -0.78542548 0.48074219 0
-0.89224398 -1.300712 -0.056312501 0
-1.9835633 -2.8916354 0.1251893 0
-0.54356164 -0.79240334 0.48078564 0
-0.86096585 -1.2896298 -0.055358957 0
-1.9544516 -2.9275479 0.12566863 0
-0.52497125 -0.78634769 0.47306299 0
-0.8592 -1.3227533 -0.056311935 0
-1.9241838 -2.9623144 0.12611094 0
-0.50619721 -0.77929944 0.46495128 0
-0.83646888 -1.3239576 -0.05591036 0
-1.8914496 -2.9937742 0.12642625 0
-0.4883461 -0.77295107 0.45745853 0
-0.82292545 -1.3395826 -0.056128148 0
-1.8562491 -3.0216575 0.12660663 0
-1.2179568 -1.9826263 0.25006482 0
-1.2152987 -1.9782994 0.41872832 0
-0.47920856 -0.78006995 0.45806411 0
-0.80451393 -1.3473605 -0.056025129 0
-1.8257259 -3.0576363 0.12714079 0
-1.1820651 -1.9796647 0.24779424 0
-1.1788119 -1.9742165 0.41468939 0
-0.46924397 -0.7858668 0.45796207 0
-0.78477025 -1.3527037 -0.055831973 0
-1.7912849 -3.0876269 0.12743981 0
-0.44972852 -0.77519429 0.44840696 0
-0.7747938 -1.3751106 -0.05634965 0
-0.4448052 -0.78944409 0.45337385 0
-0.74975699 -1.3707508 -0.055779688 0
-0.43532088 -0.79587978 0.45388576 0
-0.73612839 -1.3870357 -0.056060724 0
-0.40205315 -0.75756091 0.42911145 0
-0.72019726 -1.399287 -0.056184895 0
-0.40663365 -0.79005736 0.44458306 0
-0.70133281 -1.4058616 -0.056089833 0
-0.40724912 -0.81635404 0.45645887 0
-0.6824078 -1.4121639 -0.055994 0
-0.66211146 -1.4153825 -0.055786613 0
-0.65069127 -1.4378682 -0.056345463 0
-0.62885922 -1.4375441 -0.05601801 0
-0.61267775 -1.4500078 -0.056198601 0
-0.59332919 -1.4550503 -0.056100018 0
-0.57893246 -1.4725063 -0.056487489 0
-0.33591774 -0.85440189 0.3801119 0
-0.55320865 -1.4608319 -0.055767994 0
-0.31803876 -0.83982986 0.37181786 0
-0.53884637 -1.4788661 -0.056192975 0
-0.28537256 -0.78320611 0.49435064 0
-0.51926786 -1.4829203 -0.056094117 0
-0.29944634 -0.85515606 0.3751449 0
-0.27008244 -0.77129894 0.48464993 0
-0.50139004 -1.4918257 -0.056187708 0
-0.80473161 -2.394382 0.45556015 0
-0.28755957 -0.85559893 0.37372106 0
-0.26006067 -0.77377921 0.48411232 0
-0.48076856 -1.4924395 -0.055978373 0
-0.77305967 -2.3997927 0.45470142 0
-0.27542552 -0.85499758 0.371914 0
-0.25118592 -0.77975106 0.48583117 0
-0.46368933 -1.5040526 -0.056190498 0
-0.7456345 -2.4185884 0.45644757 0
-0.26714897 -0.86654168 0.3754425 0
-0.24326262 -0.78906238 0.4896853 0
-0.44399503 -1.5073285 -0.056099564 0
-0.72253698 -2.4529569 0.46118012 0
-0.25802386 -0.87597096 0.3780902 0
-0.23022527 -0.78159684 0.48321483 0
-0.42226896 -1.5031464 -0.055741593 0
-0.69474989 -2.473094 0.46328458 0
-0.24629113 -0.87671995 0.37704498 0
-0.21878186 -0.77879554 0.47974169 0
-0.40617466 -1.5190612 -0.056137651 0
-0.66634935 -2.4920943 0.46523514 0
-0.24896644 -0.93111497 0.39905834 0
-0.20867905 -0.78044325 0.47909999 0
-0.38630655 -1.5212628 -0.0560348 0
-0.64138645 -2.525759 0.46997485 0
-0.23803066 -0.93735707 0.40041727 0
-0.19829114 -0.78086412 0.47778767 0
-0.367057 -1.5257386 -0.056024972 0
-0.61725205 -2.5657194 0.47592637 0
-0.19182582 -0.79735863 0.48636365 0
-0.34648359 -1.5243729 -0.055810191 0
-0.58677971 -2.5815685 0.47745782 0
-0.17955169 -0.78994715 0.48042566 0
-0.33084232 -1.545336 -0.056420691 0
-0.55715966 -2.6024449 0.47998327 0
-0.16800201 -0.78472292 0.4759241 0
-0.309062 -1.5379518 -0.056004561 0
-0.52719396 -2.6234183 0.48258886 0
-0.20667322 -1.0284455 0.43432629 0
-0.1602937 -0.79765218 0.48250309 0
-0.29060307 -1.5466723 -0.056184407 0
-0.49820688 -2.6515989 0.48658019 0
-0.19708464 -1.0489407 0.44189852 0
-0.14868116 -0.79132354 0.47750449 0
-0.27172643 -1.553759 -0.056313083 0
-0.46956557 -2.6850231 0.49158967 0
-0.18168427 -1.0388889 0.43666551 0
-0.13499303 -0.77190375 0.46472353 0
-0.25136086 -1.5522383 -0.056138802 0
-0.16887094 -1.0428352 0.43739578 0
-0.12596501 -0.77787656 0.46732745 0
-0.23075455 -1.54829 -0.055886488 0
-0.15863085 -1.0643628 0.4455519 0
-0.11619323 -0.77961981 0.46745867 0
-0.21377034 -1.5696418 -0.056555543 0
-0.37755817 -2.7722793 0.099887609 0
-0.37828958 -2.7776496 0.30126774 0
-0.14651406 -1.0758021 0.44953257 0
-0.1054801 -0.77450389 0.46355805 0
-0.19175623 -1.5541075 -0.0559044 0
-0.13292964 -1.0773416 0.44944078 0
-0.096174158 -0.77945304 0.46575847 0
-0.17305756 -1.5643955 -0.056191631 0
-0.086128972 -0.77858365 0.46455404 0
-0.15270168 -1.5598665 -0.055955455 0
-0.13309345 -1.5621878 -0.055974163 0
-0.066623695 -0.78199732 0.46544194 0
-0.11203005 -1.5446708 -0.055291589 0
-0.057379 -0.79114187 0.47041741 0
-0.093799785 -1.5664649 -0.056024987 0
-0.046375126 -0.77446878 0.46011978 0
-0.07401976 -1.5664868 -0.055987999 0
-0.12365142 -2.6168458 0.093529016 0
-0.036695052 -0.77658069 0.46106341 0
-0.054177348 -1.5640446 -0.055871896 0
-0.048133805 -1.3895737 0.049639326 0
-0.027010197 -0.77975672 0.46271047 0
-0.03456467 -1.5684522 -0.056009363 0
-0.030253869 -1.3728396 0.049024042 0
-0.017445913 -0.79164875 0.46959963 0
-0.014884369 -1.5762981 -0.056278381 0
-0.012825953 -1.3583057 0.048495427 0
-0.018823337 -1.9934462 0.21424381 0
-0.0074166409 -0.78544384 0.4658266 0
0.0049652159 -1.576648 -0.056288645 0
0.0042449757 -1.3479438 0.048123572 0
0.0057564448 -1.8278937 0.19644344 0
0.0057365764 -1.8215847 0.32852203 0
0.0057348511 -1.8210368 0.46460709 0
0.002471515 -0.78480154 0.46542722 0
0.024563659 -1.5603845 -0.055714641 0
0.021299312 -1.3530197 0.048310533 0
0.030721571 -1.9515603 0.2097588 0
0.016256867 -1.0327029 0.34361681 0
0.012317892 -0.7824831 0.46410745 0
0.044469107 -1.5691352 -0.056042641 0
0.038714796 -1.3660889 0.048790716 0
0.054724872 -1.9310197 0.20760866 0
0.029275389 -1.0330102 0.34381446 0
0.02204177 -0.77776504 0.46143714 0
0.064308614 -1.5705442 -0.056117442 0
0.077899419 -1.9024589 0.067977153 0
0.077762954 -1.8991261 0.20426878 0
0.041776985 -1.0202771 0.33972469 0
0.031910323 -0.77931362 0.46255761 0
0.083972469 -1.5676295 -0.056046627 0
0.10035802 -1.8735209 0.066983007 0
0.10020132 -1.8705956 0.20131981 0
0.053889897 -1.0060368 0.3351824 0
0.041798487 -0.7803098 0.46342453 0
0.1032227 -1.5591754 -0.055786423 0
0.12258171 -1.8515924 0.066248946 0
0.12198217 -1.8425366 0.19844958 0
0.12268855 -1.8532063 0.33495495 0
0.067695148 -1.0225329 0.34093544 0
0.051901869 -0.78397596 0.46595308 0
0.12357439 -1.566983 -0.056117002 0
0.14384452 -1.824018 0.065321974 0
0.14321862 -1.8160813 0.19577895 0
0.14474979 -1.8354974 0.33205733 0
0.083053842 -1.0531629 0.35146898 0
0.085473105 -1.0838403 0.45014209 0
0.061173033 -0.77570367 0.46145773 0
0.14175154 -1.5484447 -0.055512633 0
0.16672924 -1.8212925 0.065294385 0
0.16575913 -1.8106953 0.19540785 0
0.16581655 -1.8113226 0.32803562 0
0.17577548 -1.9201105 0.49193007 0
0.098186724 -1.0725578 0.35832581 0
0.098712556 -1.0783018 0.44832253 0
0.071129553 -0.77699459 0.46272182 0
0.16222268 -1.5559907 -0.055851962 0
0.18709013 -1.7945117 0.064413622 0
0.18639311 -1.7878261 0.1931778 0
0.18665877 -1.7903742 0.32464173 0
0.20187919 -1.9363637 0.49670604 0
0.11447731 -1.0980315 0.36728871 0
0.10841832 -1.0399156 0.43289608 0
0.082126833 -0.78773558 0.469697 0
0.18184778 -1.5542191 -0.055866141 0
0.20674525 -1.7670132 0.063514985 0
0.20574848 -1.758494 0.19027328 0
0.20638925 -1.7639705 0.32029989 0
0.22947322 -1.961265 0.50379485 0
0.12344325 -1.0550464 0.35340223 0
0.11922009 -1.018952 0.42476064 0
0.09081582 -0.77618593 0.4634555 0
0.20192155 -1.5558027 -0.056010015 0
0.22927196 -1.7665373 0.063596614 0
0.22704823 -1.7494035 0.18958399 0
0.22738783 -1.75202 0.31862462 0
0.12947342 -0.9975909 0.41650268 0
0.10157521 -0.78263557 0.46803316 0
0.22183284 -1.555506 -0.056095451 0
0.24715982 -1.7331004 0.062499948 0
0.24750878 -1.7355473 0.18840522 0
0.24646291 -1.7282135 0.31483459 0
0.14604434 -1.0240723 0.42829269 0
0.11114378 -0.7793473 0.46686664 0
0.24100147 -1.5500202 -0.056002621 0
0.26745358 -1.720149 0.062149417 0
0.26530662 -1.7063407 0.18558259 0
0.26531702 -1.7064077 0.31144607 0
0.16099949 -1.0354811 0.43387765 0
0.12046626 -0.77478838 0.46500748 0
0.26104486 -1.5501043 -0.056119971 0
0.28611699 -1.6989844 0.061510026 0
0.28405923 -1.6867653 0.18382803 0
0.28405258 -1.6867257 0.3084822 0
0.13146244 -0.78063399 0.46947217 0
0.28190526 -1.5542114 -0.056392711 0
0.30828741 -1.6996624 0.061670229 0
0.30283526 -1.6696033 0.1823588 0
0.30382925 -1.6750835 0.30702832 0
0.30531409 -1.6832697 0.43646321 0
0.14273266 -0.78691936 0.4742955 0
0.29943112 -1.5401423 -0.056014597 0
0.33561575 -1.7262603 0.062783666 0
0.32168344 -1.6545986 0.18114799 0
0.32049385 -1.6484798 0.3028678 0
0.32258636 -1.6592427 0.43125224 0
0.15376303 -0.79088962 0.4778176 0
0.31823313 -1.5335202 -0.055915065 0
0.36177969 -1.7433648 0.063566402 0
0.33967075 -1.636825 0.17965615 0
0.34165058 -1.6463655 0.30324572 0
0.34091365 -1.6428144 0.4280642 0
0.16660936 -0.80286682 0.48628259 0
0.33604813 -1.5227368 -0.055671759 0
0.38852954 -1.760546 0.064366139 0
0.35721552 -1.6186527 0.17814116 0
0.35791862 -1.6218387 0.2995345 0
0.35755482 -1.6201901 0.42330864 0
0.1764365 -0.79948765 0.48554307 0
0.35548809 -1.5196395 -0.055717763 0
0.42042959 -1.7972511 0.065896429 0
0.37595117 -1.6071149 0.17737833 0
0.37621257 -1.6082325 0.2978729 0
0.37585214 -1.6066916 0.42098504 0
0.18664587 -0.79787326 0.48595142 0
0.37317812 -1.5093164 -0.055507157 0
0.44915757 -1.8166149 0.066808477 0
0.39336759 -1.5909727 0.17612943 0
0.39054772 -1.5795676 0.29345128 0
0.39246464 -1.5873206 0.4171713 0
0.19653262 -0.79487491 0.48559406 0
0.39402744 -1.5116906 -0.055772524 0
0.48098797 -1.8453157 0.068081334 0
0.4106268 -1.5753742 0.17496116 0
0.40663934 -1.5600762 0.29075843 0
0.4082208 -1.5661435 0.41292387 0
0.20269795 -0.77765292 0.47659454 0
0.41337317 -1.5078605 -0.055818833 0
0.42956996 -1.5669415 0.17461152 0
0.42752302 -1.5594748 0.29162654 0
0.42489177 -1.5498768 0.4100132 0
0.21371396 -0.77956396 0.47937703 0
0.43337643 -1.5061861 -0.055954434 0
0.44527841 -1.5475512 0.17306186 0
0.44372383 -1.5421482 0.28940836 0
0.44151151 -1.5344594 0.40737307 0
0.22336638 -0.77630281 0.4790633 0
0.45239544 -1.5009042 -0.055965401 0
0.46409506 -1.5397198 0.17282592 0
0.45677298 -1.5154275 0.28545055 0
0.45607945 -1.5131265 0.40320227 0
0.47318467 -1.5012022 -0.056194235 0
0.4770686 -1.5135241 0.17054635 0
0.47121066 -1.4949396 0.28268665 0
0.47201988 -1.4975067 0.40059215 0
0.47101322 -1.4943131 0.52126127 0
0.48970428 -1.4880003 -0.055926446 0
0.48969951 -1.4879857 0.16835015 0
0.4907257 -1.4911039 0.28310737 0
0.4896372 -1.4877964 0.39961222 0
0.48869556 -1.4849352 0.52009541 0
0.50520998 -1.4724157 -0.055575397 0
0.51232904 -1.4931639 0.16965246 0
0.50458336 -1.4705894 0.28039655 0
0.50838 -1.4816546 0.39965034 0
0.50393879 -1.4687108 0.51659447 0
0.52822441 -1.4785758 -0.056054521 0
0.53363711 -1.4937266 0.17046636 0
0.51965386 -1.4545856 0.27857068 0
0.52032304 -1.4564587 0.39459017 0
0.51973516 -1.4548132 0.51396739 0
0.5476231 -1.4740243 -0.056138944 0
0.56410372 -1.5183848 0.17407723 0
0.53314906 -1.4350649 0.27609608 0
0.53658128 -1.4443032 0.39309636 0
0.53195184 -1.4318423 0.50817823 0
0.56358486 -1.4603926 -0.055885628 0
0.59664935 -1.5460711 0.17809859 0
0.54846537 -1.4212142 0.27473825 0
0.54720688 -1.417953 0.38776928 0
0.5524382 -1.4315087 0.51048827 0
0.58733404 -1.4666797 -0.056404769 0
0.61998075 -1.5482044 0.17922945 0
0.56457824 -1.4098544 0.27389488 0
0.56237054 -1.4043412 0.38595286 0
0.56292015 -1.4057138 0.50377744 0
0.60142803 -1.4487457 -0.056001887 0
0.65413946 -1.5757195 0.18335378 0
0.58000398 -1.3971387 0.27282181 0
0.5832293 -1.4049079 0.38809621 0
0.57858717 -1.3937259 0.50205249 0
0.61681372 -1.4345274 -0.05574809 0
0.68229669 -1.5868217 0.18563068 0
0.59666044 -1.3876568 0.27241579 0
0.59407544 -1.381645 0.38370603 0
0.59226847 -1.3774424 0.49883378 0
0.35258475 -0.82000852 0.44660231 0
0.63591081 -1.4290824 -0.055843242 0
0.72019678 -1.6184982 0.19038209 0
0.61177415 -1.37484 0.2713905 0
0.60988098 -1.3705856 0.3827371 0
0.60729265 -1.3647687 0.49697405 0
0.36765674 -0.826235 0.452479 0
0.6523239 -1.4176364 -0.05571254 0
0.62691981 -1.3624279 0.27047724 0
0.6217314 -1.3511525 0.37946659 0
0.62727904 -1.3632087 0.49924272 0
0.37700191 -0.81930411 0.45124739 0
0.67366076 -1.4167528 -0.056006748 0
0.64066625 -1.3473631 0.26906675 0
0.63412488 -1.3336062 0.37675148 0
0.63790941 -1.3415654 0.49421895 0
0.37409148 -0.78673893 0.43587145 0
0.69425899 -1.413887 -0.056234598 0
0.65846604 -1.3409933 0.26942915 0
0.65212494 -1.3280793 0.37748 0
0.65379399 -1.3314785 0.49349675 0
0.64924955 -1.3222235 0.60988492 0
0.38254255 -0.7790637 0.43425351 0
0.71472317 -1.4103943 -0.05644916 0
0.6642499 -1.3107933 0.37491447 0
0.66593349 -1.3141155 0.49013057 0
0.667822 -1.3178422 0.6116944 0
0.40543264 -0.80005789 0.4487659 0
0.72787213 -1.3925726 -0.056098264 0
0.67674357 -1.2947528 0.3727344 0
0.67793524 -1.2970327 0.4869045 0
0.67623949 -1.2937884 0.60443413 0
0.42300969 -0.80930656 0.45690522 0
0.74729782 -1.386915 -0.056244969 0
0.69226837 -1.2847855 0.37234497 0
0.69505042 -1.2899487 0.48749205 0
0.69289899 -1.2859558 0.60480314 0
0.43428713 -0.80599636 0.45808747 0
0.75914299 -1.3673835 -0.055836126 0
0.70375144 -1.2676111 0.36990657 0
0.71013743 -1.2791137 0.60574281 0
0.77436262 -1.3543285 -0.055696793 0
0.71392125 -1.248619 0.36695868 0
0.72242558 -1.2634927 0.60260546 0
0.79773414 -1.3553107 -0.056145847 0
0.73270667 -1.2448323 0.36852816 0
0.81206131 -1.3407431 -0.055961534 0
0.74411708 -1.2285646 0.3664571 0
0.82606626 -1.3258979 -0.055771664 0
0.75652081 -1.2142723 0.36500654 0
0.85051268 -1.3275939 -0.056289032 0
0.77128899 -1.203931 0.3647885 0
0.85759646 -1.3022555 -0.05566816 0
0.78166509 -1.1869541 0.36259821 0
0.8779369 -1.2972816 -0.055923685 0
0.80485535 -1.1892929 0.36637968 0
0.89650375 -1.2894356 -0.056067657 0
0.81923848 -1.1783055 0.36614382 0
0.9140932 -1.2800407 -0.056155197 0
0.58080083 -0.81331831 0.25498095 0
0.92693621 -1.2640635 -0.055961896 0
0.58263034 -0.79453337 0.25137189 0
0.94739473 -1.2584233 -0.056235891 0
0.58571756 -0.77800798 0.24845739 0
0.95375937 -1.2342237 -0.055686746 0
0.97230548 -1.2260022 -0.055863786 0
0.9928062 -1.2199798 -0.05615456 0
0.58012825 -0.71287298 0.032812897 0
0.99905461 -1.1965626 -0.055651341 0
0.58550686 -0.70125854 0.032615073 0
1.0177432 -1.18821 -0.055854488 0
0.60912031 -0.71114486 0.033428963 0
1.0367284 -1.1799732 -0.056076515 0
0.61425912 -0.69913137 0.033225205 0
1.0559775 -1.1717907 -0.056315113 0
1.0671476 -1.1546144 -0.056130994 0
1.0858101 -1.1455269 -0.05634943 0
1.0933728 -1.124795 -0.056002431 0
1.1093918 -1.1128881 -0.056100689 0
1.1214716 -1.0970267 -0.056008555 0
1.138353 -1.0858307 -0.056164335 0
1.1492332 -1.0688988 -0.05603262 0
1.1619983 -1.0537974 -0.056003582 0
1.175011 -1.038938 -0.055995777 0
1.188342 -1.0243562 -0.056011923 0
1.3150613 -1.1335889 0.31312242 0
1.2054791 -1.0129536 -0.056214001 0
1.1389047 -0.95701176 0.26828802 0
1.2026544 -0.98501343 -0.055499475 0
1.0065149 -0.82436883 0.23463748 0
1.2320324 -0.98341864 -0.056279279 0
0.89728284 -0.71621871 0.20705457 0
1.2372848 -0.96235812 -0.05596121 0
0.8839395 -0.6875267 0.20196171 0
1.2478503 -0.94560134 -0.055896092 0
0.89003611 -0.6744554 0.20139825 0
1.264423 -0.93333197 -0.056107551 0
1.2727433 -0.91494262 -0.05596108 0
1.2855923 -0.89984542 -0.056023385 0
1.2965838 -0.88342559 -0.056013152 0
1.3051921 -0.86543053 -0.05590982 0
1.3125135 -0.84668821 -0.05576231 0
0.96035951 -0.61951751 0.040801004 0
1.3241593 -0.83077818 -0.055808209 0
0.95851284 -0.60137147 0.040397622 0
1.3396052 -0.81714469 -0.056021087 0
0.97891951 -0.5971303 0.040937535 0
1.3425975 -0.79594988 -0.055722661 0
0.98672843 -0.5849753 0.040952805 0
1.3495513 -0.7772761 -0.055600643 0
0.99561101 -0.57342362 0.041018531 0
1.3654968 -0.76372629 -0.055856936 0
1.0084505 -0.56402934 0.041251626 0
1.3851271 -0.75196779 -0.056268137 0
1.0135843 -0.55026197 0.041174926 0
1.008808 -0.54766899 0.12336216 0
1.3846455 -0.72928512 -0.055871092 0
1.3970195 -0.71347892 -0.056003429 0
1.4001436 -0.69298691 -0.055774428 0
1.4176823 -0.67958033 -0.056127746 0
1.4207518 -0.65918237 -0.055916212 0
1.4287612 -0.64116132 -0.05590925 0
1.4380569 -0.62370008 -0.05596124 0
1.4440336 -0.60480559 -0.055893023 0
1.460734 -0.59029317 -0.056247264 0
1.3931456 -0.56298018 0.62212962 0
1.4537277 -0.5662747 -0.055698492 0
1.4040415 -0.54692024 0.62387049 0
1.4681439 -0.55070186 -0.055980708 0
1.4193819 -0.53241116 0.62765807 0
1.4694341 -0.53017819 -0.055770919 0
1.4282454 -0.51531714 0.62865829 0
1.4698681 -0.50951099 -0.055539478 0
1.4392047 -0.49888194 0.63066703 0
1.487684 -0.49479368 -0.055972796 0
1.4527369 -0.48317051 0.63388056 0
1.491389 -0.47525567 -0.055882603 0
1.4654573 -0.46699208 0.63681453 0
1.5015351 -0.45774442 -0.056042355 0
1.4646589 -0.44650269 0.63397413 0
1.5045897 -0.43804795 -0.055946052 0
1.4806917 -0.43109027 0.63851357 0
1.5081642 -0.41856301 -0.055878554 0
1.4874892 -0.41282508 0.63915253 0
1.5194911 -0.40117085 -0.056106608 0
1.4966171 -0.39513174 0.51497704 0
1.490007 -0.39338657 0.63805532 0
1.5171797 -0.38019201 -0.05584006 0
1.506424 -0.37749672 0.51667488 0
1.5173613 -0.38023749 0.64766735 0
1.5294397 -0.36286023 -0.056118671 0
1.5191122 -0.36041003 0.51942897 0
1.5219059 -0.36107281 0.64761508 0
1.5198263 -0.34042448 -0.055604238 0
1.5249684 -0.34157622 0.51991946 0
1.5283397 -0.34233138 0.64846718 0
1.5330273 -0.32316563 -0.055933893 0
1.5429993 -0.32526776 0.4023203 0
1.5313016 -0.32280186 0.52065158 0
1.5303875 -0.32260916 0.64756101 0
1.5339155 -0.30323258 -0.055822559 0
1.5390837 -0.30425426 0.40026864 0
1.531786 -0.30281159 0.51947856 0
1.5397862 -0.30439311 0.64986455 0
1.5409901 -0.28451839 -0.055945199 0
1.5385724 -0.28407201 0.39917374 0
1.5541145 -0.28694159 0.5257839 0
1.5400985 -0.28435379 0.6484338 0
1.5436321 -0.26495248 -0.055915561 0
1.5593096 -0.26764339 0.40364748 0
1.557776 -0.26738015 0.52584183 0
1.5483143 -0.26575613 0.65043241 0
1.554788 -0.24675573 -0.056202654 0
1.5498096 -0.24596563 0.40035477 0
1.5602428 -0.24762146 0.52558035 0
1.5682877 -0.24889825 0.65745425 0
1.5579083 -0.22717945 -0.056207582 0
1.5616268 -0.22772169 0.4026348 0
1.5642142 -0.228099 0.52590895 0
1.560645 -0.22757852 0.65299714 0
1.5592028 -0.20735365 -0.056155629 0
1.5640212 -0.20799443 0.40254495 0
1.567928 -0.20851399 0.52623302 0
1.5766643 -0.2096758 0.65854293 0
1.5546243 -0.18685572 -0.055901561 0
1.573663 -0.18914405 0.40438148 0
1.5705967 -0.18877549 0.52628917 0
1.5717136 -0.18890972 0.65542954 0
1.5593479 -0.16753426 -0.055991113 0
1.5874286 -0.17055121 0.40733463 0
1.5834332 -0.17012194 0.52983069 0
1.5830414 -0.17007986 0.65920806 0
1.5670737 -0.14843057 -0.056196954 0
1.5847239 -0.15010239 0.40612343 0
1.5927315 -0.15086085 0.53226417 0
1.5863013 -0.15025179 0.65972537 0
1.5756977 -0.12925175 -0.056443378 0
1.5952252 -0.13085356 0.40835997 0
1.5807917 -0.12966961 0.5276866 0
1.5940944 -0.1307608 0.66222912 0
1.5662111 -0.10863931 -0.056050111 0
1.6685365 -0.11573706 0.059712037 0
1.6725557 -0.11601584 0.1801803 0
1.6672382 -0.115647 0.30140674 0
1.5956424 -0.1106808 0.40807769 0
1.586066 -0.11001654 0.52894282 0
1.5842608 -0.10989133 0.65751708 0
1.5673468 -0.088904083 -0.056046247 0
1.6430449 -0.093197882 0.058753114 0
1.6481113 -0.093485259 0.17740607 0
1.6513072 -0.093666539 0.29828981 0
1.5905544 -0.090220474 0.40645364 0
1.5917077 -0.090285897 0.53040314 0
1.5873039 -0.090036102 0.65825725 0
1.5650303 -0.069016203 -0.055927906 0
1.6373514 -0.072205484 0.058512367 0
1.6417782 -0.072400704 0.17661224 0
1.6365671 -0.072170898 0.2954396 0
1.6110904 -0.071047403 0.41144022 0
1.5938375 -0.070286565 0.53077579 0
1.5964251 -0.070400678 0.66161972 0
1.5796641 -0.049742453 -0.056424003 0
1.629624 -0.051315654 0.058208518 0
1.6235106 -0.051123146 0.17456403 0
1.6392246 -0.051617973 0.29577857 0
1.592175 -0.05013641 0.40641615 0
1.5912328 -0.050106741 0.52965629 0
1.5824137 -0.049829032 0.65550089 0
1.5656383 -0.029574221 -0.055905279 0
1.6326064 -0.030839218 0.05829655 0
1.6293528 -0.03077776 0.17513664 0
1.640347 -0.030985435 0.2958872 0
1.5942303 -0.03011431 0.40681174 0
1.598706 -0.030198853 0.53197503 0
1.6057216 -0.030331377 0.66494507 0
1.5622246 -0.0098355394 -0.05577454 0
1.6272072 -0.01024466 0.058094546 0
1.6436793 -0.010348366 0.17664857 0
1.633164 -0.010282164 0.29454485 0
1.5984538 -0.010063633 0.40782481 0
1.6031877 -0.010093437 0.53338176 0
1.6028407 -0.010091253 0.66364682 0
1.570648 0.0098885708 -0.056075267 0
1.6476088 0.010373105 0.058822922 0
1.6462029 0.010364255 0.17691979 0
1.6551151 0.010420364 0.29850376 0
1.6103814 0.010138727 0.41086799 0
1.6053199 0.010106861 0.53409117 0
1.601658 0.010083806 0.66315711 0
1.5695699 0.029648487 -0.056045666 0
1.6703088 0.031551402 0.059642818 0
1.6628915 0.03141129 0.17874166 0
1.6700442 0.031546399 0.30124402 0
1.613917 0.030486183 0.41183534 0
1.601809 0.030257467 0.53300756 0
1.6101829 0.030415647 0.66679251 0
1.5689214 0.049404174 -0.05604028 0
1.5988555 0.050346773 0.40812141 0
1.6202153 0.051019382 0.53930336 0
1.5980476 0.050321333 0.66197711 0
1.5634896 0.068948254 -0.055872843 0
1.6134092 0.071149655 0.4120324 0
1.6056098 0.070805706 0.53469616 0
1.6085274 0.070934378 0.66663545 0
1.5660911 0.088832855 -0.056001347 0
1.6072193 0.091165759 0.41071224 0
1.6162512 0.091678068 0.53858173 0
1.6117288 0.091421545 0.66838628 0
1.559864 0.10819906 -0.055822972 0
1.605442 0.11136054 0.41058385 0
1.6047224 0.11131063 0.53516459 0
1.6110357 0.11174855 0.66862947 0
1.5540707 0.12747774 -0.055668678 0
1.5969872 0.1309981 0.40881103 0
1.608503 0.13194272 0.53693694 0
1.602837 0.13147794 0.66586101 0
1.5571234 0.1474881 -0.055840131 0
1.5992126 0.15147473 0.4098365 0
1.6020745 0.1517458 0.53538644 0
1.6014009 0.15168199 0.66600513 0
1.5625697 0.1678804 -0.056106798 0
1.5914317 0.1709813 0.40836185 0
1.5898362 0.17080989 0.53197324 0
1.6028944 0.17221284 0.66747522 0
1.5557822 0.18699488 -0.055943195 0
1.5954615 0.19176407 0.40998301 0
1.5956769 0.19178997 0.53469324 0
1.6023006 0.19258609 0.66818488 0
1.5596056 0.20740722 -0.056170139 0
1.5986606 0.21260104 0.4114604 0
1.5718435 0.20903471 0.52754718 0
1.5854342 0.2108421 0.66220593 0
1.5561399 0.22692159 -0.056143783 0
1.5886024 0.23165536 0.40958995 0
1.5933603 0.23234917 0.53570819 0
1.586462 0.23134324 0.66379935 0
1.5473932 0.24558213 -0.055935346 0
1.5770588 0.25029027 0.40739393 0
1.5838871 0.25137398 0.53354514 0
1.5951416 0.25316015 0.6687119 0
1.5345116 0.26338699 -0.055585183 0
1.5909696 0.27307758 0.41184309 0
1.5836884 0.27182782 0.53458881 0
1.5837432 0.27183723 0.66531575 0
1.538452 0.28404981 -0.055853058 0
1.5783563 0.29141745 0.40949544 0
1.5777476 0.29130507 0.53377938 0
1.5739223 0.29059878 0.66267473 0
1.5392392 0.30428499 -0.056016296 0
1.5615404 0.30869362 0.40610895 0
1.570717 0.31050768 0.53268141 0
1.5723524 0.31083098 0.66360909 0
1.5423968 0.32514074 -0.056275748 0
1.557359 0.32829481 0.40606442 0
1.5648867 0.3298817 0.5320707 0
1.56936 0.33082467 0.66405165 0
1.5395612 0.34484485 -0.056326255 0
1.5667055 0.35092488 0.40962115 0
1.5567452 0.34869388 0.53075337 0
1.560954 0.34963658 0.66230518 0
1.5275087 0.36240211 -0.056047823 0
1.5566201 0.3693088 0.40816778 0
1.5532296 0.36850441 0.53109473 0
1.5600196 0.37011531 0.66383356 0
1.5156407 0.37980637 -0.055783421 0
1.5561665 0.38996175 0.40930399 0
1.5404279 0.3860178 0.5283376 0
1.5453663 0.38725534 0.65962094 0
1.5184759 0.40090284 -0.056069124 0
1.5589216 0.41158119 0.41135919 0
1.5394177 0.40643182 0.52970445 0
1.5417444 0.40704608 0.66021043 0
1.5052133 0.41774404 -0.05576922 0
1.5445372 0.42865768 0.40895543 0
1.5512602 0.43052354 0.53560239 0
1.5463091 0.42914945 0.66442657 0
1.5037051 0.43779042 -0.055913161 0
1.5308815 0.44570261 0.4067935 0
1.5353103 0.44699201 0.53199655 0
1.5327371 0.44624284 0.66095698 0
1.5052134 0.45886576 -0.056179643 0
1.5261642 0.46525264 0.4070645 0
1.5293324 0.46621844 0.53191721 0
1.5329077 0.46730843 0.66351551 0
1.4920678 0.47547197 -0.055908039 0
1.5186616 0.48394653 0.40665653 0
1.5161157 0.48313522 0.52939439 0
1.5118451 0.48177433 0.65697241 0
1.4942634 0.49698195 -0.056220341 0
1.5102072 0.50228477 0.40605411 0
1.5187985 0.50514215 0.53250998 0
1.5100605 0.50223595 0.65889287 0
1.4893055 0.5162487 -0.056273926 0
1.5070956 0.5224154 0.40695396 0
1.4887425 0.51605356 0.52420878 0
1.4930274 0.51753891 0.65425247 0
1.4718403 0.53104633 -0.05586224 0
1.4887408 0.53714412 0.40379211 0
1.4855658 0.53599852 0.52542514 0
1.4941304 0.53908867 0.65765828 0
1.4828027 0.55620039 -0.056539651 0
1.4807057 0.55541384 0.40347773 0
1.474812 0.55320305 0.52404392 0
1.4843634 0.55678582 0.65639329 0
1.465902 0.57101697 -0.056164935 0
1.4686929 0.57210416 0.40213549 0
1.4697306 0.57250834 0.5247584 0
1.4736525 0.57403606 0.65480137 0
1.4489207 0.58551931 -0.05579238 0
1.4684082 0.59339434 0.40407139 0
1.4622687 0.59091336 0.52470928 0
1.4626542 0.59106916 0.65316975 0
1.4465697 0.6058678 -0.055991184 0
1.4536701 0.60884172 0.40209365 0
1.4491038 0.60692912 0.52268624 0
1.4547662 0.60930073 0.65302169 0
1.4326991 0.62137634 -0.055752743 0
1.4412701 0.6250937 0.4008092 0
1.4327745 0.62140906 0.51957756 0
1.4480327 0.62802672 0.65349728 0
1.4336742 0.64336604 -0.056101505 0
1.432278 0.64273953 0.40052757 0
1.4347286 0.64383924 0.52318472 0
1.4232228 0.63867593 0.64587879 0
1.4214005 0.65948337 -0.055941746 0
1.4209991 0.65929711 0.39966339 0
1.4121963 0.65521288 0.51793575 0
1.4254376 0.66135639 0.6506117 0
1.4105698 0.67617089 -0.055846155 0
1.4045463 0.67328346 0.39738896 0
1.402427 0.67226756 0.51741648 0
1.4052553 0.67362338 0.6452204 0
1.4005032 0.69316489 -0.055788755 0
1.3900313 0.68798196 0.39570197 0
1.3809454 0.68348497 0.51262569 0
1.3846413 0.68531418 0.63966703 0
1.3980253 0.7139926 -0.056043748 0
1.3825315 0.70607966 0.39606664 0
1.3810965 0.70534676 0.51593792 0
1.3809327 0.70526314 0.64200556 0
1.3847749 0.72935331 -0.055876315 0
1.3673128 0.72015607 0.39427343 0
1.369733 0.72143078 0.5150457 0
1.3645898 0.71872193 0.63856459 0
1.3802139 0.74930048 -0.056068547 0
1.3512949 0.73360074 0.39228719 0
1.3604896 0.73859239 0.51502633 0
1.3499256 0.73285735 0.63597041 0
1.3741392 0.76856005 -0.056210462 0
1.410321 0.7887966 0.057690516 0
1.4172667 0.7926814 0.17451733 0
1.4039241 0.78521883 0.29010764 0
1.3461356 0.75289762 0.39351052 0
1.3433537 0.75134164 0.51208037 0
1.3443025 0.7518723 0.63773113 0
1.362223 0.78457439 -0.056122705 0
1.3760012 0.79250997 0.056690361 0
1.3817811 0.79583889 0.17136817 0
1.3773832 0.79330587 0.28666472 0
1.3385191 0.77092201 0.39409053 0
1.3373585 0.7702536 0.51345164 0
1.327083 0.76433545 0.63407791 0
1.3504647 0.80061394 -0.056049179 0
1.353317 0.80230486 0.056167562 0
1.370203 0.81231564 0.17118727 0
1.366289 0.80999523 0.28645584 0
1.327252 0.78685242 0.39365926 0
1.3258585 0.78602624 0.51279581 0
1.3162405 0.78032434 0.633542 0
1.3353902 0.81457353 -0.055844817 0
1.3460062 0.82104915 0.056288768 0
1.3424505 0.81888032 0.16899486 0
1.3495085 0.82318562 0.28508833 0
1.3039076 0.79536951 0.38967502 0
1.2994431 0.79264629 0.50639951 0
1.3027548 0.79466635 0.63181734 0
1.3309107 0.83501405 -0.056092758 0
1.3327863 0.83619082 0.056171808 0
1.329293 0.83399916 0.1686472 0
1.3330119 0.83633232 0.28380561 0
1.2991455 0.81508452 0.39128813 0
1.290319 0.80954677 0.50677621 0
1.2805567 0.80342191 0.62590843 0
1.3221405 0.85289848 -0.056171317 0
1.3203214 0.85172504 0.056094036 0
1.3335474 0.86025697 0.17054774 0
1.3274208 0.85630476 0.28488836 0
1.2763611 0.82336676 0.38751778 0
1.2783455 0.82464683 0.50611192 0
1.2840469 0.82832474 0.63266242 0
1.3072253 0.86677867 -0.055996917 0
1.3284888 0.88087785 0.056907773 0
1.3269159 0.87983483 0.17110299 0
1.3226874 0.87703103 0.28621998 0
1.2721713 0.84353542 0.38943973 0
1.2592083 0.8349402 0.50265795 0
1.258755 0.83463955 0.62532961 0
1.2970858 0.88376766 -0.056034841 0
1.3267123 0.90395355 0.05731472 0
1.3388873 0.91224909 0.17411412 0
1.3184627 0.89833277 0.28773081 0
1.262168 0.85997647 0.38966164 0
1.2360222 0.84216207 0.49759617 0
1.2445675 0.84798437 0.62353671 0
1.282342 0.89757037 -0.055881739 0
1.3562787 0.9493221 0.059103746 0
1.3480204 0.94354177 0.17683288 0
1.345511 0.94178528 0.29619819 0
1.2414607 0.86895561 0.38661623 0
1.2324157 0.86262465 0.50047749 0
1.2200519 0.85397065 0.61659288 0
1.2774044 0.91829336 -0.056166023 0
1.2270015 0.88206005 0.38554177 0
1.2055912 0.8666687 0.49397689 0
1.2114011 0.87084526 0.61771387 0
1.267594 0.93567264 -0.056248263 0
1.2063038 0.8904314 0.38253105 0
1.1991731 0.8851679 0.49587488 0
1.1901318 0.87849402 0.61246055 0
1.2520939 0.94881707 -0.056086183 0
1.1848602 0.89786845 0.37928629 0
1.1700341 0.88663346 0.4884035 0
1.1939691 0.90477103 0.62024915 0
1.2359732 0.96133804 -0.055901889 0
1.1667074 0.90746319 0.37710339 0
1.1630718 0.90463537 0.49021345 0
1.1604233 0.90257531 0.60867852 0
1.2256262 0.97830516 -0.055986643 0
1.1602697 0.92613703 0.37876198 0
1.1499121 0.91786951 0.48949957 0
1.1523989 0.91985452 0.61049676 0
1.2165675 0.99640882 -0.056141537 0
1.1379708 0.93203551 0.37528417 0
1.1297377 0.92529231 0.48583296 0
1.1454597 0.93816918 0.61303043 0
1.1980878 1.0067428 -0.05586933 0
1.1212237 0.94215459 0.37364411 0
1.118894 0.94019705 0.48622254 0
1.1208237 0.94181854 0.60614467 0
1.184449 1.0210004 -0.05582843 0
1.1034247 0.95115709 0.37167451 0
1.0974329 0.94599211 0.48203471 0
1.1009948 0.94906265 0.6018365 0
1.184942 1.047719 -0.056469046 0
1.0914744 0.96507549 0.37171316 0
1.0873643 0.96144134 0.48289165 0
1.07656 0.9518882 0.59498459 0
1.1609632 1.0528586 -0.055953689 0
1.0844735 0.98349136 0.37351692 0
1.0682913 0.96881598 0.47980115 0
1.0615664 0.96271718 0.59335083 0
1.1492285 1.0688944 -0.056032389 0
1.0590544 0.98502362 0.36900485 0
1.0489987 0.97567093 0.47661641 0
1.0453308 0.97225934 0.59107232 0
1.1190414 1.0674101 -0.055211533 0
1.0514492 1.0029366 0.37072596 0
1.0325955 0.98495275 0.47476116 0
1.0367277 0.98889422 0.59320182 0
1.1161704 1.0918409 -0.055743799 0
1.0314952 1.0090114 0.36814111 0
1.0155793 0.99344248 0.47265169 0
1.0175894 0.99540883 0.58937651 0
1.1042976 1.1077778 -0.055843085 0
1.0051378 1.0083055 0.36323687 0
0.998631 1.0017782 0.47059745 0
0.99474621 0.99788117 0.58337748 0
1.0984247 1.1299919 -0.056261182 0
0.99022245 1.0186801 0.36245358 0
0.99179614 1.0202991 0.4733935 0
0.98623234 1.0145754 0.58583051 0
1.0746173 1.1337185 -0.055768568 0
0.96684885 1.020023 0.35857111 0
0.96938246 1.0226959 0.46880487 0
0.9649992 1.0180717 0.58078682 0
1.062342 1.1494149 -0.055878226 0
0.95783663 1.0363439 0.36003998 0
0.95119876 1.029162 0.46624136 0
0.94590086 1.02343 0.57700294 0
1.0462017 1.1609428 -0.055793773 0
0.93107128 1.0331855 0.35484141 0
0.92613202 1.0277046 0.46026134 0
0.93035972 1.032396 0.57540727 0
1.0299401 1.1722471 -0.05570934 0
0.91085178 1.0367043 0.35208282 0
0.90998727 1.0357202 0.45868298 0
0.91466397 1.0410432 0.57376194 0
0.91436386 1.0407016 0.69313306 0
1.0230623 1.1944201 -0.056146402 0
0.90937418 1.0616897 0.35665107 0
0.89380324 1.0435108 0.45711246 0
0.89473116 1.0445942 0.56946439 0
0.89216971 1.0416037 0.68619704 0
1.0052459 1.2039779 -0.055996221 0
0.87189853 1.0442684 0.45259902 0
0.87153274 1.0438303 0.56302053 0
0.87622595 1.0494514 0.68404394 0
0.98904723 1.2153606 -0.055941951 0
0.86129445 1.0583756 0.45397663 0
0.85738784 1.053575 0.56240869 0
0.86154759 1.0586866 0.6829381 0
0.97530895 1.2297894 -0.056036349 0
0.84952015 1.0711794 0.56605083 0
0.8379541 1.0565954 0.67472893 0
0.95828354 1.2400782 -0.055950895 0
0.82574201 1.0685613 0.5591284 0
0.82238698 1.0642196 0.67293131 0
0.94263572 1.2521019 -0.055953402 0
0.80604696 1.0706712 0.67053962 0
0.93024844 1.2685803 -0.056161866 0
0.78683591 1.0730087 0.6657455 0
0.91417569 1.2801563 -0.056160267 0
0.89504719 1.2873406 -0.055976566 0
0.8766008 1.2953074 -0.055838577 0
0.86395401 1.3119094 -0.056080841 0
0.84357375 1.3167627 -0.055829797 0
0.8269943 1.3273876 -0.055834323 0
0.8127405 1.3418643 -0.056008339 0
0.7965098 1.3532306 -0.056059677 0
0.77517134 1.3557429 -0.05575496 0
0.76700777 1.3815497 -0.056414597 0
0.74501133 1.3826715 -0.056072876 0
0.72249836 1.3822914 -0.055684097 0
0.70931417 1.3997205 -0.056021959 0
0.69008356 1.4053836 -0.05589639 0
0.67380363 1.4170533 -0.056018628 0
0.65615767 1.4259681 -0.05603997 0
0.64213663 1.4430737 -0.056389973 0
0.61966902 1.4411681 -0.056006156 0
0.59911513 1.4431744 -0.05578652 0
0.58504856 1.4609724 -0.056185279 0
0.56425941 1.4621406 -0.055952515 0
0.54420638 1.4648275 -0.055788681 0
0.53032577 1.4844579 -0.056277514 0
0.50540984 1.472998 -0.05559738 0
0.48959306 1.4876623 -0.055913743 0
0.47245944 1.4989014 -0.056108106 0
0.45368508 1.5051827 -0.056124941 0
0.4321163 1.5018066 -0.055791732 0
0.41105172 1.4993925 -0.055505365 0
0.39438754 1.5130721 -0.055823494 0
0.3755666 1.5189767 -0.055862427 0
0.35827446 1.5315505 -0.056154482 0
0.33842799 1.5335207 -0.056066021 0
0.31925943 1.5384659 -0.056095392 0
0.29963428 1.5411874 -0.056052607 0
0.27768242 1.5309297 -0.055547964 0
0.25940335 1.5403568 -0.055767074 0
0.24044245 1.5464249 -0.055872716 0
0.22278032 1.5621498 -0.056335039 0
0.19984716 1.5398196 -0.055434611 0
0.18116008 1.5483415 -0.055654868 0
0.16263404 1.5599362 -0.055993587 0
0.14252168 1.5568573 -0.055814229 0
0.12245049 1.5527314 -0.055606626 0
0.10360439 1.5649407 -0.055992708 0
0.083927169 1.5667837 -0.056016393 0
0.063998371 1.5629675 -0.055846717 0
0.044589918 1.5733982 -0.056194898 0
0.024692493 1.5685685 -0.056006856 0
0.0049538575 1.5730412 -0.05615988 0
-0.014825351 1.5700477 -0.056055229 0
-0.034677368 1.5735661 -0.056191981 0
-0.054114487 1.5622299 -0.055807069 0
-0.07432659 1.5729803 -0.056220084 0
-0.093305804 1.5582153 -0.055729941 0
-0.11326555 1.5617058 -0.05590136 0
-0.1336315 1.5685033 -0.056200448 0
-0.15211032 1.5538259 -0.055738762 0
-0.17167154 1.5518663 -0.055741593 0
-0.094558902 0.85478801 0.51002258 0
-0.19164692 1.5532216 -0.055872526 0
-0.10428974 0.84522665 0.50506115 0
-0.21381254 1.5699517 -0.056566708 0
-0.11392906 0.83654171 0.50068909 0
-0.23116283 1.5510294 -0.055985365 0
-0.1238687 0.83111972 0.49833795 0
-0.2505222 1.5470594 -0.055951498 0
-0.13306867 0.82174408 0.49368188 0
-0.2706255 1.5474638 -0.056084923 0
-0.14293842 0.8173362 0.49207607 0
-0.29060981 1.5467082 -0.056185715 0
-0.15225953 0.81036854 0.48899674 0
-0.30843976 1.5348554 -0.055891804 0
-0.16080733 0.80020809 0.48404917 0
-0.32876641 1.5356396 -0.056066673 0
-0.17029627 0.79543924 0.48242339 0
-0.34804022 1.5312214 -0.056060929 0
-0.17884119 0.78682125 0.4785246 0
-0.36411619 1.5135146 -0.055576108 0
-0.18613262 0.7736938 0.47192883 0
-0.38825729 1.5289447 -0.056317762 0
-0.19644758 0.77360427 0.47334558 0
-0.40365139 1.5096245 -0.055788912 0
-0.20346555 0.76094514 0.46713048 0
-0.42330104 1.5068203 -0.055877838 0
-0.21041703 0.74901932 0.46139941 0
-0.44083872 1.4966131 -0.05570076 0
-0.22022159 0.74763519 0.46221834 0
-0.46157673 1.4972003 -0.055934492 0
-0.4821505 1.4967295 -0.056139279 0
-0.49796072 1.4816221 -0.0558034 0
-0.52067786 1.4869471 -0.056246437 0
-0.53914571 1.4796876 -0.056224186 0
-0.555206 1.4661062 -0.055969339 0
-0.57381326 1.4594855 -0.055987999 0
-0.59035587 1.4477587 -0.055818889 0
-0.60929602 1.4420043 -0.055888403 0
-0.62098312 1.4195397 -0.055316415 0
-0.63596368 1.4053239 -0.055070151 0
-0.64528698 1.3794173 -0.054369058 0
-0.6608935 1.3676424 -0.054228675 0
-0.67735004 1.3577868 -0.054171786 0
-0.6987555 1.3576273 -0.054512154 0
-0.70939916 1.3366717 -0.054025128 0
-0.72088993 1.3179742 -0.053632062 0
-0.73533988 1.3050874 -0.053480223 0
-0.75183737 1.2959374 -0.053488985 0
-0.76319528 1.2781621 -0.053147763 0
-0.77703208 1.2648759 -0.052997958 0
-0.78853166 1.2480829 -0.052706193 0
-0.8097266 1.2465881 -0.05306945 0
-0.81088322 1.2146116 -0.052138712 0
-0.83043456 1.2106062 -0.0524115 0
-0.83988428 1.191926 -0.05205651 0
-0.85633254 1.1833389 -0.052148286 0
-0.8780759 1.1817647 -0.052562013 0
-0.88405168 1.1590327 -0.052041952 0
-0.89978468 1.1493545 -0.052111998 0
-0.90800923 1.1302465 -0.051759947 0
-0.92470092 1.1217963 -0.051902097 0
-0.93848479 1.1097478 -0.0518873 0
-0.94791424 1.0926914 -0.051643811 0
-0.96194351 1.0810583 -0.051662397 0
-0.97647607 1.069953 -0.051715199 0
-0.985443 1.0528426 -0.051483877 0
-1.0031226 1.0450405 -0.051715937 0
-1.0058477 1.0218091 -0.05118902 0
-1.0259712 1.0163318 -0.051557742 0
-1.0327874 0.99763453 -0.051264923 0
-1.0488656 0.98794097 -0.051441412 0
-1.0665321 0.97953326 -0.051698823 0
-1.0724187 0.96032929 -0.051393915 0
-1.0920902 0.95344186 -0.051757175 0
-1.1000552 0.93625081 -0.051571835 0
-1.1127127 0.92311889 -0.051616192 0
-1.1298118 0.91353416 -0.051871642 0
-1.1432434 0.90082681 -0.051963404 0
-1.1440771 0.87836194 -0.051494479 0
-1.1632615 0.8700316 -0.051860746 0
-1.1738209 0.85509485 -0.05184735 0
-1.1914728 0.8451975 -0.052152805 0
-1.2141904 0.8385331 -0.052680831 0
-1.2098858 0.81325293 -0.052045625 0
-1.2260493 0.80189157 -0.052302413 0
-1.2545304 0.79814875 -0.053084448 0
-1.2609569 0.78010941 -0.052936513 0
-1.2652333 0.76089531 -0.052709628 0
-1.2925992 0.75535601 -0.053449202 0
-1.3073208 0.74203652 -0.053667314 0
-1.3122538 0.72314376 -0.053491767 0
-1.3261266 0.70916873 -0.053688996 0
-1.3379183 0.69395423 -0.053808346 0
-1.3516597 0.67962235 -0.05401253 0
-1.3731177 0.66888601 -0.054529097 0
-1.3797338 0.65074325 -0.054462105 0
-1.4073415 0.64222854 -0.055228267 0
-1.4155395 0.62455595 -0.055236969 0
-1.4317607 0.61029321 -0.055565666 0
-1.446838 0.59530586 -0.055855457 0
-1.4535177 0.57676291 -0.055828523 0
-1.4583535 0.55753213 -0.055740189 0
-1.4627726 0.53821105 -0.055645645 0
-0.96988177 0.3568573 0.3438226 0
-1.4735678 0.5212127 -0.055802211 0
-0.97751951 0.34575644 0.34495941 0
-1.4692364 0.49895737 -0.055395864 0
-0.97104675 0.32977057 0.34118277 0
-1.475417 0.48042309 -0.055396412 0
-0.99312496 0.32337987 0.34748179 0
-1.4946313 0.4659484 -0.055893108 0
-0.99495888 0.31017652 0.34672937 0
-1.4980496 0.44639793 -0.055806309 0
-0.99182051 0.29554871 0.34431148 0
-0.75034148 0.22359133 0.46432486 0
-1.5157522 0.43096927 -0.056259152 0
-0.99665582 0.28337616 0.34472397 0
-0.74854803 0.21283242 0.46152002 0
-1.5060529 0.40778694 -0.055704139 0
-0.99005467 0.26807252 0.34124613 0
-0.76091486 0.2060294 0.4675082 0
-1.5261209 0.39266464 -0.056259055 0
-1.0008622 0.25751776 0.34382626 0
-0.76511449 0.19686082 0.46852824 0
-1.5201545 0.3707861 -0.055862561 0
-1.0070889 0.24564251 0.3448754 0
-0.79269809 0.19334972 0.48389018 0
-1.5280199 0.35238111 -0.055984098 0
-0.99927902 0.23044665 0.34118015 0
-0.78910887 0.1819787 0.48026231 0
-1.5368223 0.33408892 -0.056148019 0
-1.0071036 0.21893366 0.34288317 0
-0.79779047 0.1734312 0.4084897 0
-0.79378462 0.17256038 0.48174739 0
-1.5430009 0.31513962 -0.056224316 0
-1.0283221 0.21002258 0.34917927 0
-0.80048496 0.16348955 0.40878284 0
-0.79764992 0.16291054 0.48280996 0
-1.5486009 0.29602173 -0.056288082 0
-1.027495 0.1964101 0.34803101 0
-0.82521355 0.15774313 0.34785435 0
-0.8101238 0.15485865 0.41267657 0
-0.80700111 0.15426174 0.48725572 0
-1.5499752 0.27610222 -0.056207202 0
-1.0105178 0.18000691 0.34148571 0
-0.83268768 0.14832942 0.35018983 0
-0.81454033 0.14509678 0.41396281 0
-0.81987244 0.14604659 0.49387771 0
-1.551737 0.25630137 -0.056149606 0
-1.0280596 0.16980524 0.34666356 0
-0.84619975 0.13976735 0.35510406 0
-0.83196592 0.13741632 0.42190593 0
-0.82558733 0.13636278 0.49624655 0
-1.5533606 0.23651737 -0.05609614 0
-1.0147882 0.1545134 0.34150526 0
-0.85244149 0.12979421 0.3570092 0
-0.83974296 0.12786071 0.42499962 0
-0.84107465 0.12806349 0.5045464 0
-1.5592092 0.21735726 -0.056204055 0
-1.0207515 0.14229505 0.34288189 0
-0.85427016 0.11908718 0.35711873 0
-0.84907603 0.1183631 0.42893484 0
-0.83182681 0.11595852 0.49808335 0
-1.5497741 0.19618252 -0.055770479 0
-1.0221872 0.12939647 0.34278968 0
-0.87185407 0.11036611 0.36385968 0
-0.85999399 0.10886477 0.43372345 0
-0.8545 0.10816929 0.51080358 0
-1.559801 0.17752749 -0.056046419 0
-1.0308422 0.11732447 0.34516931 0
