# .PCD v0.7 - Point Cloud Data file format
VERSION 0.7
FIELDS x y z intensity
SIZE 4 4 4 4
TYPE F F F F
COUNT 1 1 1 1
WIDTH 1350
HEIGHT 1
VIEWPOINT 0 0 0 1 0 0 0
POINTS 1350
DATA ascii
-0.90902466 -0.33446559 0.1746864 0
-1.5365379 -0.5653522 0.41771367 0
-1.52065 -0.55950642 0.53906971 0
-1.4669119 -0.56080401 -0.056067299 0
-0.90357667 -0.34543958 0.034535889 0
-0.89205599 -0.34103519 0.10263565 0
-0.89234644 -0.34114623 0.17229323 0
-1.5626055 -0.59738791 0.42681143 0
-1.5700188 -0.60022199 0.55920589 0
-1.4494907 -0.57516497 -0.055673845 0
-0.87712222 -0.34804639 0.033689603 0
-0.87705588 -0.34802008 0.10140598 0
-0.86894262 -0.34480068 0.16859938 0
-1.5990906 -0.63452697 0.43892461 0
-1.5968119 -0.63362277 0.57154554 0
-1.4403572 -0.59263933 -0.055605263 0
-0.87011123 -0.35800987 0.033590809 0
-0.88025445 -0.36218333 0.102295 0
-0.87477314 -0.35992804 0.17059654 0
-1.655656 -0.68122464 0.45676926 0
-1.4405247 -0.61402893 -0.055905793 0
-0.86696178 -0.36954564 0.0336462 0
-0.86592591 -0.36910409 0.10116199 0
-0.86778408 -0.36989614 0.17012842 0
-1.6875058 -0.71930552 0.46801785 0
-1.4442962 -0.63724381 -0.056359112 0
-0.86602461 -0.38210225 0.033793882 0
-0.84994388 -0.37500721 0.099838629 0
-0.84878862 -0.3744975 0.16731563 0
-1.7119496 -0.75533623 0.4773972 0
-1.4283655 -0.65182263 -0.056053307 0
-0.84288573 -0.38464388 0.033077341 0
-0.84702134 -0.38653111 0.10005914 0
-0.85292959 -0.3892273 0.16908464 0
-1.4047313 -0.66253322 -0.05544883 0
-0.83969754 -0.39603838 0.033145305 0
-0.84463364 -0.39836645 0.1003617 0
-0.8385585 -0.39550117 0.16720974 0
-1.4131898 -0.68840629 -0.056120433 0
-0.82003492 -0.39946309 0.032565136 0
-0.83006531 -0.40434921 0.099227786 0
-0.83851272 -0.40846416 0.16821289 0
-1.4049119 -0.70639783 -0.056140494 0
-0.81190431 -0.40823022 0.032443821 0
-0.81370384 -0.40913501 0.097880013 0
-0.81728172 -0.410934 0.16497876 0
-1.3871027 -0.71946532 -0.055786442 0
-0.81593287 -0.42320973 0.032815155 0
-0.81462204 -0.42252982 0.098622657 0
-0.82232696 -0.42652625 0.16706815 0
-1.375513 -0.73557895 -0.05568843 0
-0.8064661 -0.43127146 0.032650243 0
-0.79729515 -0.42636713 0.097167253 0
-0.81045401 -0.43340406 0.16575161 0
-1.3743517 -0.75736409 -0.056023084 0
-0.79585755 -0.43857327 0.032441761 0
-0.80329627 -0.44267249 0.098570138 0
-0.78670245 -0.43352816 0.16199765 0
-1.3539683 -0.76851368 -0.055582259 0
-0.78342366 -0.44467202 0.032160617 0
-0.78246522 -0.44412801 0.096692607 0
-0.78041369 -0.44296357 0.16183844 0
-1.3623883 -0.79613864 -0.056334991 0
-0.77982372 -0.45570546 0.032245845 0
-0.79563105 -0.46494278 0.099035189 0
-0.76566601 -0.44743216 0.15993583 0
-1.3462589 -0.80962312 -0.056085154 0
-0.7720831 -0.46432105 0.096824199 0
-0.7751103 -0.46614152 0.16312176 0
-1.3358103 -0.82641852 -0.056078948 0
-1.3166747 -0.83768576 -0.05571403 0
-0.75035787 -0.47738752 0.16039233 0
-1.3062924 -0.85437417 -0.05572553 0
-0.75377846 -0.4930051 0.16243762 0
-1.3070985 -0.87859666 -0.056227416 0
-0.73714477 -0.49548903 0.16018495 0
-1.2769299 -0.88186169 -0.055402949 0
-0.73174882 -0.50535375 0.16038249 0
-1.2853862 -0.91181707 -0.056263559 0
-1.2734394 -0.92766416 -0.05624748 0
-1.2529374 -0.93710238 -0.055858694 0
-1.2432096 -0.95447069 -0.055956401 0
-1.2298356 -0.96905768 -0.055899244 0
-1.2078438 -0.97662872 -0.055454232 0
-1.2020723 -0.99725252 -0.055761371 0
-1.1933365 -1.0156419 -0.055944964 0
-1.1826119 -1.0324712 -0.05604725 0
-1.1698157 -1.0475464 -0.056061506 0
-1.1519014 -1.0579388 -0.055836994 0
-1.1430116 -1.0766183 -0.056058783 0
-1.128889 -1.0904651 -0.056035157 0
-1.1082373 -1.0978249 -0.055691831 0
-1.092247 -1.1095796 -0.055586006 0
-1.0911014 -1.1366957 -0.056251679 0
-1.0712214 -1.1444879 -0.055965316 0
-1.0551872 -1.1561991 -0.055883825 0
-1.0412974 -1.1702384 -0.0559242 0
-1.0287703 -1.1858968 -0.056048974 0
-0.61546201 -0.70946288 0.033531304 0
-1.009086 -1.1932329 -0.055790726 0
-0.5878247 -0.69509614 0.032499872 0
-1.0045174 -1.2186253 -0.056382082 0
-0.57393962 -0.69627196 0.032214381 0
-0.98571908 -1.226976 -0.056189705 0
-0.57877368 -0.72042978 0.032992281 0
-0.96585494 -1.2337503 -0.055938527 0
-0.57696819 -0.73699963 0.033415735 0
-0.61098313 -0.78044915 0.10651944 0
-0.60872376 -0.7775631 0.17809367 0
-0.60671782 -0.77500081 0.25111172 0
-0.60797739 -0.77660966 0.32813144 0
-0.60982281 -0.77896696 0.40959716 0
-0.94613582 -1.2404279 -0.055696692 0
-0.58292395 -0.76424032 0.034315303 0
-0.59647447 -0.78200561 0.10569837 0
-0.59388369 -0.77860898 0.17660639 0
-0.59400457 -0.77876747 0.24988878 0
-0.59448057 -0.77939153 0.32611805 0
-0.59104824 -0.77489161 0.40350878 0
-0.60290337 -0.79043418 0.49739924 0
-0.93656987 -1.2604892 -0.056063488 0
-0.57952029 -0.77995157 0.034690343 0
-0.5870946 -0.79014552 0.10579097 0
-0.58171517 -0.78290552 0.1759055 0
-0.58392662 -0.78588188 0.24979243 0
-0.58303726 -0.78468496 0.32523522 0
-0.57745922 -0.77717763 0.40088093 0
-0.58221102 -0.78357291 0.48842949 0
-0.92699122 -1.2809799 -0.056451201 0
-0.58257949 -0.80504817 0.035477478 0
-0.59000266 -0.81530601 0.10815636 0
-0.5868811 -0.81099248 0.1805414 0
-0.58482611 -0.80815274 0.25451031 0
-0.58478713 -0.80809879 0.33186135 0
-0.57669628 -0.79691833 0.40728539 0
-0.5620929 -0.77673841 0.47971928 0
-0.90765136 -1.288098 -0.056256752 0
-2.0213628 -2.8686271 0.12528522 0
-0.55809873 -0.79202867 0.48478386 0
-0.8817305 -1.2853854 -0.055648956 0
-1.9889233 -2.8994493 0.12552759 0
-0.54379332 -0.79274112 0.48099056 0
-0.86933726 -1.3021692 -0.055897228 0
-1.9532224 -2.9257069 0.12558959 0
-0.51790643 -0.77576542 0.46669674 0
-0.84897184 -1.307007 -0.055641584 0
-1.9275469 -2.9674919 0.12633134 0
-0.50496894 -0.77740848 0.46382308 0
-0.8458935 -1.3388748 -0.05654031 0
-1.8835886 -2.9813318 0.12590082 0
-0.49730685 -0.78713405 0.4658525 0
-0.82160091 -1.3374264 -0.05603781 0
-1.8600017 -3.027766 0.12686259 0
-1.1913068 -1.9392447 0.24459319 0
-1.2184168 -1.9833751 0.41980264 0
-0.47771099 -0.77763218 0.45663264 0
-0.80294997 -1.3447412 -0.055916216 0
-1.8275268 -3.0606523 0.1272662 0
-1.1636595 -1.9488399 0.24393591 0
-1.1807055 -1.9773879 0.41535553 0
-0.46302697 -0.77545488 0.45189452 0
-0.7894814 -1.3608242 -0.056167144 0
-1.7898314 -3.0851214 0.1273364 0
-1.1435299 -1.9710954 0.24489984 0
-0.45079666 -0.77703542 0.44947198 0
-0.77107793 -1.3685156 -0.056079399 0
-0.45062903 -0.79978019 0.45930982 0
-0.74973142 -1.3707039 -0.055777784 0
-1.4771287 -2.7005754 0.10989398 0
-0.43107587 -0.78811878 0.4494597 0
-0.73259085 -1.3803701 -0.055791318 0
-1.4409167 -2.7150195 0.1097347 0
-0.40292919 -0.75921154 0.43004644 0
-0.71554267 -1.3902435 -0.05582178 0
-1.4076027 -2.7348621 0.1098116 0
-0.40050405 -0.77814806 0.43788141 0
-0.69818848 -1.3995585 -0.055838361 0
-1.3750449 -2.756356 0.10997067 0
-0.40607104 -0.8139925 0.45513842 0
-0.6853345 -1.4182204 -0.056234147 0
-1.3301165 -2.752522 0.10914082 0
-0.66601747 -1.4237324 -0.05611572 0
-1.2942929 -2.7667844 0.10905147 0
-0.64351636 -1.4220135 -0.055724163 0
-1.2629312 -2.7907684 0.1093613 0
-0.62837452 -1.4364362 -0.055974834 0
-0.61327046 -1.4514105 -0.056252968 0
-0.58575809 -1.4364833 -0.055384159 0
-0.56966209 -1.4489272 -0.055582963 0
-0.33610812 -0.85488605 0.38032731 0
-0.55485469 -1.4651785 -0.055933926 0
-0.31896827 -0.84228438 0.37290454 0
-0.53899509 -1.4792743 -0.05620848 0
-0.28352386 -0.77813244 0.4911482 0
-0.51362723 -1.4668119 -0.05548479 0
-0.3025246 -0.86394697 0.37900135 0
-0.27055398 -0.77264547 0.48549604 0
-0.50076848 -1.4899763 -0.056118049 0
-0.80294311 -2.3890607 0.4545477 0
-0.28780541 -0.85633034 0.37404054 0
-0.26171464 -0.77870035 0.48719123 0
-0.48205906 -1.4964457 -0.056128632 0
-0.77737242 -2.4131806 0.45723814 0
-0.27304772 -0.8476162 0.36870322 0
-0.25301757 -0.78543705 0.48937389 0
-0.4585093 -1.4872504 -0.055562776 0
-0.7422877 -2.4077325 0.45439878 0
-0.26796132 -0.86917675 0.37658417 0
-0.24273017 -0.78733528 0.48861349 0
-0.44156277 -1.4990712 -0.055792246 0
-0.71890068 -2.4406118 0.45885912 0
-0.25999638 -0.88266748 0.38098055 0
-0.22957659 -0.77939469 0.48185334 0
-0.42306027 -1.5059633 -0.055846054 0
-0.69238329 -2.4646695 0.4617064 0
-0.24835669 -0.88407272 0.38020712 0
-0.21771064 -0.77498233 0.47739273 0
-0.40578225 -1.5175937 -0.056083418 0
-0.6675204 -2.4964738 0.46605274 0
-0.2509605 -0.93857259 0.40225455 0
-0.20598041 -0.77035058 0.47290426 0
-0.38657832 -1.522333 -0.056074221 0
-0.63912177 -2.5168409 0.46831542 0
-0.23911542 -0.94162881 0.40224206 0
-0.19987804 -0.78711325 0.48161134 0
-0.36823839 -1.5306493 -0.056205291 0
-0.61535591 -2.5578377 0.47446436 0
-0.18702401 -0.777399 0.47418889 0
-0.34914881 -1.5360987 -0.056239493 0
-0.58462507 -2.572089 0.47570461 0
-0.18109742 -0.79674768 0.48456159 0
-0.33085948 -1.5454162 -0.056423619 0
-0.55930746 -2.6124771 0.48183358 0
-0.1706094 -0.79690188 0.48331046 0
-0.31120336 -1.5486076 -0.056392591 0
-0.52781969 -2.6265321 0.48316166 0
-0.20713647 -1.0307508 0.43529978 0
-0.15728474 -0.78267896 0.47344574 0
-0.28953829 -1.5410053 -0.055978548 0
-0.498974 -2.6556818 0.48732942 0
-0.19602656 -1.0433092 0.43952614 0
-0.14991821 -0.79790741 0.48147738 0
-0.26864281 -1.5361266 -0.055674028 0
-0.47173595 -2.6974335 0.49386182 0
-0.17969127 -1.0274926 0.43187544 0
-0.13707747 -0.78382266 0.4718993 0
-0.25135764 -1.5522186 -0.056138087 0
-0.16939165 -1.0460507 0.43874443 0
-0.12559682 -0.77560288 0.46596149 0
-0.2321443 -1.5576147 -0.056223065 0
-0.15780215 -1.0588025 0.44322428 0
-0.1161693 -0.77945924 0.4673624 0
-0.21151105 -1.5530525 -0.05595782 0
-0.37802157 -2.775682 0.1000102 0
-0.37875664 -2.7810791 0.30163971 0
-0.14694849 -1.078992 0.45086551 0
-0.10610507 -0.77909291 0.46630466 0
-0.19177374 -1.5542494 -0.055909503 0
-0.13355207 -1.0823861 0.45154524 0
-0.095186435 -0.77144802 0.46097508 0
-0.17313442 -1.5650904 -0.05621659 0
-0.087366514 -0.78977066 0.47122896 0
-0.15326452 -1.5656163 -0.056161705 0
-0.076057471 -0.77693647 0.4629631 0
-0.13243918 -1.5545083 -0.055699006 0
-0.066581108 -0.78149742 0.46514443 0
-0.11453375 -1.5791919 -0.056527276 0
-0.057160258 -0.78812587 0.46862409 0
-0.09359704 -1.5630789 -0.055903889 0
-0.04672214 -0.7802639 0.46356276 0
-0.07369943 -1.5597076 -0.055745702 0
-0.12404719 -2.6252217 0.09382838 0
-0.036543857 -0.77338094 0.45916373 0
-0.053888995 -1.5557201 -0.055574529 0
-0.047856346 -1.3815638 0.04935319 0
-0.026957395 -0.7782324 0.46180591 0
-0.034564245 -1.5684328 -0.05600867 0
-0.029728055 -1.3489795 0.048172001 0
-0.017122159 -0.77695769 0.46088502 0
-0.014901652 -1.5781283 -0.056343727 0
-0.012755491 -1.3508437 0.048229009 0
-0.01900308 -2.0124815 0.21628962 0
-0.0073284428 -0.77610338 0.46028703 0
0.0049313703 -1.5659007 -0.055904951 0
0.0042349272 -1.344753 0.048009656 0
0.0057678125 -1.8315034 0.19683136 0
0.005750786 -1.8260968 0.32933581 0
0.0056878747 -1.80612 0.46080133 0
0.024716128 -1.5700698 -0.056060463 0
0.021394163 -1.359045 0.048525672 0
0.030761512 -1.9540975 0.21003151 0
0.016701788 -1.0609661 0.353021 0
0.012213125 -0.77582783 0.46016008 0
0.044377379 -1.5658985 -0.055927042 0
0.038958829 -1.3746998 0.049098261 0
0.05438583 -1.9190563 0.20632245 0
0.02895309 -1.0216376 0.34002936 0
0.022206903 -0.78359193 0.46489415 0
0.064149164 -1.5666502 -0.055978302 0
0.077609904 -1.8953884 0.067724511 0
0.077721752 -1.8981198 0.20416054 0
0.041935951 -1.0241594 0.3410174 0
0.032082349 -0.78351486 0.46505123 0
0.08320839 -1.5533653 -0.055536654 0
0.099145547 -1.850886 0.066173755 0
0.099893585 -1.8648506 0.20070152 0
0.054089811 -1.0097687 0.33642581 0
0.042172663 -0.78729504 0.46757308 0
0.10388567 -1.5691895 -0.056144726 0
0.12310496 -1.8594961 0.066531733 0
0.12287951 -1.8560907 0.19990942 0
0.12330616 -1.8625352 0.3366411 0
0.068671644 -1.0372828 0.34585339 0
0.12312488 -1.5612831 -0.055912875 0
0.14414509 -1.8278294 0.065458469 0
0.14458156 -1.833364 0.19764207 0
0.14378363 -1.823246 0.32984093 0
0.082399391 -1.0448642 0.34869948 0
0.087472647 -1.1091955 0.46067265 0
0.14267176 -1.558497 -0.055873007 0
0.16605094 -1.8138829 0.065028742 0
0.16514169 -1.8039507 0.19467998 0
0.1637457 -1.7887014 0.32393885 0
0.17693205 -1.9327445 0.4951669 0
0.097631492 -1.0664927 0.35629952 0
0.099210978 -1.0837464 0.45058623 0
0.071209081 -0.77786332 0.46323916 0
0.16226926 -1.5564374 -0.055868 0
0.18422945 -1.7670729 0.063428715 0
0.18785678 -1.801865 0.19469474 0
0.1865205 -1.789048 0.32440126 0
0.20224971 -1.9399176 0.49761766 0
0.11401027 -1.0935518 0.36579022 0
0.10835329 -1.0392917 0.43263644 0
0.08128953 -0.77970445 0.46490836 0
0.18315758 -1.5654137 -0.056268528 0
0.20955746 -1.7910486 0.064378932 0
0.20608236 -1.7613477 0.19058205 0
0.20795201 -1.7773271 0.32272518 0
0.2313662 -1.9774439 0.50795078 0
0.12235699 -1.0457624 0.35029241 0
0.118158 -1.0098745 0.42097658 0
0.091586456 -0.78277236 0.46738824 0
0.20353858 -1.5682619 -0.056458555 0
0.22777249 -1.7549838 0.063180678 0
0.22680466 -1.7475268 0.18938062 0
0.22546379 -1.7371954 0.31592858 0
0.1285011 -0.99009913 0.41337481 0
0.10037191 -0.77336419 0.46248868 0
0.2227854 -1.5621854 -0.056336325 0
0.24845158 -1.7421583 0.062826596 0
0.24652418 -1.7286433 0.18765573 0
0.24615207 -1.726034 0.31443754 0
0.1454228 -1.019714 0.42646995 0
0.11224912 -0.78709799 0.4715097 0
0.24235329 -1.5587145 -0.056316748 0
0.268543 -1.7271558 0.062402572 0
0.26460826 -1.7018491 0.18509409 0
0.26562765 -1.7084055 0.3118107 0
0.1602091 -1.0303977 0.43174765 0
0.119515 -0.76867026 0.46133557 0
0.26069987 -1.5480556 -0.056045804 0
0.28764835 -1.7080777 0.061839242 0
0.28499082 -1.6922971 0.18443088 0
0.28545949 -1.6950802 0.31001011 0
0.13075379 -0.7764259 0.46694145 0
0.28014803 -1.5445232 -0.056041189 0
0.30817389 -1.6990366 0.061647523 0
0.30126011 -1.6609192 0.18141028 0
0.30088806 -1.6588681 0.30405617 0
0.30278412 -1.6693213 0.43284649 0
0.14052065 -0.77472401 0.46694508 0
0.30101541 -1.5482913 -0.056310978 0
0.33417371 -1.718843 0.062513895 0
0.32019478 -1.6469415 0.1803097 0
0.31925046 -1.6420844 0.30169278 0
0.32254016 -1.6590052 0.43119049 0
0.15328749 -0.78844362 0.47633985 0
0.31799042 -1.5323505 -0.055872418 0
0.35993946 -1.734497 0.063243061 0
0.33981511 -1.6375207 0.1797325 0
0.33960986 -1.6365316 0.3014344 0
0.34061977 -1.6413982 0.42769516 0
0.16397266 -0.79016089 0.47858682 0
0.33703959 -1.5272293 -0.055836011 0
0.39112267 -1.7722963 0.06479574 0
0.35529447 -1.6099478 0.17718315 0
0.35877502 -1.6257193 0.30025119 0
0.35523492 -1.6096779 0.42056212 0
0.17696549 -0.80188477 0.48699886 0
0.35649949 -1.523963 -0.055876285 0
0.41915223 -1.7917907 0.065696217 0
0.37212989 -1.5907798 0.17557539 0
0.37587184 -1.6067759 0.29760313 0
0.37226921 -1.5913754 0.41697189 0
0.18639505 -0.79680103 0.48529842 0
0.3754003 -1.518304 -0.055837691 0
0.45138359 -1.8256179 0.067139573 0
0.3929812 -1.5894098 0.17595641 0
0.3905192 -1.5794523 0.29342985 0
0.39263117 -1.5879942 0.41734833 0
0.19569169 -0.79147375 0.48351628 0
0.39615178 -1.5198406 -0.056073211 0
0.48417947 -1.8575599 0.06853307 0
0.40695459 -1.5612857 0.1733965 0
0.40761182 -1.5638072 0.29145378 0
0.40749156 -1.5633459 0.41218626 0
0.20472763 -0.78543985 0.48136687 0
0.41412085 -1.5105878 -0.055919796 0
0.43100423 -1.5721732 0.17519452 0
0.42893383 -1.5646211 0.29258892 0
0.42579669 -1.5531777 0.41088644 0
0.2122065 -0.7740652 0.47599572 0
0.43383723 -1.5077876 -0.056013927 0
0.44523242 -1.5473913 0.17304398 0
0.44003126 -1.5293149 0.28699997 0
0.44129521 -1.5337076 0.40717348 0
0.2244308 -0.78000218 0.48134622 0
0.45527902 -1.510471 -0.056322128 0
0.46267956 -1.5350236 0.17229879 0
0.45461282 -1.5082607 0.28410062 0
0.45778367 -1.5187806 0.40470892 0
0.47706452 -1.5135112 -0.056654997 0
0.48006552 -1.5230321 0.17161772 0
0.47482312 -1.5064002 0.28485382 0
0.46953577 -1.4896258 0.39848396 0
0.47523069 -1.5076933 0.52592868 0
0.48986724 -1.4884953 -0.055945054 0
0.49145505 -1.4933201 0.16895367 0
0.48568159 -1.475777 0.28019735 0
0.4882715 -1.4836468 0.39849764 0
0.49392956 -1.5008391 0.5256657 0
0.50997066 -1.4862906 -0.056099098 0
0.50827968 -1.4813621 0.16831155 0
0.50330621 -1.4668673 0.27968684 0
0.50529009 -1.4726492 0.39722127 0
0.51176566 -1.491522 0.52461785 0
0.53088099 -1.4860121 -0.056336436 0
0.53598523 -1.5002995 0.17121646 0
0.51083058 -1.429888 0.27384079 0
0.5221889 -1.4616816 0.39600518 0
0.51424313 -1.4394403 0.50853628 0
0.5460369 -1.4697547 -0.055976335 0
0.5623402 -1.5136379 0.17353302 0
0.53804618 -1.4482462 0.27863207 0
0.53467476 -1.4391714 0.39169964 0
0.53846407 -1.4493711 0.51439947 0
0.56221086 -1.4568323 -0.055749383 0
0.59204227 -1.534133 0.17672339 0
0.55002123 -1.4252458 0.27551761 0
0.55144888 -1.4289452 0.39077532 0
0.55043805 -1.4263259 0.50864005 0
0.57850522 -1.4446325 -0.05555689 0
0.62175995 -1.5526475 0.1797438 0
0.56635815 -1.4142991 0.27475834 0
0.5673331 -1.4167337 0.38935867 0
0.56516474 -1.411319 0.50578624 0
0.60361934 -1.4540244 -0.056205932 0
0.64992082 -1.5655574 0.18217131 0
0.58268064 -1.4035864 0.27408084 0
0.57478416 -1.3845649 0.38247657 0
0.57917696 -1.3951465 0.50256425 0
0.61623096 -1.4331721 -0.055695418 0
0.67741317 -1.5754639 0.18430202 0
0.59463346 -1.3829427 0.27149034 0
0.58992386 -1.3719895 0.38102457 0
0.59498858 -1.3837686 0.5011248 0
0.35609052 -0.8281619 0.45104289 0
0.63877964 -1.4355295 -0.056095172 0
0.71979588 -1.6175972 0.19027612 0
0.61321843 -1.3780859 0.27203119 0
0.60892302 -1.3684326 0.3821359 0
0.60713547 -1.3644156 0.49684548 0
0.36328545 -0.81641138 0.44709921 0
0.65579331 -1.4251761 -0.056008849 0
0.62987983 -1.3688607 0.27175429 0
0.62031305 -1.34807 0.37860087 0
0.6225583 -1.3529495 0.49548554 0
0.38205382 -0.83028293 0.45729423 0
0.67540866 -1.4204288 -0.056152064 0
0.64318043 -1.3526506 0.27012265 0
0.63579702 -1.3371229 0.37774494 0
0.64458132 -1.3555968 0.49938798 0
0.37302548 -0.78449702 0.43462938 0
0.68734092 -1.3997982 -0.05567424 0
0.65932339 -1.3427393 0.26977995 0
0.64678395 -1.3172022 0.3743884 0
0.64997387 -1.3236985 0.49061325 0
0.64185923 -1.3071728 0.60294271 0
0.3853718 -0.78482556 0.43746522 0
0.71101868 -1.403084 -0.056156579 0
0.6623525 -1.307049 0.26426396 0
0.6687454 -1.3196644 0.37745181 0
0.66273957 -1.3078129 0.48777986 0
0.66384572 -1.3099957 0.60805231 0
0.40496284 -0.7991308 0.44824588 0
0.73014385 -1.3969189 -0.056273349 0
0.67884707 -1.2987772 0.26429889 0
0.67701006 -1.2952628 0.3728812 0
0.684636 -1.3098527 0.49171713 0
0.67532039 -1.29203 0.6036126 0
0.42215183 -0.80766529 0.45597863 0
0.74455476 -1.381824 -0.05603851 0
0.70249909 -1.3037727 0.2670944 0
0.69328529 -1.2866727 0.37289193 0
0.69164628 -1.2836308 0.48510447 0
0.69745958 -1.2944199 0.6087839 0
0.43309459 -0.80378306 0.45682955 0
0.76076001 -1.3702961 -0.055955064 0
0.73038769 -1.315589 0.27137777 0
0.70261103 -1.2655571 0.36930716 0
0.70446193 -1.268891 0.48284814 0
0.70899922 -1.2770635 0.60477191 0
0.44601849 -0.80337739 0.45975459 0
0.78119868 -1.3662845 -0.056188483 0
0.76035577 -1.3298311 0.27626875 0
0.72156942 -1.2619953 0.37088987 0
0.71304852 -1.2470926 0.4779321 0
0.71835154 -1.2563673 0.59920716 0
0.44837689 -0.7841928 0.45197096 0
0.79416233 -1.3492423 -0.055894457 0
0.78583932 -1.335102 0.27939737 0
0.72616112 -1.2337117 0.36523595 0
0.73262936 -1.2447009 0.48051295 0
0.7369011 -1.2519584 0.60148221 0
0.45370966 -0.77083015 0.44752672 0
0.81202513 -1.3406832 -0.055959038 0
0.80834967 -1.334615 0.28140327 0
0.74411768 -1.2285655 0.36645734 0
0.7465477 -1.2325776 0.47942382 0
0.74899644 -1.2366205 0.59859717 0
0.47676438 -0.78715545 0.46045381 0
0.81633705 -1.3102819 -0.055114802 0
0.84728098 -1.3599492 0.28897166 0
0.75918108 -1.2185423 0.36629009 0
0.7643764 -1.2268811 0.48091382 0
0.76251018 -1.2238858 0.59703326 0
0.49204919 -0.78977567 0.46557403 0
0.85105681 -1.3284433 -0.056325041 0
0.87392914 -1.3641455 0.29217851 0
0.77261871 -1.2060065 0.36541742 0
0.7786144 -1.2153654 0.480205 0
0.77087134 -1.203279 0.59166926 0
0.49959412 -0.77983326 0.46338478 0
0.86627179 -1.315429 -0.05623129 0
0.90942496 -1.3809569 0.29820839 0
0.78511202 -1.1921884 0.36419716 0
0.78963691 -1.1990594 0.47765312 0
0.78790367 -1.1964275 0.59313172 0
0.51501971 -0.7820546 0.46852118 0
0.88194197 -1.3031998 -0.056178804 0
0.94466186 -1.3958777 0.30397508 0
0.81104064 -1.1984326 0.36919528 0
0.79627502 -1.1766142 0.47266874 0
0.80654055 -1.1917831 0.59581691 0
0.53744626 -0.79415637 0.47978759 0
0.88751066 -1.2765009 -0.055505227 0
0.82208782 -1.1824037 0.36741728 0
0.80900162 -1.1635818 0.47148839 0
0.80910021 -1.1637237 0.58683604 0
0.55237043 -0.79447085 0.48414141 0
0.90990371 -1.2741741 -0.055897828 0
0.58579111 -0.82030642 0.035986722 0
0.57929617 -0.81121129 0.10712742 0
0.58670765 -0.82158983 0.18207499 0
0.57542962 -0.80579686 0.25262293 0
0.57287717 -0.80222249 0.32796106 0
0.57488483 -0.80503392 0.40957597 0
0.55742013 -0.78057736 0.47991422 0
0.9196291 -1.2540988 -0.055520743 0
0.57296336 -0.78135049 0.034591503 0
0.57801694 -0.7882421 0.105047 0
0.59126586 -0.80630964 0.18032439 0
0.58537388 -0.79827476 0.25255558 0
0.57573754 -0.7851336 0.32391301 0
0.58302939 -0.7950775 0.40821332 0
0.56472719 -0.77011877 0.47781828 0
0.94362754 -1.2534194 -0.056012277 0
0.57847106 -0.76838243 0.034337152 0
0.58780414 -0.7807796 0.10503058 0
0.58243042 -0.77364171 0.17464484 0
0.5895561 -0.78310668 0.25008565 0
0.59151024 -0.78570235 0.3271946 0
0.58082736 -0.77151233 0.39983779 0
0.58129758 -0.77213693 0.48357362 0
0.95881808 -1.2407699 -0.055982105 0
0.58475822 -0.75671327 0.034142029 0
0.6075843 -0.78625172 0.10678742 0
0.60447592 -0.78222924 0.1782876 0
0.60187644 -0.7788654 0.25113162 0
0.59864682 -0.77468604 0.32572043 0
0.6020723 -0.77911878 0.40767661 0
0.97284865 -1.2266871 -0.055894993 0
0.57972986 -0.73099458 0.033308361 0
0.88144714 -1.1114367 0.36191362 0
0.86786324 -1.0943086 0.46466526 0
0.8756907 -1.1041783 0.58348876 0
0.98253018 -1.2073524 -0.055573337 0
0.57604086 -0.70785034 0.032581709 0
0.88827807 -1.0915335 0.35904637 0
0.88574839 -1.088425 0.46686596 0
0.88657862 -1.0894452 0.58155656 0
0.99793845 -1.1952257 -0.055589162 0
0.5851258 -0.70080221 0.03259385 0
0.90118617 -1.0793461 0.35874179 0
0.90106124 -1.0791965 0.46773729 0
0.90010118 -1.0780466 0.58147609 0
1.0226945 -1.1939906 -0.056126218 0
0.60632753 -0.70788431 0.033275694 0
0.9124254 -1.0652521 0.35784772 0
0.91499805 -1.0682555 0.46795198 0
0.9129706 -1.0658885 0.58107311 0
1.0323553 -1.174996 -0.055839982 0
0.61344606 -0.69820595 0.033181228 0
0.93256909 -1.0614222 0.36047745 0
0.92462689 -1.0523826 0.46606216 0
0.93143481 -1.0601312 0.58428216 0
1.0448078 -1.1593961 -0.055719439 0
0.94552314 -1.0492224 0.36034918 0
0.93837172 -1.0412867 0.46634412 0
0.93453223 -1.037026 0.57798791 0
1.0603718 -1.1472832 -0.055774592 0
0.95836592 -1.0369166 0.36023894 0
0.94807196 -1.0257789 0.46470872 0
0.95020837 -1.0280905 0.57963049 0
1.077781 -1.1370561 -0.055932749 0
0.96863586 -1.0219083 0.35923386 0
0.96123224 -1.0140976 0.46486333 0
0.96025497 -1.0130665 0.57793152 0
1.1019305 -1.1335984 -0.056440748 0
0.98627222 -1.0146164 0.36100769 0
0.9747957 -1.00281 0.46527904 0
0.97226012 -1.0002016 0.57753086 0
1.1012628 -1.1047335 -0.055689614 0
0.99161088 -0.99473596 0.35834849 0
0.98075634 -0.9838472 0.46217415 0
0.98672628 -0.98983598 0.57867414 0
1.1178882 -1.0935214 -0.055829592 0
1.005698 -0.98377651 0.3589341 0
0.99939841 -0.97761428 0.46512106 0
1.0004503 -0.97864318 0.57944965 0
1.135977 -1.0835643 -0.056047108 0
1.0145304 -0.96772116 0.35770893 0
1.0167021 -0.96979254 0.46745375 0
1.0034685 -0.95716959 0.57417136 0
1.1615279 -1.0803339 -0.056632064 0
1.0373807 -0.96486503 0.36145312 0
1.0202131 -0.94889754 0.4635376 0
1.0248432 -0.95320392 0.57948786 0
1.1597594 -1.0517669 -0.055895675 0
1.039449 -0.94265938 0.35800949 0
1.0325148 -0.93637091 0.46373287 0
1.0440525 -0.94683427 0.58356172 0
1.1815156 -1.0446894 -0.056305755 0
1.0560963 -0.93379432 0.35966477 0
1.0383943 -0.91814238 0.46114439 0
1.0444201 -0.92347032 0.57722175 0
1.1876327 -1.0237448 -0.055978496 0
1.3651181 -1.176738 0.064344183 0
1.3644502 -1.1761622 0.19359639 0
1.316967 -1.1352316 0.31357616 0
1.0694374 -0.92185992 0.36022636 0
1.0588849 -0.9127636 0.46510294 0
1.0580186 -0.91201681 0.57834435 0
1.2055259 -1.012993 -0.056216184 0
1.3893975 -1.1674988 0.064790502 0
1.3788004 -1.158594 0.19354713 0
1.1372715 -0.95563948 0.26790333 0
1.0898473 -0.91578937 0.36318806 0
1.0770561 -0.90504092 0.46804157 0
1.0782124 -0.90601259 0.58310032 0
1.2124794 -0.99306047 -0.055952877 0
0.99981582 -0.81888205 0.046138987 0
1.0119984 -0.82885993 0.14058158 0
1.0003036 -0.81928158 0.23318951 0
1.0017438 -0.82046109 0.33035871 0
1.094097 -0.89610147 0.47050604 0
1.0964204 -0.89800441 0.58678544 0
1.2192395 -0.97320718 -0.055694893 0
0.90729362 -0.72420943 0.041445199 0
0.91035658 -0.72665429 0.125181 0
0.90440804 -0.72190613 0.20869876 0
0.89728528 -0.71622068 0.29291254 0
1.0987805 -0.87705582 0.46773365 0
1.0955935 -0.87451196 0.58040339 0
1.2368536 -0.96202278 -0.055941708 0
0.89239359 -0.69410229 0.040362108 0
0.88207954 -0.68608004 0.12009521 0
0.89146876 -0.69338298 0.20368199 0
0.87496799 -0.68054873 0.28280732 0
1.1150961 -0.86731988 0.46999255 0
1.1149814 -0.86723071 0.5848428 0
1.2536753 -0.95001549 -0.056157023 0
0.9044838 -0.68540365 0.040515367 0
0.88291401 -0.66905838 0.11905233 0
0.89283806 -0.6765787 0.20203228 0
0.89712828 -0.67982972 0.28718027 0
1.1294299 -0.85586429 0.47145426 0
1.1234449 -0.85132885 0.58361292 0
1.2661053 -0.93457377 -0.056182202 0
0.89811444 -0.66294187 0.039852962 0
0.90318215 -0.6666826 0.12064374 0
0.9035365 -0.66694415 0.2025367 0
0.89723849 -0.66229528 0.28452334 0
1.1407025 -0.84200782 0.47169644 0
1.1262392 -0.83133185 0.57958043 0
1.2776085 -0.91844016 -0.056175001 0
0.90511924 -0.65066707 0.039797068 0
0.91040677 -0.65446818 0.1204984 0
0.91333848 -0.65657568 0.20286453 0
0.89902234 -0.64628416 0.2824859 0
1.1340182 -0.81521672 0.46465069 0
1.1470958 -0.82461786 0.58492351 0
1.289561 -0.90262336 -0.056196332 0
0.92171776 -0.64515287 0.040166505 0
0.92098397 -0.64463919 0.12081438 0
0.92200607 -0.64535463 0.20296864 0
0.93209034 -0.65241307 0.290272 0
1.1640528 -0.81477433 0.47271574 0
1.1626934 -0.81382275 0.58760488 0
1.2967213 -0.88351935 -0.056019098 0
0.9274627 -0.63192546 0.040066916 0
0.93692845 -0.63837492 0.12184182 0
0.92424905 -0.62973583 0.20170076 0
0.92968369 -0.63343871 0.28701574 0
1.1754185 -0.80086982 0.47319841 0
1.1847802 -0.80724841 0.59358293 0
1.2991223 -0.86140585 -0.055649813 0
0.95005959 -0.62995368 0.040697198 0
0.93641651 -0.62090737 0.12074891 0
0.93477029 -0.61981583 0.20227754 0
0.95194739 -0.63120538 0.29141214 0
1.176391 -0.78002667 0.46959841 0
1.1814872 -0.78340578 0.58694416 0
1.3218272 -0.85269636 -0.056158006 0
0.95674366 -0.617185 0.040647384 0
0.94749063 -0.61121595 0.12117483 0
0.94867301 -0.61197865 0.20360228 0
0.94857347 -0.61191446 0.28799769 0
1.1904773 -0.76796401 0.47132385 0
1.2141224 -0.78321725 0.59820998 0
1.3270135 -0.832569 -0.055928506 0
0.96006662 -0.6023463 0.040463109 0
0.96062458 -0.60269636 0.12187428 0
0.95882481 -0.60156721 0.20413911 0
0.97764015 -0.61337191 0.29445434 0
1.2165022 -0.76323408 0.47778448 0
1.2334175 -0.77384681 0.60286784 0
1.3414916 -0.81829536 -0.056099974 0
0.98030823 -0.5979774 0.040995609 0
0.9733417 -0.59372789 0.12252946 0
0.97164416 -0.59269243 0.20526318 0
0.97014678 -0.59177899 0.28993002 0
1.2278721 -0.74898869 0.47850791 0
1.2322927 -0.75168514 0.59764415 0
1.3526627 -0.80191702 -0.056140404 0
0.98532826 -0.58414525 0.040894691 0
0.98162895 -0.5819521 0.12264049 0
0.98980319 -0.58679813 0.2075219 0
0.98778826 -0.58560359 0.29297525 0
1.2452941 -0.7382642 0.48163632 0
1.2519202 -0.74219245 0.60258287 0
1.3667059 -0.78715622 -0.056307394 0
1.010972 -0.58227086 0.041651394 0
0.99337733 -0.57213712 0.12319843 0
0.99548447 -0.57335073 0.20718293 0
0.99923646 -0.57551169 0.29419801 0
1.2517118 -0.72092521 0.48056927 0
1.2555143 -0.72311532 0.59988248 0
1.3750063 -0.769045 -0.056245934 0
1.0060635 -0.56269425 0.041153982 0
1.0006863 -0.55968672 0.12322105 0
1.0029162 -0.56093395 0.20724314 0
1.0088356 -0.56424469 0.29490891 0
1.2608225 -0.70518172 0.48061985 0
1.2739288 -0.71251202 0.6043461 0
1.3713006 -0.74446154 -0.055706464 0
1.0178248 -0.55256408 0.041347183 0
1.0230224 -0.55538583 0.12510037 0
1.0178622 -0.55258435 0.20887718 0
1.0206363 -0.55409038 0.29629546 0
1.2935894 -0.70227313 0.48970065 0
1.2862546 -0.69829124 0.60597408 0
1.390427 -0.7323302 -0.056104381 0
1.2984766 -0.68390042 0.37442407 0
1.2882262 -0.67850161 0.48439762 0
1.2941133 -0.68160224 0.6055848 0
1.3951745 -0.71253663 -0.055929467 0
1.3149261 -0.6715526 0.37669909 0
1.2996286 -0.66373992 0.48550388 0
1.310439 -0.66926092 0.60923254 0
1.3958784 -0.69087589 -0.055604529 0
1.32002 -0.6533305 0.37577173 0
1.3275799 -0.65707225 0.49281567 0
1.3119529 -0.64933783 0.60608697 0
1.4126616 -0.67717361 -0.055928972 0
1.3499774 -0.6471253 0.38194975 0
1.3404566 -0.64256144 0.49455288 0
1.3305528 -0.63781393 0.61092085 0
1.4224989 -0.65999299 -0.055984974 0
1.3412819 -0.62231094 0.37724251 0
1.3554434 -0.62888139 0.4971211 0
1.342653 -0.6229471 0.61282635 0
1.4286653 -0.64111829 -0.055905495 0
1.3652503 -0.61266059 0.38178369 0
1.345107 -0.60362118 0.49050352 0
1.3550146 -0.60806727 0.61492497 0
1.4580618 -0.63237637 -0.056739718 0
1.3635976 -0.59140635 0.37920892 0
1.3603354 -0.58999145 0.4933084 0
1.3696954 -0.594051 0.61814362 0
1.4447478 -0.60510468 -0.055920664 0
1.3826069 -0.5790782 0.38243714 0
1.3893429 -0.58189946 0.50113076 0
1.3737202 -0.57535619 0.6166414 0
1.4517916 -0.58667952 -0.055902928 0
1.4061385 -0.56823075 0.38693625 0
1.3859876 -0.56008762 0.49733713 0
1.3865316 -0.56030744 0.61917609 0
1.4715275 -0.57320827 -0.056380473 0
1.4078757 -0.54841375 0.38548341 0
1.4138907 -0.55075687 0.50482106 0
1.3964813 -0.54397529 0.62051117 0
1.4512601 -0.54436874 -0.055336922 0
1.4365355 -0.53884554 0.39144176 0
1.4318126 -0.53707397 0.50876498 0
1.4276837 -0.5355252 0.63132924 0
1.4788916 -0.5335905 -0.056129869 0
1.4447659 -0.52127779 0.39186475 0
1.4195513 -0.51218021 0.50207663 0
1.4440335 -0.5210135 0.6356076 0
1.4861051 -0.51513934 -0.056152996 0
1.4605579 -0.50628376 0.3943876 0
1.4341512 -0.49713016 0.50498635 0
1.445907 -0.50120521 0.63360399 0
1.492348 -0.49634486 -0.056148272 0
1.4680225 -0.4882544 0.39471176 0
1.4625368 -0.4864299 0.51278394 0
1.4487638 -0.4818491 0.63214695 0
1.48613 -0.47357979 -0.055685546 0
1.46272 -0.46611983 0.3916769 0
1.4538152 -0.46328217 0.50764042 0
1.4645602 -0.46670619 0.63642472 0
1.5010093 -0.45758417 -0.056022733 0
1.4811853 -0.45154077 0.39506754 0
1.474738 -0.4495753 0.51292872 0
1.4528397 -0.44289958 0.62885821 0
1.5121679 -0.44025433 -0.05622784 0
1.4783492 -0.43040827 0.39283437 0
1.4719024 -0.42853132 0.5100252 0
1.4823917 -0.43158522 0.6392467 0
1.5131909 -0.41995808 -0.056064796 0
1.4926238 -0.41425008 0.39521003 0
1.4837217 -0.41177949 0.51228338 0
1.4741234 -0.40911564 0.63340944 0
1.5041252 -0.39711401 -0.055539228 0
1.5095127 -0.39853638 0.39832145 0
1.5117775 -0.39913434 0.52019364 0
1.4972849 -0.39530808 0.64117187 0
1.5302358 -0.38346374 -0.056320593 0
1.5088121 -0.37809518 0.3968488 0
1.509848 -0.37835476 0.51784927 0
1.5143815 -0.37949082 0.6463955 0
1.5383345 -0.36497054 -0.056445044 0
1.5207483 -0.36079818 0.39876166 0
1.5212889 -0.36092645 0.52017325 0
1.5162809 -0.35973829 0.64522153 0
1.5363832 -0.34413299 -0.056209985 0
1.5223128 -0.34098139 0.39801449 0
1.529484 -0.34258768 0.52145898 0
1.5328679 -0.34334564 0.65038842 0
1.5320058 -0.3229503 -0.055896621 0
1.5230545 -0.32106334 0.39711991 0
1.5407376 -0.32479101 0.52385986 0
1.5250005 -0.32147357 0.64528155 0
1.5375218 -0.30394548 -0.055953801 0
1.5469563 -0.30581057 0.40231609 0
1.5370364 -0.30384952 0.52125919 0
1.5345775 -0.30336344 0.64766622 0
1.538836 -0.28412068 -0.055866994 0
1.5406095 -0.28444812 0.39970225 0
1.5351996 -0.28344929 0.51938468 0
1.547612 -0.28574103 0.6515972 0
1.5408021 -0.26446673 -0.055813048 0
1.5378795 -0.26396507 0.39810005 0
1.54303 -0.26484913 0.52086425 0
1.5541967 -0.2667658 0.6529035 0
1.5499518 -0.24598821 -0.056027833 0
1.5628141 -0.24802956 0.40371421 0
1.5585755 -0.24735686 0.52501869 0
1.5649264 -0.24836478 0.65604508 0
1.5464996 -0.22551578 -0.055795971 0
1.5658344 -0.22833526 0.40371966 0
1.5532595 -0.22650152 0.5222258 0
1.5642064 -0.22809786 0.65448731 0
1.5567436 -0.20702662 -0.056067061 0
1.55949 -0.20739184 0.40137872 0
1.5757097 -0.20954886 0.52884477 0
1.5785139 -0.20992178 0.65931547 0
1.5436268 -0.18553388 -0.055506106 0
1.566626 -0.18829824 0.4025732 0
1.5743396 -0.18922536 0.52754337 0
1.5641699 -0.18800303 0.65228373 0
1.5598787 -0.16759129 -0.056010175 0
1.5875999 -0.17056961 0.40737858 0
1.5789801 -0.16964352 0.52834064 0
1.574473 -0.16915929 0.65564007 0
1.5534397 -0.14713919 -0.055708028 0
1.5888489 -0.15049309 0.40718055 0
1.5975512 -0.15131736 0.53387487 0
1.5956345 -0.1511358 0.66360694 0
1.5602427 -0.127984 -0.055889763 0
1.5817668 -0.1297496 0.4049148 0
1.5927954 -0.13065426 0.53169358 0
1.5867766 -0.13016054 0.65918911 0
1.5751194 -0.10925723 -0.056368914 0
1.6712974 -0.11592857 0.059810847 0
1.6711493 -0.11591829 0.18002878 0
1.6681143 -0.11570778 0.30156511 0
1.5948786 -0.11062782 0.4078823 0
1.5947585 -0.11061949 0.5318417 0
1.5946538 -0.11061223 0.66183043 0
1.5621825 -0.088611156 -0.055861581 0
1.6459333 -0.093361713 0.058856398 0
1.6552494 -0.093890145 0.17817444 0
1.6518966 -0.093699969 0.29839629 0
1.579988 -0.089621127 0.40375352 0
1.586679 -0.090000652 0.52872735 0
1.6077747 -0.09119726 0.66674656 0
1.5571088 -0.068666868 -0.055644821 0
1.6367112 -0.072177254 0.05848949 0
1.6432567 -0.072465897 0.17677128 0
1.6391358 -0.072284177 0.2959033 0
1.5926372 -0.070233636 0.40672764 0
1.5863477 -0.069956273 0.52828157 0
1.5938957 -0.070289128 0.66057146 0
1.5607349 -0.049146384 -0.055747867 0
1.6330676 -0.05142409 0.058331519 0
1.6345628 -0.051471174 0.1757524 0
1.6421037 -0.051708627 0.29629803 0
1.5994807 -0.050366461 0.408281 0
1.5909257 -0.050097071 0.52955407 0
1.5972424 -0.050295979 0.66164351 0
1.5791467 -0.029829388 -0.056387633 0
1.6317106 -0.030822298 0.058264568 0
1.6263847 -0.030721692 0.17481761 0
1.6383573 -0.030947849 0.29552829 0
1.5941278 -0.030112373 0.40678558 0
1.5833358 -0.029908517 0.52686054 0
1.6053774 -0.030324874 0.66480255 0
1.5720603 -0.009897464 -0.056125693 0
1.6352898 -0.010295548 0.058383115 0
1.6370279 -0.01030649 0.17593373 0
1.6313134 -0.010270513 0.29421109 0
1.608133 -0.010124572 0.41029432 0
1.6008918 -0.010078982 0.53261793 0
1.5866785 -0.0099894973 0.65695494 0
1.570441 0.0098872688 -0.05606788 0
1.6528755 0.010406264 0.059010956 0
1.6519723 0.010400577 0.17753983 0
1.6469342 0.010368858 0.2970283 0
1.5998957 0.010072711 0.40819272 0
1.5951961 0.010043123 0.53072298 0
1.5995667 0.01007064 0.66229123 0
1.5655763 0.029573049 -0.055903066 0
1.6709542 0.031563591 0.059665862 0
1.6677225 0.031502545 0.17926094 0
1.6736143 0.031613838 0.30188799 0
1.5880262 0.029997116 0.40522859 0
1.5969579 0.030165834 0.53139335 0
1.6080272 0.030374927 0.66589981 0
1.5626539 0.049206812 -0.055816412 0
1.6100794 0.050700206 0.41098639 0
1.603965 0.050507668 0.5338943 0
1.5971202 0.050292131 0.6615929 0
1.5696549 0.069220141 -0.056093168 0
1.6034104 0.070708722 0.4094789 0
1.5994426 0.070533745 0.53264242 0
1.6219325 0.071525529 0.67219102 0
1.5767682 0.089438491 -0.056383148 0
1.609786 0.09131135 0.41136813 0
1.6060503 0.091099441 0.53518248 0
1.59297 0.090357497 0.66060704 0
1.5627586 0.10839984 -0.055926558 0
1.599677 0.11096065 0.40910947 0
1.603947 0.11125685 0.53490603 0
1.6029772 0.11118957 0.66528493 0
1.5632604 0.12823156 -0.055997863 0
1.6079942 0.13190098 0.41162869 0
1.5925457 0.13063377 0.53161025 0
1.5953989 0.13086781 0.66277111 0
1.5651369 0.14824712 -0.0561275 0
1.5989645 0.15145122 0.4097729 0
1.6058595 0.1521043 0.53665131 0
1.5929059 0.15087736 0.66247213 0
1.5493624 0.16646144 -0.055632569 0
1.5955929 0.17142837 0.40942961 0
1.5919181 0.17103356 0.53266984 0
1.6042068 0.17235383 0.66802174 0
1.5601362 0.18751819 -0.056099758 0
1.5965114 0.19189025 0.41025278 0
1.6018709 0.19253443 0.53676879 0
1.602311 0.19258735 0.66818917 0
1.5610286 0.20759645 -0.056221388 0
1.6128061 0.21448219 0.41510114 0
1.5865772 0.21099409 0.53249216 0
1.600492 0.21284458 0.6684953 0
1.543979 0.22514823 -0.05570503 0
1.5943438 0.2324926 0.41107026 0
1.5828168 0.23081169 0.53216338 0
1.5933619 0.2323494 0.66668636 0
1.5513148 0.24620453 -0.056077104 0
1.5805615 0.25084621 0.40829882 0
1.5871069 0.251885 0.53462976 0
1.5808285 0.25088856 0.66271156 0
1.5460991 0.26537591 -0.056004919 0
1.5960983 0.27395788 0.41317073 0
1.5917581 0.27321294 0.53731287 0
1.5863458 0.27228394 0.66640902 0
1.542958 0.28488174 -0.056016643 0
1.5705308 0.2899726 0.40746516 0
1.579844 0.29169214 0.53448862 0
1.5851796 0.29267725 0.66741443 0
1.5238044 0.30123377 -0.055454593 0
1.5697867 0.31032377 0.40825355 0
1.5706686 0.31049812 0.53266495 0
1.5820298 0.31274405 0.66769338 0
1.5387026 0.32436201 -0.056140959 0
1.5588493 0.32860899 0.40645301 0
1.5701538 0.33099201 0.53386158 0
1.553896 0.32756481 0.65750825 0
1.5216273 0.34082785 -0.055670127 0
1.5649945 0.35054165 0.40917379 0
1.5591424 0.34923083 0.53157061 0
1.5552567 0.34836051 0.65988791 0
1.5247548 0.36174873 -0.055946771 0
1.5550323 0.36893207 0.40775144 0
1.5533326 0.36852881 0.5311299 0
1.5520021 0.36821318 0.66042191 0
1.5075735 0.37778479 -0.055486504 0
1.5471967 0.38771403 0.40694475 0
1.5615754 0.39131722 0.53559083 0
1.5622431 0.3914845 0.66682458 0
1.5152999 0.40006435 -0.055951856 0
1.5420054 0.40711504 0.40689546 0
1.5402979 0.40666419 0.5300073 0
1.5542337 0.41034347 0.66555864 0
1.4983672 0.41584405 -0.055515569 0
1.5293041 0.42443004 0.40492207 0
1.5390571 0.42713678 0.531389 0
1.54035 0.4274956 0.66186601 0
1.5136606 0.44068885 -0.05628334 0
1.5407226 0.44856772 0.40940851 0
1.5397408 0.44828191 0.53353179 0
1.537776 0.44770986 0.66312987 0
1.5079981 0.45971468 -0.056283575 0
1.5198574 0.46333003 0.40538234 0
1.524334 0.46469471 0.53017879 0
1.531655 0.46692652 0.66297323 0
1.497632 0.47724509 -0.056116529 0
1.5150242 0.48278737 0.4056825 0
1.5173955 0.48354304 0.52984124 0
1.5205014 0.4845328 0.660734 0
1.4923778 0.49635482 -0.056149397 0
1.5059382 0.50086486 0.40490627 0
1.5046896 0.5004496 0.52756321 0
1.4974627 0.49804604 0.65339601 0
1.4885851 0.51599902 -0.056246705 0
1.5002851 0.52005464 0.40511495 0
1.4992949 0.51971143 0.52792448 0
1.4839684 0.51439869 0.65028274 0
1.4721698 0.53116524 -0.055874746 0
1.4977678 0.5404011 0.40624049 0
1.4884369 0.53703451 0.52644062 0
1.5013965 0.54171032 0.66085654 0
1.4669677 0.55026066 -0.055935856 0
1.481902 0.55586255 0.40380371 0
1.4698929 0.55135792 0.52229601 0
1.4806079 0.55537713 0.65473258 0
1.4535887 0.56622052 -0.055693164 0
1.4557655 0.56706846 0.3985959 0
1.4535761 0.56621563 0.51899052 0
1.4559491 0.56713992 0.64693499 0
1.4438373 0.58346504 -0.055596635 0
1.4571395 0.58884054 0.40097052 0
1.4662273 0.59251302 0.52612972 0
1.4593397 0.58972973 0.65168965 0
1.4537897 0.60889179 -0.056270644 0
1.4533139 0.60869253 0.40199512 0
1.4567018 0.61011142 0.52542681 0
1.4467093 0.60592628 0.64940512 0
1.4313712 0.62080044 -0.05570107 0
1.4477514 0.62790471 0.40261161 0
1.4400724 0.62457424 0.52222407 0
1.4392757 0.62422872 0.64954525 0
1.4342757 0.64363599 -0.056125041 0
1.4409881 0.64664817 0.40296325 0
1.4351023 0.64400697 0.52332103 0
1.4386822 0.64561337 0.65289456 0
1.4174876 0.65766793 -0.055787746 0
1.4227738 0.66012055 0.40016258 0
1.4274311 0.66228139 0.52352327 0
1.4153287 0.65666628 0.6459977 0
1.4144028 0.67800832 -0.055997912 0
1.396549 0.66944987 0.39512628 0
1.4051428 0.67356938 0.51841843 0
1.3946177 0.66852409 0.6403361 0
1.3995508 0.69269347 -0.055750813 0
1.3874408 0.68669981 0.39496452 0
1.3887439 0.68734473 0.51552057 0
1.3856325 0.68580478 0.64012498 0
1.39151 0.71066511 -0.055782564 0
1.3840936 0.70687747 0.39651415 0
1.3872657 0.70849746 0.51824254 0
1.3894892 0.70963305 0.64598352 0
1.377653 0.72560221 -0.055588942 0
1.362587 0.71766698 0.39291069 0
1.368773 0.72092515 0.51468474 0
1.3547344 0.71353114 0.63395274 0
1.3603925 0.73853964 -0.05526334 0
1.3605596 0.73863041 0.39497676 0
1.3559461 0.73612583 0.51330638 0
1.3429875 0.72909081 0.63270181 0
1.3664389 0.76425326 -0.055895478 0
1.4033017 0.78487068 0.057403386 0
1.4019415 0.78411001 0.17263025 0
1.4135085 0.79057944 0.29208818 0
1.3496963 0.75488907 0.3945514 0
1.3418063 0.75047618 0.51149046 0
1.3454359 0.75250614 0.63826877 0
1.3582959 0.78231251 -0.055960909 0
1.3785249 0.79396349 0.056794334 0
1.3846389 0.79748482 0.17172259 0
1.3849944 0.79768956 0.28824878 0
1.3431467 0.77358729 0.39545301 0
1.3246726 0.76294714 0.5085811 0
1.3240135 0.76256746 0.63261127 0
1.3516165 0.80129677 -0.056096982 0
1.3462905 0.79813927 0.055875935 0
1.3626922 0.80786288 0.1702489 0
1.3624054 0.80769289 0.28564161 0
1.3168169 0.78066605 0.39056423 0
1.3113232 0.77740908 0.50717407 0
1.3073266 0.77503979 0.62925148 0
1.3430651 0.81925523 -0.056165777 0
1.3549736 0.82651919 0.056663778 0
1.356791 0.82762784 0.17080012 0
1.3457121 0.8208698 0.28428629 0
1.296376 0.79077536 0.3874242 0
1.2986639 0.79217088 0.50609577 0
1.3116333 0.80008215 0.6361233 0
1.3324643 0.83598876 -0.056158233 0
1.3431098 0.84266782 0.056606904 0
1.3245236 0.83100677 0.16804209 0
1.3306619 0.83485794 0.28330529 0
1.2941954 0.81197888 0.38979724 0
1.2805058 0.80338997 0.50292206 0
1.2986506 0.81477404 0.63475239 0
1.3143729 0.84788775 -0.055841312 0
1.3191624 0.85097736 0.056044791 0
1.3324575 0.85955393 0.17040835 0
1.3341068 0.86061782 0.28632331 0
1.2798302 0.82560462 0.38857105 0
1.2847494 0.82877791 0.50864726 0
1.2713561 0.82013804 0.62640953 0
1.3010906 0.86271095 -0.055734128 0
1.326836 0.8797819 0.05683697 0
1.3264744 0.87954211 0.17104605 0
1.3221157 0.87665194 0.28609627 0
1.2648743 0.83869714 0.38720602 0
1.2562221 0.83296013 0.50146592 0
1.2480447 0.82753789 0.62000889 0
1.295543 0.88271648 -0.055968191 0
1.3334427 0.90853935 0.057605479 0
1.3311379 0.90696895 0.17310634 0
1.3286756 0.90529132 0.28995961 0
1.2527825 0.85358161 0.38676411 0
1.2311159 0.83881921 0.495621 0
1.2402039 0.84501117 0.62135047 0
1.2768258 0.89370936 -0.055641357 0
1.3565832 0.94953519 0.059117015 0
1.3502048 0.94507068 0.17711943 0
1.3509244 0.94557434 0.29738986 0
1.236751 0.86565912 0.38514954 0
1.2164583 0.85145533 0.49399728 0
1.2279165 0.85947549 0.6205675 0
1.2815387 0.92126542 -0.056347802 0
1.2223138 0.87869012 0.38406882 0
1.2053509 0.86649597 0.49387842 0
1.2181455 0.87569362 0.62115294 0
1.2543327 0.92588383 -0.055659801 0
1.2179818 0.89905149 0.38623425 0
1.1943725 0.88162434 0.49388978 0
1.2010972 0.88658822 0.61810356 0
1.2548331 0.95089281 -0.056208879 0
1.1860914 0.89880145 0.3796804 0
1.1674838 0.88470095 0.48733896 0
1.1913141 0.90275908 0.6188699 0
1.2404693 0.96483505 -0.056105241 0
1.1796266 0.91751164 0.38127911 0
1.1617174 0.90358192 0.48964259 0
1.1772742 0.91568202 0.61751741 0
1.2314519 0.98295528 -0.056252759 0
1.1636448 0.92883104 0.37986374 0
1.1580784 0.92438799 0.49297586 0
1.1523033 0.91977823 0.61044616 0
1.2185258 0.99801272 -0.056231905 0
1.145689 0.938357 0.37782952 0
1.1435058 0.93656886 0.49175379 0
1.1434873 0.93655372 0.61197484 0
1.2129391 1.0192224 -0.056561884 0
1.1293753 0.94900435 0.37636063 0
1.1249593 0.94529366 0.48885825 0
1.119982 0.94111121 0.60568947 0
1.1830759 1.0198169 -0.055763714 0
1.1026251 0.95046794 0.37140521 0
1.1007465 0.94884855 0.4834902 0
1.0939615 0.94299984 0.59799182 0
1.1713136 1.0356688 -0.055819575 0
1.09266 0.9661237 0.37211689 0
1.0833588 0.95789963 0.48111281 0
1.0808828 0.95571047 0.59737366 0
1.1684597 1.0596571 -0.05631499 0
1.08257 0.98176509 0.37286133 0
1.0702683 0.97060889 0.48068908 0
1.0727848 0.97289103 0.5996213 0
1.1473638 1.06716 -0.055941474 0
1.0689706 0.99424666 0.37245992 0
1.0509118 0.97745019 0.47748563 0
1.0451442 0.97208583 0.59096682 0
1.1302623 1.0781132 -0.055765152 0
1.0454578 0.99722159 0.36861348 0
1.0388924 0.99095911 0.47765633 0
1.0423943 0.99429941 0.59644419 0
1.1217018 1.0972518 -0.056020051 0
1.0227175 1.000425 0.36500832 0
1.0236571 1.0013442 0.4764111 0
1.0149428 0.99281979 0.58784354 0
1.1021081 1.1055814 -0.055732362 0
1.0050291 1.0081965 0.36319757 0
0.98991638 0.99303615 0.46649078 0
1.0034469 1.0066093 0.58848011 0
1.0971261 1.128656 -0.05619467 0
0.99129349 1.0197819 0.36284563 0
0.98738897 1.0157652 0.4712899 0
0.98924458 1.0176741 0.58761978 0
1.0827507 1.1422992 -0.056190658 0
0.96945763 1.0227753 0.35953861 0
0.9707858 1.0241765 0.46948352 0
0.9609887 1.0138406 0.57837307 0
1.0683305 1.1558943 -0.056193214 0
0.95996773 1.0386498 0.36084107 0
0.95595014 1.0343028 0.46857032 0
0.94398844 1.0213608 0.5758363 0
1.0544735 1.1701218 -0.056234911 0
0.93565828 1.0382756 0.35658959 0
0.92931825 1.0312402 0.4618448 0
0.92126125 1.0222996 0.56978005 0
1.045409 1.1898532 -0.056546047 0
0.92111439 1.0483849 0.35604975 0
0.90465379 1.0296499 0.45599464 0
0.92118043 1.04846 0.57784969 0
0.90853888 1.0340718 0.68871742 0
1.0156353 1.1857489 -0.055738796 0
0.89593405 1.0459985 0.35137993 0
0.89592612 1.0459892 0.45819816 0
0.89795995 1.0483637 0.57151937 0
0.90001273 1.0507603 0.69222933 0
1.0015947 1.1996047 -0.055792831 0
0.8838203 1.058547 0.45878756 0
0.8851046 1.0600852 0.57178807 0
0.86879927 1.0405564 0.67824614 0
0.98689812 1.2127198 -0.055820394 0
0.85018331 1.044722 0.44812012 0
0.85277498 1.0479066 0.55938286 0
0.85459358 1.0501413 0.67742574 0
0.97313637 1.2270498 -0.055911522 0
0.83594245 1.0540589 0.5570038 0
0.83488542 1.052726 0.67225802 0
0.95872867 1.2406542 -0.055976883 0
0.81531078 1.0550627 0.55206513 0
0.82338077 1.0655056 0.6737445 0
0.9487679 1.2602473 -0.0563174 0
0.80981672 1.0756786 0.67367566 0
0.92472619 1.2610497 -0.055828471 0
0.77979463 1.0634063 0.65978783 0
0.91102946 1.2757505 -0.055966984 0
0.9045139 1.3009565 -0.056568615 0
0.88126129 1.3021939 -0.056135442 0
0.86585832 1.3148011 -0.056204449 0
0.84995973 1.3267307 -0.056252431 0
0.82310307 1.3211418 -0.055571608 0
0.81216675 1.3409171 -0.055968799 0
0.79588288 1.3521656 -0.056015555 0
0.77588046 1.3569831 -0.055805963 0
0.75743544 1.3643078 -0.055710535 0
0.73790216 1.3694775 -0.055537809 0
0.72356617 1.3843343 -0.055766392 0
0.70493746 1.3910838 -0.055676285 0
0.69215018 1.4095924 -0.056063786 0
0.677531 1.4248922 -0.056328513 0
0.65957469 1.4333938 -0.056331802 0
0.6308893 1.4177974 -0.055402271 0
0.61870319 1.4389217 -0.055918857 0
0.60073417 1.4470744 -0.055937275 0
0.58323991 1.4564559 -0.056011587 0
0.56862015 1.4734403 -0.056384929 0
0.54684711 1.4719355 -0.05605939 0
0.5268473 1.4747211 -0.055908386 0
0.51101726 1.4893408 -0.056214228 0
0.48914438 1.486299 -0.055862501 0
0.46976268 1.4903457 -0.055787846 0
0.45111778 1.4966654 -0.055807345 0
0.43118247 1.4985611 -0.055671167 0
0.41537833 1.5151747 -0.056089595 0
0.39284277 1.5071455 -0.055604838 0
0.37371609 1.5114923 -0.055587176 0
0.35689548 1.5256557 -0.055938348 0
0.33779663 1.5306597 -0.055961426 0
0.31861416 1.5353563 -0.055982012 0
0.29740536 1.5297228 -0.055635642 0
0.27950665 1.5409871 -0.055912886 0
0.26054943 1.5471623 -0.056013461 0
0.24200462 1.5564721 -0.056235727 0
0.22135065 1.552125 -0.055973519 0
0.20360458 1.5687704 -0.056476861 0
0.18113326 1.5481122 -0.055646624 0
0.16184466 1.5523647 -0.055721812 0
0.14481135 1.581869 -0.05671091 0
0.12356264 1.566834 -0.056111667 0
0.10457494 1.5796009 -0.05651724 0
0.08379662 1.5643466 -0.055929258 0
0.064299606 1.5703243 -0.056109581 0
0.04446223 1.5688926 -0.056033976 0
0.024402296 1.5501339 -0.055348638 0
0.0049158693 1.5609784 -0.055729222 0
-0.014785262 1.5658022 -0.055903651 0
-0.034353144 1.5588537 -0.055666603 0
-0.054616999 1.5767368 -0.056325298 0
-0.074224427 1.5708182 -0.056142807 0
-0.092798062 1.549736 -0.055426676 0
-0.11325192 1.5615178 -0.055894632 0
-0.13259095 1.5562897 -0.055762831 0
-0.15437767 1.5769871 -0.056569602 0
-0.17341366 1.5676147 -0.056307264 0
-0.093803681 0.84796107 0.50594914 0
-0.19169979 1.55365 -0.055887941 0
-0.10401832 0.84302688 0.50374669 0
-0.21214806 1.55773 -0.056126349 0
-0.11340064 0.83266175 0.4983668 0
