# .PCD v0.7 - Point Cloud Data file format
VERSION 0.7
FIELDS x y z intensity
SIZE 4 4 4 4
TYPE F F F F
COUNT 1 1 1 1
WIDTH 1349
HEIGHT 1
VIEWPOINT 0 0 0 1 0 0 0
POINTS 1349
DATA ascii
-0.7978369 -0.45285299 0.032752302 0
-0.78982717 -0.44830665 0.097602345 0
-0.79290789 -0.45005527 0.16442941 0
-1.3512663 -0.78963929 -0.055875096 0
-0.77769446 -0.45446119 0.032157801 0
-0.78182924 -0.45687744 0.097317234 0
-0.78399396 -0.45814246 0.16376427 0
-1.3484911 -0.81096554 -0.056178145 0
-0.77085 -0.46357945 0.096669555 0
-0.77000773 -0.46307293 0.16204794 0
-1.3172059 -0.81490868 -0.055297915 0
-0.7651785 -0.47338885 0.16227326 0
-1.3298758 -0.84608442 -0.056272622 0
-0.75688541 -0.48154044 0.16178763 0
-1.3156548 -0.86049753 -0.056124918 0
-0.74653786 -0.48826945 0.16087729 0
-1.2998883 -0.87375015 -0.055917256 0
-1.2966703 -0.8954947 -0.056259442 0
-0.73194069 -0.50548625 0.16042455 0
-1.2912503 -0.91597688 -0.056520242 0
-1.2785751 -0.93140531 -0.056474317 0
-1.2733349 -0.95235813 -0.056768056 0
-1.2390469 -0.95127481 -0.055769037 0
-1.2321323 -0.97086734 -0.05600363 0
-1.2201219 -0.98655641 -0.056017939 0
-1.2142251 -1.0073346 -0.056325112 0
-1.1919847 -1.0144914 -0.05588159 0
-1.1836945 -1.0334163 -0.056098551 0
-1.1724679 -1.0499214 -0.056188613 0
-1.1494631 -1.0556995 -0.055718798 0
-1.1368508 -1.0708154 -0.055756629 0
-1.11703 -1.0790098 -0.055446509 0
-1.103539 -1.0931708 -0.055455733 0
-1.0970184 -1.1144266 -0.055828828 0
-1.0850493 -1.1303906 -0.055939659 0
-1.0752177 -1.1487575 -0.056174103 0
-1.0547235 -1.1556909 -0.055859264 0
-1.0402154 -1.1690224 -0.055866092 0
-1.0248003 -1.1813204 -0.05583268 0
-0.6075936 -0.70039272 0.033102624 0
-1.0120438 -1.1967305 -0.055954263 0
-0.59935522 -0.70873088 0.033137377 0
-0.99702001 -1.2095298 -0.055961259 0
-0.57815826 -0.70138973 0.032451168 0
-0.97374952 -1.2120769 -0.055507395 0
-0.5930928 -0.73825353 0.033808526 0
-0.97489285 -1.245295 -0.056461971 0
-0.58346653 -0.74530035 0.03379209 0
-0.61427146 -0.78464955 0.10709273 0
-0.61393744 -0.78422284 0.17961903 0
-0.61364812 -0.78385329 0.25398004 0
-0.61059624 -0.77995491 0.32954487 0
-0.61401922 -0.78432733 0.41241574 0
-0.95542204 -1.2526025 -0.056243349 0
-0.58325362 -0.76467252 0.034334712 0
-0.59525996 -0.78041339 0.10548316 0
-0.59773457 -0.78365767 0.17775154 0
-0.60242671 -0.78980929 0.25343183 0
-0.59747654 -0.78331941 0.32776159 0
-0.59746653 -0.78330624 0.40789053 0
-0.59193808 -0.7760582 0.48835281 0
-0.93691897 -1.2609591 -0.056084387 0
-0.58851141 -0.79205233 0.035228554 0
-0.58467138 -0.78688419 0.10535431 0
-0.57877243 -0.77894509 0.17501564 0
-0.57445264 -0.77313119 0.24573964 0
-0.57869339 -0.77883863 0.32281205 0
-0.57820117 -0.77817619 0.40139601 0
-0.57454079 -0.77324986 0.48199475 0
-0.91472614 -1.2640311 -0.055704292 0
-0.58369786 -0.80659366 0.035545588 0
-0.58308834 -0.80575132 0.10688886 0
-0.58662635 -0.81064039 0.18046303 0
-0.5895499 -0.8146804 0.25656608 0
-0.58474249 -0.80803716 0.33183601 0
-0.58432853 -0.80746508 0.41267562 0
-0.5592382 -0.77279359 0.47728294 0
-0.90580559 -1.2854785 -0.056142349 0
-2.0217168 -2.8691297 0.12530717 0
-0.54543078 -0.77405083 0.47378001 0
-0.88323987 -1.2875857 -0.05574422 0
-1.988548 -2.8989022 0.12550391 0
-0.54261947 -0.79102987 0.47995228 0
-0.87559456 -1.3115419 -0.056299563 0
-1.9567609 -2.9310071 0.12581712 0
-0.52370602 -0.78445262 0.4719229 0
-0.84679079 -1.3036492 -0.055498637 0
-1.9198879 -2.9557009 0.12582938 0
-0.50256151 -0.7737022 0.46161181 0
-0.83979255 -1.3292181 -0.056132514 0
-1.8852482 -2.9839587 0.12601174 0
-0.49259442 -0.77967525 0.46143815 0
-0.81494296 -1.3265884 -0.055583697 0
-1.8578514 -3.0242658 0.12671593 0
-1.1945719 -1.9445596 0.24526353 0
-1.2207825 -1.9872261 0.42061776 0
-0.48202938 -0.78466177 0.46076047 0
-0.80334729 -1.3454067 -0.055943888 0
-1.828774 -3.062741 0.12735304 0
-1.1619622 -1.9459972 0.24358009 0
-1.1733133 -1.9650075 0.41275501 0
-0.46506971 -0.77887595 0.45388818 0
-0.78845936 -1.3590626 -0.056094434 0
-1.7825977 -3.0726526 0.12682176 0
-1.1478173 -1.9784856 0.24581802 0
-0.45976833 -0.79249984 0.4584173 0
-0.77232152 -1.3707229 -0.056169845 0
-0.9443261 -1.675998 0.068679489 0
-0.44441733 -0.78875566 0.45297846 0
-0.7497952 -1.3708206 -0.05578253 0
-0.88244897 -1.6133461 0.065651573 0
-0.43063879 -0.78731966 0.44900399 0
-0.73955053 -1.3934838 -0.056321342 0
-0.86409324 -1.6281511 0.065806039 0
-0.41553032 -0.78295499 0.44349563 0
-0.72040421 -1.3996892 -0.056201041 0
-0.83968431 -1.631441 0.065506466 0
-0.40236941 -0.78177232 0.43992084 0
-0.69396818 -1.3910987 -0.055500839 0
-0.95030433 -1.9049392 0.076001592 0
-0.40876761 -0.81939793 0.45816082 0
-0.67891586 -1.4049377 -0.055707473 0
-0.92179549 -1.907549 0.075636618 0
-0.66611099 -1.4239323 -0.056123599 0
-0.78499681 -1.6780722 0.066140398 0
-0.64772457 -1.4313126 -0.056088563 0
-0.76602238 -1.6927217 0.066332355 0
-0.63003659 -1.4402356 -0.056122888 0
-0.74741614 -1.70856 0.066578917 0
-0.60290122 -1.4268699 -0.055301834 0
-0.58818197 -1.4424274 -0.055613339 0
-0.57357538 -1.4588805 -0.055964787 0
-0.33970803 -0.8640424 0.38440084 0
-0.5558849 -1.467899 -0.05603778 0
-0.31843066 -0.84086478 0.37227604 0
-0.53815496 -1.4769685 -0.056120869 0
-0.28391686 -0.77921098 0.49182895 0
-0.52156836 -1.48949 -0.056342632 0
-0.30367306 -0.86722672 0.38044012 0
-0.27492413 -0.78512573 0.49333805 0
-0.49292299 -1.4666331 -0.055238858 0
-0.80713326 -2.4015279 0.45691973 0
-0.28993335 -0.86266178 0.37680608 0
-0.2583999 -0.76883781 0.48102078 0
-0.48161191 -1.4950575 -0.056076568 0
-0.7739737 -2.4026299 0.45523903 0
-0.2741715 -0.85110468 0.37022066 0
-0.24966832 -0.77504003 0.48289591 0
-0.46044472 -1.4935284 -0.055797316 0
-0.74595422 -2.4196255 0.45664328 0
-0.26989153 -0.87543768 0.37929684 0
-0.24296221 -0.78808796 0.48908058 0
-0.44071317 -1.496187 -0.055684898 0
-0.72080302 -2.4470701 0.46007335 0
-0.25527045 -0.86662334 0.37405553 0
-0.2244935 -0.76213801 0.47118458 0
-0.41961908 -1.4937137 -0.055391803 0
-0.69367468 -2.4692664 0.46256754 0
-0.24789569 -0.88243175 0.3795014 0
-0.21964973 -0.78188485 0.48164472 0
-0.40493709 -1.5144329 -0.055966608 0
-0.66538948 -2.4885044 0.46456498 0
-0.24593955 -0.91979456 0.39420664 0
-0.21147048 -0.790883 0.48550877 0
-0.38214567 -1.5048773 -0.055431254 0
-0.63637859 -2.5060382 0.46630532 0
-0.24132176 -0.95031732 0.40595359 0
-0.20007436 -0.78788638 0.48208439 0
-0.36758724 -1.5279427 -0.056105904 0
-0.61796093 -2.568666 0.47647294 0
-0.18786392 -0.78089023 0.47631845 0
-0.34692049 -1.5262949 -0.055880561 0
-0.58857709 -2.5894761 0.47892034 0
-0.17946881 -0.78958255 0.48020393 0
-0.32837525 -1.5338126 -0.055999968 0
-0.55729747 -2.6030886 0.480102 0
-0.16983482 -0.79328388 0.48111621 0
-0.30944824 -1.5398738 -0.056074552 0
-0.5260545 -2.617748 0.48154581 0
-0.20713937 -1.0307653 0.43530592 0
-0.15980516 -0.79522109 0.48103252 0
-0.28999147 -1.5434171 -0.056066163 0
-0.50084037 -2.6656151 0.48915225 0
-0.19542651 -1.0401156 0.43818071 0
-0.14858936 -0.7908349 0.47720966 0
-0.27024564 -1.5452918 -0.056006201 0
-0.46988958 -2.6868758 0.49192888 0
-0.18244694 -1.04325 0.43849853 0
-0.1380749 -0.7895261 0.47533306 0
-0.25155166 -1.5534166 -0.056181412 0
-0.1677725 -1.036052 0.43455067 0
-0.12636733 -0.78036106 0.46882007 0
-0.2301731 -1.5443887 -0.055745661 0
-0.15734638 -1.0557444 0.44194415 0
-0.11552103 -0.77510953 0.46475434 0
-0.21082439 -1.5480106 -0.055776153 0
-0.37824365 -2.7773125 0.10006896 0
-0.37916732 -2.7840946 0.30196676 0
-0.14600481 -1.072063 0.44797012 0
-0.1053156 -0.773296 0.4628351 0
-0.19128342 -1.5502756 -0.055766556 0
-0.13376167 -1.0840849 0.45225391 0
-0.096340284 -0.78079945 0.46656299 0
-0.17396167 -1.5725685 -0.056485198 0
-0.15120976 -1.5446265 -0.055408765 0
-0.076710433 -0.78360659 0.46693769 0
-0.13355881 -1.5676501 -0.056169882 0
-0.066709369 -0.78300291 0.46604049 0
-0.11379603 -1.56902 -0.056163173 0
-0.056643199 -0.78099668 0.46438503 0
-0.093516104 -1.5617274 -0.05585555 0
-0.074660815 -1.5800536 -0.05647289 0
-0.12401158 -2.6244681 0.093801439 0
-0.036557134 -0.77366191 0.45933053 0
-0.054572258 -1.5754453 -0.05627916 0
-0.0477704 -1.3790826 0.049264554 0
-0.02698252 -0.77895772 0.46223632 0
-0.034463976 -1.5638829 -0.055846196 0
-0.029987164 -1.3607372 0.048591867 0
-0.017452171 -0.79193276 0.46976814 0
-0.014850302 -1.5726902 -0.056149572 0
-0.012775834 -1.352998 0.048305929 0
-0.018762568 -1.9870106 0.21355215 0
-0.0074219867 -0.78600997 0.46616235 0
0.0049475674 -1.5710438 -0.056088571 0
0.0042079682 -1.3361926 0.047704034 0
0.0057117413 -1.8136986 0.19491789 0
0.0057575163 -1.828234 0.32972124 0
0.0057613333 -1.829446 0.46675256 0
0.024830254 -1.5773196 -0.056319322 0
0.021047354 -1.3370143 0.047739048 0
0.030657306 -1.9474779 0.20932002 0
0.016427564 -1.0435463 0.34722477 0
0.012231817 -0.77701515 0.46086434 0
0.044304959 -1.563343 -0.055835772 0
0.039052323 -1.3779987 0.049216084 0
0.054273743 -1.9151012 0.20589721 0
0.029399931 -1.0374049 0.34527713 0
0.063489407 -1.5505377 -0.055402581 0
0.077759594 -1.899044 0.067855135 0
0.077663153 -1.8966888 0.20400663 0
0.041772094 -1.0201577 0.3396849 0
0.032369561 -0.79052913 0.46921453 0
0.083688237 -1.5623233 -0.055856921 0
0.10040186 -1.8743393 0.067012265 0
0.10032367 -1.8728797 0.20156564 0
0.054891866 -1.0247418 0.34141439 0
0.042515099 -0.79368776 0.47136968 0
0.10434805 -1.5761737 -0.056394611 0
0.12205404 -1.8436221 0.065963767 0
0.12296999 -1.8574574 0.20005663 0
0.12249649 -1.8503052 0.33443061 0
0.068685748 -1.0374959 0.34592441 0
0.051685546 -0.78070843 0.46401101 0
0.12362478 -1.5676219 -0.056139886 0
0.1443398 -1.8302984 0.065546893 0
0.14373672 -1.822651 0.19648719 0
0.14403394 -1.8264199 0.33041513 0
0.082008101 -1.0399024 0.3470436 0
0.085972391 -1.0901716 0.45277157 0
0.14238131 -1.5553241 -0.055759262 0
0.16593303 -1.812595 0.064982571 0
0.16554834 -1.8083928 0.19515936 0
0.16626251 -1.8161941 0.32891786 0
0.17487614 -1.9102864 0.48941317 0
0.098675571 -1.0778978 0.36010981 0
0.098902985 -1.080382 0.44918743 0
0.072297238 -0.78975004 0.47031805 0
0.16362964 -1.5694857 -0.056336362 0
0.18605745 -1.7846065 0.06405808 0
0.18747583 -1.7982111 0.19429992 0
0.1857529 -1.7816852 0.3230662 0
0.20198409 -1.9373698 0.49696413 0
0.11487555 -1.1018512 0.36856636 0
0.10848724 -1.0405766 0.43317127 0
0.081109799 -0.77798051 0.46388042 0
0.18239084 -1.5588607 -0.056032974 0
0.20954663 -1.790956 0.064375602 0
0.20717703 -1.7707036 0.19159438 0
0.20852648 -1.7822371 0.32361674 0
0.2308735 -1.9732327 0.50686908 0
0.12261945 -1.0480056 0.35104379 0
0.11837564 -1.0117346 0.42175201 0
0.091919482 -0.78561872 0.46908778 0
0.20083097 -1.5473998 -0.055707503 0
0.22997122 -1.771925 0.063790575 0
0.2258033 -1.7398113 0.18854448 0
0.22766003 -1.7541173 0.31900603 0
0.13263667 -1.0219637 0.42667851 0
0.10339695 -0.79667205 0.47642729 0
0.22155637 -1.5535674 -0.056025539 0
0.24894194 -1.7455968 0.062950604 0
0.24717012 -1.7331727 0.18814743 0
0.2490408 -1.74629 0.31812763 0
0.14705205 -1.0311383 0.43124792 0
0.11301074 -0.79243851 0.47470891 0
0.23975439 -1.5419996 -0.05571283 0
0.26794133 -1.723286 0.062262755 0
0.26549277 -1.707538 0.1857128 0
0.26493713 -1.7039644 0.31100011 0
0.1620983 -1.0425482 0.43683887 0
0.12145781 -0.7811656 0.46883494 0
0.26190317 -1.5552009 -0.056304492 0
0.28369048 -1.6845756 0.06098837 0
0.28873053 -1.7145039 0.18685104 0
0.28552064 -1.6954433 0.31007653 0
0.13100529 -0.77791935 0.4678396 0
0.2800934 -1.544222 -0.056030259 0
0.30935511 -1.7055489 0.061883811 0
0.30422199 -1.6772487 0.18319385 0
0.30585366 -1.6862445 0.30907404 0
0.29996398 -1.6537732 0.42881495 0
0.14245102 -0.78536659 0.47335961 0
0.29977956 -1.5419347 -0.056079786 0
0.33697337 -1.7332433 0.063037634 0
0.32293317 -1.6610267 0.18185176 0
0.32180178 -1.6552072 0.30410379 0
0.31957179 -1.6437371 0.42722219 0
0.15244317 -0.78410083 0.47371614 0
0.31903815 -1.5373995 -0.056056511 0
0.35990298 -1.7343214 0.063236654 0
0.33948448 -1.6359273 0.17955764 0
0.34030151 -1.6398646 0.30204833 0
0.33676285 -1.6228123 0.42285228 0
0.1646452 -0.79340178 0.48054978 0
0.33912349 -1.5366721 -0.056181241 0
0.38974714 -1.7660635 0.064567864 0
0.35721937 -1.6186702 0.1781431 0
0.3596265 -1.6295775 0.30096376 0
0.35527354 -1.6098529 0.42060784 0
0.17534223 -0.7945292 0.4825317 0
0.35828349 -1.5315893 -0.056155901 0
0.42162505 -1.8023615 0.066083796 0
0.37210667 -1.5906806 0.17556445 0
0.37498036 -1.6029649 0.29689726 0
0.37360388 -1.5970808 0.41846684 0
0.18402471 -0.7866683 0.47912696 0
0.37612182 -1.5212221 -0.055945009 0
0.45162085 -1.8265775 0.067174867 0
0.38896972 -1.5731854 0.17416029 0
0.38820502 -1.5700927 0.29169104 0
0.39344528 -1.5912868 0.41821367 0
0.19693321 -0.79649508 0.48658383 0
0.39462426 -1.5139804 -0.055857003 0
0.48306346 -1.8532783 0.068375111 0
0.40995407 -1.5727934 0.17467451 0
0.40812597 -1.5657798 0.29182142 0
0.40837547 -1.5667369 0.41308033 0
0.20572533 -0.78926754 0.4837127 0
0.41294089 -1.5062838 -0.055760466 0
0.42859387 -1.563381 0.17421475 0
0.4277499 -1.5603024 0.29178131 0
0.42609337 -1.5542599 0.41117275 0
0.21497786 -0.78417432 0.4822121 0
0.43678901 -1.5180465 -0.056395039 0
0.44229543 -1.5371839 0.17190249 0
0.44418651 -1.5437562 0.28971013 0
0.43914869 -1.5262475 0.40519291 0
0.22686049 -0.78844649 0.48655728 0
0.45174679 -1.4987521 -0.055885158 0
0.45963165 -1.5249116 0.17116377 0
0.45612076 -1.5132636 0.28504297 0
0.46046951 -1.5276914 0.40708336 0
0.47096765 -1.4941685 -0.055930946 0
0.47493237 -1.5067468 0.16978267 0
0.47295123 -1.5004616 0.28373083 0
0.47441798 -1.5051149 0.40262738 0
0.47221383 -1.4981221 0.52258998 0
0.48657626 -1.4784955 -0.055569209 0
0.49095705 -1.4918069 0.16878246 0
0.49086949 -1.4915409 0.28319034 0
0.49649361 -1.5086302 0.40520802 0
0.48508617 -1.4739678 0.51625407 0
0.50635123 -1.4757419 -0.055700943 0
0.50881577 -1.4829246 0.16848907 0
0.50622588 -1.4753765 0.28130931 0
0.50599653 -1.474708 0.3977766 0
0.50634938 -1.4757365 0.51906556 0
0.52775079 -1.4772501 -0.056004263 0
0.53174782 -1.4884384 0.16986285 0
0.52103359 -1.4584477 0.27931032 0
0.51853192 -1.4514451 0.39323187 0
0.52335131 -1.4649354 0.51754344 0
0.54524231 -1.467616 -0.055894878 0
0.56067377 -1.5091524 0.17301877 0
0.54000598 -1.4535215 0.27964699 0
0.53573394 -1.4420224 0.39247563 0
0.53625268 -1.4434189 0.5122869 0
0.5629791 -1.458823 -0.055825561 0
0.59415537 -1.5396086 0.17735414 0
0.55269355 -1.4321705 0.27685624 0
0.54605681 -1.414973 0.38695434 0
0.55458426 -1.4370698 0.51247144 0
0.58042961 -1.4494381 -0.055741698 0
0.62184674 -1.5528642 0.17976889 0
0.5648874 -1.4106265 0.27404487 0
0.56579834 -1.4129012 0.38830537 0
0.56407505 -1.4085978 0.50481105 0
0.6003105 -1.4460539 -0.055897828 0
0.65127605 -1.5688218 0.18255116 0
0.58439398 -1.4077134 0.27488676 0
0.58101237 -1.3995677 0.386621 0
0.57847494 -1.3934554 0.50195503 0
0.62137502 -1.4451357 -0.056160342 0
0.68632501 -1.5961902 0.18672664 0
0.59175909 -1.3762578 0.27017802 0
0.58906555 -1.3699933 0.38047019 0
0.59410495 -1.3817135 0.50038052 0
0.35353199 -0.8222115 0.44780213 0
0.63469762 -1.426356 -0.055736706 0
0.70921427 -1.5938172 0.1874789 0
0.61476284 -1.3815565 0.27271631 0
0.60572994 -1.361257 0.38013208 0
0.60415709 -1.3577223 0.4944081 0
0.3647635 -0.81973302 0.44891828 0
0.65674031 -1.4272341 -0.056089725 0
0.62588167 -1.3601719 0.27002937 0
0.62337905 -1.3547331 0.38047218 0
0.61968035 -1.3466951 0.493195 0
0.37394294 -0.81265628 0.447586 0
0.67484272 -1.4192386 -0.056105014 0
0.6393317 -1.3445565 0.26850626 0
0.63457566 -1.3345543 0.37701932 0
0.63539314 -1.3362736 0.49226949 0
0.37241521 -0.78321362 0.43391833 0
0.69796318 -1.4214308 -0.056534637 0
0.66156679 -1.347308 0.27069789 0
0.64999038 -1.3237321 0.37624443 0
0.64922202 -1.3221674 0.49004576 0
0.65380728 -1.3315055 0.61416632 0
0.38616735 -0.78644574 0.43836832 0
0.71648753 -1.4138761 -0.056588516 0
0.67212266 -1.326329 0.26816204 0
0.66691148 -1.3160454 0.37641671 0
0.66322994 -1.3087806 0.48814076 0
0.66690749 -1.3160377 0.61085677 0
0.4063583 -0.80188453 0.44979051 0
0.72469389 -1.386492 -0.055853311 0
0.67991269 -1.3008161 0.26471376 0
0.68141282 -1.3036861 0.37530613 0
0.67861807 -1.2983391 0.48739493 0
0.68607616 -1.312608 0.61322629 0
0.42820454 -0.8192454 0.46251631 0
0.74069184 -1.3746548 -0.05574777 0
0.69734937 -1.2942153 0.26513645 0
0.69506764 -1.2899806 0.37385061 0
0.69098169 -1.2823974 0.48463833 0
0.69279325 -1.2857596 0.60471082 0
0.43255264 -0.80277729 0.45625791 0
0.76485741 -1.3776765 -0.056256436 0
0.72211581 -1.3006893 0.26830432 0
0.70384359 -1.2677772 0.36995503 0
0.7103616 -1.2795174 0.48689181 0
0.69814903 -1.25752 0.59551674 0
0.45117658 -0.81266826 0.46507156 0
0.77676511 -1.3585303 -0.055869594 0
0.75754082 -1.3249078 0.27524596 0
0.7131573 -1.2472829 0.36656603 0
0.72048765 -1.2601033 0.48291826 0
0.71945328 -1.2582942 0.60012615 0
0.44794747 -0.78344178 0.45153812 0
0.78772199 -1.3383006 -0.055441175 0
0.79046661 -1.3429636 0.28104258 0
0.73127759 -1.2424042 0.36780936 0
0.73122698 -1.2423184 0.47959316 0
0.73473567 -1.2482795 0.59971476 0
0.46473777 -0.7895664 0.45840457 0
0.80973113 -1.3368957 -0.055800952 0
0.806705 -1.3318995 0.28083071 0
0.7454164 -1.2307098 0.36709696 0
0.74583131 -1.2313948 0.47896379 0
0.75218147 -1.2418791 0.60114264 0
0.4699257 -0.77586454 0.45384908 0
0.82519305 -1.3244964 -0.055712711 0
0.83816034 -1.3453099 0.28586102 0
0.76192182 -1.2229413 0.36761242 0
0.76054263 -1.2207277 0.4785018 0
0.75882214 -1.2179662 0.59414554 0
0.48843107 -0.78396833 0.46215057 0
0.8447237 -1.3185577 -0.055905901 0
0.8719734 -1.3610927 0.29152465 0
0.77092654 -1.2033652 0.36461708 0
0.77428508 -1.2086077 0.47753492 0
0.78086758 -1.2188826 0.59934169 0
0.50348002 -0.78589886 0.46698901 0
0.8616451 -1.3084034 -0.055930965 0
0.90997422 -1.3817909 0.29838848 0
0.77938241 -1.183488 0.36153933 0
0.79184246 -1.2024084 0.47898725 0
0.78335154 -1.189515 0.58970487 0
0.51094246 -0.77586329 0.46481201 0
0.87502402 -1.2929775 -0.055738136 0
0.94697809 -1.3993002 0.30472037 0
0.80404097 -1.1880895 0.36600897 0
0.79870385 -1.1802031 0.47411045 0
0.79430753 -1.1737069 0.58677995 0
0.53255725 -0.78693217 0.4754231 0
0.90383732 -1.2999835 -0.056526303 0
0.81695855 -1.1750263 0.36512485 0
0.81168187 -1.1674368 0.47305042 0
0.80666679 -1.1602236 0.58507109 0
0.55550909 -0.79898518 0.48689237 0
0.91175079 -1.2767607 -0.056011301 0
0.57808876 -0.80952048 0.035513543 0
0.57703537 -0.80804539 0.10670935 0
0.57650888 -0.80730808 0.17890997 0
0.58031625 -0.81263971 0.25476822 0
0.57844228 -0.81001556 0.33114699 0
0.58118838 -0.81386101 0.41406691 0
0.55399346 -0.77577889 0.47696403 0
0.92383468 -1.2598339 -0.055774648 0
0.58349019 -0.79570597 0.035227042 0
0.58337742 -0.79555213 0.1060212 0
0.58047724 -0.79159713 0.17703407 0
0.58468574 -0.79733634 0.25225869 0
0.57333523 -0.78185761 0.32256147 0
0.57753724 -0.78758788 0.40436795 0
0.57621449 -0.78578401 0.48753774 0
0.9487021 -1.2601599 -0.056313492 0
0.58440006 -0.77625787 0.034689084 0
0.59227324 -0.78671587 0.10582913 0
0.58225507 -0.77340871 0.17459226 0
0.58328909 -0.77478224 0.24742724 0
0.58294094 -0.77431983 0.32245451 0
0.58640105 -0.77891588 0.40367466 0
0.58938074 -0.78287375 0.49029791 0
0.95280057 -1.2329829 -0.055630762 0
0.58394289 -0.75565821 0.034094427 0
0.60284561 -0.78011954 0.10595456 0
0.61517882 -0.79607946 0.18144436 0
0.60072714 -0.77737808 0.25065207 0
0.60847956 -0.7874102 0.33107036 0
0.6107648 -0.79036742 0.41356251 0
0.96338177 -1.2147501 -0.055351075 0
0.58120942 -0.73286021 0.033393368 0
0.88011336 -1.109755 0.361366 0
0.87595195 -1.1045078 0.46899605 0
0.86946565 -1.0963291 0.57934088 0
0.98696601 -1.2128032 -0.055824235 0
0.58413064 -0.7177912 0.033039279 0
0.88329417 -1.0854092 0.35703185 0
0.88761467 -1.0907184 0.46784967 0
0.87642121 -1.0769637 0.57489377 0
1.0074607 -1.2066305 -0.056119591 0
0.59328687 -0.71057665 0.033048451 0
0.90689766 -1.0861866 0.36101538 0
0.89635593 -1.0735608 0.46529475 0
0.89701223 -1.0743469 0.57948059 0
1.0262666 -1.198161 -0.056322254 0
0.60403943 -0.70521295 0.033150122 0
0.91587955 -1.0692847 0.35920241 0
0.90709645 -1.0590304 0.46391091 0
0.91222245 -1.0650151 0.58059692 0
1.0312808 -1.1737729 -0.055781856 0
0.60543925 -0.68909281 0.032748137 0
0.93237603 -1.0612025 0.36040285 0
0.92641801 -1.0544213 0.46696499 0
0.93002474 -1.0585264 0.58339769 0
1.0449865 -1.1595943 -0.055728968 0
0.94690883 -1.05076 0.36087728 0
0.9318617 -1.0340626 0.46310884 0
0.93952948 -1.0425714 0.58107859 0
1.0617552 -1.14878 -0.055847358 0
0.95414066 -1.0323451 0.35865071 0
0.94639868 -1.0239686 0.46388856 0
0.94783771 -1.0255255 0.57818437 0
1.0706003 -1.1294805 -0.055560097 0
0.9715302 -1.0249618 0.36030725 0
0.95471054 -1.0072172 0.46170935 0
0.95733821 -1.0099894 0.57617605 0
1.0964004 -1.1279094 -0.056157496 0
0.97925341 -1.0073959 0.35843858 0
0.98552442 -1.013847 0.47039992 0
0.97337157 -1.0013449 0.5781911 0
1.1041902 -1.1076701 -0.05583765 0
0.99597561 -0.99911445 0.35992581 0
0.98492086 -0.98802483 0.46413666 0
0.98188353 -0.98497796 0.5758341 0
1.123301 -1.0988162 -0.056099918 0
1.0046848 -0.9827854 0.35857245 0
1.0040997 -0.98221308 0.46730906 0
1.0028517 -0.98099238 0.58084059 0
1.1292099 -1.0771095 -0.055713229 0
1.0221422 -0.97498173 0.36039275 0
1.0107095 -0.96407658 0.46469855 0
1.0061612 -0.95973808 0.57571214 0
1.1512001 -1.0707281 -0.056128517 0
1.0312049 -0.95912099 0.35930133 0
1.0264469 -0.95469558 0.46636996 0
1.0177017 -0.94656169 0.57544976 0
1.1691467 -1.0602801 -0.056348104 0
1.0477303 -0.95016962 0.36086178 0
1.0429566 -0.9458403 0.46842256 0
1.0338359 -0.9375689 0.57785124 0
1.1747957 -1.0387477 -0.055985518 0
1.0532058 -0.93123865 0.35868043 0
1.0454025 -0.924339 0.46425667 0
1.0484036 -0.92699248 0.57942331 0
1.175022 -1.0128744 -0.055384096 0
1.3762286 -1.1863153 0.064867869 0
1.3679368 -1.1791679 0.19409111 0
1.3272157 -1.144066 0.31601644 0
1.0753614 -0.92696643 0.36222178 0
1.0655823 -0.91853684 0.46804473 0
1.0616295 -0.91512948 0.58031815 0
1.2067437 -1.0140163 -0.056272972 0
1.3932067 -1.1706996 0.064968131 0
1.3865339 -1.1650925 0.19463269 0
1.1612389 -0.97577906 0.27354923 0
1.0916206 -0.91727936 0.36377898 0
1.0782441 -0.90603924 0.46855783 0
1.0668316 -0.89644945 0.5769456 0
1.219623 -0.99891132 -0.056282539 0
1.0029966 -0.82148719 0.046285775 0
1.0092409 -0.82660145 0.14019851 0
1.0136739 -0.83023232 0.23630638 0
1.0185121 -0.8341949 0.33588865 0
1.0871184 -0.89038575 0.46750495 0
1.0851505 -0.88877392 0.58075398 0
1.215626 -0.97032291 -0.055529833 0
0.90150964 -0.71959257 0.041180987 0
0.90181971 -0.71984011 0.12400712 0
0.90693605 -0.72392398 0.20928212 0
0.90075803 -0.71899265 0.29404619 0
1.0999789 -0.87801248 0.46824381 0
1.0964067 -0.87516111 0.58083427 0
1.2476054 -0.97038549 -0.056428 0
0.88294411 -0.6867525 0.039934717 0
0.89543962 -0.69647145 0.12191418 0
0.87804127 -0.68293905 0.20061408 0
0.88382936 -0.68744105 0.2856715 0
1.1146309 -0.86695814 0.46979654 0
1.1069945 -0.86101854 0.58065343 0
1.2329912 -0.93434137 -0.055230495 0
0.89398509 -0.67744786 0.04004509 0
0.89975411 -0.68181956 0.12132306 0
0.89218259 -0.67608196 0.20188394 0
0.88649178 -0.67176956 0.28377539 0
1.1185694 -0.84763432 0.46692076 0
1.116218 -0.84585243 0.5798586 0
1.267386 -0.9355191 -0.056239031 0
0.90916598 -0.67109954 0.040343363 0
0.89078611 -0.65753245 0.11898793 0
0.90636981 -0.66903555 0.20317182 0
0.91170502 -0.67297375 0.28911081 0
1.1404202 -0.84179944 0.4715797 0
1.1332707 -0.83652216 0.58319896 0
1.2706519 -0.91343921 -0.055869125 0
0.91484934 -0.6576618 0.040224887 0
0.9135552 -0.65673149 0.12091511 0
0.92482156 -0.66483063 0.20541507 0
0.92151773 -0.66245556 0.2895543 0
1.1511087 -0.82750267 0.47165334 0
1.1454805 -0.8234567 0.58409989 0
1.2950851 -0.90648985 -0.056437057 0
0.92499453 -0.64744639 0.040309299 0
0.92361027 -0.64647746 0.1211589 0
0.92670131 -0.64864105 0.20400223 0
0.91685319 -0.64174789 0.28552681 0
1.1722904 -0.82054019 0.47606096 0
1.170664 -0.81940174 0.59163308 0
1.2964914 -0.88336271 -0.056009166 0
0.94028628 -0.64066279 0.040620901 0
0.92919886 -0.63310844 0.12083664 0
0.93018419 -0.63377976 0.202996 0
0.94029856 -0.64067113 0.2902928 0
1.1798731 -0.80390495 0.47499174 0
1.1647255 -0.79358417 0.58353537 0
1.3056089 -0.86570686 -0.055927671 0
0.94820821 -0.62872607 0.040617891 0
0.94229639 -0.62480617 0.12150712 0
0.94246578 -0.62491846 0.20394278 0
0.94415063 -0.62603563 0.2890254 0
1.1831014 -0.78447616 0.47227713 0
1.1970717 -0.79373932 0.59468627 0
1.3119172 -0.84630358 -0.055736981 0
0.95144325 -0.61376572 0.040422194 0
0.95141447 -0.61374718 0.12167666 0
0.94412428 -0.60904431 0.20262605 0
0.95720768 -0.61748427 0.29061913 0
1.2030264 -0.77605927 0.47629216 0
1.1962738 -0.7717033 0.58941579 0
1.333071 -0.83636945 -0.056183808 0
0.96868074 -0.60775077 0.04082616 0
0.96547514 -0.60573959 0.12248968 0
0.96032536 -0.6025086 0.20445859 0
0.96334201 -0.60440129 0.2901479 0
1.2045481 -0.75573415 0.47308952 0
1.2214272 -0.76632404 0.59700722 0
1.3390172 -0.81678593 -0.055996493 0
0.97272789 -0.59335345 0.040678605 0
0.97776806 -0.59642792 0.12308668 0
0.9765529 -0.59568673 0.20630017 0
0.98711067 -0.60212684 0.29499972 0
1.2307756 -0.75075978 0.47963941 0
1.2227061 -0.74583751 0.59299487 0
1.3415115 -0.79530609 -0.055677589 0
0.98882431 -0.58621782 0.041039791 0
0.97810441 -0.57986265 0.12220015 0
0.98381704 -0.58324933 0.20626685 0
0.98545748 -0.58422184 0.29228392 0
1.2455856 -0.73843706 0.48174906 0
1.2377776 -0.7338081 0.59577566 0
1.3706548 -0.78943068 -0.056470089 0
1.0000763 -0.57599539 0.041202493 0
0.99742764 -0.57446992 0.12370075 0
0.99981111 -0.57584268 0.20808339 0
0.99550211 -0.57336092 0.29309851 0
1.2602323 -0.72583264 0.48384055 0
1.2637155 -0.72783881 0.60380101 0
1.3673122 -0.76474172 -0.055931203 0
1.0123276 -0.56619775 0.041410219 0
1.0105376 -0.56519663 0.12443411 0
0.99948663 -0.55901575 0.20653446 0
1.0080814 -0.56382287 0.29468846 0
1.2658542 -0.70799595 0.48253793 0
1.2680418 -0.70921952 0.60155338 0
1.3702788 -0.74390692 -0.055664957 0
1.0159782 -0.55156159 0.041272171 0
1.0091839 -0.54787302 0.12340812 0
1.0169463 -0.55208719 0.20868924 0
1.010637 -0.54866195 0.29339263 0
1.2741066 -0.69169623 0.48232526 0
1.280795 -0.69532722 0.6034019 0
1.3930218 -0.73369682 -0.05620908 0
1.3029504 -0.68625677 0.37571409 0
1.2888466 -0.67882836 0.48463088 0
1.292514 -0.68075991 0.6048364 0
1.4064794 -0.71831018 -0.056382652 0
1.319882 -0.67408365 0.37811884 0
1.296489 -0.6621365 0.48433101 0
1.3100972 -0.6690864 0.6090737 0
1.4171178 -0.70138812 -0.056450594 0
1.3234445 -0.65502542 0.37674659 0
1.3228846 -0.65474832 0.49107268 0
1.3181111 -0.65238571 0.60893184 0
1.4048289 -0.67341894 -0.055618864 0
1.3434708 -0.64400631 0.38010886 0
1.3403975 -0.64253306 0.49453107 0
1.3345368 -0.63972372 0.61275011 0
1.4227144 -0.66009295 -0.055993449 0
1.3481779 -0.62551045 0.37918207 0
1.3412063 -0.62227589 0.49189955 0
1.3498244 -0.62627441 0.61609966 0
1.4254842 -0.63969076 -0.055781018 0
1.3612713 -0.61087501 0.38067096 0
1.3521792 -0.60679489 0.49308246 0
1.3612016 -0.61084378 0.61773276 0
1.4314959 -0.6208545 -0.05570592 0
1.3800725 -0.59855163 0.38379046 0
1.3676506 -0.59316415 0.49596122 0
1.3710985 -0.59465957 0.61877686 0
1.4526374 -0.60840917 -0.056226041 0
1.390581 -0.58241796 0.38464281 0
1.3817145 -0.57870442 0.49837914 0
1.3795375 -0.57779264 0.61925268 0
1.4606291 -0.59025079 -0.056243226 0
1.4160913 -0.57225269 0.38967502 0
1.3927073 -0.56280309 0.49974841 0
1.3945936 -0.56356537 0.62277633 0
1.4784219 -0.57589388 -0.05664463 0
1.4211415 -0.5535813 0.38911566 0
1.4156218 -0.55143112 0.5054391 0
1.4071321 -0.54812419 0.62524378 0
1.4639214 -0.54911798 -0.055819701 0
1.4514511 -0.54444033 0.39550608 0
1.4245336 -0.5343436 0.5061785 0
1.4174491 -0.53168619 0.6268034 0
1.4724593 -0.53126967 -0.055885736 0
1.4444699 -0.52117103 0.39178449 0
1.4289774 -0.51558125 0.50541055 0
1.4328334 -0.51697248 0.63067776 0
1.4773978 -0.51212108 -0.055823989 0
1.4528891 -0.50362545 0.39231682 0
1.4311882 -0.49610311 0.50394303 0
1.4405477 -0.49934745 0.63125557 0
1.4849946 -0.49389923 -0.05587161 0
1.4627582 -0.48650354 0.39329636 0
1.4576912 -0.48481828 0.51108497 0
1.4517266 -0.48283449 0.63343972 0
1.4860979 -0.47356957 -0.055684347 0
1.4748981 -0.47000054 0.39493784 0
1.4524689 -0.46285313 0.50717032 0
1.4512 -0.46244878 0.63061905 0
1.4864689 -0.45315146 -0.055480033 0
1.4885633 -0.45378995 0.39703542 0
1.4644506 -0.44643918 0.50935072 0
1.4799316 -0.45115858 0.64058489 0
1.4942735 -0.43504453 -0.055562463 0
1.4707465 -0.42819482 0.39081413 0
1.4806421 -0.43107584 0.5130536 0
1.4777944 -0.43024674 0.63726419 0
1.5129616 -0.41989449 -0.056056306 0
1.4904562 -0.41364852 0.39463612 0
1.4811454 -0.41106448 0.51139385 0
1.489903 -0.41349494 0.64018965 0
1.5127804 -0.39939916 -0.055858824 0
1.4958234 -0.3949222 0.3947092 0
1.4977311 -0.39542586 0.51536036 0
1.5110885 -0.39895242 0.64708287 0
1.5187819 -0.38059354 -0.055899031 0
1.5062897 -0.37746307 0.39618537 0
1.5244325 -0.38200951 0.52285153 0
1.5042608 -0.37695464 0.6420756 0
1.5272382 -0.36233792 -0.056037895 0
1.5127454 -0.3588995 0.39666322 0
1.5185441 -0.36027524 0.51923472 0
1.513391 -0.35905266 0.64399177 0
1.5343881 -0.34368613 -0.056136992 0
1.5092844 -0.33806321 0.39460817 0
1.519537 -0.34035966 0.51806766 0
1.5198029 -0.34041923 0.64484507 0
1.5367981 -0.32396054 -0.056071475 0
1.5379672 -0.32420701 0.40100825 0
1.52134 -0.32070193 0.51726454 0
1.5360307 -0.32379875 0.64994884 0
1.5414072 -0.30471358 -0.056095202 0
1.5408769 -0.30460873 0.40073502 0
1.5364116 -0.30372602 0.52104735 0
1.5235057 -0.30117473 0.64299339 0
1.5580627 -0.28767058 -0.056565013 0
1.5474424 -0.28570971 0.40147501 0
1.5416785 -0.28464553 0.52157658 0
1.5544754 -0.28700823 0.65448689 0
1.5361619 -0.26367027 -0.055644963 0
1.5550073 -0.26690495 0.40253383 0
1.5502417 -0.26608697 0.52329862 0
1.558117 -0.26743868 0.65455037 0
1.5524329 -0.24638198 -0.056117523 0
1.5570896 -0.24712102 0.40223542 0
1.5548911 -0.24677211 0.5237776 0
1.5597906 -0.24754968 0.6538921 0
1.5580746 -0.2272037 -0.056213584 0
1.5401303 -0.22458699 0.39709237 0
1.5695083 -0.22887099 0.52768886 0
1.5603851 -0.22754063 0.65288842 0
1.5658895 -0.20824291 -0.056396458 0
1.5766383 -0.20967235 0.40579233 0
1.5670329 -0.20839496 0.52593261 0
1.5806403 -0.21020456 0.66020364 0
1.5447099 -0.18566407 -0.055545058 0
1.5727407 -0.18903318 0.40414447 0
1.5714965 -0.18888363 0.5265907 0
1.5760034 -0.18942535 0.65721852 0
1.569356 -0.16860951 -0.056350473 0
1.5696115 -0.16863698 0.4027628 0
1.5754473 -0.16926396 0.52715856 0
1.5739697 -0.16910522 0.65543044 0
1.5640746 -0.14814651 -0.056089405 0
1.5840793 -0.15004133 0.40595824 0
1.5875916 -0.150374 0.53054649 0
1.5996047 -0.15151186 0.66525817 0
1.5583364 -0.12782764 -0.055821478 0
1.5826288 -0.1298203 0.40513545 0
1.5880028 -0.13026112 0.53009373 0
1.5792826 -0.12954582 0.65607595 0
1.5693005 -0.10885361 -0.056160673 0
1.6705158 -0.11587434 0.05978287 0
1.6793751 -0.11648887 0.18091494 0
1.6579304 -0.11500137 0.29972404 0
1.5967431 -0.11075715 0.40835914 0
1.6152194 -0.11203875 0.53866529 0
1.5923128 -0.11044985 0.66085887 0
1.5703135 -0.089072354 -0.056152333 0
1.6419234 -0.093134262 0.058713008 0
1.63744 -0.092879951 0.1762574 0
1.6352026 -0.092753045 0.29538071 0
1.5992392 -0.090713099 0.40867299 0
1.5927144 -0.090342999 0.53073853 0
1.5941759 -0.090425901 0.66110712 0
1.5528544 -0.068479255 -0.055492785 0
1.6419091 -0.072406478 0.058675244 0
1.6363786 -0.072162591 0.17603138 0
1.6528747 -0.072890051 0.2983835 0
1.5816296 -0.069748215 0.40391654 0
1.594479 -0.070314854 0.53098941 0
1.5884854 -0.070050545 0.65832925 0
1.5567172 -0.049019869 -0.055604357 0
1.6180398 -0.050950877 0.057794742 0
1.6279645 -0.051263399 0.17504293 0
1.635709 -0.051507268 0.2951442 0
1.6005961 -0.050401583 0.4085657 0
1.5968796 -0.050284557 0.53153586 0
1.5854958 -0.049926091 0.65677768 0
1.5670985 -0.029601801 -0.055957418 0
1.6273321 -0.030739589 0.058108218 0
1.6266863 -0.030727392 0.17485003 0
1.6445445 -0.031064723 0.29664436 0
1.5923098 -0.030078033 0.40632167 0
1.5999044 -0.030221492 0.53237385 0
1.5986542 -0.030197874 0.66201836 0
1.583656 -0.0099704675 -0.056539681 0
1.6385679 -0.010316186 0.058500148 0
1.6367368 -0.010304657 0.17590244 0
1.6419171 -0.010337272 0.29612347 0
1.6014327 -0.010082387 0.40858486 0
1.5836064 -0.0099701555 0.52686709 0
1.5989916 -0.010067019 0.66205311 0
1.5662422 0.0098608332 -0.055917975 0
1.6542355 0.010414827 0.059059512 0
1.6600002 0.01045112 0.1784026 0
1.6405963 0.010328955 0.29588524 0
1.5952512 0.01004347 0.40700772 0
1.6053618 0.010107124 0.53410512 0
1.5942258 0.010037013 0.66007984 0
1.5754555 0.029759664 -0.056255829 0
1.6681287 0.031510219 0.05956497 0
1.6816308 0.031765267 0.18075593 0
1.671905 0.031581551 0.30157968 0
1.6050128 0.030317986 0.40956321 0
1.6049594 0.030316977 0.53405589 0
1.6127177 0.03046353 0.66784221 0
1.5619776 0.049185518 -0.055792257 0
1.6150962 0.050858185 0.412267 0
1.6020048 0.050445944 0.53324187 0
1.6074567 0.05061762 0.66587472 0
1.5738356 0.069404505 -0.056242567 0
1.5940853 0.070297495 0.40709746 0
1.6026965 0.070677243 0.53372604 0
1.6146266 0.071203344 0.66916317 0
1.5692343 0.089011148 -0.056113742 0
1.6000049 0.090756536 0.40886864 0
1.6087178 0.091250755 0.53607136 0
1.5991827 0.090709895 0.66318345 0
1.5568367 0.10798907 -0.05571463 0
1.5920094 0.1104288 0.40714851 0
1.6061693 0.111411 0.53564715 0
1.5939894 0.11056614 0.66155469 0
1.5733619 0.12906015 -0.056359708 0
1.6067876 0.13180201 0.41131982 0
1.5924361 0.13062477 0.53157359 0
1.6040565 0.13157797 0.66636765 0
1.5689133 0.14860483 -0.056262925 0
1.5912625 0.1507217 0.40779909 0
1.6033658 0.1518681 0.53581798 0
1.5883737 0.15044808 0.66058725 0
1.5635506 0.1679858 -0.056142021 0
1.579597 0.1697098 0.40532506 0
1.5971028 0.17159058 0.53440464 0
1.5781819 0.16955775 0.65718442 0
1.5491048 0.1861923 -0.055703089 0
1.5968159 0.19192687 0.41033107 0
1.586139 0.19064356 0.53149718 0
1.5890104 0.19098869 0.6626426 0
1.5520123 0.20639741 -0.055896658 0
1.5949415 0.21210644 0.41050318 0
1.5879567 0.21117754 0.53295511 0
1.5892982 0.21135597 0.66381991 0
1.555092 0.22676875 -0.056105971 0
1.5903922 0.23191637 0.41005144 0
1.6091394 0.23465014 0.54101336 0
1.5940564 0.23245068 0.66697693 0
1.5615538 0.24782953 -0.056447227 0
1.5988556 0.25374958 0.41302463 0
1.5845144 0.25147352 0.53375643 0
1.5962869 0.25334191 0.66919202 0
1.5401677 0.26435784 -0.055790067 0
1.6035539 0.27523759 0.41510072 0
1.585194 0.27208623 0.53509706 0
1.5873623 0.2724584 0.66683602 0
1.5521996 0.28658804 -0.056352157 0
1.5803459 0.29178479 0.41001162 0
1.5786312 0.2914682 0.5340783 0
1.5682149 0.28954503 0.6602717 0
1.5413232 0.30469695 -0.056092139 0
1.5803868 0.31241927 0.41101032 0
1.5712093 0.31060502 0.53284836 0
1.5780874 0.31196472 0.66602957 0
1.5419176 0.32503971 -0.056258261 0
1.5816396 0.33341324 0.41239536 0
1.5693443 0.33082134 0.53358626 0
1.5708035 0.33112895 0.66466248 0
1.5414733 0.34527314 -0.056396212 0
1.5606836 0.34957606 0.40804669 0
1.5606786 0.34957495 0.53209442 0
1.5633631 0.35017622 0.6633274 0
1.5225333 0.36122167 -0.055865262 0
1.5516753 0.36813566 0.4068712 0
1.5477725 0.3672097 0.52922875 0
1.5698036 0.37243658 0.66799694 0
1.5190855 0.38066959 -0.055910204 0
1.5332762 0.38422567 0.40328339 0
1.5585227 0.39055219 0.53454375 0
1.5439062 0.38688946 0.65899777 0
1.5162358 0.40031144 -0.055986412 0
1.5376374 0.40596178 0.40574282 0
1.5392066 0.40637609 0.52963179 0
1.5470011 0.40843397 0.66246152 0
1.5168546 0.42097491 -0.056200542 0
1.5225234 0.42254817 0.40312672 0
1.5322832 0.42525682 0.52905017 0
1.5267888 0.42373195 0.656039 0
1.5075009 0.43889552 -0.056054302 0
1.5297794 0.44538173 0.40650064 0
1.5352062 0.44696167 0.53196049 0
1.5411125 0.44868127 0.66456866 0
1.4973882 0.45648026 -0.055887584 0
1.5337813 0.46757472 0.40909615 0
1.534683 0.46784961 0.53377825 0
1.5245614 0.46476403 0.65990281 0
1.4894512 0.47463813 -0.05580999 0
1.5210545 0.48470902 0.40729728 0
1.4938833 0.4760505 0.5216313 0
1.5155913 0.48296809 0.65860027 0
1.4984065 0.49835995 -0.056376223 0
1.5205225 0.50571555 0.40882763 0
1.5001696 0.49894634 0.52597851 0
1.5012629 0.49930993 0.65505415 0
1.4774927 0.51215398 -0.055827577 0
1.4945251 0.518058 0.4035596 0
1.4962234 0.51864678 0.52684295 0
1.5015137 0.52048057 0.6579712 0
1.4784813 0.53344244 -0.056114294 0
1.4898729 0.5375526 0.40409917 0
1.4852514 0.5358851 0.52531397 0
1.483119 0.53511572 0.65281153 0
1.4805541 0.55535692 -0.05645391 0
1.4877311 0.55804902 0.40539205 0
1.4762015 0.55372423 0.52453762 0
1.4833107 0.55639088 0.65592772 0
1.4720984 0.57343066 -0.056402348 0
1.47711 0.57538289 0.40444013 0
1.4608619 0.56905365 0.52159184 0
1.4603633 0.56885946 0.6488964 0
1.4466686 0.58460921 -0.055705659 0
1.462658 0.59107071 0.40248913 0
1.454026 0.58758241 0.52175152 0
1.4440395 0.58354682 0.64485711 0
1.4564692 0.61001402 -0.056374356 0
1.4549607 0.60938221 0.40245062 0
1.4543378 0.60912132 0.5245741 0
1.4483734 0.60662323 0.65015209 0
1.4556748 0.63134116 -0.056646831 0
1.4379194 0.62364042 0.3998774 0
1.4281667 0.61941063 0.51790661 0
1.4353002 0.62250447 0.64775109 0
1.4335483 0.64330953 -0.056096576 0
1.4324906 0.6428349 0.40058699 0
1.4318767 0.64255941 0.52214473 0
1.4282199 0.64091843 0.64814663 0
1.4123172 0.65526897 -0.055584252 0
1.4190248 0.6583811 0.39910811 0
1.4201053 0.65888244 0.52083647 0
1.4100856 0.65423357 0.64360458 0
1.4144479 0.67802989 -0.055999693 0
1.4010024 0.67158467 0.3963863 0
1.4118552 0.67678708 0.52089494 0
1.3990133 0.67063117 0.64235437 0
1.4079562 0.6968537 -0.056085642 0
1.4015667 0.69369131 0.39898577 0
1.3987744 0.6923092 0.51924407 0
1.3986248 0.69223517 0.64612705 0
1.400254 0.71513081 -0.056133091 0
1.3808736 0.70523292 0.39559165 0
1.3838215 0.70673847 0.51695591 0
1.3800979 0.70483679 0.64161748 0
1.3911082 0.7326889 -0.056131862 0
1.3600166 0.71631318 0.39216951 0
1.3690335 0.7210623 0.51478267 0
1.368142 0.7205928 0.64022684 0
1.3723748 0.74504477 -0.055750102 0
1.3599983 0.73832577 0.39481387 0
1.3591006 0.73783833 0.5145005 0
1.3537111 0.73491251 0.63775384 0
1.3693045 0.76585603 -0.056012698 0
1.4048457 0.7857343 0.057466544 0
1.4251534 0.79709244 0.17548847 0
1.4176172 0.79287744 0.29293719 0
1.3437783 0.75157911 0.3928214 0
1.3293396 0.74350357 0.50673831 0
1.3473829 0.75359517 0.63919246 0
1.3619516 0.78441805 -0.056111526 0
1.3834019 0.79677236 0.056995261 0
1.3802531 0.79495883 0.17117867 0
1.375736 0.79235715 0.28632191 0
1.3391625 0.77129257 0.39427996 0
1.3324662 0.76743591 0.51157331 0
1.327866 0.7647863 0.63445199 0
1.3486893 0.79956138 -0.055975493 0
1.3622824 0.80761993 0.056539655 0
1.3712362 0.81292814 0.17131634 0
1.3526309 0.80189806 0.28359225 0
1.3259979 0.78610897 0.3932873 0
1.3142426 0.77913988 0.50830317 0
1.311443 0.77748019 0.6312328 0
1.335075 0.8143813 -0.055831637 0
1.3424708 0.81889266 0.056140922 0
1.3390297 0.81679362 0.16856423 0
1.3536972 0.82574064 0.28597319 0
1.3129585 0.80089045 0.39237988 0
1.3028996 0.79475462 0.50774652 0
1.2887634 0.78613174 0.62503171 0
1.3222408 0.82957458 -0.055727355 0
1.3326668 0.83611578 0.056166764 0
1.3304682 0.83473647 0.16879629 0
1.3482087 0.8458668 0.2870411 0
1.2857467 0.80667812 0.3872526 0
1.2898109 0.80922806 0.50657672 0
1.2957051 0.81292605 0.63331264 0
1.3179061 0.85016698 -0.055991422 0
1.3349278 0.86114746 0.056714591 0
1.3328549 0.85981023 0.17045918 0
1.3366816 0.86227876 0.2868759 0
1.2770299 0.82379812 0.38772079 0
1.282365 0.82723975 0.50770324 0
1.2775955 0.82416302 0.62948376 0
1.2994611 0.8616305 -0.055664327 0
1.3277215 0.88036901 0.056874897 0
1.32488 0.8784849 0.17084046 0
1.31919 0.87471211 0.28546318 0
1.2689797 0.84141922 0.38846275 0
1.2647976 0.83864617 0.50488907 0
1.2659135 0.83938611 0.62888587 0
1.3051242 0.88924456 -0.056382101 0
1.3286487 0.90527296 0.057398375 0
1.3173736 0.89759076 0.1713164 0
1.3219829 0.90073121 0.28849903 0
1.2543517 0.85465086 0.38724858 0
1.2379748 0.84349245 0.49838221 0
1.2441838 0.84772295 0.62334448 0
1.2915057 0.90398449 -0.056281075 0
1.3576311 0.95026863 0.059162676 0
1.3635503 0.95441186 0.1788701 0
1.3571302 0.94991809 0.298756 0
1.2351973 0.86457163 0.38466567 0
1.2325169 0.86269546 0.50051856 0
1.2246417 0.85718322 0.61891246 0
1.2824203 0.9218992 -0.056386568 0
1.2212275 0.8779093 0.38372749 0
1.2087535 0.86894196 0.49527258 0
1.2189556 0.87627608 0.62156612 0
1.2728459 0.93954927 -0.056481306 0
1.2111655 0.89402008 0.38407275 0
1.1988595 0.88493633 0.49574515 0
1.2054442 0.88979685 0.62034053 0
1.2484746 0.94607449 -0.055924062 0
1.1904175 0.9020797 0.38106525 0
1.1792445 0.89361298 0.49224818 0
1.1776524 0.8924064 0.61177284 0
1.2416207 0.96573049 -0.056157313 0
1.1704996 0.91041267 0.37832907 0
1.1650811 0.9061982 0.49106035 0
1.1713468 0.9110716 0.61440825 0
1.232733 0.98397785 -0.05631128 0
1.1594656 0.92549515 0.37849945 0
1.1531549 0.9204579 0.49087995 0
1.1451441 0.91406369 0.60665345 0
1.2134925 0.99389023 -0.055999629 0
1.1379791 0.93204236 0.37528694 0
1.1371371 0.93135267 0.48901498 0
1.144683 0.93753308 0.61261475 0
1.1903945 1.0002782 -0.055510577 0
1.1199059 0.94104737 0.37320498 0
1.1222188 0.94299084 0.48766732 0
1.1152339 0.93712145 0.6031217 0
1.2007589 1.0350597 -0.056597196 0
1.1120912 0.95862764 0.37459373 0
1.1032629 0.95101774 0.48459551 0
1.105445 0.95289862 0.60426903 0
1.1799269 1.0432845 -0.056230042 0
1.0957372 0.96884459 0.37316489 0
1.0796137 0.95458823 0.47944963 0
1.0860181 0.96025103 0.6002118 0
1.1663781 1.0577693 -0.056214672 0
1.0745772 0.97451657 0.37010843 0
1.074355 0.97431511 0.48252454 0
1.0680523 0.9685992 0.5969761 0
1.1531057 1.0725006 -0.056221433 0
1.0648718 0.99043447 0.37103182 0
1.0427439 0.96985334 0.47377452 0
1.0575305 0.98360628 0.59797055 0
1.1408563 1.0882185 -0.05628784 0
1.0469736 0.99866742 0.36914793 0
1.0261447 0.97879964 0.47179526 0
1.0267406 0.97936797 0.5874874 0
1.1175382 1.093179 -0.055812113 0
1.0349709 1.0124114 0.36938158 0
1.0190362 0.99682397 0.47426048 0
1.0092309 0.98723239 0.5845353 0
1.1077511 1.1112423 -0.056017727 0
1.0101151 1.0132985 0.36503556 0
1.0028013 1.0059617 0.47256267 0
1.0017892 1.0049464 0.58750796 0
1.0930053 1.1244168 -0.055983603 0
0.99676716 1.0254129 0.36484915 0
0.98829675 1.0166991 0.4717232 0
0.99474508 1.0233327 0.59088713 0
1.0804919 1.1399161 -0.056073435 0
0.97439557 1.0279847 0.36136991 0
0.9630028 1.0159655 0.46571958 0
0.97208291 1.025545 0.58505017 0
1.0703193 1.1580461 -0.056297824 0
0.9527306 1.0308194 0.35812071 0
0.95121056 1.0291748 0.46624717 0
0.93613195 1.0128603 0.57104385 0
1.05064 1.1658678 -0.056030463 0
0.93628144 1.0389671 0.35682705 0
0.9219476 1.0230613 0.4581818 0
0.93265259 1.0349404 0.57682538 0
1.0330372 1.1757721 -0.055876862 0
0.9109382 1.0368026 0.3521162 0
0.90832859 1.0338324 0.45784694 0
0.91733861 1.0440874 0.57543975 0
0.91111416 1.0370029 0.6906696 0
1.0257986 1.1976146 -0.056296568 0
0.90849513 1.0606635 0.35630631 0
0.89219582 1.0416341 0.45629039 0
0.89748323 1.0478071 0.57121599 0
0.89612609 1.0462227 0.68923998 0
1.0056914 1.2045114 -0.056021035 0
0.88082063 1.0549544 0.45723048 0
0.875081 1.0480801 0.56531274 0
0.88028991 1.0543187 0.68721652 0
0.98818463 1.2143006 -0.05589316 0
0.86224777 1.0595469 0.45447913 0
0.85912323 1.0557076 0.56354707 0
0.86401594 1.0617198 0.68489474 0
0.97259176 1.2263632 -0.055880234 0
0.84809744 1.0693854 0.56510288 0
0.83658922 1.0548744 0.67362994 0
0.95660669 1.2379082 -0.055852991 0
0.82218689 1.0639607 0.55672109 0
0.83265585 1.0775082 0.68133396 0
0.9486289 1.2600627 -0.056309149 0
0.79760861 1.0594625 0.66351986 0
0.9269647 1.2641023 -0.055963617 0
0.7906279 1.0781797 0.6689539 0
0.92036271 1.2888201 -0.056540351 0
0.8985188 1.2923338 -0.05619368 0
0.87766224 1.2968758 -0.055906191 0
0.86012244 1.3060913 -0.055832125 0
0.84666818 1.3215929 -0.056034591 0
0.82575208 1.3253937 -0.055750452 0
0.81499702 1.34559 -0.056163844 0
0.79701573 1.3540902 -0.056095287 0
0.77715409 1.3592106 -0.055897571 0
0.76003957 1.3689984 -0.055902075 0
0.74457884 1.3818687 -0.056040324 0
0.72050655 1.3784807 -0.055530582 0
0.70804328 1.3972126 -0.055921581 0
0.69240588 1.4101132 -0.056084499 0
0.67289597 1.4151443 -0.055943165 0
0.65627992 1.4262336 -0.056050409 0
0.6338262 1.4243976 -0.055660181 0
0.62420833 1.4517252 -0.056416422 0
0.60640883 1.4607438 -0.056465674 0
0.58582181 1.4629034 -0.056259539 0
0.56275696 1.4582473 -0.055803534 0
0.5486623 1.4768214 -0.056245476 0
0.53124821 1.4870399 -0.056375403 0
0.51301414 1.4951607 -0.05643389 0
0.49365208 1.4999959 -0.056377299 0
0.46992394 1.4908574 -0.055806998 0
0.45145243 1.4977756 -0.055848744 0
0.43468881 1.5107473 -0.056123879 0
0.41332808 1.507696 -0.055812743 0
0.39638352 1.5207297 -0.056106012 0
0.37522405 1.5175912 -0.055811476 0
0.35927016 1.535807 -0.056310549 0
0.33736423 1.5287005 -0.055889793 0
0.32150978 1.5493098 -0.056490786 0
0.29821414 1.5338827 -0.055786941 0
0.27948195 1.540851 -0.055907946 0
0.2600134 1.5439793 -0.055898223 0
0.24063212 1.5476447 -0.05591679 0
0.22100338 1.5496898 -0.055885702 0
0.20359103 1.5686661 -0.056473106 0
0.18151663 1.5513889 -0.055764407 0
0.16146654 1.548738 -0.055591628 0
0.14330113 1.5653719 -0.056119479 0
0.12281437 1.5573456 -0.055771869 0
0.10350866 1.5634948 -0.055940971 0
0.083382845 1.556622 -0.055653088 0
0.063927069 1.5612262 -0.055784497 0
0.044209901 1.5599889 -0.055715978 0
0.024670975 1.5672016 -0.055958051 0
0.0049191397 1.5620168 -0.055766292 0
-0.014703097 1.5571008 -0.055592984 0
-0.034497418 1.5654004 -0.05590038 0
-0.05352569 1.5452318 -0.055199858 0
-0.073774368 1.5612936 -0.055802386 0
-0.094143391 1.572203 -0.056230213 0
-0.11387424 1.5700985 -0.056201775 0
-0.13382038 1.5707203 -0.05627989 0
-0.15346266 1.5676402 -0.056234311 0
-0.17285521 1.5625664 -0.056125931 0
-0.094312437 0.85256004 0.50869322 0
-0.1915675 1.5525779 -0.055849373 0
-0.10514294 0.85214144 0.50919306 0
-0.21104167 1.5496061 -0.055833638 0
-0.11497646 0.84423244 0.50529218 0
-0.23286274 1.5624353 -0.056397069 0
-0.12352446 0.82881004 0.49695304 0
-0.2516585 1.5540764 -0.05620528 0
-0.13128391 0.81072259 0.48706049 0
-0.26989341 1.5432775 -0.0559332 0
-0.14433214 0.8253057 0.49687409 0
-0.28987831 1.542815 -0.056044288 0
-0.15259324 0.8121447 0.4900685 0
-0.30873322 1.5363157 -0.055944979 0
-0.16075052 0.79992539 0.48387817 0
-0.32675755 1.5262564 -0.055724088 0
-0.16981544 0.79319334 0.48106128 0
-0.3478418 1.5303484 -0.056028966 0
-0.17982258 0.79113895 0.48115048 0
-0.36908323 1.534161 -0.056334242 0
-0.18672352 0.77614993 0.473427 0
-0.3878572 1.5273691 -0.056259722 0
-0.1936851 0.76272571 0.46668929 0
-0.4042747 1.5119556 -0.055875059 0
-0.20064712 0.75040442 0.46065971 0
-0.4218255 1.5015678 -0.055683058 0
-0.21193285 0.75441515 0.46472326 0
-0.44467399 1.5096337 -0.056185354 0
-0.22013475 0.74734032 0.46203604 0
-0.45889628 1.4885056 -0.05560967 0
-0.47950828 1.4885273 -0.055831634 0
-0.49923816 1.4854231 -0.055946559 0
-0.52193046 1.4905242 -0.056381751 0
-0.53442806 1.46674 -0.055732213 0
-0.55429125 1.4636906 -0.055877127 0
-0.57175821 1.4542586 -0.055787481 0
-0.59279329 1.4537361 -0.056049347 0
-0.60333031 1.4278855 -0.055341199 0
-0.617755 1.4121604 -0.05502886 0
-0.62923533 1.3904558 -0.054487519 0
-0.64994341 1.3893713 -0.054761391 0
-0.66352046 1.3730787 -0.054444227 0
-0.68710601 1.3773431 -0.054952029 0
-0.69065684 1.3418922 -0.053880353 0
-0.70953149 1.336921 -0.054035205 0
-0.72672611 1.3286443 -0.054066259 0
-0.73506403 1.3045979 -0.053460162 0
-0.75406647 1.2997798 -0.053647574 0
-0.75691956 1.2676518 -0.052710731 0
-0.77496916 1.2615179 -0.052857257 0
-0.78481948 1.2422072 -0.052458066 0
-0.80261552 1.2356406 -0.052603394 0
-0.81177449 1.2159467 -0.052196018 0
-0.82873333 1.2081262 -0.05230413 0
-0.84681773 1.2017657 -0.052486252 0
-0.85304177 1.1787914 -0.051947884 0
-0.87629694 1.1793705 -0.052455526 0
-0.87389719 1.1457196 -0.05144418 0
-0.89037877 1.1373396 -0.051567245 0
-0.92078733 1.1461521 -0.052488349 0
-0.92441916 1.1214544 -0.051886279 0
-0.92400783 1.092629 -0.051086895 0
-0.94091606 1.0846243 -0.051262539 0
