# .PCD v0.7 - Point Cloud Data file format
VERSION 0.7
FIELDS x y z
SIZE 4 4 4
TYPE F F F
COUNT 1 1 1
WIDTH 302
HEIGHT 1
VIEWPOINT 0 0 0 1 0 0 0
POINTS 302
DATA ascii
-1.1393194 -3.0232864e-06 -0.16011387
-1.1438878 -0.014407109 -0.16076864
-1.9807442 -0.1750432 -0.13901237
-1.3343184 -0.16890848 -0.15719071
-0.086464643 -1.4439673 -0.23774306
-0.087019913 -1.4532404 -0.20459646
-0.06550964 -1.3863863 -0.22810869
-0.04558 -1.315848 -0.2163911
-0.028112048 -1.2756494 -0.24032815
-0.027921263 -1.2669921 -0.20828243
-0.011511227 -1.2190725 -0.22962372
0.0037726208 -1.1979529 -0.22563672
0.018645119 -1.1844145 -0.22311327
0.033941742 -1.197667 -0.22567233
0.049264219 -1.2031302 -0.22680065
0.064287543 -1.2001439 -0.22637236
0.079022691 -1.193635 -0.22531447
0.094134726 -1.1936738 -0.22552767
0.11035738 -1.2055057 -0.22800763
0.12534702 -1.2022904 -0.22767998
0.14062665 -1.2019098 -0.22792515
0.15556641 -1.198637 -0.22765794
0.17037068 -1.1946502 -0.22729017
0.18433414 -1.1855597 -0.22598438
0.20275681 -1.2039853 -0.22996499
0.21692371 -1.1959524 -0.22893426
0.23431551 -1.2052163 -0.23125404
0.24971166 -1.2033249 -0.23147614
0.26690319 -1.20942 -0.23327662
0.28077978 -1.2002766 -0.23217659
0.29800788 -1.2052909 -0.23385386
0.31247744 -1.1988232 -0.23334391
0.32724386 -1.1936868 -0.23312776
0.3452785 -1.2000046 -0.23519209
0.36121526 -1.1983974 -0.23574989
0.38169074 -1.2109331 -0.23914246
0.39426959 -1.1980153 -0.23755303
1.1257954 -0.092347041 -0.26772523
1.1368457 -0.078856632 -0.27009556
1.1343617 -0.050024167 -0.26912069
1.1258641 -0.035452627 -0.26697761
1.1315117 -0.021373758 -0.26823172
1.1140916 -0.0070141591 -0.26406035
1.1393569 -0.0071732253 -0.24218877
1.128646 0.007105791 -0.26750997
1.1326133 0.0071307691 -0.24075532
1.1208425 0.021172222 -0.26570255
1.1183845 0.035217103 -0.26520395
1.1387031 0.050215617 -0.27015066
1.1275221 0.06395606 -0.26766789
1.1293988 0.092642635 -0.26858217
1.3624907 0.26934439 -0.26159281
1.2073245 0.2704275 -0.26299027
1.2145669 0.28815651 -0.26533723
1.1964263 0.29981402 -0.26217818
1.1978986 0.31626511 -0.26335263
1.1948817 0.3316173 -0.26358652
1.2090296 0.35199824 -0.26766402
1.198197 0.36527151 -0.26626301
1.1993829 0.39890665 -0.26867414
1.2026392 0.41687953 -0.23974127
1.2123865 0.43743426 -0.24276313
1.2029817 0.45123932 -0.24199854
1.2023127 0.46834028 -0.24303105
1.2051445 0.48700759 -0.24482365
1.2083511 0.50609457 -0.24675016
1.2026466 0.52160025 -0.24690694
1.2102914 0.54312229 -0.2498607
1.2061058 0.55959368 -0.25043148
1.2490771 0.69861245 -0.26956263
1.226642 0.70648628 -0.26661968
1.1595707 0.68744373 -0.25390264
1.1502715 0.70165318 -0.25378096
1.1391469 0.71470141 -0.25329208
1.1498134 0.74173212 -0.25772014
1.21276 0.78233832 -0.23719266
1.1252066 0.74608791 -0.25429037
1.1279234 0.76850903 -0.25707096
1.1486084 0.80396408 -0.26407182
1.1697395 0.81875467 -0.23466298
1.1493611 0.82624638 -0.26661572
0.89104545 0.74873781 -0.24739243
0.87862533 0.75737906 -0.24657242
1.1085885 1.0310951 -0.24882413
1.1053493 1.0543498 -0.25105715
1.1029351 1.0788941 -0.25357437
1.0916713 1.0951118 -0.25413504
1.1046439 1.13639 -0.26046556
1.1109195 1.1720172 -0.26540411
1.1006387 1.1908506 -0.26650932
1.1085113 1.1993684 -0.22951862
1.102891 1.2238494 -0.23152743
1.0976251 1.2492841 -0.23370589
0.89132017 1.0406117 -0.25807002
1.0502541 1.2261664 -0.26534054
1.0894758 1.2719574 -0.23536234
0.88203174 1.0564048 -0.25921169
1.0325336 1.2366602 -0.26477683
1.0875592 1.302564 -0.23847279
1.0078402 1.2384537 -0.26242283
1.0608693 1.3036171 -0.23620117
0.90741229 1.1441768 -0.24000575
1.0451661 1.3178738 -0.23638096
0.88834202 1.1495696 -0.23877156
1.0274069 1.3295281 -0.23613212
0.89112353 1.1836784 -0.24350613
0.99162084 1.3171688 -0.23170096
0.88522029 1.2071754 -0.24602731
0.88139296 1.2342494 -0.24926335
0.89457452 1.2866608 -0.22022995
0.88654256 1.3099978 -0.22229598
0.90054399 1.3674712 -0.23010623
0.89557862 1.3979388 -0.23331693
0.90630043 1.4546798 -0.24086322
1.2839495 2.3828905 -0.25265238
1.2483716 2.3883975 -0.25154963
1.2499645 2.4666092 -0.25810879
0.50908017 1.3702792 -0.24024704
0.48699066 1.3631567 -0.23790425
0.47044498 1.3710943 -0.23823681
0.75062686 2.3814015 -0.23306158
0.71567804 2.374392 -0.23147525
0.68491322 2.3803945 -0.23120129
0.65421188 2.3863673 -0.23096299
0.61978871 2.3778262 -0.2293628
0.58957976 2.3845515 -0.22927721
0.5591687 2.3903327 -0.22913791
0.14809521 0.95248616 -0.22846484
0.14664181 0.94313848 -0.20288417
0.1310222 0.91873598 -0.21995629
0.13494085 0.94621384 -0.20316409
0.11934582 0.91955787 -0.19710241
0.10833161 0.92589003 -0.19815157
0.098132826 0.94126022 -0.20116058
0.08436688 0.92159456 -0.19671512
0.072331674 0.91720057 -0.19556729
0.059718344 0.90204352 -0.19215991
0.049632128 0.92655104 -0.1972319
0.038103465 0.93056244 -0.22074096
0.038130492 0.9312225 -0.19810839
0.026110504 0.92133427 -0.21845661
0.026386684 0.93107957 -0.19799158
0.014717452 0.93491298 -0.22161473
0.014811014 0.9408564 -0.2000151
0.0029200485 0.92722827 -0.21976699
0.0029868614 0.94844395 -0.20160414
-0.0087616593 0.92788517 -0.21993141
-0.0089028776 0.94284064 -0.20042102
-0.020264076 0.9195295 -0.21799409
-0.020352403 0.92353749 -0.19635664
-0.031844925 0.91933042 -0.21802469
-0.032483771 0.93777329 -0.19945452
-0.042514805 0.89974463 -0.21348985
-0.043748315 0.9258495 -0.19701999
-0.18076789 3.8256071 -0.17829852
-0.054575682 0.9114188 -0.19408001
-0.22826745 3.8120868 -0.17778827
-0.065692514 0.90576863 -0.19303769
-0.27665186 3.814477 -0.17804809
-0.076255746 0.89505374 -0.19094364
-0.088276707 0.90175754 -0.19259565
-0.10100701 0.91307729 -0.19526947
-0.10660216 0.96365601 -0.18261275
-0.11215471 0.90896904 -0.19467749
-0.12627628 1.0234188 -0.19422373
-0.13200799 0.96928912 -0.20793599
-0.14606576 0.98005503 -0.21062341
-0.23597571 1.5833224 -0.18709201
-0.41948184 2.5904424 -0.18345541
-0.41965044 2.3996031 -0.17030089
-0.42895254 2.2830076 -0.16239652
-0.46086851 2.29337 -0.16353346
-0.49303901 2.3029428 -0.16464573
-0.51832527 2.2803993 -0.16348769
-0.55099273 2.2903006 -0.16468188
-0.58058608 2.2863293 -0.16490893
-0.39573094 1.4800026 -0.1790494
-0.39304051 1.3991022 -0.16984743
-0.39301127 1.3342427 -0.19547263
-0.39048079 1.2665887 -0.18626662
-0.39616519 1.2298071 -0.18157668
-0.39588842 1.1779183 -0.17463768
-0.38942042 1.1121032 -0.19365735
-0.39633912 1.1318616 -0.16853589
-0.40632141 1.1151508 -0.19506355
-0.40379146 1.1082073 -0.1657577
-0.41798529 1.1037539 -0.1939753
-0.41998103 1.109024 -0.16665766
-0.43420202 1.1043864 -0.19503187
-0.436726 1.1108062 -0.16773859
-0.44873178 1.1004469 -0.19531853
-0.44882977 1.1006873 -0.16705078
-0.45845041 1.0850021 -0.19358653
-0.45834976 1.0847639 -0.16549693
-0.47744188 1.0914109 -0.19578712
-0.47198668 1.0789405 -0.16550212
-0.48548788 1.0728092 -0.19353153
-0.47821853 1.0567458 -0.16300838
-0.49936265 1.0674777 -0.19368872
-0.49430761 1.0566716 -0.16394408
-0.51158148 1.0586586 -0.19324209
-0.51654363 1.0689272 -0.16684149
-0.52313614 1.0486562 -0.19260347
-0.52619666 1.0547911 -0.16565618
-0.53707492 1.0434947 -0.1928823
-0.53529775 1.0400417 -0.16438535
-1.1809403 2.2944746 -0.12013657
-0.55133319 1.0388389 -0.19328967
-0.55249327 1.0410248 -0.16562721
-1.2194734 2.2977693 -0.12110349
-0.56407124 1.0312688 -0.19318743
-0.56021607 1.0242206 -0.16406301
-0.5787819 1.027227 -0.1937802
-0.56946862 1.0106977 -0.16303261
-0.5919227 1.0202935 -0.19386294
-0.59131086 1.0192388 -0.16559829
-0.60294044 1.009775 -0.19329165
-0.60641891 1.0156007 -0.16623467
-1.4120737 2.364872 -0.12822889
-0.61555415 1.0020174 -0.19327506
-0.61880511 1.0073094 -0.1661398
-1.4275137 2.3237493 -0.12696373
-0.63185328 1.0000932 -0.19442321
-0.63354033 1.0027635 -0.1666926
-1.4499798 2.2950184 -0.12638153
-0.64224744 0.98875105 -0.1656945
-1.4902141 2.2942104 -0.1273603
-0.65190673 0.97648281 -0.19296424
-0.65983498 0.98835838 -0.16700785
-1.5364817 2.3014765 -0.1288275
-0.67072862 0.9777872 -0.16663553
-0.67674893 0.96041161 -0.16511355
-0.70217574 0.97031444 -0.1683228
-0.70316982 0.94636619 -0.16569132
-0.73247081 0.96030313 -0.16973281
-0.73035842 0.93293506 -0.16650786
-0.74751025 0.9304651 -0.1677337
-0.76502007 0.9280802 -0.16902696
-0.78263867 0.92546147 -0.17033139
-0.78967845 0.91028786 -0.16935541
-0.81508875 0.91601896 -0.17231753
-0.82511556 0.90410292 -0.17201683
-0.83706886 0.89432043 -0.17214741
-0.86294353 0.89900374 -0.17512669
-0.8584764 0.87209922 -0.17197785
-0.87859845 0.87034369 -0.17379959
-0.90184307 0.8711471 -0.17621379
-0.89315015 0.86275005 -0.14513269
-0.92238528 0.86880744 -0.17807584
-0.90859544 0.85581857 -0.14587976
-0.92082244 0.84570938 -0.17570421
-0.92710769 0.85148191 -0.14711885
-0.94642448 0.84750402 -0.1785389
-0.94738942 0.84836811 -0.14863028
-0.95627213 0.83486682 -0.17839928
-0.9628675 0.84062487 -0.14938603
-0.97237158 0.82757998 -0.17944439
-0.9704057 0.82590687 -0.14893022
-0.98620152 0.81816375 -0.18008108
-0.98809063 0.819731 -0.1500483
-0.99588865 0.80524772 -0.17998415
-1.006518 0.8138423 -0.15127839
-1.0292348 0.81099278 -0.15314566
-1.0282204 0.78941333 -0.15150364
-1.054496 0.78868324 -0.15389968
-1.0761727 0.78396106 -0.15561023
-1.0830328 0.76827323 -0.15519102
-1.1078116 0.76506674 -0.15734869
-1.1193879 0.75242263 -0.15763471
-1.1401772 0.74572736 -0.15922733
-1.1431816 0.72730714 -0.15835534
-1.1827044 0.73169738 -0.16254093
-1.1902574 0.71580583 -0.16232733
-1.4063575 0.51745373 -0.13987353
-1.3998095 0.49512377 -0.13859122
-1.4149797 0.48053163 -0.13948302
-1.4058465 0.45776966 -0.13800354
-1.3985534 0.43599632 -0.13673785
-1.3956904 0.41589633 -0.13593513
-1.3977652 0.39742237 -0.13563903
-1.3879234 0.37580156 -0.13421413
-1.3834786 0.35596338 -0.1333403
-1.4002354 0.34153619 -0.13453016
-1.3825752 0.31883967 -0.13243717
-1.3943533 0.30311763 -0.16676888
-1.3917539 0.30255258 -0.13294093
-1.3951858 0.28495014 -0.16642611
-1.3890246 0.28369179 -0.13232851
-1.3913888 0.26596996 -0.16556054
-1.4049656 0.26856524 -0.1335144
-1.3852273 0.24675515 -0.16444464
-1.5858141 0.28248635 -0.15035054
-1.3943111 0.23029923 -0.16516563
-1.6113284 0.26614413 -0.15243973
-1.3959239 0.21254578 -0.16502656
-1.5941997 0.24273559 -0.15051815
-1.3840836 0.19294436 -0.16332662
-1.6041373 0.22362034 -0.15117858
-1.3970237 0.17684619 -0.16457777
-1.6038514 0.20302807 -0.15089874
-1.1396505 0.014353741 -0.1601731
-1.1376754 3.018924e-06 -0.15988284
