# .PCD v0.7 - Point Cloud Data file format
VERSION 0.7
FIELDS x y z intensity
SIZE 4 4 4 4
TYPE F F F F
COUNT 1 1 1 1
WIDTH 1362
HEIGHT 1
VIEWPOINT 0 0 0 1 0 0 0
POINTS 1362
DATA ascii
2.4263432 -0.86007375 -0.36177421 0
2.9045053 -1.0295694 -0.36015499 0
3.6508548 -1.2941304 -0.36154795 0
4.8909688 -1.7337178 -0.36277103 0
7.3249249 -2.5964901 -0.36179972 0
14.681437 -5.2041769 -0.3621611 0
0.82155091 -0.26808426 -0.31456459 0
0.86845499 -0.28338978 -0.30864254 0
0.95312947 -0.31102031 -0.31293464 0
1.0493481 -0.3424179 -0.31653011 0
1.1382035 -0.37141272 -0.31336969 0
1.2380223 -0.40398508 -0.30865562 0
1.401816 -0.4574334 -0.31343588 0
1.5621054 -0.50973821 -0.30949262 0
1.8047574 -0.58891916 -0.31200686 0
2.4521627 -0.80017716 -0.36249733 0
2.9517045 -0.96318501 -0.36287767 0
3.6893134 -1.2038777 -0.36223215 0
4.909059 -1.6018988 -0.36099905 0
7.3997149 -2.4146369 -0.36236826 0
14.782897 -4.8238792 -0.36154547 0
0.81501889 -0.24337807 -0.30961299 0
0.87484932 -0.26124442 -0.3084735 0
0.96891326 -0.28933346 -0.31561872 0
1.0353698 -0.30917844 -0.30986109 0
1.13647 -0.33936864 -0.31043532 0
1.2455226 -0.37193358 -0.30808705 0
1.3897882 -0.41501364 -0.30830631 0
1.5817486 -0.4723362 -0.31092349 0
1.815975 -0.54228008 -0.31148085 0
2.4610806 -0.73491919 -0.36095867 0
2.9601898 -0.88396144 -0.36106306 0
3.7169383 -1.1099391 -0.36207867 0
4.9641142 -1.4823662 -0.36218104 0
7.4523191 -2.2253854 -0.36207852 0
14.926907 -4.4574203 -0.36220071 0
0.8330254 -0.22602686 -0.31418619 0
0.89456248 -0.24272387 -0.31316459 0
0.97149026 -0.26359686 -0.31419098 0
1.0519608 -0.28543115 -0.3125709 0
1.1553327 -0.3134793 -0.31332687 0
1.2619909 -0.34241915 -0.30992419 0
1.4158018 -0.38415304 -0.31182694 0
1.6066744 -0.43594298 -0.31356049 0
1.8277305 -0.49592268 -0.31125116 0
2.4863739 -0.67463404 -0.36205575 0
2.987896 -0.81071323 -0.36183149 0
3.7307847 -1.0122831 -0.36082375 0
5.001996 -1.357204 -0.36233029 0
7.5054126 -2.0364623 -0.36204556 0
15.013121 -4.0735474 -0.3616828 0
0.89992338 -0.21995898 -0.31299818 0
0.9620499 -0.2351439 -0.30912003 0
1.0536039 -0.25752148 -0.31102881 0
1.1557232 -0.28248146 -0.31140009 0
1.2855825 -0.31422165 -0.31367037 0
1.4183227 -0.34666595 -0.31035626 0
1.6019653 -0.39155182 -0.31061387 0
1.82258 -0.44547436 -0.3083612 0
2.5100951 -0.61351657 -0.36313951 0
3.0136988 -0.73660725 -0.36258936 0
3.7579229 -0.9185102 -0.36109138 0
5.026237 -1.2285111 -0.36172503 0
7.5456004 -1.844293 -0.36162359 0
15.119276 -3.6954482 -0.36187798 0
0.85233647 -0.18567027 -0.31752771 0
0.90791893 -0.19777818 -0.31394294 0
0.97930002 -0.21332762 -0.3128331 0
1.0646679 -0.23192389 -0.31246749 0
1.1525252 -0.25106242 -0.30873272 0
1.2809987 -0.27904871 -0.31073457 0
1.434327 -0.31244925 -0.31203339 0
1.5970707 -0.34790081 -0.30786425 0
1.8498404 -0.40296337 -0.31115359 0
2.5130439 -0.5474335 -0.36145213 0
3.0262761 -0.6592344 -0.36198547 0
3.7867897 -0.82490224 -0.36174941 0
5.0569143 -1.1015822 -0.3618167 0
7.5917645 -1.6537659 -0.36172047 0
15.208267 -3.3129208 -0.36189142 0
0.83210421 -0.15938516 -0.30839357 0
0.91049337 -0.17440018 -0.31321135 0
0.98095167 -0.1878961 -0.31174651 0
1.0688795 -0.2047382 -0.31208757 0
1.1663461 -0.22340742 -0.31082559 0
1.2781618 -0.24482512 -0.3084493 0
1.4401423 -0.27585164 -0.31168458 0
1.6329813 -0.31278893 -0.31316516 0
1.8416766 -0.35276341 -0.30818462 0
2.5271518 -0.48406255 -0.36160892 0
3.0435565 -0.58297718 -0.36217713 0
3.8034279 -0.72852653 -0.36146721 0
5.0802207 -0.9730894 -0.36161187 0
7.6392097 -1.4632503 -0.36210611 0
15.286134 -2.927978 -0.36187059 0
0.84154648 -0.13928063 -0.31049135 0
0.9118765 -0.15092064 -0.31227738 0
0.98617536 -0.16321753 -0.3119981 0
1.0761515 -0.17810906 -0.31279868 0
1.1886097 -0.19672154 -0.31533515 0
1.2836883 -0.21245757 -0.30839074 0
1.4408381 -0.23846674 -0.31043375 0
1.6418885 -0.27174169 -0.3134582 0
1.8816893 -0.31143007 -0.31346518 0
2.5339174 -0.41937748 -0.36094752 0
3.052633 -0.5052278 -0.36162466 0
3.8242624 -0.63293672 -0.36181384 0
5.101254 -0.84428602 -0.36147714 0
7.6832714 -1.2716243 -0.36255792 0
15.357967 -2.5418293 -0.36193714 0
0.83886749 -0.11717559 -0.30831361 0
0.92783678 -0.1296031 -0.31652209 0
0.9767065 -0.13642937 -0.30781502 0
1.0732597 -0.14991622 -0.3107594 0
1.176074 -0.16427764 -0.31081051 0
1.3039802 -0.18214397 -0.31206185 0
1.443652 -0.20165376 -0.30984476 0
1.6389978 -0.22894026 -0.31170395 0
1.877077 -0.26219589 -0.31149521 0
2.5579164 -0.35729763 -0.36296591 0
3.0477922 -0.42572498 -0.35966375 0
3.834336 -0.5355919 -0.36137292 0
5.1203637 -0.7152282 -0.36143699 0
7.694766 -1.0748286 -0.36170503 0
15.415484 -2.1532824 -0.3618966 0
0.86569321 -0.098725401 -0.31715623 0
0.91376179 -0.10420724 -0.31072438 0
0.99123544 -0.11304249 -0.31139556 0
1.0828878 -0.12349471 -0.31254515 0
1.1741947 -0.13390754 -0.30932218 0
1.3110353 -0.14951311 -0.31274757 0
1.4587021 -0.16635333 -0.31207442 0
1.6404946 -0.18708532 -0.31099156 0
1.8916123 -0.21572328 -0.31290415 0
2.5503938 -0.29085207 -0.36074194 0
3.0690954 -0.35000584 -0.3610203 0
3.8594005 -0.44013384 -0.36257276 0
5.1373305 -0.58587158 -0.36147577 0
7.7137766 -0.87969464 -0.36143988 0
15.456458 -1.7626857 -0.3616989 0
0.8562606 -0.075820282 -0.31289974 0
0.92813587 -0.082184702 -0.31480667 0
0.98779893 -0.087467752 -0.30952391 0
1.0872761 -0.096276276 -0.31301072 0
1.134532 -0.1004607 -0.29811081 0
1.1515584 -0.10196835 -0.27400315 0
1.4534575 -0.12870096 -0.31015867 0
1.6345346 -0.14473499 -0.3090708 0
1.8755295 -0.16607465 -0.30945191 0
2.5539632 -0.22614869 -0.36032474 0
3.0992432 -0.27443221 -0.36363605 0
3.8597572 -0.34177431 -0.36168069 0
5.1576257 -0.45669812 -0.36197746 0
7.73594 -0.68500304 -0.36155316 0
15.495129 -1.3720648 -0.3616783 0
0.85309547 -0.053888295 -0.31114703 0
0.93677688 -0.059174277 -0.31712997 0
0.99882156 -0.063093513 -0.31237936 0
1.0931118 -0.069049634 -0.31408897 0
1.1421454 -0.072146989 -0.29953745 0
1.1410867 -0.072080113 -0.27099234 0
1.4632465 -0.092430286 -0.31165051 0
1.6564267 -0.10463309 -0.31261143 0
1.9041328 -0.12028018 -0.31357056 0
2.5587456 -0.16163072 -0.36030915 0
3.0802052 -0.19457026 -0.36071125 0
3.8611724 -0.24390236 -0.36112148 0
5.1604648 -0.32597598 -0.36148417 0
7.7473149 -0.48938203 -0.36139244 0
15.527176 -0.98081994 -0.36173332 0
0.85053343 -0.032208484 -0.30981743 0
0.92560095 -0.035051182 -0.31294739 0
1.0078323 -0.038165167 -0.31479594 0
1.0928354 -0.041384112 -0.3136096 0
1.1443777 -0.043335948 -0.29974061 0
1.1477045 -0.043461926 -0.27221677 0
1.449056 -0.054873675 -0.30823502 0
1.6556149 -0.062695764 -0.31206021 0
1.8939704 -0.071721941 -0.31149969 0
2.5708351 -0.097353846 -0.36155042 0
3.0889628 -0.1169746 -0.36127603 0
3.8625467 -0.14626911 -0.36078984 0
5.191741 -0.19660379 -0.36321178 0
7.7592397 -0.29383129 -0.36148763 0
15.537088 -0.58836728 -0.36150315 0
0.86683238 -0.010937255 -0.31555349 0
0.91977537 -0.011605263 -0.31077975 0
0.99671936 -0.012576104 -0.31112662 0
1.0922661 -0.013781665 -0.31324664 0
1.1319544 -0.014282431 -0.29629785 0
1.131079 -0.014271386 -0.26810268 0
1.1323568 -0.014287508 -0.24071518 0
1.1380681 -0.014359571 -0.21437331 0
1.1154338 -0.014073983 -0.18333764 0
1.1462058 -0.014462248 -0.16109447 0
1.1437784 -0.014431621 -0.13368781 0
1.1227607 -0.014166429 -0.10480721 0
1.1185421 -0.014113201 -0.078202859 0
1.1410351 -0.014397006 -0.053124722 0
1.1297582 -0.014254722 -0.026269475 0
1.1352651 -0.014324204 3.2412569e-05 0
1.124717 -0.014191112 0.026216511 0
1.1255162 -0.014201197 0.052466594 0
1.1262227 -0.014210111 0.078804478 0
1.1383948 -0.014363693 0.10633219 0
1.118819 -0.014116695 0.13083524 0
1.1492916 -0.014501183 0.16159509 0
0.98879045 -0.01247606 0.16257997 0
0.85284197 0.010760731 -0.31046057 0
0.93248105 0.011765577 -0.31507283 0
0.9950133 0.012554577 -0.31059405 0
1.0875186 0.013721762 -0.31188512 0
1.1321015 0.014284289 -0.29633638 0
1.1383456 0.014363072 -0.2698251 0
1.4577607 0.018393291 -0.30988917 0
1.6672367 0.021036353 -0.31405064 0
1.8979843 0.023947811 -0.31196111 0
2.5645621 0.032358356 -0.36043859 0
3.105243 0.039180394 -0.36294889 0
3.8759537 0.048904836 -0.36181164 0
5.1757736 0.065305308 -0.36186415 0
7.7613206 0.097928435 -0.36135435 0
15.562174 0.19635569 -0.36185631 0
0.86159909 0.032627523 -0.31384823 0
0.93062073 0.035241276 -0.3146446 0
0.99790031 0.037789054 -0.3116937 0
1.0923107 0.041364241 -0.31345901 0
1.1230665 0.042528924 -0.2941587 0
1.1441175 0.043326091 -0.271366 0
1.459482 0.055268489 -0.31045276 0
1.6572824 0.062758908 -0.3123745 0
1.8973472 0.071849823 -0.31205508 0
2.5680785 0.097249456 -0.36116275 0
3.0965583 0.11726224 -0.36216441 0
3.8677351 0.1464656 -0.36127448 0
5.1558452 0.19524448 -0.36070055 0
7.7641869 0.29401863 -0.36171812 0
15.541668 0.58854067 -0.3616097 0
0.85610604 0.054078467 -0.31224507 0
0.91474003 0.057782255 -0.30966979 0
0.99303186 0.062727794 -0.31056866 0
1.0829571 0.068408191 -0.31117123 0
1.1251413 0.071072869 -0.29507798 0
1.1385225 0.071918137 -0.27038339 0
1.4662775 0.092621744 -0.31229606 0
1.6338171 0.10320488 -0.30834439 0
1.8916132 0.11948933 -0.31150883 0
2.5701926 0.1623538 -0.36192107 0
3.0874946 0.19503072 -0.3615649 0
3.8662446 0.24422275 -0.36159584 0
5.1867619 0.32763711 -0.36332625 0
7.7414947 0.48901439 -0.36112094 0
15.515887 0.98010683 -0.36147031 0
0.84404916 0.074738979 -0.30843738 0
0.92804456 0.082176618 -0.31477568 0
0.9985714 0.088421635 -0.31289941 0
1.082021 0.095810942 -0.31149784 0
1.1943377 0.10575638 -0.31382543 0
1.3060783 0.1156508 -0.31076983 0
1.4520098 0.12857276 -0.30984974 0
1.6470793 0.14584582 -0.31144285 0
1.9018828 0.16840817 -0.31380004 0
2.5504744 0.22583976 -0.35983253 0
3.0873702 0.27338088 -0.36224297 0
3.871119 0.34278038 -0.36274534 0
5.1618595 0.45707306 -0.36227462 0
7.7425966 0.68559253 -0.36186427 0
15.504723 1.3729143 -0.36190224 0
0.85186481 0.097148381 -0.31209004 0
0.90742701 0.10348481 -0.30857024 0
0.98893964 0.11278068 -0.31067434 0
1.0839392 0.12361462 -0.31284863 0
1.1882324 0.13550843 -0.3130202 0
1.3112439 0.14953689 -0.31279734 0
1.4647274 0.16704047 -0.31336346 0
1.6448379 0.18758063 -0.31181493 0
1.8917694 0.2157412 -0.31293014 0
2.5533698 0.29119146 -0.36116287 0
3.0772445 0.35093516 -0.36197889 0
3.8469329 0.438712 -0.36140147 0
5.1316619 0.58522505 -0.36107689 0
7.7293024 0.8814652 -0.36216736 0
15.473977 1.7646836 -0.36210886 0
0.90913171 0.12699032 -0.31014103 0
0.98781848 0.13798152 -0.31131703 0
1.0716074 0.14968541 -0.31028095 0
1.180565 0.16490495 -0.31199738 0
1.3060681 0.18243562 -0.31256151 0
1.4277744 0.19943593 -0.30643705 0
1.6411351 0.22923881 -0.31211042 0
1.8750937 0.26191887 -0.31116611 0
2.5558467 0.35700855 -0.36267224 0
3.0866256 0.43114936 -0.36424643 0
3.8377078 0.53606284 -0.3616907 0
5.1221051 0.71547139 -0.3615599 0
7.700654 1.075651 -0.36198181 0
15.410067 2.1525254 -0.36176941 0
0.84531724 0.13990471 -0.31188259 0
0.90517163 0.14981095 -0.30998126 0
0.98231649 0.16257887 -0.31077728 0
1.0557747 0.1747366 -0.30687588 0
1.1692195 0.19351235 -0.31019098 0
1.2820736 0.21219033 -0.30800283 0
1.4386309 0.23810144 -0.30995819 0
1.6316147 0.27004132 -0.31149682 0
1.8566664 0.30728865 -0.3092967 0
2.5435808 0.42097682 -0.362324 0
3.0502055 0.50482601 -0.36133707 0
3.8247714 0.633021 -0.361862 0
5.1047449 0.84486377 -0.3617245 0
7.6487694 1.265914 -0.36092982 0
15.346688 2.5399625 -0.36167133 0
0.84448576 0.16175678 -0.31298244 0
0.8981747 0.17204061 -0.3089737 0
0.98660254 0.18897849 -0.31354237 0
1.0518861 0.20148322 -0.3071259 0
1.1649299 0.22313614 -0.31044817 0
1.2995968 0.24893089 -0.31362206 0
1.34831 0.25826165 -0.29180968 0
1.3402615 0.25671998 -0.25702876 0
1.3342402 0.25556666 -0.22327065 0
1.350039 0.25859281 -0.19317642 0
1.3494978 0.25848916 -0.16058753 0
1.3532718 0.25921208 -0.12861119 0
5.0889449 0.97476047 -0.36223286 0
7.6264706 1.4608101 -0.36150226 0
15.271922 2.9252558 -0.36153415 0
0.83840615 0.18263574 -0.31233811 0
0.89049327 0.19398223 -0.30791745 0
0.97364157 0.21209499 -0.31102553 0
1.0590894 0.23070867 -0.31083024 0
1.1645417 0.25368008 -0.31195167 0
1.2034529 0.2621564 -0.29192415 0
1.203836 0.26223981 -0.26189077 0
1.196137 0.26056269 -0.23057704 0
1.1963087 0.26060009 -0.20122586 0
1.2022203 0.26188788 -0.17291585 0
1.2188656 0.26551384 -0.14579359 0
1.2033302 0.26212963 -0.1149533 0
5.0722637 1.1049258 -0.36291492 0
7.5849524 1.652282 -0.3613959 0
15.208727 3.3130207 -0.36190236 0
0.82980818 0.20282142 -0.31094304 0
0.90528578 0.22126964 -0.31486323 0
0.9689244 0.23682417 -0.31132889 0
1.0539249 0.25759998 -0.31112361 0
1.1626852 0.28418311 -0.31327593 0
1.2026519 0.29395175 -0.29343602 0
1.2143502 0.29681107 -0.26572317 0
1.2101697 0.29578924 -0.23464645 0
1.1950142 0.29208496 -0.20218374 0
1.2127881 0.29642925 -0.17545602 0
1.1914473 0.29121312 -0.14334746 0
1.1938796 0.29180762 -0.11471753 0
5.0242853 1.2280341 -0.3615846 0
7.5500197 1.8453733 -0.36183539 0
15.11092 3.6934059 -0.36167797 0
0.82340944 0.22341774 -0.31055942 0
0.89236391 0.24212731 -0.31239492 0
0.96906805 0.26293966 -0.3134076 0
1.0446478 0.28344688 -0.31039795 0
1.150407 0.31214279 -0.31199101 0
1.1996698 0.3255094 -0.29461914 0
1.208957 0.32802933 -0.26626989 0
1.1991779 0.32537591 -0.23403297 0
1.2068691 0.32746282 -0.20552234 0
1.2095674 0.32819495 -0.17613234 0
1.2019893 0.32613873 -0.1455598 0
1.2046256 0.32685408 -0.11650567 0
4.9960012 1.3555775 -0.36189604 0
7.4909606 2.032541 -0.36134845 0
15.013311 4.0735993 -0.36168739 0
0.81696773 0.24396002 -0.31035331 0
0.8853038 0.2643663 -0.31215978 0
0.95416921 0.28493065 -0.31081593 0
1.045136 0.31209484 -0.3127839 0
1.1277878 0.33677602 -0.30806375 0
1.2187132 0.36392784 -0.30145559 0
1.2018573 0.35889441 -0.26661631 0
1.2028327 0.35918567 -0.2364402 0
1.2113678 0.36173439 -0.20777701 0
1.1992931 0.3581287 -0.17589644 0
1.2070303 0.36043915 -0.14722505 0
1.2115604 0.36179188 -0.11802191 0
4.9435401 1.4762226 -0.36067995 0
7.4423113 2.2223969 -0.36159226 0
14.892262 4.4470749 -0.36136007 0
0.81767267 0.26681873 -0.31307963 0
0.87849563 0.28666618 -0.31221089 0
0.94766837 0.30923828 -0.31114164 0
1.0284954 0.33561334 -0.31024003 0
1.1340761 0.3700659 -0.31223333 0
1.1960813 0.39029908 -0.29819915 0
1.2024344 0.39237222 -0.2688556 0
1.2167361 0.39703906 -0.2410662 0
1.1950629 0.38996679 -0.20660275 0
1.2062507 0.39361754 -0.17831714 0
1.1894873 0.38814741 -0.14623362 0
1.2080283 0.39419761 -0.11860926 0
4.9124584 1.6030082 -0.36124903 0
7.3770428 2.4072387 -0.361258 0
14.77654 4.8218045 -0.36138996 0
0.80893856 0.2867471 -0.31240702 0
0.87633204 0.31063628 -0.31412828 0
0.94066656 0.33344114 -0.31150666 0
1.0145923 0.35964587 -0.30868599 0
1.1170162 0.39595237 -0.31018901 0
1.2127824 0.42989892 -0.30497092 0
1.217175 0.431456 -0.27449888 0
1.1976681 0.42454129 -0.23933503 0
1.1933769 0.42302021 -0.20809078 0
1.204421 0.42693505 -0.17958237 0
1.2044864 0.4269582 -0.14935479 0
1.2094973 0.42873448 -0.11977778 0
1.4780905 0.52394354 -0.10963234 0
7.3149452 2.5929525 -0.36130679 0
14.661859 5.1972365 -0.36167812 0
0.81695527 0.31300831 -0.31845254 0
0.85573167 0.32786506 -0.30961153 0
0.92798775 0.35554928 -0.31018093 0
1.0200773 0.39083248 -0.31325617 0
1.1084217 0.42468074 -0.31067991 0
1.207925 0.46280447 -0.30658913 0
1.2067721 0.46236274 -0.27469707 0
1.1960191 0.4582428 -0.24123989 0
1.199329 0.45951101 -0.21108374 0
1.1853722 0.45416358 -0.17839445 0
1.1998466 0.45970932 -0.15017036 0
1.2011909 0.46022436 -0.12006725 0
4.8402915 1.8545096 -0.36236846 0
7.2567601 2.7803555 -0.36178371 0
14.528007 5.5662613 -0.36172661 0
0.78672743 0.32442018 -0.30976269 0
0.85548061 0.3527717 -0.31264257 0
0.9207077 0.37966916 -0.31085151 0
1.0011461 0.41283929 -0.31054345 0
1.0932051 0.45080134 -0.30950534 0
1.2140812 0.50064665 -0.31125972 0
1.2061311 0.49736831 -0.2773203 0
1.2098572 0.49890479 -0.2464924 0
1.2122078 0.49987409 -0.21550228 0
1.2001076 0.4948844 -0.18243375 0
1.2118173 0.49971309 -0.15319832 0
1.18944 0.49048546 -0.12009183 0
4.7795029 1.9709078 -0.36142653 0
7.1750622 2.9587567 -0.36131859 0
14.372632 5.9267945 -0.36146739 0
0.84388095 0.37317097 -0.31174615 0
0.91649598 0.40528193 -0.31278345 0
0.9861238 0.43607193 -0.30919918 0
1.0812601 0.47814196 -0.3094416 0
1.2098688 0.53501374 -0.31354177 0
1.21229 0.53608447 -0.28175762 0
1.2226192 0.54065204 -0.25179237 0
1.205066 0.5328899 -0.2165547 0
1.1905149 0.52645534 -0.18293712 0
1.2024767 0.53174496 -0.1536652 0
1.2006882 0.53095406 -0.12254149 0
4.7456613 2.0985696 -0.36275715 0
7.1013045 3.1402543 -0.36148041 0
14.231855 6.2934413 -0.36180645 0
0.84428489 0.399113 -0.31551614 0
0.91332889 0.43175167 -0.31532109 0
0.9791615 0.46287227 -0.31058028 0
1.0734451 0.5074423 -0.31077138 0
1.1835651 0.55949861 -0.31028584 0
1.3242872 0.62602115 -0.31136081 0
1.4978294 0.7080586 -0.31205159 0
1.7195556 0.81287372 -0.31259763 0
2.3243649 1.098781 -0.36131328 0
2.8018155 1.3244829 -0.36220214 0
3.5083172 1.6584625 -0.36221328 0
4.6810589 2.2128446 -0.36197284 0
7.0275278 3.3220747 -0.36187771 0
14.065338 6.6490102 -0.36172423 0
0.81769228 0.41209653 -0.30936664 0
0.88909918 0.44808382 -0.31076142 0
0.96101618 0.48432818 -0.30860379 0
1.0585464 0.53348106 -0.31025738 0
1.1754953 0.59242034 -0.31199074 0
1.3223298 0.66642123 -0.31475496 0
1.4750562 0.74339151 -0.3111169 0
1.6790082 0.84617835 -0.30901057 0
1.9899352 1.0028777 -0.31316239 0
2.7677383 1.3948711 -0.3622326 0
3.4745605 1.751092 -0.36317542 0
4.613008 2.3248413 -0.36113298 0
6.9254031 3.4902306 -0.36104003 0
13.892345 7.0013957 -0.36170462 0
0.76153648 0.40820816 -0.31451333 0
0.80793285 0.43307814 -0.30971107 0
0.89187092 0.47807163 -0.31584698 0
0.94933105 0.50887215 -0.30887741 0
1.0427194 0.55893129 -0.30965459 0
1.1501912 0.61653972 -0.30930629 0
1.2858081 0.68923473 -0.31010363 0
1.4473207 0.77581066 -0.30929843 0
1.6669178 0.89352179 -0.31083685 0
1.9686046 1.0552356 -0.31389689 0
2.7387943 1.4680822 -0.36317819 0
3.3979108 1.82139 -0.35985407 0
4.56002 2.4443181 -0.36169919 0
6.865469 3.6801133 -0.36264223 0
13.714908 7.351634 -0.36180058 0
0.74707371 0.42506167 -0.31287131 0
0.80543637 0.45826825 -0.31308815 0
0.87243861 0.49639043 -0.31330228 0
0.95333087 0.54241562 -0.31453288 0
1.0323889 0.58739716 -0.31089041 0
1.1429175 0.65028447 -0.31166464 0
1.2293537 0.69946396 -0.30065018 0
1.2074096 0.68697846 -0.26165044 0
1.6453015 0.93612534 -0.3111127 0
1.929484 1.0978163 -0.31197777 0
2.6968696 1.5344349 -0.3626388 0
3.3647535 1.91444 -0.36134464 0
4.4933267 2.5565629 -0.36141211 0
6.7509656 3.8410895 -0.36159965 0
13.52177 7.6934662 -0.36171272 0
0.79310173 0.47813341 -0.31288472 0
0.85134381 0.51324552 -0.31027994 0
0.93389994 0.56301576 -0.31271073 0
1.0168273 0.61300981 -0.31076443 0
1.1154245 0.67245054 -0.30869731 0
1.1331254 0.6831218 -0.28124359 0
1.1335135 0.68335575 -0.24929503 0
1.6289874 0.98205978 -0.31261519 0
1.8902668 1.139576 -0.31018841 0
2.6516149 1.5985663 -0.36186352 0
3.3124392 1.9969542 -0.36102423 0
4.4285131 2.6697965 -0.36150369 0
6.6513677 4.0098777 -0.3615706 0
13.337676 8.0408201 -0.36210164 0
0.78496927 0.50066036 -0.31456128 0
0.84758896 0.54059976 -0.31378427 0
0.91096818 0.58102363 -0.30984381 0
1.0014921 0.63876063 -0.31090578 0
1.0941306 0.69784623 -0.30758068 0
1.1400566 0.72713828 -0.28742746 0
1.1391782 0.726578 -0.25449297 0
1.5979117 1.0191623 -0.31148866 0
1.8753376 1.196107 -0.31259292 0
2.6090047 1.6640465 -0.36166495 0
3.266521 2.0834162 -0.36163551 0
4.3619452 2.7820873 -0.36168638 0
6.546484 4.175406 -0.36148262 0
13.121156 8.3687897 -0.36184251 0
0.70602292 0.47578603 -0.30990213 0
0.76921034 0.51836783 -0.31338918 0
0.83429742 0.56222975 -0.31401697 0
0.9013021 0.60738397 -0.31167093 0
0.9942764 0.67003894 -0.31381568 0
1.0867807 0.73237723 -0.31061187 0
1.1422336 0.76974678 -0.29278111 0
1.144595 0.77133811 -0.25996941 0
1.5813785 1.0656848 -0.31340912 0
1.8352824 1.2367896 -0.3110204 0
2.5570552 1.7231895 -0.3603777 0
3.2159803 2.1672363 -0.36198056 0
4.291759 2.8921995 -0.36180419 0
6.45432 4.3495407 -0.36233985 0
12.91056 8.7003756 -0.36197525 0
0.74807942 0.53205806 -0.31015238 0
0.81684786 0.58096838 -0.31286854 0
0.88221645 0.6274606 -0.3104485 0
0.97821957 0.69574112 -0.31419 0
1.0693023 0.76052207 -0.31100342 0
1.1837291 0.84190601 -0.30876559 0
1.1307704 0.80424011 -0.2613565 0
1.5487723 1.1015365 -0.31235746 0
1.8054645 1.2841042 -0.31136042 0
2.5227239 1.7942421 -0.36180624 0
3.1580598 2.2461133 -0.36172685 0
4.2283449 3.0073342 -0.36274141 0
6.3263178 4.4994798 -0.3614141 0
12.678732 9.0175209 -0.36174133 0
0.69258839 0.51939487 -0.31511897 0
0.74546456 0.55904847 -0.31481794 0
0.79972434 0.59973961 -0.31200823 0
0.86267471 0.64694816 -0.30921921 0
0.94271731 0.7069748 -0.30842 0
1.046647 0.78491509 -0.31007725 0
1.1007789 0.82551038 -0.29247028 0
1.1021774 0.82655919 -0.25948688 0
1.0885291 0.81632382 -0.22361934 0
1.0862784 0.81463599 -0.19081858 0
1.1029466 0.82713604 -0.16112609 0
1.0972396 0.82285613 -0.12801678 0
1.1031613 0.82729703 -0.096398614 0
1.0979474 0.82338685 -0.063891143 0
1.0915495 0.81858897 -0.031722747 0
0.66553646 0.5258584 -0.30875102 0
0.71920991 0.56826729 -0.30968866 0
0.77783841 0.61459124 -0.30942279 0
0.84685498 0.66912311 -0.30950359 0
0.93088162 0.73551482 -0.31052223 0
1.0351217 0.81787777 -0.31267869 0
1.100849 0.8698107 -0.29822677 0
1.0872614 0.85907471 -0.26099676 0
1.1008958 0.86984766 -0.23059651 0
1.1013358 0.87019533 -0.19725883 0
1.1020544 0.87076306 -0.16415404 0
1.0900099 0.86124641 -0.12966809 0
1.0987799 0.86817586 -0.097899325 0
1.1029503 0.87147099 -0.065441355 0
1.0827098 0.85547841 -0.03208312 0
0.6604256 0.54944575 -0.31271374 0
0.69906104 0.5815888 -0.30723542 0
0.76882583 0.63963008 -0.3121601 0
0.83772463 0.69695091 -0.31249598 0
0.91510129 0.761325 -0.3115688 0
1.0033733 0.83476347 -0.30935413 0
1.0947974 0.91082436 -0.30271861 0
1.100782 0.91580343 -0.269705 0
1.1020141 0.91682839 -0.23560265 0
1.1113685 0.92461085 -0.20317081 0
1.1024139 0.91716105 -0.16760221 0
1.0961418 0.91194296 -0.13309321 0
1.0915 0.90808117 -0.099261142 0
1.0882499 0.90537727 -0.065903962 0
1.1027932 0.91747665 -0.033353787 0
1.0980794 0.91355497 4.0778861e-05 0
1.1524049 0.95875144 0.140011 0
0.64750028 0.56693918 -0.31326914 0
0.69490397 0.60844493 -0.31205815 0
0.73760962 0.64583725 -0.30600649 0
0.81184071 0.7108326 -0.30943438 0
0.88626617 0.77599812 -0.30832133 0
0.97979635 0.85789138 -0.30866247 0
1.0545416 0.92333698 -0.2979365 0
1.0881642 0.95277625 -0.27241856 0
1.0929705 0.95698452 -0.23875697 0
1.0926461 0.95670056 -0.20409735 0
1.0955113 0.95920932 -0.17017923 0
1.1035861 0.96627939 -0.13691467 0
1.0983415 0.96168733 -0.10205811 0
1.1052403 0.96772784 -0.06839025 0
1.0939227 0.95781833 -0.033805884 0
1.0801615 0.94576919 4.0986855e-05 0
0.63682246 0.58662641 -0.315166 0
0.67031974 0.61748332 -0.3079187 0
0.73938704 0.68110657 -0.3137756 0
0.79771268 0.73483479 -0.31101945 0
0.86902356 0.80052471 -0.30925322 0
0.94546235 0.87093842 -0.30467409 0
1.0322328 0.95086938 -0.29831901 0
1.0896773 1.003786 -0.27905092 0
1.0934665 1.0072764 -0.24434105 0
1.1090518 1.0216334 -0.21191074 0
1.1003571 1.0136238 -0.17485039 0
1.0917692 1.005713 -0.13855362 0
1.1049505 1.0178553 -0.10502586 0
1.0980519 1.0115004 -0.069503009 0
1.0930904 1.00693 -0.034554534 0
1.1087134 1.0213217 4.3034677e-05 0
1.0919122 1.0058447 0.034602098 0
0.61883003 0.59961152 -0.31365123 0
0.6556685 0.63530594 -0.30845588 0
0.71442038 0.69223326 -0.31049591 0
0.79076725 0.76620907 -0.31575078 0
0.83997154 0.81388521 -0.30612719 0
0.83788306 0.81186163 -0.2765218 0
0.83891326 0.81285983 -0.24829903 0
0.84323782 0.8170501 -0.22115172 0
0.83148354 0.80566084 -0.19028269 0
0.83575737 0.809802 -0.16354454 0
0.84763217 0.82130796 -0.13794155 0
0.83745402 0.81144589 -0.10884356 0
0.84023511 0.81414062 -0.081791639 0
0.84598035 0.81970745 -0.054839782 0
0.83438152 0.80846888 -0.027012721 0
1.1004359 1.0662606 4.3744018e-05 0
1.1008676 1.0666789 0.035727657 0
1.0153147 0.98378295 0.065897599 0
1.0044615 0.97326684 0.09785831 0
1.0093933 0.9780454 0.13127138 0
1.0125303 0.98108506 0.16485827 0
1.0031391 0.97198552 0.19637983 0
0.60772008 0.6193307 -0.31584227 0
0.6427359 0.65501553 -0.31005043 0
0.69731319 0.71063554 -0.31075704 0
0.75836837 0.77285719 -0.31050387 0
0.83179855 0.84769028 -0.31084692 0
0.84381253 0.85993379 -0.28555056 0
0.83738005 0.85337842 -0.25413918 0
0.84081227 0.85687619 -0.22611549 0
0.84466231 0.86079979 -0.19820736 0
0.83954757 0.85558736 -0.16845821 0
0.83980334 0.85584801 -0.14013813 0
0.83540142 0.85136199 -0.11133405 0
0.84121072 0.85728222 -0.083966091 0
0.84905249 0.86527383 -0.056436624 0
0.83636826 0.85234725 -0.027764652 0
1.1044703 1.1255715 4.5019329e-05 0
1.1068053 1.1279511 0.036832545 0
0.94665766 0.96474379 0.063001797 0
0.95061904 0.96878088 0.094964646 0
0.95652854 0.97480327 0.12755534 0
0.94231766 0.96032089 0.15732259 0
0.95524895 0.97349918 0.19175351 0
0.96873802 0.98724598 0.22740392 0
0.58690685 0.62911439 -0.31317776 0
0.62325197 0.6680733 -0.30868712 0
0.68436843 0.73358494 -0.31313968 0
0.73900336 0.79214895 -0.31066209 0
0.81102407 0.86934906 -0.31118396 0
0.83944041 0.89980894 -0.29166341 0
0.84733856 0.90827513 -0.26403472 0
0.83880055 0.89912313 -0.23160346 0
0.82833272 0.88790244 -0.19957058 0
0.84274966 0.90335619 -0.1736203 0
0.84680796 0.90770638 -0.14508373 0
0.84106493 0.90155029 -0.11508463 0
0.83596253 0.89608097 -0.085672416 0
0.83903021 0.8993693 -0.057261027 0
0.83712226 0.89732409 -0.028532421 0
0.83565336 0.89574951 3.4972458e-05 0
1.1088353 1.1885775 0.037886333 0
0.93613291 1.0034552 0.06396649 0
0.93910789 1.006644 0.096322104 0
0.93567431 1.0029635 0.12810923 0
0.88237256 0.94582862 0.15125187 0
0.90947592 0.97488111 0.18744463 0
0.91150862 0.97705996 0.21968855 0
0.56136042 0.63302487 -0.30797333 0
0.62204045 0.70145142 -0.31675467 0
0.65755981 0.74150532 -0.30933779 0
0.72147417 0.81357908 -0.3118259 0
0.78817308 0.88879293 -0.31092426 0
0.85449654 0.96358335 -0.3052474 0
0.83012664 0.93610233 -0.26594877 0
0.8438524 0.95158035 -0.23955342 0
0.83610481 0.94284374 -0.20711046 0
0.84136295 0.94877315 -0.17821115 0
0.84557438 0.95352215 -0.14894816 0
0.83697945 0.94383001 -0.11774764 0
0.84201896 0.94951284 -0.088720836 0
0.83541995 0.94207144 -0.058618668 0
0.83359438 0.94001281 -0.029211516 0
0.84012061 0.94737214 3.614858e-05 0
1.1098965 1.2515882 0.038989492 0
1.0959212 1.2358288 0.0769917 0
1.0954781 1.2353292 0.11552174 0
0.85106832 0.95971745 0.14999016 0
0.55070603 0.6535092 -0.31107795 0
0.59853548 0.71026719 -0.31381404 0
0.64667344 0.76739132 -0.31322816 0
0.69847637 0.82886457 -0.31082878 0
0.72859633 0.86460721 -0.2959362 0
0.8503024 1.0090327 -0.312747 0
0.83619404 0.99229068 -0.27582827 0
0.8357119 0.99171853 -0.24427024 0
0.83718371 0.99346513 -0.21352078 0
0.84067142 0.99760389 -0.1833394 0
0.8444699 1.0021114 -0.15316008 0
0.83833408 0.99483025 -0.12143185 0
0.83866698 0.99522525 -0.090985328 0
0.83765769 0.99402761 -0.060516775 0
0.83879429 0.99537635 -0.030264454 0
0.83263308 0.988065 3.6887679e-05 0
0.84133369 0.99838978 0.030430665 0
1.1055695 1.3119519 0.0799703 0
1.1000984 1.3054594 0.11944546 0
0.79909188 0.94826245 0.14500171 0
0.53679198 0.67063159 -0.3126798 0
0.57677501 0.72058368 -0.3118411 0
0.62614274 0.78226036 -0.31274727 0
0.68605262 0.8571077 -0.31482652 0
0.72760379 0.90901893 -0.3047547 0
0.82731831 1.0335956 -0.31378832 0
0.85767323 1.0715189 -0.29174131 0
0.84516776 1.0558954 -0.25474244 0
0.83744508 1.0462472 -0.22025211 0
0.84192926 1.0518494 -0.18934312 0
0.82796198 1.0343996 -0.15485178 0
0.84021437 1.0497069 -0.12550181 0
0.84363252 1.0539774 -0.094379909 0
0.84602571 1.0569673 -0.063028529 0
0.83120483 1.0384511 -0.030926432 0
0.84351754 1.0538337 3.853596e-05 0
0.84034199 1.0498664 0.031343222 0
1.0993378 1.3734384 0.082000829 0
1.1047688 1.3802233 0.1236955 0
1.0973763 1.3709878 0.16401492 0
0.75923067 0.94853145 0.14206745 0
0.51222152 0.67411911 -0.30818006 0
0.56030357 0.73739845 -0.31289834 0
0.60475212 0.79589587 -0.31199709 0
0.66711533 0.87797016 -0.31620431 0
0.72006464 0.94765514 -0.31151569 0
0.73357737 0.96543884 -0.2873843 0
0.72706336 0.95686597 -0.2554473 0
0.72510141 0.95428389 -0.22574082 0
0.72917289 0.95964217 -0.19808301 0
0.71979147 0.94729561 -0.16719897 0
0.73163348 0.96288049 -0.14133584 0
0.72427177 0.953192 -0.11174147 0
0.7362892 0.96900779 -0.085080028 0
0.72364324 0.95236486 -0.055684082 0
0.73495454 0.96725124 -0.028244587 0
0.72829878 0.95849186 3.4366447e-05 0
0.7283172 0.95851606 0.028058281 0
0.73255128 0.96408838 0.056438837 0
0.72610193 0.95560062 0.083971724 0
0.73658496 0.96939701 0.11371129 0
0.72630203 0.95586401 0.14037542 0
0.49975592 0.69335765 -0.31110975 0
0.53399366 0.74085885 -0.30854952 0
0.58562303 0.81248903 -0.31260812 0
0.6412335 0.88964266 -0.31447926 0
0.69668597 0.96657693 -0.31185627 0
0.72193164 1.0016025 -0.29263219 0
0.85684812 1.1887847 -0.31148839 0
0.85149294 1.181355 -0.27428454 0
0.84937853 1.1784214 -0.23874097 0
0.831137 1.1531132 -0.19975998 0
0.83561939 1.1593322 -0.16702299 0
0.84290618 1.1694418 -0.13455537 0
0.84112227 1.1669668 -0.1005651 0
0.8411206 1.1669644 -0.066968992 0
0.83192807 1.1542108 -0.033080302 0
0.8434822 1.1702409 4.1182233e-05 0
0.83875203 1.1636783 0.033433594 0
0.84161407 1.1676491 0.067090645 0
1.1009436 1.527441 0.13173753 0
1.0968517 1.5217639 0.17520142 0
1.1086931 1.5381925 0.2217145 0
0.48169532 0.70514983 -0.31084687 0
0.52303785 0.76567084 -0.3132855 0
0.56246358 0.82338583 -0.3112396 0
0.61433667 0.89932245 -0.31232059 0
0.660447 0.96682298 -0.30645996 0
0.73998773 1.083262 -0.31093448 0
0.82133865 1.202351 -0.30951282 0
0.93019861 1.3617101 -0.31060919 0
0.8565734 1.2539308 -0.24957934 0
0.84806055 1.2414689 -0.21129104 0
0.84108418 1.2312562 -0.17427117 0
0.83605939 1.2239006 -0.1383494 0
0.8397001 1.2292302 -0.10407124 0
0.83312058 1.2195984 -0.068760931 0
0.83912116 1.2283827 -0.034588102 0
0.83387429 1.2207018 4.2203934e-05 0
0.83740842 1.2258753 0.034602314 0
0.83917338 1.2284591 0.069345623 0
0.83648413 1.2245222 0.10375774 0
1.0964729 1.6051177 0.18155405 0
1.0932417 1.6003876 0.22662993 0
0.46344799 0.71661144 -0.31064418 0
0.5040856 0.77944779 -0.31361702 0
0.55469972 0.85771042 -0.31882074 0
0.60108656 0.92943662 -0.3174091 0
0.64769417 1.0015041 -0.312172 0
0.71451068 1.1048199 -0.31184682 0
0.7869603 1.2168459 -0.30803308 0
0.88961947 1.3755838 -0.30855393 0
1.0333538 1.5978345 -0.31273845 0
0.84781379 1.3109412 -0.21940315 0
0.84374869 1.3046556 -0.1815881 0
0.84332275 1.3039969 -0.14495131 0
0.83328813 1.2884808 -0.10727286 0
0.84146523 1.3011247 -0.072137021 0
0.84022748 1.2992108 -0.035973866 0
0.8434025 1.3041203 4.4337929e-05 0
0.84064066 1.2998497 0.036079988 0
0.83803207 1.2958162 0.071931005 0
0.84195471 1.3018817 0.10847751 0
0.8459627 1.308079 0.14549479 0
1.089072 1.6839894 0.23450163 0
1.0986902 1.6988615 0.28444448 0
0.45456839 0.74336475 -0.3171671 0
0.48103368 0.78664398 -0.3115283 0
0.51999229 0.85035378 -0.31110874 0
0.56723255 0.92760676 -0.31179574 0
0.61924571 1.0126648 -0.31068024 0
0.68560374 1.1211815 -0.31148162 0
0.76322848 1.2481228 -0.31097522 0
0.86320931 1.4116234 -0.3116518 0
0.98419744 1.6094778 -0.31005672 0
1.1552252 1.8891628 -0.31119722 0
0.85087967 1.3914605 -0.19062027 0
0.84271538 1.3781092 -0.15077728 0
0.83509505 1.3656476 -0.11190701 0
0.83725321 1.369177 -0.074714616 0
0.83684784 1.3685141 -0.037296101 0
0.84300768 1.3785874 4.6131623e-05 0
0.83778852 1.3700523 0.037429765 0
0.83953393 1.3729066 0.075010218 0
0.84046811 1.3744344 0.11271946 0
0.83402216 1.363893 0.14931399 0
1.1025578 1.8030347 0.24712534 0
1.097837 1.7953147 0.29586038 0
0.43643817 0.75593156 -0.31772789 0
0.45855337 0.79423612 -0.30985293 0
0.50279427 0.87086344 -0.31386966 0
0.53746223 0.93090999 -0.30824828 0
0.60080093 1.0406156 -0.3145031 0
0.65221572 1.1296685 -0.3091678 0
0.72854918 1.2618816 -0.30972326 0
0.8268171 1.4320862 -0.31146315 0
0.94681758 1.6399329 -0.31122103 0
1.1075941 1.9184054 -0.31131026 0
1.3276944 2.2996294 -0.31034359 0
0.84882778 1.4702098 -0.1584595 0
0.84320951 1.4604788 -0.11789642 0
0.84200156 1.4583865 -0.078398064 0
0.83648181 1.4488261 -0.038897093 0
0.84395951 1.4617778 4.8187292e-05 0
0.83477861 1.445876 0.038913269 0
0.84478623 1.4632097 0.078754023 0
0.83409834 1.4446977 0.11671821 0
0.83549136 1.4471105 0.15606609 0
0.84080344 1.4563112 0.19663197 0
1.0983045 1.9023154 0.30882716 0
0.40806705 0.74987137 -0.31075287 0
0.44013551 0.80880094 -0.31110224 0
0.48466024 0.89062041 -0.31648085 0
0.51844132 0.9526971 -0.31103078 0
0.57381457 1.0544521 -0.31420779 0
0.62679678 1.151813 -0.31079981 0
0.69849122 1.2835602 -0.31061822 0
0.78815919 1.4483356 -0.31057191 0
0.91371185 1.6790534 -0.31416866 0
1.0573984 1.9430944 -0.31088692 0
1.2729313 2.3391616 -0.31124374 0
1.2931075 2.3762376 -0.25251335 0
0.84545058 1.5536152 -0.12365291 0
0.83593875 1.5361362 -0.081417531 0
0.8362183 1.5366499 -0.040675353 0
0.84457195 1.5520008 5.044273e-05 0
0.84636825 1.5553015 0.041270219 0
0.84292668 1.5489773 0.08219903 0
0.8504197 1.5627466 0.12448175 0
0.83925986 1.5422391 0.16398875 0
0.8393777 1.5424557 0.20533742 0
1.0991784 2.01987 0.32330459 0
0.38973856 0.76133782 -0.31132916 0
0.41847602 0.81747526 -0.31027737 0
0.45694798 0.89262861 -0.31299657 0
0.49780551 0.97244203 -0.31327534 0
0.54220557 1.0591756 -0.31143835 0
0.5994072 1.1709166 -0.31177315 0
0.66102225 1.291279 -0.30835059 0
0.75559348 1.4760199 -0.31231958 0
0.86560029 1.6909136 -0.31220064 0
1.0119717 1.9768441 -0.31210086 0
1.2098162 2.3633249 -0.31029719 0
1.2435123 2.4291487 -0.25471973 0
1.2472402 2.4364312 -0.19135022 0
0.85281318 1.6659346 -0.087128475 0
0.83542907 1.6319754 -0.042626925 0
0.84051466 1.6419098 5.2658681e-05 0
0.83394688 1.6290801 0.042655848 0
0.84160572 1.6440412 0.086089142 0
0.84304655 1.6468558 0.12944543 0
0.83199525 1.6252676 0.17053019 0
0.84327924 1.6473105 0.21639383 0
0.83757532 1.636168 0.25842249 0
0.36805674 0.7660411 -0.30935526 0
0.39376992 0.81955826 -0.30719799 0
0.43461514 0.90456986 -0.31323764 0
0.47548077 0.98962402 -0.31484425 0
0.51112723 1.0638155 -0.30891109 0
0.56352687 1.1728755 -0.30840948 0
0.63187236 1.3151238 -0.3101376 0
0.71801519 1.494414 -0.31227767 0
0.81603521 1.6984242 -0.30968603 0
0.95954198 1.9971066 -0.31137723 0
1.1511765 2.3959579 -0.31066808 0
1.436946 2.9907336 -0.30970576 0
2.2380893 4.6581631 -0.36128724 0
3.364773 7.0031438 -0.36170816 0
0.84743965 1.7637867 -0.045496657 0
0.83395678 1.7357246 5.4974913e-05 0
0.83910996 1.7464499 0.045160148 0
0.84086472 1.7501023 0.090502828 0
0.84080219 1.7499721 0.13583925 0
0.8393805 1.7470132 0.18102378 0
0.84194404 1.7523487 0.22732803 0
0.83954877 1.7473633 0.2725516 0
0.35293302 0.78469163 -0.31319004 0
0.38174081 0.84874123 -0.3144252 0
0.40695003 0.90479004 -0.30965859 0
0.44340593 0.98584402 -0.30998257 0
0.48872975 1.0866145 -0.31185028 0
0.54314029 1.207588 -0.31383258 0
0.60353565 1.3418676 -0.31275257 0
0.68205315 1.516439 -0.31318319 0
0.77723193 1.7280542 -0.31141266 0
0.91447586 2.0331948 -0.31330553 0
1.0945473 2.4335554 -0.31186181 0
1.3651074 3.0351038 -0.31063372 0
2.1230543 4.7202806 -0.36183384 0
3.1940899 7.1015615 -0.36251217 0
6.3790927 14.18292 -0.36157846 0
0.84812456 1.8856729 5.9027388e-05 0
0.83786118 1.8628539 0.047608171 0
0.83892041 1.865209 0.095330022 0
0.84042639 1.8685572 0.14335211 0
0.84053075 1.8687892 0.19138294 0
0.84020007 1.868054 0.23951097 0
0.83905917 1.8655174 0.28758636 0
0.8328141 1.8516326 0.33380178 0
0.33555844 0.79938883 -0.31557533 0
0.35386342 0.84299612 -0.30888984 0
0.38741034 0.92291379 -0.31241542 0
0.42108372 1.0031326 -0.3119776 0
0.46008363 1.0960407 -0.31112391 0
0.50434136 1.2014743 -0.30883732 0
0.56101459 1.336485 -0.30809978 0
0.64726967 1.5419673 -0.31498125 0
0.72948629 1.7378291 -0.30975762 0
0.86111826 2.0514112 -0.31266397 0
1.0340472 2.4633737 -0.31223911 0
1.2886986 3.0700204 -0.31077945 0
2.0102403 4.7889237 -0.36309087 0
3.0089905 7.16821 -0.36192241 0
6.0266685 14.357117 -0.36202633 0
0.99255425 2.3645263 7.3209492e-05 0
0.84817845 2.0205851 0.051075883 0
0.83919466 1.9991833 0.10106269 0
0.84045005 2.0021739 0.15192719 0
0.8382569 1.9969493 0.20227677 0
0.8448329 2.0126152 0.25523058 0
0.83852655 1.9975917 0.30458727 0
0.84146768 2.0045981 0.35743511 0
0.30761421 0.78795904 -0.30790016 0
0.3327826 0.85242826 -0.30916992 0
0.36102337 0.92476749 -0.30985978 0
0.39252207 1.0054519 -0.30951926 0
0.42654341 1.0925982 -0.30699298 0
0.48097509 1.2320257 -0.31347033 0
0.52790815 1.3522456 -0.30856323 0
0.60228652 1.5427672 -0.31194013 0
0.68999898 1.767444 -0.3118329 0
0.80950481 2.0735602 -0.31282619 0
0.96957159 2.4835742 -0.31159854 0
1.2127334 3.106437 -0.31126833 0
1.8839939 4.8258824 -0.36217248 0
2.8208852 7.2257447 -0.36111763 0
5.65273 14.479564 -0.36140132 0
0.92286253 2.3639281 7.2446732e-05 0
0.84880829 2.1742368 0.054401003 0
0.83777428 2.145973 0.1073801 0
0.84056389 2.1531186 0.16171971 0
0.84001499 2.1517127 0.21573696 0
0.83773899 2.1458826 0.26936382 0
0.84446555 2.1631129 0.32647169 0
0.84097379 2.1541686 0.38019893 0
0.28983197 0.80154455 -0.31025159 0
0.31398687 0.86834615 -0.31196964 0
0.33793098 0.93456471 -0.31018594 0
0.36951768 1.0219193 -0.31161836 0
0.40708557 1.1258152 -0.3133395 0
0.42944115 1.1876407 -0.29932413 0
0.43341765 1.1986378 -0.27092972 0
0.43351588 1.1989094 -0.24012496 0
0.64394099 1.7808503 -0.31123164 0
0.75106615 2.0771103 -0.31040311 0
0.90647244 2.5068941 -0.31155473 0
1.1344665 3.1374228 -0.31140494 0
1.7586551 4.863647 -0.36156037 0
2.6458998 7.3173656 -0.36224377 0
5.2928181 14.637548 -0.36189508 0
0.86411232 2.389745 7.2546456e-05 0
0.85030645 2.3515644 0.058282338 0
0.84029847 2.3238869 0.11518464 0
0.84150362 2.3272195 0.17314599 0
0.83606845 2.3121884 0.22963789 0
0.8380031 2.3175387 0.28816444 0
0.83540487 2.310353 0.34540194 0
0.27114853 0.81350017 -0.3121309 0
0.2872414 0.86178207 -0.30690902 0
0.31318545 0.93961942 -0.30914164 0
0.33806989 1.0142777 -0.30658868 0
0.3751156 1.1254224 -0.31049627 0
0.40546635 1.2164807 -0.30391678 0
0.40701166 1.2211169 -0.27360165 0
0.40232417 1.2070535 -0.23964603 0
0.60025471 1.8008851 -0.311986 0
0.69997823 2.1000757 -0.31109586 0
0.84426451 2.5329635 -0.31204703 0
1.0571368 3.171623 -0.31205186 0
1.6350807 4.905571 -0.36149406 0
2.4538543 7.3620567 -0.36127517 0
4.9178162 14.754438 -0.36160117 0
0.79136521 2.3742549 7.1447124e-05 0
0.85086936 2.5527794 0.062717132 0
0.83826822 2.5149734 0.12356794 0
0.83603489 2.5082731 0.18498763 0
0.83753127 2.5127623 0.24737997 0
0.83756614 2.512867 0.30972457 0
0.83809435 2.5144517 0.37263402 0
0.24915393 0.81555599 -0.31040806 0
0.2710281 0.88715672 -0.31340986 0
0.29416028 0.96287537 -0.31425029 0
0.31848782 1.0425067 -0.31259224 0
0.34661371 1.1345712 -0.31050792 0
0.3817437 1.2495623 -0.30967596 0
0.38073069 1.2462465 -0.27699089 0
0.38425153 1.2577713 -0.24771109 0
0.55233991 1.8079752 -0.3107003 0
0.64636344 2.1157424 -0.31090105 0
0.72789782 2.3826292 -0.29117072 0
0.72320116 2.3672554 -0.23104174 0
0.72296262 2.3664746 -0.17298703 0
0.72887081 2.385814 -0.11613834 0
0.72371417 2.3689346 -0.057591755 0
0.72878176 2.3855226 7.1210008e-05 0
0.84297502 2.7593114 0.067247123 0
0.83915526 2.7468083 0.13387541 0
0.84047997 2.7511446 0.20127107 0
0.83619016 2.7371025 0.26730326 0
0.83262682 2.7254388 0.33322892 0
0.22790249 0.81944394 -0.30959997 0
0.24758929 0.89022952 -0.31218842 0
0.26524666 0.95371825 -0.30897844 0
0.29138201 1.0476903 -0.31184205 0
0.32204247 1.1579326 -0.3145768 0
0.35220304 1.2663777 -0.31154105 0
0.39436665 1.4179808 -0.31284869 0
0.4378818 1.5744433 -0.30780333 0
0.50496191 1.8156359 -0.30972797 0
0.59524542 2.1402586 -0.31219652 0
0.66185588 2.3797624 -0.28868705 0
0.65470964 2.3540676 -0.22806923 0
0.66081142 2.3760068 -0.17240976 0
0.65867221 2.3683152 -0.11444083 0
0.6639201 2.3871846 -0.057609707 0
0.6595363 2.3714221 7.0269816e-05 0
0.81863171 2.9434638 0.071208879 0
0.81264526 2.9219391 0.14136638 0
0.80980074 2.9117115 0.21145539 0
0.80852515 2.907125 0.28182489 0
0.81302547 2.9233065 0.35479954 0
0.20603964 0.82049334 -0.30793366 0
0.22440352 0.89362216 -0.31129286 0
0.24695878 0.98344201 -0.316488 0
0.26535717 1.0567083 -0.31243333 0
0.28843147 1.148595 -0.30996364 0
0.31999418 1.2742845 -0.31140018 0
0.3572543 1.422662 -0.31179288 0
0.40111449 1.5973226 -0.31019825 0
0.45790529 1.8234755 -0.30899543 0
0.5119133 2.0385468 -0.29538128 0
0.60011488 2.3897841 -0.2879737 0
0.59422863 2.366344 -0.22773305 0
0.59816724 2.3820283 -0.17169651 0
0.59508985 2.3697736 -0.11374931 0
0.59682971 2.3767018 -0.056975063 0
0.59840184 2.3829625 7.0141912e-05 0
0.77198118 3.074192 0.073876597 0
0.76828641 3.0594788 0.14703572 0
0.76481748 3.0456648 0.21971159 0
0.76875907 3.0613608 0.29480213 0
0.76790524 3.057961 0.36867279 0
0.1858037 0.82779872 -0.30881706 0
0.20001471 0.89111209 -0.30856165 0
0.21944511 0.97767901 -0.31275138 0
0.23871738 1.0635414 -0.31257272 0
0.26165086 1.1657155 -0.31270212 0
0.2882399 1.2841758 -0.31194019 0
0.32169458 1.4332242 -0.31222883 0
0.35786876 1.5943885 -0.30777639 0
0.41678882 1.8568912 -0.31277567 0
0.46104419 2.054059 -0.2958487 0
0.55078429 2.4538722 -0.29392767 0
0.54861367 2.4442017 -0.23381893 0
0.54701811 2.4370928 -0.17461482 0
0.55315673 2.464442 -0.11758582 0
0.55262935 2.4620924 -0.058669027 0
0.55291528 2.463366 7.2074858e-05 0
0.717664 3.19736 0.07637687 0
0.71072191 3.1664314 0.1512655 0
0.71221429 3.1730804 0.22753403 0
0.71124834 3.1687768 0.3033208 0
0.7118206 3.1713264 0.38005331 0
0.16654211 0.8407228 -0.31197107 0
0.17994063 0.90836 -0.31286183 0
0.1925298 0.97191155 -0.30925348 0
0.21138921 1.067116 -0.3119559 0
0.23093186 1.1657693 -0.31105402 0
0.25853199 1.3050978 -0.31533697 0
0.28500873 1.4387553 -0.31176743 0
0.3202064 1.6164371 -0.31037366 0
0.36783141 1.8568532 -0.31110647 0
0.41280821 2.0839012 -0.29855114 0
0.41544059 2.0971897 -0.24986833 0
0.41339099 2.086843 -0.19857171 0
0.41308436 2.0852952 -0.1486146 0
0.41436741 2.0917721 -0.099274032 0
0.41434151 2.0916414 -0.049576599 0
0.41391599 2.0894933 6.0810806e-05 0
0.41731143 2.1066339 0.05005464 0
0.41475162 2.0937116 0.099488214 0
0.41304395 2.0850911 0.14872201 0
0.27047586 1.3653919 0.13000281 0
0.14662722 0.85250854 -0.31487092 0
0.15624943 0.90845323 -0.3114365 0
0.17043768 0.99094546 -0.31384119 0
0.18344475 1.0665702 -0.31034401 0
0.20476955 1.1905551 -0.31618777 0
0.22178964 1.289512 -0.31011987 0
0.24586879 1.4295111 -0.30832142 0
0.28004941 1.6282414 -0.31118396 0
0.32186344 1.8713533 -0.31207544 0
0.36705601 2.1341083 -0.30431998 0
0.45359778 2.6372728 -0.31275257 0
0.56630582 3.2925711 -0.31184235 0
0.87641859 5.0956049 -0.36146146 0
1.3159212 7.6509261 -0.36141622 0
2.6366014 15.329522 -0.36165163 0
0.58132768 3.37991 0.079934224 0
0.26159528 1.5209469 0.071935147 0
0.26283732 1.5281682 0.108491 0
0.23435701 1.3625803 0.12913083 0
0.12422307 0.85013437 -0.31273645 0
0.13526577 0.92570627 -0.31608015 0
0.14427289 0.9873476 -0.31144932 0
0.13700812 0.93763024 -0.27173313 0
0.13404863 0.9173767 -0.24266119 0
0.13639787 0.93345386 -0.22359091 0
0.13484484 0.92282563 -0.19824074 0
0.13575184 0.9290328 -0.17684247 0
0.13640267 0.93348676 -0.15504904 0
0.13769333 0.94231963 -0.13383488 0
0.14006943 0.95858061 -0.1132222 0
0.48183554 3.2974951 -0.31105787 0
0.7505284 5.1363244 -0.36289066 0
1.1242024 7.6936035 -0.36197662 0
2.2481544 15.385494 -0.36151835 0
0.50657713 3.4668169 0.081661172 0
0.2233907 1.5287989 0.072016925 0
0.27585241 1.8878266 0.13348785 0
0.20008822 1.3693259 0.12925035 0
0.10256557 0.85160118 -0.31222433 0
0.1095386 0.90949816 -0.30950341 0
0.10565835 0.87728047 -0.27580068 0
0.10759365 0.89334923 -0.25803098 0
0.14193596 1.1784931 -0.31068426 0
0.10759222 0.89333731 -0.21326339 0
0.11001488 0.91345268 -0.19556849 0
0.11087348 0.92058158 -0.17464548 0
0.10948521 0.90905482 -0.15048409 0
0.1135967 0.94319254 -0.13350914 0
0.11464451 0.9518925 -0.11205479 0
0.39959833 3.3178618 -0.31192836 0
0.61699647 5.1229172 -0.36072835 0
0.92986315 7.7206464 -0.36202949 0
1.8596375 15.440556 -0.36159417 0
0.42370623 3.5180297 0.082589298 0
0.42305151 3.5125935 0.16491176 0
0.23626864 1.9617368 0.13824835 0
0.16468211 1.3673543 0.12863097 0
0.082355931 0.86771756 -0.31727001 0
0.084781706 0.89327598 -0.30315822 0
0.087107763 0.91778374 -0.28775135 0
0.085504018 0.90088642 -0.25950202 0
0.086828142 0.9148376 -0.24052285 0
0.084987015 0.89543915 -0.21318519 0
0.087327115 0.92009485 -0.19645612 0
0.087358892 0.92042965 -0.17414293 0
0.08907143 0.93847334 -0.1549325 0
0.090551458 0.95406717 -0.13468206 0
0.093663439 0.98685557 -0.11585539 0
0.31472754 3.3160284 -0.3109102 0
0.48880672 5.1501594 -0.36166272 0
0.73442602 7.7380505 -0.36186117 0
1.4709091 15.497774 -0.36194947 0
0.34004498 3.5827775 0.083881125 0
0.33928698 3.5747912 0.16737653 0
0.18478164 1.946894 0.13683011 0
0.13186184 1.389321 0.13034284 0
0.05979703 0.8603211 -0.31391379 0
0.062203187 0.8949393 -0.3030934 0
0.062220782 0.89519244 -0.28008679 0
0.061370812 0.88296366 -0.25381234 0
0.075062595 1.0799522 -0.28334534 0
0.062891006 0.90483516 -0.21497583 0
0.063217722 0.90953583 -0.19379918 0
0.064830236 0.93273556 -0.1761055 0
0.065063983 0.93609864 -0.15422025 0
0.066491544 0.95663738 -0.13476507 0
0.18472841 2.6577532 -0.31136981 0
0.23098247 3.3232267 -0.31093949 0
0.35924327 5.16856 -0.36220282 0
0.53899789 7.7547531 -0.36189085 0
1.0783808 15.515048 -0.3616021 0
0.13478863 1.9392519 0.045308307 0
0.13220836 1.9021285 0.088875681 0
0.13252051 1.9066197 0.13372193 0
0.096581712 1.3895553 0.13009471 0
0.037845641 0.85645032 -0.3120535 0
0.040377248 0.91374081 -0.30901745 0
0.044063885 0.99716973 -0.31154615 0
0.047470119 1.0742531 -0.30835685 0
0.040250991 0.91088361 -0.23864454 0
0.04022973 0.91040248 -0.21598852 0
0.041078508 0.92961037 -0.19779266 0
0.040116064 0.90783018 -0.17115757 0
0.041534666 0.9399333 -0.15463005 0
0.042192765 0.95482612 -0.13431711 0
0.044736397 1.0123887 -0.11843668 0
0.1473912 3.3354764 -0.31163833 0
0.22868086 5.1750689 -0.36213917 0
0.34342867 7.7718225 -0.3621676 0
0.6862939 15.530893 -0.36145258 0
0.085565053 1.9363451 0.045175549 0
0.085862882 1.943085 0.090659216 0
0.08587753 1.9434164 0.13610733 0
0.061064404 1.381893 0.12919191 0
0.016113602 0.85127312 -0.30992028 0
0.017487498 0.9238553 -0.3121894 0
0.018785655 0.99243629 -0.30982047 0
0.017232141 0.91036493 -0.2611059 0
0.0173491 0.91654372 -0.23993632 0
0.017420985 0.92034143 -0.2181727 0
0.017805183 0.94063848 -0.19997981 0
0.017690007 0.93455374 -0.17605564 0
0.017765485 0.93854123 -0.15427814 0
0.018049341 0.95353717 -0.13402903 0
0.018992182 1.0033469 -0.11728548 0
0.063171618 3.3373234 -0.31156272 0
0.097798638 5.1666508 -0.36126229 0
0.14689326 7.760294 -0.36134252 0
0.29433554 15.549592 -0.36159971 0
0.069739558 3.684304 0.085887574 0
0.069850564 3.6901681 0.17203647 0
0.037062608 1.957998 0.13701941 0
0.031996552 1.6903609 0.15790451 0
0.031046666 1.6401789 0.19182242 0
0.030296294 1.6005373 0.22506447 0
-0.005459046 0.86553013 -0.31506062 0
-0.0057462109 0.91106004 -0.30781659 0
-0.0062395162 0.98927343 -0.30878392 0
-0.0057132295 0.9058308 -0.25976411 0
-0.0058268448 0.92384446 -0.24180904 0
-0.0058361436 0.92531884 -0.2193177 0
-0.005850188 0.92754555 -0.19716485 0
-0.0058579617 0.92877805 -0.17493974 0
-0.0060029733 0.95176959 -0.15642774 0
-0.006205115 0.98381913 -0.13826345 0
-0.016819485 2.6667244 -0.31167507 0
-0.021189997 3.3596678 -0.31359878 0
-0.032659072 5.1780863 -0.36200425 0
-0.049022593 7.7725177 -0.36185408 0
-0.09800297 15.538342 -0.36128056 0
-0.023412881 3.7121055 0.086521894 0
-0.023414377 3.7123425 0.17304268 0
-0.012272725 1.9458369 0.13614669 0
-0.010272625 1.6287216 0.15212226 0
-0.010306816 1.6341425 0.19108602 0
-0.010135554 1.606989 0.22593573 0
-0.026874047 0.85175979 -0.31019622 0
-0.029284043 0.92814344 -0.31373832 0
-0.027571643 0.87386972 -0.27289301 0
-0.028558822 0.90515792 -0.25969514 0
-0.02864339 0.90783828 -0.23773305 0
-0.028810257 0.91312701 -0.21653141 0
-0.02916229 0.92428452 -0.19656552 0
-0.029626053 0.93898326 -0.17694643 0
-0.030253697 0.95887613 -0.15767102 0
