# .PCD v0.7 - Point Cloud Data file format
VERSION 0.7
FIELDS x y z intensity
SIZE 4 4 4 4
TYPE F F F F
COUNT 1 1 1 1
WIDTH 1357
HEIGHT 1
VIEWPOINT 0 0 0 1 0 0 0
POINTS 1357
DATA ascii
-1.5241116 -0.37175128 -0.056007978 0
-1.4164448 -0.34548989 0.4850584 0
-1.5124574 -0.38914907 -0.055755358 0
-1.4006237 -0.36037472 0.48115635 0
-1.5044119 -0.40734264 -0.055643447 0
-1.4118249 -0.38227329 0.48661938 0
-1.5137841 -0.43040967 -0.056186099 0
-1.3754954 -0.39109048 0.47575724 0
-1.5049866 -0.44846505 -0.056064729 0
-1.3488759 -0.40194625 0.4682636 0
-1.4938986 -0.46572003 -0.055865712 0
-1.3345332 -0.41603816 0.46506631 0
-1.4870582 -0.48421368 -0.055833492 0
-1.3290341 -0.43275812 0.4650121 0
-1.4872925 -0.50508928 -0.05607665 0
-1.3201094 -0.44831336 0.46382791 0
-1.4816087 -0.52405685 -0.056106709 0
-1.3003489 -0.45994377 0.45888352 0
-1.4760962 -0.54311329 -0.056152485 0
-1.2890435 -0.47428939 0.45696533 0
-1.4726369 -0.56299269 -0.056286119 0
-1.2763447 -0.4879497 0.45460567 0
-1.4553986 -0.57750928 -0.055900764 0
-1.2752644 -0.50603116 0.45645431 0
-1.4455748 -0.59478605 -0.055806689 0
-1.2359974 -0.50855482 0.34099209 0
-1.2796582 -0.52651918 0.4603636 0
-1.4482802 -0.61733472 -0.056206778 0
-1.2305101 -0.52450943 0.34127331 0
-1.2527176 -0.53397548 0.45305461 0
-1.4570595 -0.64287519 -0.056857157 0
-1.1491191 -0.50700754 0.32044536 0
-1.2458236 -0.54967493 0.45302868 0
-1.4367843 -0.6556645 -0.056383684 0
-1.1840777 -0.540344 0.23473141 0
-1.1462716 -0.5230915 0.32146263 0
-1.4288204 -0.6738947 -0.056399696 0
-1.167169 -0.55048835 0.23273514 0
-1.1259152 -0.53103125 0.31760392 0
-1.1855754 -0.55916959 0.43610349 0
-1.4087992 -0.68626744 -0.055946074 0
-1.1570652 -0.56364042 0.23211725 0
-1.1161264 -0.54369795 0.3167488 0
-1.1987656 -0.58395398 0.44362509 0
-1.3897012 -0.69874984 -0.055532675 0
-1.1481509 -0.57729697 0.23176894 0
-1.1496695 -0.57806057 0.32830784 0
-1.1764475 -0.59152466 0.43808764 0
-1.3945158 -0.72331029 -0.056084581 0
-1.1500741 -0.59652281 0.23365495 0
-1.1644095 -0.60395831 0.33466235 0
-1.379949 -0.73795116 -0.055868026 0
-1.2400856 -0.66315681 0.35878393 0
-1.3766494 -0.75863028 -0.056116745 0
-1.130426 -0.62294394 0.32930043 0
-1.3570828 -0.77028155 -0.055710115 0
-1.1264126 -0.63935286 0.33045036 0
-1.3655939 -0.7980119 -0.056467541 0
-1.1145236 -0.65129399 0.3293424 0
-1.3423479 -0.80727106 -0.055922221 0
-1.1067269 -0.66557157 0.32948893 0
-1.3467187 -0.83316714 -0.056536898 0
-1.3207493 -0.84027803 -0.05588644 0
-1.3116591 -0.85788423 -0.055954468 0
-1.3086916 -0.87966752 -0.05629595 0
-1.283897 -0.88667327 -0.055705238 0
-2.1599348 -1.4916745 0.093714431 0
-1.2792188 -0.90744209 -0.055993602 0
-2.0277224 -1.4384094 0.088756874 0
-1.2737623 -0.92789936 -0.056261741 0
-2.0151825 -1.4680027 0.089010067 0
-1.2546029 -0.93834805 -0.055932947 0
-1.9866401 -1.4858564 0.088568762 0
-1.2430903 -0.95437902 -0.055951025 0
-1.9756583 -1.5168061 0.088923641 0
-1.2392839 -0.9765026 -0.056328695 0
-1.9412907 -1.5296538 0.088236734 0
-1.2186331 -0.98535258 -0.055949584 0
-1.9373658 -1.5664997 0.08894787 0
-1.1947557 -0.99118257 -0.055421971 0
-1.9025197 -1.5783515 0.08825352 0
-1.2013125 -1.0224303 -0.05631889 0
-1.8812494 -1.6011208 0.0881951 0
-1.1727024 -1.0238198 -0.05557761 0
-1.8571675 -1.6213872 0.088016301 0
-1.177085 -1.0540559 -0.056409881 0
-1.8334121 -1.6417836 0.087863281 0
-1.1587763 -1.0642529 -0.056170244 0
-1.8134403 -1.6655149 0.087904274 0
-1.1420377 -1.0757011 -0.056011025 0
-1.8013364 -1.6967036 0.088346198 0
-1.131838 -1.0933137 -0.056181535 0
-1.77145 -1.7111553 0.08793024 0
-1.1074191 -1.0970145 -0.055650719 0
-1.1070553 -1.1246227 -0.056339618 0
-1.0779103 -1.1229534 -0.055571612 0
-1.0653973 -1.1382654 -0.055661041 0
-1.0530171 -1.1538212 -0.055768896 0
-1.0449165 -1.1743056 -0.056118567 0
-1.0217049 -1.1777521 -0.055664036 0
-1.0055249 -1.1890219 -0.055593841 0
-1.0018638 -1.2154061 -0.056233134 0
-0.9801358 -1.2200263 -0.055871438 0
-0.96683168 -1.234998 -0.055995096 0
-0.93853909 -1.2304682 -0.05524949 0
-0.93495494 -1.2583159 -0.055966821 0
-0.92119145 -1.2729653 -0.056098014 0
-0.90508682 -1.2844584 -0.056097798 0
-0.88595593 -1.2915452 -0.055915639 0
-0.87211651 -1.3063322 -0.056075934 0
-0.85652441 -1.3186343 -0.056136578 0
-0.83590657 -1.3230674 -0.055872772 0
-0.82292187 -1.3395767 -0.056127902 0
-0.8011784 -1.3417742 -0.055792846 0
-0.78444827 -1.3521487 -0.055809066 0
-0.77372569 -1.3732148 -0.056271967 0
-0.75439364 -1.3792278 -0.056124639 0
-0.73772281 -1.39004 -0.05618215 0
-0.72177768 -1.4023577 -0.056308188 0
-0.69624716 -1.3956671 -0.055683102 0
-0.67917848 -1.4054812 -0.055729024 0
-0.66422254 -1.4198953 -0.055964485 0
-0.64839154 -1.4327865 -0.05614632 0
-0.5650304 -1.2485787 0.45594978 0
-0.62548023 -1.4298198 -0.05571701 0
-0.54871029 -1.2543272 0.45548975 0
-0.60820174 -1.4394146 -0.055788033 0
-0.53050178 -1.2555242 0.45346266 0
-0.59367955 -1.4559094 -0.056133144 0
-0.52640349 -1.2909251 0.46381772 0
-0.57055926 -1.4512091 -0.0556705 0
-0.50366431 -1.2810627 0.45795923 0
-0.55384731 -1.4625183 -0.055832375 0
-0.4851059 -1.2809962 0.4557156 0
-0.53303993 -1.4629303 -0.055587456 0
-0.47366637 -1.2999793 0.46031052 0
-0.51655763 -1.4751805 -0.055801347 0
-0.45760852 -1.3068341 0.46066085 0
-0.50004518 -1.4878242 -0.05603699 0
-0.44567698 -1.3260581 0.46542218 0
-0.48519212 -1.5061716 -0.056493431 0
-0.42797127 -1.3285421 0.46436569 0
-0.46483886 -1.5077814 -0.056329802 0
-0.4122059 -1.3370578 0.46549103 0
-0.44406584 -1.507569 -0.056108512 0
-0.40548813 -1.3766007 0.47744223 0
-0.42629716 -1.5174856 -0.056273337 0
-0.38876998 -1.3839005 0.051319569 0
-0.3876802 -1.3800212 0.15405095 0
-0.38498035 -1.3704106 0.25671893 0
-0.38756526 -1.379612 0.36560836 0
-0.3897866 -1.3875192 0.47948876 0
-0.40681252 -1.5214469 -0.056225814 0
-0.37564167 -1.4048704 0.051917672 0
-0.3727628 -1.3941035 0.15508668 0
-0.37474251 -1.4015075 0.2616396 0
-0.37433589 -1.3999869 0.3697294 0
-0.37389863 -1.3983514 0.48156688 0
-0.38324359 -1.5092009 -0.05559051 0
-0.36739644 -1.5271496 -0.056076784 0
-0.34601149 -1.5222958 -0.055734146 0
-0.32983884 -1.5406489 -0.056249563 0
-0.30688232 -1.5271053 -0.055609584 0
-0.2864936 -1.5248005 -0.055389892 0
-0.27024087 -1.5452645 -0.056005213 0
-0.24864876 -1.5354903 -0.055533085 0
-0.23132467 -1.5521153 -0.056024563 0
-0.21081609 -1.5479497 -0.055773959 0
-0.19216436 -1.5574154 -0.056023385 0
-0.1536579 -1.2453358 0.044797253 0
-0.1547537 -1.2542169 0.13581197 0
-0.17447603 -1.5772182 -0.056652211 0
-0.13432756 -1.2142864 0.043616042 0
-0.13462633 -1.2169871 0.13158658 0
-0.15401451 -1.5732774 -0.056436528 0
-0.11899193 -1.2155174 0.043602977 0
-0.11954237 -1.2211401 0.13186242 0
-0.13316964 -1.5630821 -0.056006208 0
-0.10282455 -1.2069058 0.043244187 0
-0.10254458 -1.2036197 0.12982078 0
-0.11307738 -1.5591114 -0.055808492 0
-0.085135773 -1.1738523 0.042018119 0
-0.085648231 -1.1809181 0.1272458 0
-0.093900874 -1.568153 -0.056085367 0
-0.07016547 -1.1717696 0.041908618 0
-0.070267029 -1.1734656 0.12633742 0
-0.073894203 -1.5638297 -0.05589303 0
-0.054404363 -1.5705984 -0.056106016 0
-0.034599908 -1.5700512 -0.056066461 0
-0.01489468 -1.5773901 -0.05631737 0
0.0049489047 -1.5714686 -0.056103732 0
0.024662154 -1.5666412 -0.055938043 0
0.044464521 -1.5689734 -0.056036863 0
0.063952155 -1.561839 -0.055806391 0
0.083573304 -1.5601777 -0.05578021 0
0.10290701 -1.5544069 -0.055615809 0
0.12465735 -1.5807154 -0.056608792 0
0.14142123 -1.5448366 -0.055383276 0
0.16320919 -1.5654528 -0.056191605 0
0.18199486 -1.5554762 -0.055911321 0
0.20348178 -1.5678242 -0.056442797 0
0.22331996 -1.5659338 -0.056471504 0
0.24247678 -1.5595088 -0.05634544 0
0.26012531 -1.5446439 -0.055922285 0
0.27696764 -1.526989 -0.05540498 0
0.30141711 -1.5503575 -0.056386121 0
0.31910467 -1.53772 -0.056068197 0
0.33587947 -1.5219725 -0.055643819 0
0.35254723 -1.5070678 -0.055256821 0
0.37676868 -1.5238384 -0.056041222 0
0.39611766 -1.5197098 -0.056068383 0
0.41796389 -1.5246061 -0.056438733 0
0.43015561 -1.4949923 -0.055538584 0
0.45453647 -1.5080074 -0.056230266 0
0.4743616 -1.5049361 -0.056334004 0
0.4858909 -1.476413 -0.055490941 0
0.50843149 -1.4818047 -0.05592978 0
0.52743387 -1.4763629 -0.055970628 0
0.54516977 -1.4674207 -0.055887446 0
0.56164289 -1.4553604 -0.05569306 0
0.58638781 -1.4643168 -0.056313898 0
0.60079587 -1.4472231 -0.055943023 0
0.6264618 -1.456966 -0.056620087 0
0.64300615 -1.4450277 -0.05646633 0
0.65762281 -1.429152 -0.056165099 0
0.67276996 -1.4148793 -0.055932689 0
0.69169796 -1.4086714 -0.056027155 0
0.71362162 -1.4082206 -0.056362163 0
0.72779316 -1.3924215 -0.056092173 0
0.74482626 -1.3823279 -0.056058943 0
0.76255244 -1.3735247 -0.056086902 0
0.77997696 -1.3641477 -0.056100611 0
0.79766166 -1.3551877 -0.056140747 0
0.82104319 -1.3555723 -0.056580499 0
0.82738054 -1.3280075 -0.055860396 0
0.85007048 -1.3269036 -0.056259762 0
0.86628067 -1.3154424 -0.056231868 0
0.87605011 -1.2944937 -0.0558035 0
0.90458214 -1.3010547 -0.056572884 0
0.90672708 -1.2697257 -0.055702675 0
0.92388237 -1.259899 -0.055777527 0
0.94276327 -1.2522713 -0.055960972 0
0.96238202 -1.245382 -0.056190193 0
0.97513264 -1.2295669 -0.056026217 0
0.99013269 -1.2166945 -0.056003343 0
1.0060072 -1.2048895 -0.056038622 0
1.0197687 -1.1905748 -0.055965647 0
1.0305578 -1.1729499 -0.055742748 0
1.0482621 -1.1632292 -0.055903655 0
1.0660796 -1.153459 -0.056074824 0
1.0833213 -1.1429012 -0.056220271 0
1.091724 -1.1230987 -0.055917975 0
1.1060914 -1.1095773 -0.055933792 0
1.129922 -1.1052929 -0.056430586 0
1.1376103 -1.0851222 -0.05612769 0
1.1423281 -1.0624764 -0.055695955 0
1.1573639 -1.0495945 -0.055780221 0
1.1861293 -1.0487689 -0.056525629 0
1.1953994 -1.0304397 -0.056344572 0
1.1948487 -1.004021 -0.055718284 0
1.2092113 -0.99038392 -0.05580207 0
1.2188609 -0.97290498 -0.0556776 0
1.232613 -0.95872438 -0.055749904 0
1.2641404 -0.95794576 -0.056625791 0
1.2541076 -0.92571771 -0.055649817 0
1.2695268 -0.91263038 -0.055819653 0
1.2813336 -0.89686459 -0.055837799 0
1.3000429 -0.88578242 -0.056162588 0
1.2977587 -0.86050165 -0.055591397 0
1.3284488 -0.85696787 -0.056439325 0
1.3295735 -0.83417511 -0.056036398 0
1.3354512 -0.81461078 -0.055847369 0
1.3387067 -0.7936433 -0.055561181 0
1.3528872 -0.77919734 -0.055738073 0
1.3743643 -0.76868594 -0.056219671 0
1.3755304 -0.74675786 -0.055878293 0
1.397822 -0.73622513 -0.056402773 0
1.3782303 -0.70388299 -0.055250213 0
1.4106764 -0.69819999 -0.056194 0
1.4224122 -0.68184763 -0.056315009 0
1.4186283 -0.65819716 -0.055832636 0
1.4283882 -0.64099395 -0.055894658 0
1.4488887 -0.62839794 -0.056382753 0
1.4430032 -0.60437405 -0.05585314 0
1.4613261 -0.59053242 -0.056270063 0
1.4568815 -0.56750321 -0.055819325 0
1.4712206 -0.55185592 -0.056098022 0
1.4854476 -0.53595597 -0.056378696 0
1.4886786 -0.51603144 -0.056250241 0
1.4912095 -0.49596626 -0.056105442 0
1.4924614 -0.47559741 -0.055922784 0
1.4975032 -0.45651528 -0.055891871 0
1.4956661 -0.43544993 -0.05561424 0
1.5165478 -0.42088974 -0.056189172 0
1.5165683 -0.40039921 -0.055998687 0
1.5335246 -0.38428789 -0.056441639 0
1.5183101 -0.36021975 -0.055710305 0
1.5260202 -0.34181181 -0.055830844 0
1.5338863 -0.32334673 -0.055965234 0
1.5380673 -0.30405334 -0.055973649 0
1.5377264 -0.28391582 -0.055826709 0
1.5467074 -0.26548031 -0.056026958 0
1.5518333 -0.24628681 -0.056095846 0
1.5570334 -0.22705187 -0.056176018 0
1.5525874 -0.2064739 -0.055917375 0
1.5646796 -0.18806429 -0.05626313 0
1.5576572 -0.16735262 -0.05593041 0
1.5745666 -0.1491403 -0.056465659 0
1.5714792 -0.12890571 -0.056292269 0
1.5800042 -0.10959607 -0.056543726 0
1.5758947 -0.089388944 -0.056351911 0
1.557562 -0.06868685 -0.055661015 0
1.573155 -0.049537487 -0.056191504 0
1.5750121 -0.029751286 -0.056239992 0
1.5682335 -0.0098733706 -0.055989068 0
1.5648198 0.0098518785 -0.055867195 0
1.5635214 0.029534232 -0.055829689 0
1.5749042 0.049592566 -0.056253981 0
0.88555086 0.02788534 0.29476365 0
1.582394 0.069781922 -0.056548413 0
0.91294253 0.040259812 0.30402586 0
1.5677959 0.088929556 -0.056062307 0
1.5190427 0.086164147 0.054318961 0
1.4916319 0.08460933 0.16056232 0
1.4948562 0.084792219 0.27002871 0
0.94321525 0.05350168 0.31430665 0
1.556954 0.1079972 -0.055718828 0
1.4809109 0.10272251 0.052997466 0
1.488492 0.10324837 0.16035156 0
1.4899414 0.1033489 0.26935461 0
0.94220239 0.065355316 0.31421843 0
1.5665591 0.12850213 -0.056116022 0
1.4696677 0.1205543 0.052645259 0
1.4628526 0.11999527 0.15773977 0
1.4757389 0.12105231 0.26704147 0
0.95713133 0.078511827 0.31950152 0
1.5565623 0.14743496 -0.055820007 0
1.4394892 0.136346 0.051621638 0
1.4516929 0.13750191 0.1567107 0
1.439593 0.13635582 0.26079077 0
0.98879761 0.093657248 0.3304396 0
1.5604955 0.16765755 -0.056032322 0
1.4320434 0.15385684 0.051420026 0
1.4269248 0.1533069 0.15423314 0
1.4162648 0.1521616 0.25689143 0
0.99351799 0.10674226 0.3324399 0
1.5502253 0.18632698 -0.055743378 0
1.4047596 0.16884296 0.05051269 0
1.42276 0.17100649 0.15400352 0
1.3965383 0.1678548 0.25367659 0
1.0132132 0.12178162 0.33951625 0
1.5367646 0.20436966 -0.055347506 0
1.3987356 0.18601361 0.050376311 0
1.3953661 0.1855655 0.15127926 0
1.3935504 0.18532404 0.25353765 0
1.0036294 0.13346964 0.33684134 0
1.5453 0.22534086 -0.055752691 0
1.385291 0.20200782 0.049979746 0
1.3838 0.20179039 0.15028889 0
1.3795757 0.20117439 0.25143611 0
0.99013096 0.14438424 0.33289474 0
1.550351 0.24605156 -0.056042265 0
1.3859487 0.21995977 0.050099429 0
1.3519 0.21455599 0.14710611 0
1.3592432 0.21572141 0.24820578 0
1.0020338 0.1590298 0.33754316 0
1.5571404 0.26727104 -0.056404874 0
1.3918318 0.23889711 0.050416838 0
1.3834974 0.23746657 0.15085778 0
1.3759193 0.23616588 0.25177404 0
1.0134878 0.1739573 0.34211227 0
1.5484622 0.285898 -0.056216471 0
1.3998941 0.25846735 0.05082275 0
1.4291022 0.26386014 0.15618049 0
1.4155825 0.26136395 0.25961348 0
0.99672621 0.18402906 0.33720976 0
1.5360838 0.30366123 -0.055901468 0
1.4203579 0.28078392 0.051689949 0
1.4256181 0.28182375 0.15617517 0
1.43156 0.28299838 0.26317638 0
1.3255074 0.26203334 0.344724 0
1.0058111 0.19883408 0.34110335 0
1.5330203 0.32316417 -0.055933636 0
1.4584146 0.30743709 0.053211577 0
1.4724597 0.31039786 0.16172199 0
1.4283626 0.3011021 0.26326475 0
1.3188168 0.27800956 0.34386712 0
0.9901889 0.20873407 0.33667004 0
1.5288193 0.34243879 -0.055933256 0
1.4842608 0.3324582 0.054303043 0
1.4652649 0.32820332 0.1613729 0
1.4170533 0.31740442 0.26189622 0
1.281455 0.28703189 0.33504131 0
1.0138005 0.22708021 0.34564295 0
1.5414714 0.36571476 -0.056560144 0
1.5130407 0.35896957 0.055516955 0
1.5029687 0.35657996 0.16600664 0
1.4264895 0.33843526 0.26440686 0
1.2800711 0.30369744 0.33565274 0
1.0060006 0.23867407 0.34398109 0
0.75616443 0.17940034 0.46088985 0
1.5323712 0.38399884 -0.056399185 0
1.4099668 0.35332543 0.2621482 0
1.2716783 0.31867149 0.33447769 0
1.0006455 0.25075305 0.34320247 0
0.77393669 0.19394179 0.47317323 0
1.5229591 0.4020865 -0.056234669 0
1.4185902 0.37453136 0.26460737 0
1.2446362 0.32860461 0.32842737 0
0.99787098 0.2634545 0.34336147 0
0.78259635 0.20661843 0.40498152 0
0.77814388 0.20544291 0.47728929 0
1.5046582 0.41759002 -0.055748656 0
1.4013904 0.38892993 0.26229182 0
1.2486213 0.34653172 0.3306042 0
0.99504328 0.27615583 0.3435578 0
0.82841825 0.22991215 0.3559593 0
0.78708184 0.21843998 0.40869367 0
0.80091822 0.22228001 0.49293604 0
1.4992964 0.43650687 -0.05574923 0
1.4136637 0.41157568 0.26553795 0
1.2199826 0.35518715 0.32417989 0
0.99703383 0.29027757 0.34547973 0
0.83720833 0.2437458 0.3610265 0
0.81877929 0.23838033 0.42667747 0
0.81656957 0.237737 0.5043714 0
1.501989 0.45788279 -0.056059297 0
1.4109622 0.43013322 0.26602679 0
1.2073718 0.36806846 0.32203493 0
0.9915958 0.30228895 0.34488705 0
0.84546667 0.25774133 0.36595824 0
0.82776272 0.25234428 0.43298042 0
0.827205 0.25217423 0.51286131 0
1.4952548 0.47648755 -0.056027453 0
1.3943366 0.44432831 0.26392615 0
1.1862825 0.37802842 0.31765437 0
0.9825933 0.31311953 0.34310004 0
0.87456423 0.27869427 0.38004196 0
0.8436957 0.26885754 0.4430503 0
0.84416145 0.26900595 0.52543271 0
1.4837563 0.49348739 -0.055825021 0
1.3871568 0.46135905 0.26364589 0
1.183574 0.39364874 0.31823123 0
0.97133952 0.32306099 0.34056395 0
0.89652038 0.29817665 0.39118358 0
0.85958463 0.28589207 0.45324856 0
0.8674342 0.28850278 0.54213661 0
1.4764971 0.51180887 -0.055789955 0
1.3810613 0.47872728 0.26361218 0
1.1662208 0.40425554 0.31490916 0
0.96807951 0.33557239 0.34087545 0
0.88148797 0.30555654 0.38627264 0
0.8809244 0.30536118 0.46649131 0
0.88256657 0.30593044 0.55395794 0
1.4733876 0.53160459 -0.055920966 0
1.1655284 0.42052767 0.316127 0
0.97312915 0.35110918 0.344183 0
0.89646667 0.32344905 0.3945899 0
0.89768541 0.32388878 0.47748896 0
0.91256785 0.32925841 0.57534552 0
1.4748173 0.55320501 -0.056235161 0
1.1577386 0.43426859 0.31547233 0
0.98267764 0.36860311 0.34917417 0
0.92795515 0.34807667 0.41034663 0
0.92608941 0.34737682 0.49488485 0
0.93024284 0.34893477 0.58921254 0
1.4549288 0.56674254 -0.055744506 0
1.1370027 0.44289991 0.31131706 0
0.96685714 0.37662262 0.34521046 0
0.94337046 0.36747378 0.41917634 0
0.94580692 0.36842287 0.50786036 0
0.94978839 0.36997375 0.60449553 0
1.4531109 0.58721262 -0.05595373 0
1.1295273 0.45645016 0.31081936 0
1.0033091 0.40544444 0.36001971 0
0.96853197 0.39139077 0.43251219 0
0.96503407 0.38997725 0.52078015 0
0.97064084 0.39224297 0.62086147 0
1.4361358 0.60149771 -0.055587325 0
1.1317008 0.47399104 0.31303504 0
1.0097117 0.42289826 0.36419919 0
0.97104061 0.40670159 0.43588489 0
0.99110842 0.41510662 0.53762931 0
0.98805207 0.41382653 0.63528121 0
1.4533882 0.6303494 -0.056557849 0
1.1066617 0.47997054 0.30775645 0
1.0461801 0.45373911 0.37938401 0
1.0240989 0.44416225 0.46217591 0
1.0230662 0.44371432 0.55795151 0
1.0208322 0.44274542 0.65988988 0
1.4138136 0.63445354 -0.055324331 0
1.0984514 0.49293369 0.30717504 0
1.0685966 0.47953627 0.38967192 0
1.0374169 0.46554428 0.47079462 0
1.0560143 0.47388992 0.57912898 0
1.0424474 0.46780172 0.67761666 0
1.4184231 0.65810192 -0.055824559 0
1.0720818 0.49741089 0.30152857 0
1.0759314 0.49919701 0.39460754 0
1.0719469 0.49734828 0.48926809 0
1.0761232 0.499286 0.59355783 0
1.4150478 0.67831743 -0.056023441 0
1.0717573 0.51375771 0.30323282 0
1.0937932 0.52432084 0.403548 0
1.1056079 0.5299843 0.5076378 0
1.1015973 0.52806181 0.61122775 0
1.4146482 0.70016581 -0.056352217 0
1.0620681 0.52565986 0.30234027 0
1.1323742 0.56045711 0.42035267 0
1.1345773 0.56154758 0.52414423 0
1.1455308 0.56696892 0.63951516 0
1.3959602 0.71293789 -0.055960964 0
1.7019441 0.86920846 0.34465656 0
1.0493721 0.5359301 0.30062333 0
1.1769001 0.60106063 0.43965605 0
1.1778954 0.60156894 0.54761207 0
1.1615491 0.59322065 0.65257621 0
1.3872976 0.73068196 -0.055978108 0
1.6942437 0.89234871 0.34534526 0
1.0470079 0.55145329 0.30191144 0
1.2132978 0.63903725 0.4562231 0
1.228343 0.64696145 0.57480741 0
1.2085445 0.63653368 0.68342787 0
1.3713133 0.74446851 -0.055706982 0
1.6667823 0.9048748 0.34204313 0
1.012822 0.54984814 0.29402694 0
1.2631718 0.68575984 0.47818577 0
1.2608907 0.68452144 0.59402472 0
1.3682799 0.76528293 -0.055970788 0
1.0181885 0.56947577 0.041649964 0
1.0213208 0.57122767 0.12576191 0
1.0213709 0.57125568 0.21105663 0
1.0085793 0.56410134 0.29483399 0
1.3047622 0.72975731 0.49736947 0
1.3134195 0.73459935 0.62308031 0
1.3611727 0.7839694 -0.056079429 0
0.99499887 0.57307106 0.040993307 0
0.99496061 0.57304901 0.12339478 0
1.0038475 0.57816738 0.20892344 0
1.0143436 0.58421272 0.29864588 0
1.3393306 0.77138942 0.51420873 0
1.3337017 0.76814741 0.63724029 0
1.3416717 0.7954011 -0.055684239 0
1.0038785 0.5951426 0.041664593 0
1.0044006 0.59545219 0.12548549 0
0.9942258 0.58942008 0.20844914 0
0.98188794 0.58210564 0.29122522 0
1.3783685 0.81715649 0.53310484 0
1.3781394 0.81702065 0.66333556 0
1.3240885 0.80767959 -0.05537219 0
0.97907358 0.5972243 0.040943976 0
0.9781636 0.5966692 0.12313648 0
0.98550606 0.60114801 0.20819154 0
0.97718823 0.59607428 0.29203439 0
1.4102755 0.8602528 0.54959142 0
1.4181521 0.86505741 0.68778336 0
1.3255421 0.83164579 -0.055866491 0
0.97146958 0.60950053 0.040943701 0
0.97706079 0.61300844 0.12395955 0
0.98311347 0.61680591 0.20931029 0
0.97484201 0.61161637 0.29361156 0
1.4555665 0.91322321 0.57167768 0
1.3096013 0.84480959 -0.055638589 0
0.95812213 0.61807418 0.040705949 0
0.96799505 0.62444311 0.12379716 0
0.95836222 0.61822909 0.20568176 0
0.94990659 0.61277443 0.28840247 0
1.4665486 0.94605458 0.58062369 0
1.3157805 0.87245136 -0.056363393 0
0.94461107 0.62634093 0.040463801 0
0.9470976 0.62798965 0.12212621 0
0.95727253 0.63473636 0.20714685 0
0.94856966 0.62896574 0.29037815 0
1.4777876 0.97987294 0.58991164 0
1.2854787 0.87585914 -0.055533405 0
0.9432041 0.64265084 0.040746953 0
0.93409711 0.63644582 0.12147363 0
0.95185548 0.64854544 0.20772538 0
0.94117194 0.64126623 0.29056245 0
1.5013876 1.0229684 0.60442656 0
1.2839874 0.89872205 -0.055953443 0
0.93883622 0.65713477 0.040912487 0
0.93496537 0.65442544 0.12264846 0
0.93963969 0.6576972 0.20685047 0
0.92998582 0.65094 0.28961658 0
1.5310341 1.0716414 0.62174487 0
1.2723283 0.9146443 -0.055942833 0
0.91086513 0.65479767 0.040049709 0
0.91485685 0.65766722 0.12108739 0
0.92098045 0.66206932 0.20456192 0
0.9185828 0.66034573 0.28863209 0
1.5307339 1.1004055 0.62720031 0
1.2592318 0.9295001 -0.055877198 0
0.91725832 0.67707288 0.040702455 0
0.91612762 0.6762383 0.12237296 0
0.90306121 0.66659331 0.20243016 0
0.89856142 0.66327178 0.28494284 0
1.559954 1.1514778 0.6450628 0
1.2446817 0.94320029 -0.055754162 0
0.88736016 0.67242759 0.03974833 0
0.90196246 0.68349302 0.12162083 0
0.90041459 0.68232006 0.20374671 0
0.91382748 0.69248408 0.29252583 0
1.5647988 1.1857799 0.65318882 0
1.2414829 0.96562332 -0.056151081 0
0.88764971 0.69041252 0.040147547 0
0.89224803 0.6939891 0.12147965 0
0.89351636 0.69497555 0.20414983 0
0.8928203 0.69443423 0.28857756 0
1.5670186 1.2188246 0.66046965 0
1.2117826 0.96725506 -0.055354264 0
0.87943375 0.70197141 0.040172558 0
0.87943667 0.70197374 0.12092928 0
0.86969042 0.6941942 0.20068741 0
0.87434125 0.69790655 0.28542262 0
1.5759116 1.257906 0.67084092 0
1.2213267 1.0003067 -0.056361157 0
0.93478626 0.76562065 0.12985566 0
0.93083823 0.7623871 0.21699582 0
0.9333812 0.76446986 0.30781385 0
1.5851407 1.2982824 0.68167466 0
1.1958354 1.0048501 -0.055764295 0
1.6298438 1.3695437 0.22878699 0
1.603061 1.3470384 0.37762782 0
1.5967885 1.3417677 0.53212452 0
1.587918 1.3343139 0.69003993 0
1.19142 1.0270095 -0.056157004 0
1.6098883 1.3877311 0.38332212 0
1.6025844 1.381435 0.53981012 0
1.1781422 1.0417066 -0.056144994 0
1.6167307 1.429504 0.38920653 0
1.5982755 1.4131861 0.54430962 0
1.1578188 1.050007 -0.055802144 0
1.6100693 1.4601456 0.39199811 0
1.6071287 1.4574789 0.55353111 0
1.1449034 1.0648717 -0.055821516 0
1.5963026 1.4847168 0.39316702 0
1.5930556 1.4816968 0.55506617 0
1.1357934 1.0833893 -0.056038052 0
0.60500348 0.57708925 0.34617496 0
0.60898972 0.58089161 0.42109016 0
1.1215781 1.0971309 -0.056013875 0
0.59523624 0.58226174 0.41661695 0
0.59528601 0.58231044 0.49385291 0
1.1080202 1.1115122 -0.056031328 0
0.57561046 0.57742453 0.40793729 0
0.58162481 0.58345777 0.48857591 0
1.0907258 1.1220717 -0.055866845 0
0.58853179 0.60544538 0.34959292 0
0.5875833 0.60446966 0.42178345 0
0.56906682 0.58542103 0.48418099 0
1.0756447 1.1348023 -0.055821888 0
0.58126348 0.61323148 0.34983468 0
0.58799005 0.62032795 0.42764866 0
0.55806333 0.58875537 0.48108858 0
1.0686067 1.1561931 -0.056207746 0
1.5750769 1.7041754 0.41851315 0
1.5771246 1.7063907 0.59282333 0
0.546637 0.59144109 0.47762069 0
1.0595827 1.1757914 -0.056507383 0
1.5629963 1.7344161 0.42107293 0
1.5588231 1.7297854 0.5940845 0
0.52166623 0.57887942 0.46213508 0
1.0256202 1.1673303 -0.055475678 0
1.5568242 1.7719307 0.42538747 0
1.5548342 1.7696657 0.60100931 0
1.0188742 1.1895305 -0.055916555 0
1.5482577 1.807583 0.42923209 0
1.5458966 1.8048265 0.60629135 0
1.0127726 1.2129925 -0.056415487 0
0.57659978 0.69059056 0.032118913 0
1.5432507 1.8483434 0.43426213 0
1.5366067 1.8403859 0.61168826 0
1.0030112 1.2325199 -0.056731772 0
1.5262792 1.8755219 0.43609753 0
1.5242846 1.873071 0.61612338 0
0.97265482 1.2264427 -0.055883855 0
1.5122796 1.906868 0.43892348 0
1.5027449 1.8948454 0.6170125 0
0.95482713 1.2356054 -0.055749085 0
1.4892346 1.9271617 0.43924338 0
1.489822 1.9279219 0.62162495 0
0.94964731 1.2614154 -0.056369599 0
1.4767736 1.9615966 0.44281834 0
1.4837177 1.9708205 0.62938291 0
0.92720252 1.2644267 -0.055977978 0
1.463639 1.9959654 0.44638094 0
1.4567975 1.9866357 0.62852538 0
0.9169454 1.2840348 -0.056330416 0
1.4401695 2.016726 0.44693273 0
1.4324205 2.0058751 0.62885582 0
0.8935737 1.2852213 -0.055884413 0
1.4278433 2.053658 0.45109701 0
1.4228719 2.0465076 0.63592684 0
0.87355536 1.2908072 -0.055644587 0
1.4055371 2.076889 0.45227635 0
1.4095924 2.0828815 0.64166313 0
0.85806531 1.3029674 -0.055698592 0
1.4428824 2.1910093 0.093660146 0
1.4516641 2.204344 0.28365505 0
1.387102 2.106307 0.45484287 0
1.3860132 2.1046534 0.64294273 0
0.83993983 1.3110904 -0.055589292 0
1.4010553 2.1869545 0.092725299 0
1.4069639 2.1961775 0.28030217 0
1.3585464 2.1206009 0.45419937 0
1.366255 2.1326334 0.64618343 0
0.8241747 1.3228619 -0.055643957 0
1.3727274 2.2033298 0.092679359 0
1.3683388 2.196286 0.27809483 0
1.3378631 2.1473701 0.45628846 0
1.3378038 2.147275 0.6454643 0
0.81298995 1.3422762 -0.056025527 0
1.3422518 2.2161069 0.092498519 0
1.3428319 2.2170646 0.27856269 0
1.3251886 2.1879349 0.46132562 0
1.3221749 2.1829591 0.65113455 0
0.79220086 1.34591 -0.055756405 0
1.3268617 2.2542722 0.093386717 0
1.3275363 2.2554183 0.28125897 0
1.2959749 2.201797 0.46077099 0
1.2950745 2.2002673 0.65138125 0
0.7807045 1.3654202 -0.05615294 0
1.2706356 2.2222896 0.46167454 0
1.2637055 2.2101691 0.6495502 0
0.75538051 1.3606064 -0.055559393 0
1.2465757 2.245357 0.46316898 0
1.2419442 2.2370145 0.65279204 0
0.74318731 1.3792862 -0.055935591 0
1.2198261 2.2638831 0.46378526 0
1.2196163 2.2634938 0.65598547 0
0.72499919 1.387076 -0.055876836 0
1.192432 2.2813735 0.46425548 0
1.1976215 2.291302 0.65962172 0
0.71408713 1.4091392 -0.056398928 0
1.173141 2.3150103 0.46805725 0
1.1684439 2.3057411 0.65949053 0
0.68658298 1.3982545 -0.055612847 0
1.1448872 2.33161 0.46846148 0
1.1370293 2.3156071 0.65816498 0
0.67139745 1.4119929 -0.05581858 0
1.1165309 2.3481379 0.4689202 0
1.1096054 2.3335731 0.65924788 0
0.65897977 1.432101 -0.056280993 0
1.0834966 2.3546648 0.46746197 0
1.0827426 2.3530262 0.66083938 0
0.63708478 1.4317207 -0.055946339 0
1.0578049 2.3772049 0.46925518 0
1.0569639 2.3753152 0.66330862 0
0.62003082 1.4420094 -0.056038853 0
1.0291262 2.393445 0.46986562 0
1.0232515 2.3797824 0.6609056 0
0.60119516 1.448185 -0.055980206 0
0.99178177 2.3890467 0.46651348 0
0.9989503 2.4063146 0.66472793 0
0.57825959 1.4440192 -0.055533301 0
0.96971422 2.4215524 0.47043923 0
0.967691 2.4165001 0.66412288 0
0.56614953 1.4670383 -0.056139942 0
0.9372558 2.4286697 0.46949184 0
0.93416899 2.420671 0.66198373 0
0.5476684 1.4741461 -0.056143586 0
0.90506262 2.4361358 0.46869487 0
0.90272683 2.4298487 0.66133249 0
0.52374154 1.4660277 -0.055578806 0
0.87596834 2.4519608 0.46958008 0
0.87785649 2.4572461 0.66572791 0
0.50706786 1.4778304 -0.055779774 0
0.84440225 2.460979 0.46923363 0
0.84662896 2.4674685 0.66555631 0
0.49004513 1.489036 -0.055965371 0
0.80985439 2.4607983 0.46721774 0
0.81479442 2.4758091 0.6649859 0
0.47418866 1.5043873 -0.056313463 0
0.78329217 2.4850338 0.46990922 0
0.78430152 2.488236 0.66561818 0
0.45167536 1.4985152 -0.055876322 0
0.7495181 2.4866626 0.46839538 0
0.74984521 2.4877479 0.66290921 0
0.43314758 1.5053908 -0.055924885 0
0.71367478 2.4803541 0.46547744 0
0.71839881 2.4967725 0.66285092 0
0.41460824 1.5123657 -0.055985607 0
0.55922085 2.0398688 0.07551302 0
0.68184501 2.4871645 0.46510735 0
0.68566209 2.5010884 0.66165209 0
0.39561766 1.5177915 -0.055997614 0
0.52179956 2.0018897 0.073858 0
0.65049005 2.4956124 0.46511847 0
0.64830345 2.4872234 0.65577251 0
0.37745097 1.526598 -0.05614271 0
0.48942342 1.9794698 0.072797686 0
0.61543781 2.4891341 0.46243012 0
0.61692613 2.4951537 0.65576321 0
0.35929805 1.5359262 -0.056314919 0
0.45563701 1.9477558 0.071414694 0
0.58698291 2.5092328 0.46475399 0
0.58658504 2.5075319 0.65702307 0
0.33567491 1.5210456 -0.05560993 0
0.42038044 1.9048722 0.06964276 0
0.5532614 2.5069964 0.4630127 0
0.55096138 2.4965744 0.65228242 0
0.32213292 1.5523126 -0.056600273 0
0.38923794 1.8756822 0.068390943 0
0.51696974 2.4912035 0.4588573 0
0.51577497 2.4854462 0.6476267 0
0.29852426 1.535478 -0.055844959 0
0.36006132 1.8519976 0.067356698 0
0.48711663 2.5055144 0.46032691 0
0.48245329 2.481528 0.64497167 0
0.27991366 1.5432311 -0.055994306 0
0.32848006 1.8109894 0.065709598 0
0.45132485 2.4882622 0.45607692 0
0.45305538 2.497803 0.64766753 0
0.25973111 1.542303 -0.055837534 0
0.29942942 1.7780347 0.064371966 0
0.30085951 1.7865267 0.19470027 0
0.41833818 2.4841239 0.45431688 0
0.41863158 2.4858663 0.64315456 0
0.14352609 0.85226887 0.43242884 0
0.23851861 1.5340515 -0.055425666 0
0.27330863 1.7578064 0.063509986 0
0.27208447 1.7499331 0.19032373 0
0.38638765 2.4850829 0.45356649 0
0.38736618 2.4913766 0.64326721 0
0.13470173 0.86634493 0.4386754 0
0.22041859 1.5455891 -0.055737823 0
0.24584514 1.7238818 0.062167503 0
0.24970976 1.7509807 0.19008061 0
0.3529934 2.4752123 0.4509179 0
0.35523981 2.4909642 0.64195484 0
0.1225975 0.85966152 0.43447512 0
0.20204957 1.556789 -0.056045525 0
0.22087146 1.7018116 0.061266437 0
0.22062401 1.6999049 0.18421981 0
0.31990963 2.4648993 0.44826972 0
0.32004035 2.4659064 0.63440824 0
0.11355016 0.87490231 0.44142023 0
0.18287131 1.5629671 -0.056180581 0
0.19840084 1.695695 0.060951464 0
0.19745798 1.6876366 0.18260634 0
0.28567693 2.4416275 0.44334814 0
0.28665733 2.4500067 0.62933916 0
0.10190748 0.87098426 0.43876117 0
0.1617541 1.5514961 -0.055690635 0
0.17267516 1.6562476 0.059450667 0
0.17302565 1.6596093 0.17932376 0
0.25654933 2.460743 0.44619715 0
0.25447232 2.4408212 0.62610686 0
0.094019882 0.90181011 0.45365745 0
0.1431928 1.5641885 -0.056077052 0
0.14998583 1.6383933 0.058737338 0
0.15070419 1.6462405 0.17766009 0
0.22363505 2.4429119 0.44241819 0
0.2244433 2.451741 0.62813318 0
0.082937606 0.90598172 0.45519453 0
0.12398368 1.572173 -0.056302872 0
0.12681967 1.6081347 0.057590738 0
0.12762716 1.6183742 0.17446554 0
0.19270377 2.4435768 0.44206414 0
0.19225371 2.43787 0.62390977 0
0.10384398 1.5685596 -0.056122191 0
0.10568405 1.5963539 0.057116654 0
0.10514142 1.5881575 0.1710518 0
0.16045068 2.4236019 0.43805027 0
0.15955682 2.4101002 0.61623979 0
0.084359214 1.5748492 -0.056304757 0
0.085332818 1.5930248 0.056954581 0
0.086718485 1.618893 0.17423072 0
0.12852311 2.3993173 0.43333411 0
0.12816808 2.3926895 0.61132687 0
0.063614883 1.553602 -0.055512074 0
0.066355653 1.6205372 0.057903748 0
0.066083536 1.6138915 0.17358914 0
0.097540393 2.3821306 0.42997414 0
0.097975984 2.3927686 0.61098343 0
0.044730034 1.5783422 -0.056371477 0
0.03873219 1.3667026 0.048812632 0
0.046666935 1.6466877 0.17703943 0
0.066919178 2.3613076 0.42602974 0
0.067186996 2.3707576 0.60509902 0
0.024755266 1.572556 -0.056149233 0
0.021537781 1.3681682 0.048851423 0
0.026113264 1.6588217 0.17829449 0
0.037293162 2.3690147 0.42730165 0
0.037010942 2.3510871 0.59991187 0
0.0049481085 1.5712157 -0.056094706 0
0.0042251605 1.3416518 0.047898937 0
0.0053183571 1.688784 0.18149333 0
0.0073681227 2.3396637 0.42195737 0
0.0073733223 2.3413148 0.59734732 0
-0.014539363 1.5397608 -0.054973897 0
-0.012882664 1.3643116 0.048709854 0
-0.016185865 1.71413 0.18422458 0
-0.021899922 2.3192654 0.41829515 0
-0.021863393 2.315397 0.59075826 0
-0.034383759 1.5602429 -0.055716205 0
-0.029841783 1.3541402 0.048356287 0
-0.038108043 1.7292409 0.18588543 0
-0.050435249 2.2886167 0.41284922 0
-0.05031113 2.2829843 0.58260381 0
-0.054504972 1.5735028 -0.056209769 0
-0.047490027 1.3709885 0.048975412 0
-0.060428854 1.7445191 0.1875947 0
-0.078336626 2.2614982 0.40810287 0
-0.078704916 2.2721305 0.58004087 0
-0.073618583 1.5579967 -0.055684555 0
-0.083923049 1.7760711 0.063478775 0
-0.083795555 1.7733729 0.19079578 0
-0.10632803 2.2502296 0.40627876 0
-0.10588694 2.2408948 0.57236189 0
-0.042538792 0.90025222 0.37315267 0
-0.093484461 1.5611989 -0.055836651 0
-0.10882666 1.817415 0.065000281 0
-0.10787734 1.8015614 0.19395933 0
-0.13331966 2.2264502 0.40225661 0
-0.13353308 2.2300143 0.56996715 0
-0.05268101 0.87977761 0.36491203 0
-0.11347304 1.5645667 -0.056003764 0
-0.13225684 1.8235579 0.065274365 0
-0.15870923 2.1882834 0.39569065 0
-0.15979457 2.2032483 0.56359559 0
-0.063763112 0.87916601 0.36496243 0
-0.06495171 0.89555442 0.4492588 0
-0.13302657 1.5614028 -0.055946037 0
-0.1569649 1.8423796 0.066013612 0
-0.18517411 2.173486 0.39340538 0
-0.18454951 2.1661546 0.55465752 0
-0.075390257 0.88489509 0.36770564 0
-0.07753361 0.91005278 0.45698553 0
-0.15288602 1.5617497 -0.056023009 0
-0.18374981 1.8770272 0.067332625 0
-0.21073318 2.1526656 0.39008623 0
-0.21093036 2.1546798 0.55235565 0
-0.087776117 0.89664394 0.37301743 0
-0.17160045 1.5512236 -0.055718511 0
-0.20933898 1.8923702 0.067972183 0
-0.23567855 2.1304731 0.38657185 0
-0.23375203 2.1130579 0.54239732 0
-0.097808339 0.88416207 0.36830795 0
-0.19183344 1.5547333 -0.055926908 0
-0.23701048 1.9208751 0.069097772 0
-0.26060069 2.1120644 0.38379663 0
-0.25991324 2.1064928 0.54150933 0
-0.10738157 0.87028474 0.36306167 0
-0.10587087 0.85804105 0.43256807 0
-0.2131855 1.5653474 -0.056400817 0
-0.26647675 1.9566468 0.070499666 0
-0.28495347 2.092315 0.38082966 0
-0.28378135 2.0837085 0.53652835 0
-0.1175385 0.86304456 0.36063012 0
-0.11753055 0.86298627 0.43577269 0
-0.23143466 1.5528533 -0.056051202 0
-0.29580367 1.984749 0.071640737 0
-0.30948871 2.0765712 0.37864342 0
-0.30510092 2.0471306 0.52805734 0
-0.30703351 2.0600977 0.69295269 0
-0.12946871 0.86869407 0.36364323 0
-0.13100496 0.87900186 0.44465765 0
-0.25128913 1.5517955 -0.056122784 0
-0.32544014 2.0097032 0.072683632 0
-0.33068627 2.0420995 0.37308753 0
-0.32932276 2.0336795 0.52561563 0
-0.32977438 2.0364685 0.68634695 0
-0.13842471 0.85481942 0.35853639 0
-0.14121817 0.87207007 0.44201559 0
-0.2702933 1.5455642 -0.056016073 0
-0.35884306 2.0519006 0.074367285 0
-0.35364807 2.0221951 0.37023526 0
-0.35361618 2.0220127 0.52370965 0
-0.35300174 2.0184994 0.68173492 0
-0.15049881 0.86056727 0.43711123 0
-0.28804395 1.5330518 -0.055689633 0
-0.38782194 2.0640988 0.074980438 0
-0.38557199 2.052124 0.22439936 0
-0.37611684 2.001801 0.3673394 0
-0.37402654 1.9906758 0.51677215 0
-0.37456989 1.9935676 0.67485392 0
-0.16203278 0.86238462 0.43903589 0
-0.31115893 1.5483865 -0.056384541 0
-0.40652162 2.0229294 0.073665038 0
-0.40410557 2.0109067 0.22043124 0
-0.39957604 1.988367 0.36576849 0
-0.39366335 1.9589442 0.50978118 0
-0.39744112 1.9777431 0.67113805 0
-0.17123002 0.85207337 0.43484968 0
-0.32970956 1.540045 -0.056227513 0
-0.42473844 1.9839168 0.072433405 0
-0.42724463 1.995623 0.21932819 0
-0.42017442 1.9625987 0.3619729 0
-0.41760448 1.9505947 0.50893646 0
-0.41957974 1.959821 0.66679627 0
-0.18222094 0.85113835 0.43550897 0
-0.34681302 1.5258222 -0.05586325 0
-0.45242435 1.9904649 0.072874703 0
-0.44841006 1.9728038 0.2174236 0
-0.44452465 1.9557097 0.36170605 0
-0.439509 1.9336431 0.50591743 0
-0.43804836 1.9272169 0.65752786 0
-0.36852038 1.5318215 -0.056248333 0
-0.47542337 1.9761828 0.072565243 0
-0.47357312 1.968492 0.21758837 0
-0.46126989 1.9173515 0.35565779 0
-0.45682204 1.8988631 0.49828318 0
-0.45865411 1.9064784 0.65237105 0
-0.38365707 1.5108291 -0.055650484 0
-0.50018281 1.9697037 0.072552852 0
-0.50289232 1.9803736 0.21958427 0
-0.4822464 1.8990707 0.35336524 0
-0.48126695 1.8952137 0.49887627 0
-0.47560015 1.8728981 0.64287865 0
-0.40629438 1.5195091 -0.056154203 0
-0.5290426 1.9785777 0.073119313 0
-0.52819806 1.9754192 0.21975499 0
-0.50483072 1.8880272 0.35246524 0
-0.50049162 1.8717993 0.49433264 0
-0.49909312 1.866569 0.64281249 0
-0.42781112 1.5228748 -0.056473188 0
-0.52147436 1.856287 0.34773812 0
-0.51765245 1.842682 0.48832569 0
-0.52141219 1.8560656 0.64140558 0
-0.4392505 1.4912213 -0.055500086 0
-0.53971386 1.8322866 0.34448797 0
-0.53624016 1.8204936 0.48419663 0
-0.53598261 1.8196193 0.63109303 0
-0.46241018 1.4999036 -0.056035493 0
-0.55791795 1.8096989 0.34153503 0
-0.55708545 1.8069985 0.48243487 0
-0.55706739 1.8069398 0.62907845 0
-0.48137149 1.4943112 -0.056048576 0
-0.5877791 1.8246301 0.34572235 0
-0.57689166 1.7908324 0.48002023 0
-0.57592452 1.7878301 0.62490076 0
-0.50328916 1.4974763 -0.05640053 0
-0.60850996 1.8105481 0.34447867 0
-0.59335357 1.7654521 0.47518224 0
-0.59452075 1.7689248 0.62086028 0
-0.51609188 1.4738504 -0.055751033 0
-0.63687193 1.8187729 0.34754184 0
-0.61239141 1.7488618 0.47275493 0
-0.61624676 1.7598718 0.62035722 0
-0.53310102 1.4630979 -0.055593822 0
-0.65065813 1.7857339 0.342767 0
-0.62904996 1.7264302 0.46879527 0
-0.62954575 1.727791 0.61179459 0
-0.55777037 1.4728779 -0.056227852 0
-0.67377609 1.7792085 0.34311581 0
-0.64628786 1.7066218 0.46558943 0
-0.64883077 1.7133366 0.60952115 0
-0.57697994 1.4675399 -0.056296974 0
-0.70161176 1.7845391 0.34582016 0
-0.66570139 1.6932018 0.46417838 0
-0.67030197 1.7049031 0.60947531 0
-0.5908224 1.4489027 -0.055862997 0
-0.71981502 1.7652377 0.34380904 0
-0.6805324 1.668903 0.45982984 0
-0.68404847 1.6775255 0.60271978 0
-0.61036801 1.4445415 -0.05598674 0
-0.74509233 1.7633898 0.34524912 0
-0.70177072 1.6608616 0.46001256 0
-0.70536631 1.6693712 0.60293347 0
-0.63129306 1.4431077 -0.056234811 0
-0.76467878 1.7480215 0.34409815 0
-0.71703058 1.6390998 0.45644975 0
-0.71584451 1.6363887 0.59422952 0
-0.643327 1.421595 -0.055707764 0
-0.78727692 1.7396891 0.34438211 0
-0.73769969 1.6301355 0.45650402 0
-0.73640758 1.6272802 0.59424222 0
-0.66434962 1.4201671 -0.055975191 0
-0.8124184 1.7366908 0.34578627 0
-0.75925171 1.6230375 0.4571574 0
-0.75432283 1.612501 0.59226686 0
-0.68427825 1.4160346 -0.056147479 0
-0.82682073 1.7110097 0.34271884 0
-0.77435124 1.6024301 0.45406348 0
-0.77254212 1.5986863 0.59071904 0
-0.69949549 1.4021785 -0.055942893 0
-0.8511548 1.7061882 0.34387264 0
-0.79497296 1.5935686 0.454353 0
-0.78580749 1.5751958 0.58564901 0
-0.71451759 1.3882519 -0.055741806 0
-0.86872166 1.6878583 0.34235594 0
-0.80630368 1.5665851 0.44951874 0
-0.7990756 1.5525415 0.58092129 0
-0.7340768 1.38317 -0.055904482 0
-0.89788651 1.6918253 0.3454265 0
-0.81982481 1.544739 0.44617707 0
-0.82442701 1.5534106 0.58508456 0
-0.75060481 1.3723007 -0.055842761 0
-0.91165918 1.6667501 0.3426235 0
-0.8374573 1.5310897 0.44524524 0
-0.83625191 1.528886 0.57976764 0
-0.76664084 1.3606406 -0.055756696 0
-0.92705351 1.6453425 0.34059554 0
-0.85518646 1.5177922 0.44447461 0
-0.84543633 1.5004876 0.5729903 0
-0.7814976 1.3470626 -0.055599142 0
-0.96742314 1.6675413 0.34768504 0
-0.86601084 1.4927375 0.44029608 0
-0.86378461 1.4889002 0.57267362 0
-0.81423825 1.3636464 -0.05670232 0
-0.97786605 1.6376822 0.34399948 0
-0.88811702 1.4873748 0.44197789 0
-0.88385469 1.4802364 0.57357663 0
-0.82289708 1.3395363 -0.056126211 0
-0.997482 1.6237309 0.34368008 0
-0.89495397 1.4568326 0.43621635 0
-0.90760952 1.4774338 0.57687342 0
-0.84369147 1.3353894 -0.056393124 0
-1.0236576 1.6202384 0.34564179 0
-0.9064132 1.434665 0.432962 0
-0.91068828 1.4414315 0.5672487 0
-0.84504789 1.3009659 -0.055384409 0
-1.0350596 1.5934922 0.34268937 0
-0.93358958 1.4372774 0.43726352 0
-0.93318152 1.4366492 0.56994587 0
-0.86825508 1.3005482 -0.055827647 0
-1.0640354 1.593805 0.34561068 0
-0.94952291 1.4222783 0.43630332 0
-0.95361513 1.4284079 0.57139492 0
-0.89118218 1.2991639 -0.056245483 0
-1.0766283 1.5695071 0.34325436 0
-0.95973802 1.3991046 0.43286747 0
-0.96628398 1.4086473 0.56831253 0
-0.90836221 1.2891067 -0.056300811 0
-1.0962698 1.5557768 0.34324339 0
-0.97819132 1.3882051 0.43327183 0
-0.97712195 1.3866875 0.56437224 0
-0.91605484 1.2658672 -0.055785209 0
-1.1126612 1.5375513 0.34228638 0
-0.98778355 1.3649869 0.42987326 0
-1.0008445 1.3830353 0.5679701 0
-0.9347977 1.2581042 -0.055957407 0
-1.128394 1.5186572 0.34121633 0
-1.0068188 1.3550342 0.43069744 0
-1.0095959 1.3587719 0.56318206 0
-0.95019954 1.2457556 -0.055935912 0
-1.1572999 1.5172738 0.34415251 0
-1.0136752 1.3289751 0.42643788 0
-1.0158288 1.3317986 0.5572598 0
-0.97185165 1.2414104 -0.056285836 0
-0.58966124 0.75321329 0.034150865 0
-0.59441292 0.75928289 0.10363057 0
-0.58803421 0.75113493 0.17204054 0
-1.041024 1.3297687 0.43086469 0
-1.0347322 1.3217318 0.55845529 0
-0.97696877 1.216084 -0.055690903 0
-0.59090996 0.73553646 0.033684097 0
-0.59750891 0.74375057 0.10252942 0
-0.59648514 0.74247622 0.17176408 0
-1.047694 1.3041195 0.42679477 0
-1.0487347 1.3054147 0.55709654 0
-0.49567848 0.61699688 0.46936375 0
-0.99812448 1.2108697 -0.056023251 0
-0.60814995 0.73777407 0.034134559 0
-0.60442555 0.73325574 0.10212379 0
-0.60367537 0.73234576 0.17116547 0
-1.0695535 1.2975234 0.42900974 0
-1.0684369 1.2961688 0.55884808 0
-1.0054897 1.1889803 -0.055591892 0
-0.60748541 0.71834475 0.10110444 0
-0.62548739 0.73963183 0.1746954 0
-1.0836902 1.2814515 0.42817372 0
-1.088833 1.2875328 0.56099159 0
-1.0216532 1.1776925 -0.05566122 0
-0.61983949 0.71450901 0.10165506 0
-0.62103051 0.71588188 0.17091936 0
-1.1060439 1.2749726 0.43062842 0
-1.101344 1.2695547 0.55915666 0
-1.0524062 1.1827227 -0.056520808 0
-0.63808143 0.71709323 0.10315768 0
-0.63252938 0.7108537 0.17160691 0
-1.1112913 1.2488995 0.42651466 0
-1.1158003 1.2539667 0.55843514 0
-1.1111338 1.2487224 0.6920628 0
-1.0580115 1.1592937 -0.056033403 0
-0.63497114 0.6957562 0.10123044 0
-0.63900405 0.70017517 0.17095795 0
-1.1239617 1.2315573 0.42539185 0
-1.1242275 1.2318485 0.55484557 0
-1.1251378 1.232846 0.69106114 0
-0.52658302 0.57699221 0.46326482 0
-1.0748882 1.1484056 -0.056156892 0
-0.64126539 0.68512493 0.1008505 0
-0.65247059 0.69709653 0.17219867 0
-1.1387104 1.2165929 0.42514208 0
-1.1436181 1.2218362 0.55677801 0
-1.1420394 1.2201495 0.69195044 0
-0.55947489 0.59774035 0.48554137 0
-1.0859801 1.1313604 -0.055987649 0
-0.58771825 0.61227751 0.35139349 0
-0.57386982 0.59785038 0.41463432 0
-0.55722618 0.58051121 0.47720805 0
-1.1001911 1.1176496 -0.05599029 0
-0.58280194 0.59205019 0.41566846 0
-0.57329261 0.58239001 0.48464844 0
-1.1118245 1.1013786 -0.055872101 0
-0.57904255 0.5736022 0.4078033 0
-0.58707452 0.5815587 0.49006972 0
-1.129902 1.0914437 -0.056085438 0
-0.60933644 0.58859652 0.35076854 0
-0.61574221 0.5947842 0.42834109 0
-1.1362535 1.0702528 -0.055727333 0
-0.61098027 0.57549077 0.34751567 0
-0.60690063 0.57164806 0.4171499 0
-1.1519587 1.0579915 -0.055839773 0
-0.6981743 0.64122307 0.10187582 0
-0.69842929 0.6414572 0.17102447 0
-1.2282469 1.1280568 0.42547444 0
-1.2286423 1.12842 0.55500066 0
-1.2398233 1.1386889 0.6969806 0
-1.1585203 1.0374316 -0.055520196 0
-0.70367324 0.63012516 0.10151235 0
-0.70426637 0.6306563 0.17049567 0
-1.2505282 1.1198229 0.42827418 0
-1.2497629 1.1191375 0.55813116 0
-1.2479912 1.117551 0.69360626 0
-1.181147 1.0311923 -0.055977821 0
-0.70830017 0.61837661 0.10104851 0
-0.71890169 0.6276322 0.17211179 0
-1.2640586 1.1035777 0.42811486 0
-1.2591048 1.0992528 0.55607736 0
-1.1977962 1.0194377 -0.056154042 0
-0.72910094 0.6205337 0.10289311 0
-0.71497977 0.60851526 0.16932493 0
-1.2834102 1.0923033 0.42997643 0
-1.2722186 1.0827781 0.55580324 0
-1.1982249 0.9940607 -0.055582903 0
-0.72549194 0.60187614 0.10130619 0
-0.74058098 0.61439419 0.17354196 0
-1.3032202 1.0811659 0.43201786 0
-1.2904844 1.0706002 0.55784935 0
-1.2208061 0.98710966 -0.056049354 0
-0.74649096 0.60359174 0.10316895 0
-0.72695524 0.58779567 0.16860121 0
-1.3116751 1.0605838 0.43035933 0
-1.3131613 1.0617855 0.5618279 0
-1.2397397 0.9768616 -0.056349404 0
-0.74383605 0.58611089 0.033809289 0
-0.74669683 0.58836508 0.10216536 0
-0.75210142 0.59262365 0.17268887 0
-1.3269346 1.0455674 0.43101203 0
-1.3276356 1.0461199 0.56234008 0
-1.2510041 0.96045488 -0.056307226 0
-0.74475867 0.5717864 0.033521309 0
-0.75327617 0.57832569 0.10206108 0
-0.75909656 0.58279425 0.17259631 0
-1.336293 1.0259352 0.42982152 0
-1.344134 1.031955 0.56377941 0
-1.2569026 0.94006795 -0.056035466 0
-0.76266509 0.57041579 0.03400128 0
-0.76559776 0.57260919 0.10274544 0
-0.76170003 0.56969398 0.17154357 0
-1.3425457 1.0041226 0.42773178 0
-1.3536228 1.0124074 0.56236768 0
-1.2691343 0.92452794 -0.056057319 0
-0.7743715 0.56410748 0.034203783 0
-0.78671473 0.57309914 0.10460262 0
-0.76838696 0.55974787 0.17144856 0
-1.3715819 0.99915814 0.43293986 0
-1.3695333 0.99766582 0.56371379 0
-1.2753755 0.90471572 -0.055825371 0
-0.78193593 0.55468351 0.034226678 0
-0.78132999 0.55425364 0.10295052 0
-0.77022111 0.54637331 0.17030919 0
-1.3812276 0.97980428 0.43205583 0
-1.3868589 0.98379892 0.56570125 0
-1.293 0.89295989 -0.056100193 0
-0.79982847 0.55237025 0.034702655 0
-0.79366577 0.54811424 0.10365828 0
-0.78844988 0.54451209 0.17281006 0
-1.3909503 0.96060544 0.43127918 0
-1.3919333 0.96128434 0.5627889 0
-1.3032087 0.87598205 -0.056060091 0
-0.79560804 0.53478646 0.034224648 0
-0.79713601 0.53581351 0.10322212 0
-0.78721011 0.5291416 0.17106438 0
-1.4230354 0.95652634 0.43745822 0
-1.419101 0.9538818 0.56887186 0
-1.3276513 0.86834377 -0.05663668 0
-0.81377822 0.53224766 0.034715213 0
-0.80441922 0.52612644 0.10329915 0
-0.80595809 0.52713293 0.17368221 0
-1.4358654 0.93912077 0.43773228 0
-1.4348994 0.93848896 0.57042235 0
-1.3332647 0.84824055 -0.056416024 0
-0.81370097 0.51768726 0.034431104 0
-0.81920063 0.52118623 0.10434626 0
-0.82780302 0.52665913 0.17694658 0
-1.4544473 0.92533845 0.43981001 0
-1.4380072 0.91487908 0.56703317 0
-1.3312886 0.82362115 -0.055889126 0
-0.83006567 0.51353222 0.03484717 0
-0.82885242 0.51278162 0.10474488 0
-0.82151139 0.50824004 0.17421991 0
-1.4583633 0.90223777 0.43752399 0
-1.4557245 0.9006052 0.56950241 0
-1.3399751 0.80584413 -0.055823375 0
-0.85233641 0.51258433 0.035508338 0
-0.84699661 0.50937307 0.10621883 0
-0.85770553 0.51581329 0.18050392 0
-1.4770442 0.88827574 0.43973786 0
-1.4736596 0.8862403 0.57210767 0
-1.355917 0.79235697 -0.0560674 0
-0.90012908 0.52600831 0.037220493 0
-0.90648228 0.5297209 0.11283327 0
-0.90273225 0.52752954 0.18856686 0
-1.4993745 0.87618923 0.44306606 0
-1.4992567 0.87612045 0.57771629 0
-1.361692 0.77289766 -0.055899326 0
-0.96861708 0.549788 0.039763063 0
-0.96971941 0.55041367 0.11983241 0
-1.4975325 0.85000086 0.31055108 0
-1.5085934 0.85627908 0.44256899 0
-1.5091045 0.85656917 0.57730895 0
-1.3635865 0.7514317 -0.055584259 0
-1.0574427 0.58272499 0.043104831 0
-1.0436679 0.5751341 0.12806544 0
-1.5222378 0.83885968 0.31345898 0
-1.5289361 0.84255093 0.44538903 0
-1.520237 0.83775705 0.57748628 0
-1.3771822 0.73647165 -0.055756014 0
-1.1387589 0.60897064 0.046103306 0
-1.1364927 0.60775876 0.13850564 0
-1.5438253 0.8255868 0.3157385 0
-1.5440941 0.82573056 0.4467403 0
-1.5369684 0.82191992 0.57986444 0
-1.400193 0.72625494 -0.056312904 0
-1.5556451 0.80688518 0.31605282 0
-1.5459933 0.80187893 0.44433314 0
-1.5467424 0.80226749 0.57969469 0
-1.4155937 0.71176875 -0.056567341 0
-1.5652051 0.78699422 0.31595665 0
-1.5782027 0.79352951 0.45068279 0
-1.5786494 0.7937541 0.58786029 0
-1.4045837 0.684214 -0.055778671 0
-1.5827982 0.77102757 0.44918698 0
-1.4147872 0.66727602 -0.055845764 0
-1.6048506 0.75691837 0.45270449 0
-1.4394497 0.65688086 -0.056488283 0
-1.6302488 0.74395043 0.4571901 0
-1.4290575 0.63052028 -0.055764467 0
-1.6388707 0.72309279 0.45701832 0
-1.4326472 0.6106711 -0.055600069 0
-1.6449746 0.70117646 0.45622212 0
-1.4477814 0.59569401 -0.055891879 0
-1.678162 0.69048476 0.4629783 0
-1.4493145 0.57509506 -0.055667076 0
-1.7017925 0.67527956 0.4671146 0
-1.4625055 0.55911946 -0.055898882 0
-1.7297597 0.66129136 0.47246805 0
-1.4655806 0.53924423 -0.05575246 0
-1.4682585 0.51933473 -0.055601154 0
-1.4878176 0.50526762 -0.056096449 0
-1.4944649 0.48662543 -0.056111585 0
-1.4853423 0.46305257 -0.055545736 0
