# .PCD v0.7 - Point Cloud Data file format
VERSION 0.7
FIELDS x y z intensity
SIZE 4 4 4 4
TYPE F F F F
COUNT 1 1 1 1
WIDTH 1346
HEIGHT 1
VIEWPOINT 0 0 0 1 0 0 0
POINTS 1346
DATA ascii
-0.13480735 -1.6401439 -0.30996445 0
-0.15488547 -1.8844259 -0.3107523 0
-0.18019749 -2.1923866 -0.3091453 0
-0.21849418 -2.6583261 -0.31173503 0
-0.27162939 -3.3047996 -0.30951133 0
-0.4227905 -5.1439128 -0.36082065 0
-0.63635641 -7.7422786 -0.36165455 0
-1.2734668 -15.493731 -0.36145094 0
-0.048102424 -0.84634501 -0.30856812 0
-0.052705333 -0.92733163 -0.31381363 0
-0.05658865 -0.99565721 -0.31127185 0
-0.061420508 -1.080672 -0.31039709 0
-0.067406699 -1.1859969 -0.31092018 0
-0.075229622 -1.3236386 -0.3142269 0
-0.081841305 -1.4399687 -0.30657658 0
-0.081893153 -1.440881 -0.27182934 0
-0.082083397 -1.4442283 -0.23774393 0
-0.082541823 -1.452294 -0.20442703 0
-0.082316577 -1.4483309 -0.1695444 0
-0.082657166 -1.4543234 -0.13596612 0
-0.29327419 -5.1600552 -0.36131868 0
-0.44035438 -7.7478786 -0.36128193 0
-0.88285786 -15.53357 -0.3617453 0
-0.028948823 -0.91751879 -0.31014687 0
-0.031378329 -0.99452078 -0.31057006 0
-0.034097705 -1.0807102 -0.31006211 0
-0.037416071 -1.185884 -0.3105441 0
-0.04166415 -1.3205248 -0.31313837 0
-0.041369777 -1.3111949 -0.27884889 0
-0.041729756 -1.3226042 -0.24923775 0
-0.04207008 -1.3333906 -0.2192536 0
-0.041672401 -1.3207864 -0.18570864 0
-0.041682992 -1.3211221 -0.15448073 0
-0.04150001 -1.3153225 -0.12283375 0
-0.16312076 -5.1700325 -0.3616139 0
-0.24509083 -7.768034 -0.3618181 0
-0.49071729 -15.553044 -0.36179516 0
-0.0054317564 -0.86120337 -0.31348565 0
-0.0057815532 -0.91666353 -0.30970985 0
-0.0062050996 -0.98381668 -0.30708069 0
-0.0068543227 -1.0867509 -0.31164634 0
-0.0075440649 -1.1961092 -0.31307217 0
-0.0075592292 -1.1985135 -0.2840699 0
-0.007709627 -1.2223591 -0.25983223 0
-0.0077956193 -1.2359931 -0.23280515 0
-0.0076773767 -1.2172458 -0.20005998 0
-0.0077935169 -1.2356597 -0.17365648 0
-0.0077254795 -1.2248725 -0.14315774 0
-0.0077089616 -1.2222536 -0.11408783 0
-0.032604352 -5.1694107 -0.36139771 0
-0.049066409 -7.7794642 -0.36217749 0
-0.098155186 -15.562475 -0.36184168 0
0.016175965 -0.85456771 -0.31111974 0
0.017383832 -0.91837871 -0.31033874 0
0.019053822 -1.0066034 -0.31424317 0
0.020610826 -1.0888591 -0.31230065 0
0.022463603 -1.1867403 -0.31066939 0
0.022671053 -1.1976998 -0.28392226 0
0.022985974 -1.2143369 -0.2581681 0
0.02299309 -1.2147127 -0.22883332 0
0.0229092 -1.210281 -0.19894694 0
0.023109363 -1.2208555 -0.17160325 0
0.022782983 -1.203613 -0.14069542 0
0.022865901 -1.2079935 -0.11277473 0
0.098062187 -5.1805735 -0.36223581 0
0.14697775 -7.7647567 -0.36155033 0
0.29438803 -15.552364 -0.36166418 0
0.041552123 -0.9403283 -0.31800908 0
0.043742124 -0.98988825 -0.30927119 0
0.047864504 -1.0831782 -0.31091875 0
0.052091442 -1.1788341 -0.30884552 0
0.053319022 -1.2066144 -0.28626335 0
0.052891437 -1.196938 -0.25467184 0
0.053734601 -1.2160189 -0.22926188 0
0.053073857 -1.2010663 -0.19758949 0
0.053218331 -1.2043357 -0.16941608 0
0.053603016 -1.2130412 -0.14191048 0
0.052729115 -1.1932647 -0.11148842 0
0.22831489 -5.1667867 -0.3615596 0
0.34332794 -7.7695427 -0.36206135 0
0.68706465 -15.548336 -0.36185855 0
0.059672698 -0.85853225 -0.31326106 0
0.063419648 -0.91244102 -0.30902079 0
0.069316946 -0.99728751 -0.31203017 0
0.075240523 -1.082512 -0.31117353 0
0.081407338 -1.1712363 -0.30729538 0
0.084198453 -1.211393 -0.28780955 0
0.084789485 -1.2198963 -0.25992921 0
0.08324296 -1.197646 -0.22612202 0
0.082843833 -1.1919036 -0.19636357 0
0.084057339 -1.2093627 -0.17036743 0
0.083803706 -1.2057136 -0.14125571 0
0.084474787 -1.2153687 -0.11371662 0
0.35860348 -5.1593556 -0.36155778 0
0.53954059 -7.7625613 -0.36225525 0
1.0793157 -15.528498 -0.36191556 0
0.080888525 -0.85225666 -0.3116169 0
0.0867979 -0.91451901 -0.31036764 0
0.094061546 -0.99105012 -0.31072244 0
0.10306217 -1.0858823 -0.31279045 0
0.11135839 -1.1732929 -0.30847415 0
0.11419146 -1.2031426 -0.28644291 0
0.11442237 -1.2055756 -0.25741118 0
0.11472936 -1.2088101 -0.22870375 0
0.11431206 -1.2044133 -0.19883652 0
0.11484416 -1.2100196 -0.1708139 0
0.11456377 -1.2070653 -0.1417077 0
0.11562811 -1.2182794 -0.11422565 0
0.4888674 -5.1507988 -0.3617076 0
0.73489034 -7.7429423 -0.36208993 0
1.4706861 -15.495424 -0.36189461 0
0.1029975 -0.85518742 -0.31353915 0
0.11099369 -0.92157978 -0.31361479 0
0.11999093 -0.99628377 -0.31321311 0
0.13071285 -1.0853078 -0.31347543 0
0.14328699 -1.1897107 -0.31364155 0
0.14719057 -1.2221222 -0.29175308 0
0.14477624 -1.202076 -0.25736219 0
0.14618996 -1.2138141 -0.23027524 0
0.14646719 -1.2161161 -0.2013147 0
0.14528504 -1.2063006 -0.17075215 0
0.14712729 -1.2215968 -0.14380381 0
0.14591394 -1.2115223 -0.11390113 0
0.62028545 -5.1502252 -0.36265123 0
0.92676705 -7.6949396 -0.36082408 0
1.8599633 -15.443261 -0.36165753 0
0.12421465 -0.85007668 -0.31271523 0
0.13377358 -0.91549432 -0.31259331 0
0.14638694 -1.0018152 -0.31601298 0
0.15751475 -1.0779697 -0.31240469 0
0.1716432 -1.1746593 -0.31071666 0
0.17664415 -1.2088839 -0.28956485 0
0.17629987 -1.2065277 -0.2591854 0
0.17664216 -1.2088703 -0.23010984 0
0.17566662 -1.202194 -0.1996804 0
0.17558627 -1.2016441 -0.17066598 0
0.17686442 -1.2103913 -0.14296466 0
0.17766164 -1.2158471 -0.11469276 0
0.74714226 -5.1131511 -0.36125344 0
1.1236634 -7.6899152 -0.36180308 0
2.2504742 -15.40137 -0.36189142 0
0.14437467 -0.83941197 -0.31003374 0
0.15823127 -0.91997594 -0.31538671 0
0.16883862 -0.98164833 -0.31089672 0
0.18411314 -1.0704563 -0.31147477 0
0.2036272 -1.1839134 -0.31442386 0
0.20867349 -1.2132531 -0.29178005 0
0.20658726 -1.2011235 -0.25906205 0
0.20974593 -1.2194884 -0.23306449 0
0.20871153 -1.2134744 -0.20236453 0
0.20899008 -1.2150939 -0.17327017 0
0.2068914 -1.2028918 -0.14265022 0
0.20816517 -1.2102976 -0.11462837 0
0.87745714 -5.1016431 -0.36188981 0
1.318455 -7.665658 -0.36211213 0
2.6351225 -15.320924 -0.36144879 0
0.17841983 -0.90068287 -0.31021762 0
0.19389342 -0.97879523 -0.31144381 0
0.21008007 -1.0605073 -0.31002393 0
0.23223625 -1.1723541 -0.31281099 0
0.23807748 -1.2018412 -0.29038817 0
0.24006175 -1.211858 -0.26260051 0
0.23864864 -1.2047246 -0.23132034 0
0.24043217 -1.213728 -0.20335405 0
0.23731565 -1.1979954 -0.17163143 0
0.23672837 -1.1950308 -0.14238118 0
0.23928533 -1.2079387 -0.11494033 0
1.0082333 -5.0896721 -0.36273023 0
1.5084906 -7.615026 -0.36140376 0
3.0222917 -15.256861 -0.36162183 0
0.18946756 -0.84412205 -0.31490663 0
0.19982275 -0.89025682 -0.30826554 0
0.21669145 -0.96541077 -0.30882686 0
0.23888102 -1.0642705 -0.312787 0
0.25681973 -1.1441916 -0.30692837 0
0.27117902 -1.2081655 -0.29347652 0
0.27225906 -1.2129774 -0.26424792 0
0.27394888 -1.220506 -0.23560311 0
0.2699132 -1.2025261 -0.20255409 0
0.27132961 -1.2088364 -0.17411022 0
0.2724613 -1.2138785 -0.14539979 0
0.27251405 -1.2141135 -0.11614537 0
1.1345085 -5.0544996 -0.36214888 0
1.7006921 -7.5769787 -0.36152008 0
3.4084823 -15.185582 -0.36185616 0
0.20865843 -0.83092189 -0.31184754 0
0.23088321 -0.91942567 -0.32028151 0
0.24309191 -0.96804333 -0.31153247 0
0.26322061 -1.0482001 -0.30991772 0
0.28893098 -1.1505842 -0.31050044 0
0.30453026 -1.2127038 -0.29635155 0
0.30382013 -1.2098759 -0.26515833 0
0.3042846 -1.2117255 -0.23531573 0
0.30457202 -1.2128701 -0.20552582 0
0.30116105 -1.1992869 -0.17377423 0
0.3061226 -1.2190448 -0.1468973 0
0.3028464 -1.2059983 -0.1160633 0
1.2567945 -5.0048213 -0.36074734 0
1.8916373 -7.5328994 -0.36157975 0
3.7903624 -15.094024 -0.36183879 0
0.24667272 -0.88693392 -0.31103271 0
0.26589498 -0.95604938 -0.30973366 0
0.2910805 -1.0466062 -0.31151938 0
0.3190245 -1.1470814 -0.31162882 0
0.33432281 -1.2020878 -0.29572511 0
0.33395636 -1.2007701 -0.26492557 0
0.33900967 -1.2189398 -0.23830245 0
0.33983067 -1.2218918 -0.2084416 0
0.33767876 -1.2141544 -0.17710701 0
0.33758399 -1.2138137 -0.14724675 0
0.33339244 -1.1987425 -0.11613782 0
1.3839604 -4.9761539 -0.36108375 0
2.0809538 -7.4822564 -0.36155474 0
4.1665883 -14.981342 -0.36154339 0
0.25163937 -0.82369155 -0.31350455 0
0.26560119 -0.86939287 -0.30713433 0
0.29324302 -0.95987284 -0.31327036 0
0.31846514 -1.0424324 -0.31256998 0
0.34790984 -1.1388139 -0.31166905 0
0.37075597 -1.2135961 -0.30076253 0
0.37253717 -1.2194265 -0.27102989 0
0.37229759 -1.2186422 -0.24000487 0
0.36432236 -1.192537 -0.20493732 0
0.36690289 -1.2009838 -0.17648043 0
0.37032202 -1.2121757 -0.14813471 0
0.37413511 -1.2246571 -0.11952529 0
1.5087636 -4.9386382 -0.36100972 0
2.2732491 -7.44103 -0.36221972 0
4.5455871 -14.879078 -0.36172891 0
0.26808763 -0.80431682 -0.30860737 0
0.29583871 -0.88757575 -0.31609502 0
0.31166306 -0.93505192 -0.30763888 0
0.34591135 -1.0378036 -0.31369993 0
0.37574494 -1.1273105 -0.31101719 0
0.41412097 -1.2424463 -0.31040385 0
0.46199903 -1.3860902 -0.31056529 0
0.52197993 -1.5660449 -0.31091949 0
0.59856814 -1.795825 -0.31110939 0
0.69944447 -2.0984743 -0.31085864 0
0.84144408 -2.5245016 -0.31100458 0
1.0583382 -3.1752276 -0.31240651 0
1.6365037 -4.9098406 -0.36180869 0
2.460603 -7.3823042 -0.36226875 0
4.9210644 -14.764184 -0.36184001 0
0.29152501 -0.80622667 -0.31206387 0
0.31440735 -0.86950892 -0.31238738 0
0.34056559 -0.94185084 -0.31260422 0
0.36565933 -1.0112488 -0.30836454 0
0.40334353 -1.1154662 -0.31045917 0
0.4438504 -1.2274901 -0.30936748 0
0.50411165 -1.3941455 -0.31512058 0
0.56282395 -1.5565174 -0.31174886 0
0.64713448 -1.7896821 -0.31277514 0
0.75166625 -2.0787699 -0.31065112 0
0.90589052 -2.5052848 -0.3113547 0
1.1345578 -3.1376755 -0.31143001 0
1.7589557 -4.8644786 -0.36162218 0
2.6436057 -7.3110213 -0.36192968 0
5.293488 -14.6394 -0.36194089 0
0.3116776 -0.79836744 -0.31196731 0
0.33577189 -0.86008537 -0.31194708 0
0.36116573 -0.9251321 -0.30998197 0
0.39431822 -1.0100528 -0.31093562 0
0.433893 -1.1114242 -0.31228265 0
0.47168398 -1.2082264 -0.30741495 0
0.53432065 -1.3686714 -0.31231138 0
0.59923321 -1.534946 -0.31035873 0
0.69139302 -1.7710149 -0.31246293 0
0.80685234 -2.0667658 -0.31180117 0
0.97154868 -2.4886384 -0.31223392 0
1.2203996 -3.1260743 -0.313236 0
1.8858051 -4.8305216 -0.36252066 0
2.8288145 -7.2460561 -0.36213273 0
5.6589346 -14.495457 -0.36179802 0
0.32886851 -0.78345168 -0.30928379 0
0.35636163 -0.84894753 -0.31107056 0
0.38878405 -0.92618632 -0.3135232 0
0.41692433 -0.99322385 -0.30889595 0
0.45829099 -1.0917702 -0.30991164 0
0.50454754 -1.2019656 -0.3089636 0
0.56490135 -1.3457443 -0.31023428 0
0.63850117 -1.5210785 -0.31071424 0
0.73821509 -1.7586232 -0.31346408 0
0.85463142 -2.0359578 -0.31030867 0
1.0298686 -2.4534192 -0.31097734 0
1.2945315 -3.0839159 -0.31218612 0
2.0048802 -4.7761545 -0.36212271 0
3.0075603 -7.164803 -0.36175039 0
6.019659 -14.340418 -0.36160529 0
0.3488937 -0.77571088 -0.3096056 0
0.3792823 -0.84327513 -0.31240022 0
0.40623778 -0.90320647 -0.30911663 0
0.4503639 -1.001314 -0.31484684 0
0.48663986 -1.0819679 -0.31051674 0
0.53516614 -1.1898587 -0.30922502 0
0.59503788 -1.3229741 -0.30834904 0
0.6819796 -1.5162755 -0.31314945 0
0.7784164 -1.7306877 -0.31188726 0
0.90174776 -2.0048957 -0.30894482 0
1.093788 -2.4318676 -0.31164551 0
1.364836 -3.0345004 -0.31057194 0
2.1266644 -4.7283072 -0.36244914 0
3.1849434 -7.0812259 -0.3614741 0
6.3772764 -14.178882 -0.36147553 0
0.36822343 -0.766388 -0.30949536 0
0.40648514 -0.84602261 -0.31711772 0
0.42798808 -0.89077693 -0.3084614 0
0.46758637 -0.97319335 -0.30961692 0
0.5146873 -1.071225 -0.31106266 0
0.57298517 -1.1925611 -0.31358585 0
0.62622607 -1.303372 -0.30736625 0
0.7163654 -1.4909801 -0.31156015 0
0.81854326 -1.7036443 -0.31063783 0
0.9647615 -2.0079701 -0.31307101 0
1.1484424 -2.3902674 -0.30993024 0
1.4465536 -3.01073 -0.31177649 0
2.2402818 -4.6627264 -0.36164114 0
3.3596306 -6.9924407 -0.36115533 0
6.731967 -14.011327 -0.36142045 0
0.38717851 -0.75633687 -0.30928415 0
0.42255837 -0.82544988 -0.31330419 0
0.45878139 -0.89621007 -0.31425238 0
0.49941286 -0.97558194 -0.31428686 0
0.54539883 -1.0654136 -0.31327257 0
0.59871042 -1.1695555 -0.31141073 0
0.66762298 -1.3041734 -0.31142968 0
0.75237846 -1.4697396 -0.31099066 0
0.87226737 -1.7039375 -0.3146053 0
1.0079066 -1.9689029 -0.31084713 0
1.2133921 -2.3703103 -0.31121436 0
1.5219221 -2.9730105 -0.31174889 0
2.3578959 -4.60605 -0.3617458 0
3.5410471 -6.9172864 -0.36177447 0
7.0888557 -13.84778 -0.3617017 0
0.41128761 -0.75578952 -0.31320542 0
0.43805081 -0.80497003 -0.3096287 0
0.47888941 -0.88001579 -0.31271252 0
0.51751697 -0.9509986 -0.31047624 0
0.57377547 -1.0543802 -0.31418636 0
0.63285428 -1.1629444 -0.31380343 0
0.69968063 -1.2857457 -0.31114712 0
0.78687817 -1.4459815 -0.31006712 0
0.91009098 -1.6723996 -0.31292367 0
1.0649426 -1.9569577 -0.31310499 0
1.2691989 -2.3323028 -0.31033114 0
1.5986364 -2.9376831 -0.31217593 0
2.471473 -4.5416231 -0.36146975 0
3.7128694 -6.8228359 -0.36162058 0
7.4378366 -13.667903 -0.36179143 0
0.42513373 -0.73635173 -0.30949825 0
0.45298409 -0.78458983 -0.30608967 0
0.49898601 -0.86426735 -0.31149235 0
0.54003745 -0.93537039 -0.30972525 0
0.59817201 -1.0360621 -0.31312692 0
0.6517899 -1.1289309 -0.30896595 0
0.7286284 -1.2620188 -0.30975693 0
0.82107514 -1.422141 -0.30930012 0
0.94877273 -1.6433191 -0.31186369 0
1.1044378 -1.9129386 -0.31042314 0
1.3332161 -2.3091934 -0.31163427 0
1.6682483 -2.8894849 -0.31142926 0
2.5857167 -4.4785838 -0.36153141 0
3.8847773 -6.7286177 -0.36170837 0
7.7843299 -13.482827 -0.36197773 0
0.44653651 -0.73023003 -0.31156299 0
0.48520172 -0.79346007 -0.31422761 0
0.51827818 -0.84755063 -0.31008318 0
0.56560946 -0.92495239 -0.31090352 0
0.62258613 -1.0181274 -0.31235614 0
0.67667526 -1.1065805 -0.30742526 0
0.76634735 -1.2532231 -0.31224599 0
0.86360043 -1.412263 -0.311793 0
0.99359161 -1.6248403 -0.31301621 0
1.1575078 -1.8928956 -0.3118121 0
1.3920774 -2.2764921 -0.31186333 0
1.7391392 -2.844049 -0.31116399 0
2.6923316 -4.4028234 -0.3607862 0
4.0493755 -6.622025 -0.36135727 0
8.1124449 -13.266443 -0.36155024 0
0.46904644 -0.72526813 -0.31439677 0
0.50059104 -0.77404433 -0.31144288 0
0.54252923 -0.83889169 -0.3118256 0
0.59464413 -0.91947496 -0.3140071 0
0.65087968 -1.0064297 -0.31370732 0
0.71451283 -1.1048232 -0.31184775 0
0.79086447 -1.2228827 -0.30956128 0
0.89478201 -1.3835664 -0.31034452 0
1.0296485 -1.5921053 -0.31161708 0
1.2060457 -1.8648614 -0.31210893 0
1.4468709 -2.2372398 -0.31138957 0
1.8173689 -2.8101263 -0.31237152 0
2.8112986 -4.3470011 -0.36191091 0
4.2198515 -6.524991 -0.36175889 0
8.4459591 -13.059655 -0.36160895 0
0.51828092 -0.75870717 -0.31043619 0
0.56627399 -0.82896388 -0.31334808 0
0.61280364 -0.89707828 -0.3115412 0
0.66823441 -0.97822291 -0.31007347 0
0.73710507 -1.0790421 -0.30972326 0
0.8311699 -1.2167428 -0.31321761 0
0.93770963 -1.3727055 -0.31311727 0
1.0740434 -1.5722834 -0.31294346 0
1.2459962 -1.8240038 -0.31043521 0
1.5025601 -2.1995857 -0.31132784 0
1.879796 -2.7518182 -0.31106481 0
2.9145117 -4.26653 -0.36122042 0
4.3848228 -6.4189067 -0.3618978 0
8.7668362 -12.8337 -0.36136407 0
0.50033402 -0.69415969 -0.31146964 0
0.5383938 -0.74696356 -0.31109202 0
0.58671331 -0.81400174 -0.3131901 0
0.62987047 -0.87387758 -0.3089065 0
0.69702536 -0.96704775 -0.31200817 0
0.75885236 -1.0528262 -0.30759788 0
0.85403204 -1.1848776 -0.31046465 0
0.96060014 -1.3327296 -0.30943039 0
1.1168184 -1.5494655 -0.31391224 0
1.293367 -1.7944078 -0.31085485 0
1.5545299 -2.1567433 -0.3107183 0
1.954723 -2.7119682 -0.31203768 0
3.0244348 -4.1960783 -0.36160329 0
4.5391479 -6.2975802 -0.36140141 0
9.0861979 -12.606124 -0.36129829 0
0.51376134 -0.67614561 -0.3091065 0
0.5557726 -0.73143536 -0.31036803 0
0.6024664 -0.79288769 -0.31081787 0
0.66074485 -0.86958617 -0.31318477 0
0.72112966 -0.9490568 -0.31197646 0
0.79481465 -1.0460314 -0.31137443 0
0.88879788 -1.1697198 -0.3122713 0
0.99833268 -1.3138752 -0.31080401 0
1.144757 -1.5065798 -0.31097826 0
1.3346728 -1.7565223 -0.31002858 0
1.6152858 -2.1258283 -0.31203845 0
2.35185 -3.0951979 -0.36284608 0
3.135453 -4.1264739 -0.36230928 0
4.7003155 -6.1859417 -0.36168754 0
9.4063473 -12.379407 -0.36148953 0
0.53115404 -0.66358787 -0.30939567 0
0.58715302 -0.73354924 -0.31745207 0
0.62609923 -0.782206 -0.31272554 0
0.67521572 -0.8435688 -0.30985349 0
0.74563909 -0.93155098 -0.31230876 0
0.82032114 -1.0248537 -0.3111344 0
0.90486699 -1.1304796 -0.30779448 0
1.0312777 -1.2884085 -0.31083789 0
1.1766243 -1.4699948 -0.3094579 0
1.390998 -1.7378188 -0.31282428 0
1.669503 -2.0857639 -0.31224319 0
2.4254334 -3.0301723 -0.36228406 0
3.2319684 -4.0378027 -0.36157078 0
4.851263 -6.0608397 -0.36141685 0
9.7245655 -12.149215 -0.36181954 0
0.54804862 -0.65035564 -0.30957684 0
0.60118037 -0.71340579 -0.31520078 0
0.64772612 -0.76864046 -0.31373805 0
0.69828838 -0.82864147 -0.31074512 0
0.76737189 -0.91062117 -0.31168577 0
0.84542304 -1.0032425 -0.31095234 0
0.93595546 -1.1106751 -0.30873573 0
1.0588752 -1.256541 -0.30949867 0
1.2097925 -1.4356308 -0.30855337 0
1.429785 -1.6966903 -0.31181738 0
1.7234405 -2.0451641 -0.31257749 0
2.501261 -2.9681845 -0.36230516 0
3.3260043 -3.9468868 -0.36083168 0
5.0013299 -5.9349537 -0.36132222 0
10.025772 -11.897334 -0.36173889 0
0.56337696 -0.63529885 -0.30907965 0
0.60576421 -0.6830973 -0.30846649 0
0.6664874 -0.75157255 -0.3135376 0
0.71842891 -0.81014502 -0.31050971 0
0.79617637 -0.89781791 -0.31408146 0
0.87473679 -0.98640752 -0.31247771 0
0.96924043 -1.0929756 -0.31051683 0
1.1031936 -1.2440296 -0.31317538 0
1.251862 -1.4116774 -0.31009713 0
1.4757277 -1.6641221 -0.31257749 0
1.7722489 -1.9984978 -0.31218213 0
2.5725272 -2.9009414 -0.36190733 0
3.4338152 -3.8721831 -0.36181009 0
5.1493573 -5.806735 -0.36131346 0
10.322394 -11.640173 -0.36172605 0
0.58728439 -0.62951905 -0.3133792 0
0.62790847 -0.67306465 -0.3109934 0
0.67707813 -0.72577035 -0.30980393 0
0.74247026 -0.79586518 -0.31211948 0
0.81200945 -0.87040526 -0.31156203 0
0.90281862 -0.96774501 -0.31368417 0
1.0135127 -1.0863998 -0.31581539 0
1.1233436 -1.204129 -0.31016937 0
1.2895218 -1.3822581 -0.3106851 0
1.509959 -1.618548 -0.3110764 0
1.8240525 -1.9552296 -0.31251514 0
2.6498137 -2.8403754 -0.36257941 0
3.5279455 -3.7816586 -0.36155641 0
5.29884 -5.6799073 -0.36162826 0
10.615899 -11.379344 -0.36183164 0
0.60411757 -0.61565936 -0.31397 0
0.63843471 -0.65063214 -0.30797559 0
0.70332593 -0.71676314 -0.3134366 0
0.75909942 -0.77360219 -0.31080317 0
0.8257224 -0.84149802 -0.30857623 0
0.91867793 -0.93622947 -0.3108854 0
1.0255513 -1.0451447 -0.31124789 0
1.1616415 -1.1838349 -0.31239453 0
1.3218156 -1.3470693 -0.31017554 0
1.5562285 -1.5859606 -0.31226277 0
1.8610513 -1.8966072 -0.31055397 0
2.7162251 -2.7681193 -0.36199167 0
3.624253 -3.6934953 -0.36175758 0
5.4379001 -5.5417924 -0.36145788 0
10.888632 -11.096662 -0.36146647 0
0.6084969 -0.58959931 -0.30841395 0
0.66867596 -0.64790946 -0.31457517 0
0.71912742 -0.69679403 -0.31254163 0
0.78179991 -0.7575202 -0.31217012 0
0.86011112 -0.83339936 -0.31346706 0
0.95208579 -0.92251766 -0.31421152 0
1.0613769 -1.0284146 -0.31414315 0
1.1800942 -1.1434451 -0.30949736 0
1.3567022 -1.3145683 -0.31047752 0
1.596836 -1.5472444 -0.31247562 0
1.9028553 -1.8437599 -0.30966592 0
2.778415 -2.6921282 -0.36110947 0
3.7113051 -3.5960462 -0.36127236 0
5.586556 -5.4130588 -0.36214259 0
11.18019 -10.832976 -0.36195353 0
0.63293993 -0.58304989 -0.31324452 0
0.68094081 -0.62726718 -0.31279761 0
0.7313019 -0.67365873 -0.31034452 0
0.79548502 -0.73278272 -0.31015092 0
0.88279909 -0.81321448 -0.31415543 0
0.96977073 -0.89333075 -0.31250745 0
1.0661998 -0.98215896 -0.30813557 0
1.2140498 -1.1183552 -0.31090096 0
1.3771108 -1.2685632 -0.30772293 0
1.6350975 -1.5062147 -0.3124243 0
1.9633446 -1.8085884 -0.31198198 0
2.8435748 -2.6194365 -0.36087078 0
3.8139582 -3.5133314 -0.3625178 0
5.707408 -5.2575345 -0.36125982 0
11.431436 -10.530379 -0.36136806 0
0.63666135 -0.5574488 -0.30802512 0
0.69978279 -0.61271673 -0.31424907 0
0.75855857 -0.66417974 -0.31469741 0
0.82009393 -0.71805894 -0.31258014 0
0.90047932 -0.78844291 -0.31326589 0
0.99569827 -0.87181479 -0.31367201 0
1.1022899 -0.9651444 -0.31142667 0
1.2318693 -1.0786017 -0.30839467 0
1.4106083 -1.2351023 -0.30814424 0
1.6563073 -1.4502318 -0.30938464 0
2.3208187 -2.0320654 -0.36052126 0
2.9131739 -2.5507207 -0.36141834 0
3.8986063 -3.4135468 -0.36225924 0
5.8454432 -5.1181607 -0.3617053 0
11.70106 -10.245231 -0.36160204 0
0.65420979 -0.54427451 -0.30977052 0
0.71845174 -0.59772104 -0.31575757 0
0.76670939 -0.6378693 -0.31130078 0
0.82172459 -0.68363959 -0.3065275 0
0.91341591 -0.7599228 -0.31099495 0
1.0148008 -0.84427065 -0.31287739 0
1.1225289 -0.93389583 -0.31038654 0
1.2708905 -1.0573263 -0.31138361 0
1.4435638 -1.200983 -0.30862352 0
1.7044175 -1.4180022 -0.31158692 0
2.3917513 -1.9898344 -0.36362278 0
2.9765058 -2.476325 -0.36140645 0
3.9794319 -3.3107166 -0.36189002 0
5.9701648 -4.9669209 -0.36155069 0
11.951553 -9.9431791 -0.36147261 0
0.66848218 -0.5281859 -0.31011757 0
0.72134387 -0.56995338 -0.31060755 0
0.78632706 -0.62129837 -0.31279957 0
0.85302883 -0.67400122 -0.31175998 0
0.93784082 -0.74101347 -0.31284368 0
1.0246361 -0.80959284 -0.30951133 0
1.1514486 -0.90979081 -0.31193453 0
1.2822652 -1.0131525 -0.30780736 0
1.4903963 -1.1776025 -0.31218231 0
1.7238629 -1.3620708 -0.30875885 0
2.4333649 -1.9226676 -0.36245644 0
3.0413024 -2.4030156 -0.36179474 0
4.0567408 -3.2053411 -0.36144835 0
6.0963655 -4.8169041 -0.36171567 0
12.210984 -9.6482306 -0.36183888 0
0.68257838 -0.51188803 -0.31056455 0
0.73830193 -0.55367696 -0.31179306 0
0.78294659 -0.58715743 -0.30546245 0
0.8779096 -0.65837336 -0.31468007 0
0.95910251 -0.71926254 -0.31378058 0
1.0506371 -0.78790742 -0.31125936 0
1.1783236 -0.88366371 -0.31307346 0
1.3100741 -0.98246771 -0.30843225 0
1.5107558 -1.1329656 -0.31035846 0
1.7610654 -1.320681 -0.30935347 0
2.4722464 -1.854019 -0.36116287 0
3.1080358 -2.3308184 -0.36261973 0
4.1388927 -3.1038921 -0.36167288 0
6.2086535 -4.6560736 -0.36129051 0
12.453168 -9.3390408 -0.3619155 0
0.69100451 -0.49146459 -0.30865633 0
0.74775302 -0.5318259 -0.31001705 0
0.81566668 -0.58012825 -0.31241611 0
0.89746135 -0.63830328 -0.31581309 0
0.96782517 -0.68834829 -0.31085148 0
1.0688312 -0.76018703 -0.31086642 0
1.1995699 -0.8531726 -0.31289756 0
1.3356779 -0.94997692 -0.30871707 0
1.553669 -1.1050191 -0.31334502 0
1.800992 -1.2809232 -0.31058913 0
2.5118961 -1.786541 -0.36025333 0
3.1578538 -2.2459669 -0.36170328 0
4.2242374 -3.0044131 -0.36238906 0
6.3422637 -4.5108209 -0.36232507 0
12.671912 -9.0126696 -0.36154673 0
0.70651317 -0.47611642 -0.31011733 0
0.76450837 -0.51519918 -0.31147352 0
0.82641524 -0.55691797 -0.31105021 0
0.90914232 -0.61266744 -0.31438208 0
0.98654675 -0.66482997 -0.31137604 0
1.1002824 -0.741476 -0.3144708 0
1.2080166 -0.81407768 -0.30964282 0
1.3596851 -0.91628647 -0.30882236 0
1.5732235 -1.0601891 -0.31179288 0
1.8278379 -1.2317728 -0.30975881 0
2.5670085 -1.7298969 -0.36178046 0
3.2155976 -2.1669786 -0.36193752 0
4.2902627 -2.891191 -0.36167803 0
6.4399104 -4.3398304 -0.3615309 0
12.88739 -8.684761 -0.36132562 0
0.73594117 -0.46938983 -0.31773323 0
0.78196299 -0.49874294 -0.31335658 0
0.84042519 -0.53603065 -0.31113219 0
0.92029852 -0.58697456 -0.31301728 0
0.99942338 -0.63744116 -0.31026354 0
1.1174933 -0.7127471 -0.31414834 0
1.2204129 -0.77839017 -0.3076866 0
1.4008769 -0.89349174 -0.31295657 0
1.5853016 -1.0111195 -0.30903053 0
1.8599066 -1.1862649 -0.31002077 0
2.6045828 -1.661226 -0.36105195 0
3.2588475 -2.078522 -0.36078599 0
4.362493 -2.7824368 -0.3617318 0
6.5503316 -4.1778598 -0.36169508 0
13.117767 -8.3666286 -0.36174905 0
0.72996867 -0.44007269 -0.31026056 0
0.78627342 -0.47401685 -0.31019089 0
0.84613216 -0.51010364 -0.30838051 0
0.9410373 -0.56731862 -0.31510061 0
1.0267141 -0.61897016 -0.313786 0
1.1360475 -0.68488348 -0.31440479 0
1.2559477 -0.7571671 -0.31172827 0
1.4052199 -0.84715813 -0.30905175 0
1.6215094 -0.97755158 -0.31118008 0
1.8960449 -1.1430594 -0.3111366 0
2.6502585 -1.5977486 -0.36167842 0
3.3205769 -2.0018601 -0.36191115 0
4.4326873 -2.6723127 -0.36184442 0
6.6532683 -4.0110235 -0.36167389 0
13.326444 -8.0340481 -0.36179668 0
0.74177128 -0.42204475 -0.31065068 0
0.80742997 -0.45940253 -0.3138631 0
0.86908805 -0.49448407 -0.31209904 0
0.95179826 -0.5415436 -0.31402722 0
1.0391431 -0.59124011 -0.31292436 0
1.1554391 -0.65740895 -0.31507918 0
1.2697524 -0.7224496 -0.31053007 0
1.436551 -0.81735283 -0.3113063 0
1.6476243 -0.93744689 -0.31155193 0
1.9329057 -1.0997632 -0.31253099 0
2.6899586 -1.5305027 -0.36170948 0
3.3665266 -1.9154489 -0.36153507 0
4.5001678 -2.5604553 -0.36196238 0
6.7553897 -3.8436065 -0.36183661 0
13.512936 -7.6884398 -0.36147645 0
0.80787724 -0.43304834 -0.30968976 0
0.87017626 -0.46644261 -0.30816406 0
0.95062739 -0.50956702 -0.3092992 0
1.0551249 -0.56558102 -0.31333864 0
1.159128 -0.62133002 -0.31170952 0
1.2747381 -0.68330085 -0.30743381 0
1.459649 -0.78241909 -0.31193304 0
1.6758864 -0.89832932 -0.31250927 0
1.9500479 -1.0452887 -0.310938 0
2.7220919 -1.4591293 -0.3609634 0
3.4046032 -1.8249774 -0.36056283 0
4.5651321 -2.4470584 -0.36210471 0
6.843791 -3.6684933 -0.36149719 0
13.714621 -7.35148 -0.36179298 0
0.76608407 -0.38608727 -0.3122676 0
0.8127808 -0.40962124 -0.30750841 0
0.88600761 -0.44652575 -0.30968082 0
0.97246474 -0.490098 -0.31228021 0
1.0543317 -0.53135687 -0.30902201 0
1.1603227 -0.58477372 -0.30796376 0
1.3069737 -0.65868217 -0.31109974 0
1.4897262 -0.75078487 -0.3142111 0
1.6931463 -0.85330355 -0.31161258 0
1.9908574 -1.0033425 -0.31330749 0
2.7536681 -1.3877801 -0.36039114 0
3.4557068 -1.7415901 -0.36120477 0
4.6228938 -2.3298233 -0.36190689 0
6.9364605 -3.4958034 -0.36161649 0
13.891192 -7.0008144 -0.36167461 0
0.77075338 -0.36435294 -0.31032366 0
0.83307886 -0.39381561 -0.31132835 0
0.89734995 -0.42419806 -0.30980447 0
0.98106939 -0.46377414 -0.31118545 0
1.0808885 -0.51096094 -0.31292629 0
1.1781765 -0.55695128 -0.30887318 0
1.3149327 -0.62159908 -0.30916142 0
1.4940201 -0.70625782 -0.31125796 0
1.7149357 -0.81068969 -0.31175774 0
2.3345861 -1.1036128 -0.36290213 0
2.788518 -1.3181969 -0.36048311 0
3.5103304 -1.6594144 -0.36242115 0
4.6626644 -2.2041492 -0.36055046 0
7.0226388 -3.3197634 -0.36162594 0
14.06564 -6.6491532 -0.36173204 0
0.78478962 -0.34704033 -0.31234896 0
0.84309858 -0.372825 -0.31145713 0
0.91116011 -0.40292236 -0.31096241 0
0.9990837 -0.44180289 -0.31326276 0
1.0839614 -0.4793365 -0.31021467 0
1.1985095 -0.52999055 -0.31059796 0
1.3342936 -0.59003538 -0.31011337 0
1.5190761 -0.67174774 -0.31284624 0
1.7325189 -0.76613384 -0.31133988 0
2.3467891 -1.0377691 -0.36061272 0
2.8219903 -1.2479069 -0.36062378 0
3.5479038 -1.5689117 -0.36209685 0
4.7403121 -2.0962043 -0.36234826 0
7.1083851 -3.1433854 -0.36184081 0
14.233849 -6.294323 -0.36185715 0
0.79582578 -0.32817206 -0.31334504 0
0.85073423 -0.35081446 -0.31090796 0
0.93301779 -0.38474548 -0.31500769 0
1.0140004 -0.41813999 -0.3145307 0
1.0972295 -0.45246089 -0.31064475 0
1.2187558 -0.50257432 -0.31245816 0
1.3481741 -0.55594212 -0.30997962 0
1.5344815 -0.63276905 -0.3126303 0
1.7474489 -0.72058976 -0.31065568 0
2.380398 -0.98159689 -0.361855 0
2.8547742 -1.1772138 -0.36090145 0
3.5766206 -1.4748791 -0.36111355 0
4.7869945 -1.973997 -0.36199301 0
7.1869798 -2.963671 -0.36191872 0
14.384192 -5.9315619 -0.36175814 0
0.79457808 -0.30443469 -0.30972981 0
0.86975783 -0.33323905 -0.31468633 0
0.91828865 -0.35183316 -0.30693898 0
1.0140271 -0.3885144 -0.31139821 0
1.1140023 -0.42681891 -0.31224412 0
1.2249833 -0.46934021 -0.31091878 0
1.3612804 -0.52156103 -0.30986774 0
1.554052 -0.59541959 -0.313456 0
1.7588809 -0.67389768 -0.30956569 0
2.401726 -0.92019743 -0.36145151 0
2.8950393 -1.1092055 -0.3623372 0
3.6137629 -1.3845773 -0.36122033 0
4.834507 -1.8522933 -0.36193544 0
7.2617579 -2.7822702 -0.36203286 0
14.513518 -5.56071 -0.36136588 0
0.81581175 -0.28918344 -0.31506139 0
0.8557753 -0.30334947 -0.30675954 0
0.94309545 -0.33430213 -0.31231099 0
1.0228889 -0.36258674 -0.31121016 0
1.1206009 -0.39722306 -0.31118447 0
1.2290324 -0.43565911 -0.30905724 0
1.3745017 -0.48722407 -0.30997938 0
1.5596241 -0.55284506 -0.31166625 0
1.7946548 -0.63615716 -0.31293646 0
2.4304833 -0.86154139 -0.36239156 0
2.9098611 -1.0314679 -0.3608191 0
3.6532052 -1.2949636 -0.3617807 0
4.8639135 -1.7241273 -0.36076427 0
7.3237209 -2.5960631 -0.36174023 0
14.660197 -5.1966481 -0.36163715 0
0.8206988 -0.2678062 -0.31423831 0
0.86621338 -0.28265828 -0.30784586 0
0.95728618 -0.31237671 -0.31429937 0
1.0276798 -0.33534718 -0.30999398 0
1.1290995 -0.36844194 -0.31086317 0
1.234607 -0.40287063 -0.30780414 0
1.3933862 -0.45468262 -0.31155103 0
1.5616627 -0.50959373 -0.30940488 0
1.794197 -0.58547312 -0.3101812 0
2.447407 -0.79862523 -0.36179429 0
2.949193 -0.96236551 -0.36256891 0
3.6816015 -1.2013613 -0.36147499 0
4.9305472 -1.6089109 -0.36257926 0
7.3860044 -2.4101629 -0.36169684 0
14.787588 -4.8254094 -0.36166018 0
0.82083696 -0.24511544 -0.31182316 0
0.88213074 -0.26341876 -0.31104094 0
0.96439993 -0.28798571 -0.31414855 0
1.0369961 -0.30966416 -0.31034786 0
1.1385678 -0.33999512 -0.31100839 0
1.2579314 -0.37563905 -0.31115645 0
1.3984574 -0.41760245 -0.31022948 0
1.5738971 -0.46999162 -0.30938014 0
1.8165371 -0.54244792 -0.31157726 0
2.4633329 -0.73559183 -0.36128902 0
2.9584734 -0.8834489 -0.36085373 0
3.7097044 -1.1077789 -0.36137399 0
4.9609313 -1.4814159 -0.36194882 0
7.4482775 -2.2241786 -0.36188215 0
14.912251 -4.4530439 -0.36184511 0
0.82941145 -0.22504628 -0.31282315 0
0.90339476 -0.24512035 -0.31625655 0
0.96666753 -0.2622883 -0.31263125 0
1.0325327 -0.28015968 -0.30679819 0
1.1324648 -0.30727449 -0.30712506 0
1.2626245 -0.34259105 -0.31007975 0
1.4009637 -0.38012698 -0.30855888 0
1.5971534 -0.43335962 -0.31170234 0
1.8404175 -0.49936506 -0.31341168 0
2.4885128 -0.67521435 -0.36236721 0
2.9882891 -0.81081992 -0.36187908 0
3.7328348 -1.0128393 -0.36102203 0
4.9881854 -1.3534567 -0.36132988 0
7.5052562 -2.0364199 -0.36203805 0
15.001884 -4.0704985 -0.36141205 0
0.82234299 -0.2009968 -0.30814573 0
0.89075613 -0.2177183 -0.30980974 0
0.96577716 -0.23605493 -0.31031764 0
1.0614468 -0.25943846 -0.31334406 0
1.1542404 -0.28211904 -0.31100053 0
1.2658352 -0.30939502 -0.3088522 0
1.4205452 -0.34720919 -0.3108426 0
1.6117276 -0.39393792 -0.31250674 0
1.8426849 -0.4503884 -0.31176275 0
2.4990637 -0.61082029 -0.3615436 0
2.9946368 -0.73194808 -0.36029592 0
3.7671499 -0.92076552 -0.36197799 0
5.0105968 -1.2246884 -0.36059946 0
7.5468469 -1.8445978 -0.36168334 0
15.106766 -3.6923907 -0.36157855 0
0.84064662 -0.1831238 -0.31317279 0
0.88790494 -0.1934184 -0.30702242 0
0.98745382 -0.21510381 -0.31543779 0
1.0617932 -0.23129767 -0.31162378 0
1.1617689 -0.25307608 -0.3112089 0
1.2885596 -0.28069574 -0.31256863 0
1.4213203 -0.30961591 -0.3092038 0
1.6029058 -0.34917191 -0.30898908 0
1.853039 -0.40366015 -0.31169158 0
2.5222156 -0.54943144 -0.3627713 0
3.0301898 -0.66008693 -0.36245358 0
3.7790122 -0.82320803 -0.36100644 0
5.0517364 -1.1004542 -0.3614462 0
7.6058779 -1.6568403 -0.3623929 0
15.207183 -3.3126845 -0.36186561 0
0.831505 -0.15927038 -0.30817151 0
0.90676183 -0.17368543 -0.31192771 0
0.98847222 -0.18933663 -0.31413656 0
1.0746652 -0.20584643 -0.31377685 0
1.1552532 -0.22128263 -0.30786937 0
1.2831593 -0.24578236 -0.30965531 0
1.4397084 -0.27576852 -0.3115907 0
1.6246588 -0.31119481 -0.31156909 0
1.8531957 -0.35496983 -0.31011221 0
2.5284579 -0.48431274 -0.36179578 0
3.0487456 -0.58397108 -0.36279461 0
3.8154569 -0.73083055 -0.3626104 0
5.0910664 -0.97516686 -0.36238387 0
7.6228848 -1.4601232 -0.3613323 0
15.281217 -2.9270363 -0.36175418 0
0.92066443 -0.15237509 -0.31528684 0
0.97521895 -0.16140418 -0.30853179 0
1.0765935 -0.17818223 -0.31292716 0
1.1811796 -0.19549182 -0.313364 0
1.2964246 -0.21456552 -0.31145051 0
1.4463382 -0.23937704 -0.31161875 0
1.6224883 -0.26853088 -0.30975446 0
1.8860822 -0.31215712 -0.31419697 0
2.5343406 -0.41944751 -0.36100778 0
3.0661402 -0.50746328 -0.36322474 0
3.8125181 -0.63099301 -0.36070272 0
5.103725 -0.84469497 -0.36165223 0
7.6629982 -1.2682689 -0.36160126 0
15.344 -2.5395176 -0.36160797 0
0.83960092 -0.11727804 -0.30858317 0
0.91078889 -0.12722179 -0.31070638 0
0.9895786 -0.13822739 -0.31187174 0
1.073437 -0.14994098 -0.31081071 0
1.1712216 -0.16359983 -0.30952811 0
1.2918949 -0.18045585 -0.30916965 0
1.4549987 -0.20323871 -0.31228006 0
1.6479135 -0.23018563 -0.31339952 0
1.8721597 -0.26150903 -0.31067923 0
2.548162 -0.35593513 -0.36158177 0
3.0656269 -0.42821622 -0.36176842 0
3.8370559 -0.53597182 -0.36162925 0
5.1284575 -0.71635878 -0.36200833 0
7.6979108 -1.0752679 -0.36185288 0
15.410192 -2.1525431 -0.36177233 0
0.84040797 -0.095841818 -0.30789268 0
0.91728479 -0.10460901 -0.31192234 0
0.99189013 -0.11311715 -0.31160122 0
1.0869166 -0.12395415 -0.31370795 0
1.1765476 -0.13417587 -0.30994201 0
1.3018279 -0.14846309 -0.31055117 0
1.4492826 -0.16527912 -0.31005922 0
1.6445765 -0.18755083 -0.3117654 0
1.8772572 -0.2140862 -0.31052959 0
2.546946 -0.29045889 -0.36025429 0
3.0729308 -0.35044321 -0.36147144 0
3.8544674 -0.43957123 -0.3621093 0
5.1334448 -0.58542842 -0.36120236 0
7.7089925 -0.87914902 -0.36121571 0
15.459038 -1.7629799 -0.36175928 0
0.85445923 -0.075660773 -0.31224146 0
0.91516197 -0.08103589 -0.31040615 0
0.98835975 -0.087517418 -0.30969962 0
1.071097 -0.094843641 -0.30835298 0
1.1157215 -0.098795056 -0.29316813 0
1.1290545 -0.099975683 -0.26864859 0
1.4431186 -0.12778546 -0.3079524 0
1.6650618 -0.14743812 -0.31484312 0
1.8845454 -0.16687299 -0.31093949 0
2.5573325 -0.22644703 -0.36080009 0
3.0768535 -0.27244964 -0.36100906 0
3.8633125 -0.34208912 -0.36201385 0
5.144711 -0.45555457 -0.36107108 0
7.7400646 -0.6853683 -0.36174592 0
15.515754 -1.3738911 -0.3621597 0
0.86159611 -0.054425262 -0.31424746 0
0.92280227 -0.058291532 -0.31239912 0
0.9992469 -0.06312038 -0.3125124 0
1.0970503 -0.069298424 -0.31522065 0
1.1273999 -0.07121554 -0.29567033 0
1.1293657 -0.071339719 -0.26820877 0
1.4532251 -0.091797262 -0.30951613 0
1.6478872 -0.10409366 -0.31099981 0
1.8909204 -0.11944558 -0.31139475 0
2.5719478 -0.16246468 -0.36216822 0
3.0872483 -0.19501516 -0.36153609 0
3.8731606 -0.24465963 -0.3622427 0
5.1709824 -0.32664037 -0.36222091 0
7.7564492 -0.48995903 -0.36181852 0
15.522045 -0.98049581 -0.36161378 0
0.85704011 -0.032454882 -0.31218758 0
0.93296617 -0.035330091 -0.31543761 0
1.0161661 -0.038480751 -0.317399 0
1.0895835 -0.041260969 -0.3126764 0
1.1341432 -0.04294838 -0.29705995 0
1.1451794 -0.043366306 -0.27161789 0
1.4680347 -0.055592373 -0.31227204 0
1.6500669 -0.062485669 -0.31101447 0
1.8904953 -0.071590349 -0.31092817 0
2.573278 -0.097446345 -0.36189395 0
3.0965152 -0.1172606 -0.36215934 0
3.8740749 -0.14670567 -0.36186665 0
5.1646008 -0.19557604 -0.36131307 0
7.778471 -0.29455954 -0.36238357 0
15.552996 -0.58896965 -0.36187327 0
0.8621462 -0.010878127 -0.31384757 0
0.93365073 -0.011780336 -0.31546807 0
1.0038575 -0.01266617 -0.31335479 0
1.0886761 -0.013736367 -0.31221709 0
1.1243298 -0.014186229 -0.29430208 0
1.1315418 -0.014277225 -0.26821238 0
1.1261138 -0.014208737 -0.23938803 0
1.1280172 -0.014232754 -0.21248007 0
1.1227299 -0.014166041 -0.18453687 0
1.1471291 -0.014473896 -0.16122423 0
1.1312938 -0.014274096 -0.13222857 0
1.1301349 -0.014259473 -0.10549558 0
1.1293819 -0.014249972 -0.078960724 0
1.1350348 -0.014321297 -0.052845359 0
1.1371753 -0.014348306 -0.026441939 0
1.1435683 -0.014428969 3.264963e-05 0
1.1255075 -0.014201087 0.026234936 0
1.1312106 -0.014273047 0.052732047 0
1.1345714 -0.014315451 0.079388656 0
1.132531 -0.014289706 0.10578448 0
1.1349338 -0.014320024 0.13271971 0
1.1388848 -0.014369876 0.16013186 0
0.97040766 -0.012244116 0.15955742 0
0.85242116 0.010755422 -0.31030738 0
0.93404281 0.011785282 -0.31560054 0
1.0071493 0.012707705 -0.31438234 0
1.0876626 0.013723579 -0.31192642 0
1.1333084 0.014299516 -0.29665229 0
1.1461445 0.014461474 -0.27167368 0
1.4541819 0.018348135 -0.3091284 0
1.6612216 0.020960459 -0.31291762 0
1.8895458 0.023841338 -0.31057411 0
2.5658443 0.032374535 -0.36061877 0
3.1043041 0.039168548 -0.36283916 0
3.8625846 0.048736151 -0.36056367 0
5.1732249 0.065273151 -0.36168599 0
7.7574277 0.09787932 -0.36117312 0
15.539868 0.19607423 -0.36133763 0
0.87004626 0.032947406 -0.31692523 0
0.92147154 0.034894809 -0.31155124 0
0.98815286 0.037419934 -0.30864906 0
1.0965708 0.041525569 -0.31468156 0
1.1303235 0.042803735 -0.29605946 0
1.1394961 0.043151084 -0.27026987 0
1.468365 0.055604879 -0.31234229 0
1.6494081 0.062460721 -0.31089029 0
1.9140021 0.072480515 -0.3147943 0
2.5492508 0.09653648 -0.3585149 0
3.083421 0.11676474 -0.36062789 0
3.8700311 0.14655253 -0.36148894 0
5.1696444 0.19576703 -0.3616659 0
7.7659941 0.29408708 -0.36180231 0
15.54476 0.5886578 -0.36168164 0
0.8569144 0.05412953 -0.31253991 0
0.92212307 0.058248628 -0.31216916 0
0.98566151 0.062262222 -0.3082636 0
1.0783397 0.068116516 -0.30984446 0
1.1277695 0.07123889 -0.29576725 0
1.1384166 0.071911454 -0.27035826 0
1.4514498 0.091685109 -0.30913797 0
1.646188 0.10398632 -0.31067911 0
1.8929513 0.11957385 -0.31172916 0
2.5750666 0.16266167 -0.36260739 0
3.0906203 0.19522816 -0.36193094 0
3.8658628 0.24419865 -0.36156017 0
5.1610794 0.32601482 -0.36152723 0
7.7522621 0.48969454 -0.3616232 0
15.522016 0.98049396 -0.36161309 0
0.84499371 0.07482262 -0.30878255 0
0.92026883 0.081488088 -0.31213832 0
0.99868155 0.088431388 -0.31293392 0
1.0789058 0.0955351 -0.31060103 0
1.1784397 0.10434864 -0.30964807 0
1.2926637 0.11446296 -0.30757794 0
1.4607486 0.12934656 -0.31171453 0
1.6541688 0.14647357 -0.31278339 0
1.88711 0.16710007 -0.31136259 0
2.550355 0.22582918 -0.35981566 0
3.0905883 0.27366585 -0.36262056 0
3.8648617 0.3422263 -0.36215901 0
5.1484013 0.45588133 -0.36133006 0
7.7470942 0.68599075 -0.36207446 0
15.498868 1.3723959 -0.36176556 0
0.8486656 0.096783534 -0.31091797 0
0.92225271 0.10517556 -0.31361172 0
0.99367362 0.11332054 -0.31216151 0
1.0813249 0.12331648 -0.31209409 0
1.1803204 0.13460612 -0.31093588 0
1.286707 0.14673868 -0.30694407 0
1.4543391 0.16585578 -0.31114101 0
1.6403587 0.18706982 -0.31096581 0
1.8780956 0.21418181 -0.31066826 0
2.5722327 0.29334262 -0.36383095 0
3.0641396 0.34944066 -0.36043733 0
3.8526297 0.43936166 -0.36193666 0
5.1466088 0.58692962 -0.36212859 0
7.7153044 0.87986887 -0.36151147 0
15.457332 1.7627853 -0.36171934 0
0.83945525 0.1172577 -0.30852965 0
0.90489864 0.12639903 -0.30869699 0
0.99143958 0.13848734 -0.31245825 0
1.0836664 0.15136987 -0.31377265 0
1.1761091 0.16428255 -0.31081977 0
1.3071214 0.18258274 -0.31281358 0
1.4589648 0.20379269 -0.3131313 0
1.6429956 0.22949868 -0.31246424 0
1.8692985 0.26110935 -0.31020442 0
2.5425858 0.35515624 -0.36079055 0
3.0564854 0.42693931 -0.36068967 0
3.8352485 0.53571934 -0.3614589 0
5.1293211 0.71647936 -0.36206925 0
7.7034812 1.076046 -0.36211473 0
15.40483 2.1517942 -0.36164647 0
0.84539747 0.13991798 -0.31191218 0
0.90479261 0.14974822 -0.30985147 0
0.99841177 0.16524272 -0.31586936 0
1.0676196 0.176697 -0.31031877 0
1.1742092 0.19433817 -0.31151474 0
1.2845289 0.2125967 -0.30859268 0
1.442454 0.23873419 -0.3107819 0
1.6347026 0.2705524 -0.31208634 0
1.8768767 0.31063357 -0.31266347 0
2.5359607 0.41971564 -0.36123857 0
3.0586851 0.50622946 -0.36234161 0
3.8204262 0.63230187 -0.36145091 0
5.1058044 0.84503907 -0.36179954 0
7.6535339 1.2667025 -0.36115465 0
15.339564 2.5387833 -0.36150342 0
0.83599371 0.16013017 -0.30983511 0
0.8920266 0.17086297 -0.30685878 0
0.97607952 0.18696287 -0.31019816 0
1.0700067 0.20495413 -0.3124167 0
1.1663227 0.22340293 -0.31081936 0
1.2891947 0.24693841 -0.31111178 0
1.3347672 0.2556676 -0.28887865 0
1.3474364 0.25809431 -0.25840473 0
1.3463724 0.25789052 -0.22530085 0
1.3432283 0.25728828 -0.19220188 0
1.3442832 0.25749034 -0.15996701 0
1.3548886 0.25952172 -0.12876484 0
5.0754089 0.97216773 -0.36126935 0
7.6420798 1.4638 -0.36224216 0
15.28176 2.9271402 -0.36176705 0
0.83497757 0.18188886 -0.31106085 0
0.89732039 0.19546942 -0.31027815 0
0.97448373 0.21227844 -0.31129456 0
1.0613734 0.23120619 -0.31150055 0
1.151567 0.25085369 -0.30847606 0
1.2130128 0.26423886 -0.2942431 0
1.2083815 0.26323 -0.26287964 0
1.2028753 0.26203054 -0.23187597 0
1.207768 0.26309636 -0.20315337 0
1.2010503 0.26163298 -0.17274755 0
1.1955544 0.26043579 -0.14300522 0
1.2075174 0.26304176 -0.1153533 0
5.0480185 1.0996443 -0.36118019 0
7.5852351 1.6523435 -0.36140937 0
15.196386 3.3103325 -0.36160868 0
0.83112967 0.20314443 -0.31143823 0
0.88568372 0.21647851 -0.30804554 0
0.9660899 0.23613137 -0.31041813 0
1.0561193 0.25813633 -0.31177139 0
1.1693542 0.28581315 -0.31507283 0
1.193009 0.29159483 -0.29108325 0
1.2068475 0.29497728 -0.26408145 0
1.1947653 0.29202414 -0.23165964 0
1.2113329 0.29607356 -0.20494469 0
1.2134225 0.29658431 -0.17554779 0
1.2071358 0.2950477 -0.145235 0
1.2033681 0.29412681 -0.11562926 0
5.0328875 1.2301366 -0.36220366 0
7.5597382 1.8477486 -0.36230117 0
15.115569 3.6945422 -0.36178926 0
0.81962925 0.22239205 -0.30913368 0
0.8820495 0.23932868 -0.3087841 0
0.95223588 0.25837255 -0.30796388 0
1.0458405 0.2837705 -0.31075233 0
1.1534936 0.31298032 -0.31282812 0
1.1970605 0.32480139 -0.2939783 0
1.1950154 0.32424653 -0.26319927 0
1.2025894 0.32630157 -0.23469877 0
1.2127781 0.32906613 -0.2065286 0
1.2015017 0.32600647 -0.17495786 0
1.1945601 0.32412297 -0.14466013 0
1.2191645 0.33079895 -0.1179118 0
5.0015202 1.3570749 -0.36229584 0
7.4809856 2.0298345 -0.36086726 0
15.017108 4.0746293 -0.36177883 0
0.81371057 0.24298739 -0.30911598 0
0.88581777 0.26451978 -0.31234097 0
0.95458651 0.28505528 -0.31095189 0
1.0421797 0.31121203 -0.31189916 0
1.1283964 0.33695778 -0.30823001 0
1.2029899 0.3592326 -0.29756635 0
1.2195016 0.36416328 -0.27053049 0
1.2011979 0.35869747 -0.23611882 0
1.2079147 0.36070326 -0.20718473 0
1.2020776 0.35896018 -0.17630482 0
1.2075812 0.36060363 -0.14729223 0
1.2080586 0.3607462 -0.11768079 0
4.9568119 1.4801856 -0.36164826 0
7.4481831 2.2241502 -0.36187753 0
14.904856 4.4508357 -0.36166564 0
0.81589854 0.26623982 -0.31240034 0
0.87601608 0.28585708 -0.31132969 0
0.95062029 0.31020153 -0.31211081 0
1.0341026 0.33744302 -0.31193137 0
1.1349078 0.37033728 -0.31246233 0
1.2075404 0.39403838 -0.30105606 0
1.2104504 0.39498797 -0.27064791 0
1.2196909 0.39800328 -0.24165164 0
1.2087075 0.39441922 -0.20896164 0
1.1951464 0.38999403 -0.17667562 0
1.2054037 0.39334115 -0.14819035 0
1.2037017 0.39278576 -0.11818445 0
4.928257 1.6081635 -0.36241081 0
7.3929462 2.4124281 -0.36203679 0
14.781511 4.8234267 -0.36151156 0
0.81122762 0.2875585 -0.31329104 0
0.86199182 0.30555305 -0.30898792 0
0.93342823 0.33087534 -0.30910966 0
1.0177999 0.36078283 -0.30966187 0
1.1245408 0.39861965 -0.31227857 0
1.1966426 0.42417783 -0.30091238 0
1.2025945 0.42628762 -0.27121067 0
1.2066815 0.42773634 -0.24113624 0
1.2052796 0.42723939 -0.21016628 0
1.1907606 0.42209283 -0.17754559 0
1.2029796 0.42642409 -0.14916794 0
1.201448 0.42588115 -0.11898063 0
1.4905987 0.52837735 -0.1105601 0
7.3236136 2.5960252 -0.36173496 0
14.670141 5.2001729 -0.36188245 0
0.79374284 0.30411467 -0.30940425 0
0.86755341 0.33239445 -0.31388876 0
0.90985608 0.34860229 -0.30412039 0
1.0112211 0.38743928 -0.3105365 0
1.1081965 0.42459446 -0.31061679 0
1.1993388 0.45951474 -0.30440983 0
1.2034829 0.46110252 -0.27394834 0
1.2032882 0.46102792 -0.24270611 0
1.2108748 0.46393463 -0.2131158 0
1.1994667 0.45956376 -0.18051563 0
1.1948245 0.4577851 -0.14954178 0
1.2041893 0.46137315 -0.12036696 0
4.824554 1.8484799 -0.36119029 0
7.2641339 2.7831807 -0.36215135 0
14.532854 5.5681186 -0.36184731 0
0.78741509 0.32470375 -0.31003344 0
0.85136235 0.35107347 -0.3111375 0
0.91997427 0.37936676 -0.31060389 0
0.99481761 0.41022965 -0.30858043 0
1.1030661 0.45486769 -0.31229717 0
1.2116406 0.4996402 -0.31063399 0
1.1967188 0.493487 -0.27515617 0
1.2157961 0.50135386 -0.24770238 0
1.2083452 0.4982813 -0.2148156 0
1.2043386 0.49662909 -0.1830769 0
1.2078229 0.49806595 -0.15269335 0
1.2006526 0.49510914 -0.12122391 0
4.7893848 1.9749827 -0.36217377 0
7.1848021 2.9627728 -0.36180905 0
14.391343 5.9345107 -0.36193797 0
0.77758378 0.34385383 -0.30948099 0
0.85034043 0.37602741 -0.31413239 0
0.90242505 0.39905965 -0.30798128 0
0.98535067 0.43573004 -0.30895677 0
1.0915197 0.4826788 -0.31237775 0
1.192351 0.52726728 -0.30900198 0
1.2189136 0.53901339 -0.28329703 0
1.1875314 0.52513593 -0.24456622 0
1.2096076 0.53489822 -0.21737084 0
1.21631 0.53786212 -0.18690084 0
1.2026726 0.53183156 -0.15369023 0
1.2141154 0.53689164 -0.12391185 0
4.7454896 2.0984938 -0.36274406 0
7.1074681 3.1429799 -0.36179414 0
14.224854 6.2903452 -0.36162847 0
0.7676754 0.3628979 -0.30908439 0
0.83621305 0.39529723 -0.31249961 0
0.9086014 0.42951688 -0.31368896 0
0.98815423 0.46712336 -0.31343269 0
1.0799735 0.51052845 -0.31266141 0
1.1855773 0.56044978 -0.31081337 0
1.3255944 0.62663913 -0.31166816 0
1.4916157 0.70512122 -0.31075704 0
1.7086624 0.80772418 -0.31061733 0
2.3312571 1.1020391 -0.36238465 0
2.7940207 1.3207982 -0.36119446 0
3.5042348 1.6565328 -0.36179182 0
4.675981 2.2104442 -0.36158019 0
7.0229592 3.3199151 -0.36164245 0
14.066353 6.6494899 -0.36175036 0
0.76615298 0.38612202 -0.31229568 0
0.82397974 0.41526526 -0.31174546 0
0.9030214 0.45510027 -0.31562755 0
0.9680993 0.48789793 -0.31087837 0
1.0615231 0.53498119 -0.31112984 0
1.1775866 0.59347427 -0.31254578 0
1.3032696 0.65681541 -0.31021807 0
1.4892205 0.75053 -0.31410444 0
1.6839448 0.84866619 -0.30991909 0
1.9741948 0.99494493 -0.31068525 0
2.7712901 1.3966612 -0.36269745 0
3.4722965 1.7499509 -0.36293879 0
4.6241193 2.3304408 -0.36200282 0
6.9365869 3.4958668 -0.36162305 0
13.888776 6.9995966 -0.36161166 0
0.7602762 0.40753263 -0.31399283 0
0.81032699 0.43436146 -0.31062883 0
0.88595635 0.47490123 -0.31375241 0
0.95193577 0.51026833 -0.30972487 0
1.0405586 0.55777299 -0.30901289 0
1.1698458 0.6270752 -0.31459177 0
1.294196 0.69373089 -0.31212658 0
1.4435637 0.7737968 -0.30849552 0
1.6694711 0.89489049 -0.311313 0
1.9509677 1.0457817 -0.31108466 0
2.7273161 1.4619297 -0.36165616 0
3.414819 1.8304534 -0.36164472 0
4.5652323 2.4471121 -0.36211264 0
6.8380947 3.6654398 -0.36119628 0
13.716184 7.3523178 -0.36183423 0
0.75766796 0.43108949 -0.31730813 0
0.8124609 0.46226496 -0.3158187 0
0.8757019 0.49824715 -0.31447417 0
0.94680345 0.53870171 -0.31237927 0
1.0345184 0.58860874 -0.31153166 0
1.1311436 0.6435855 -0.30845395 0
1.2090625 0.6879189 -0.29568774 0
1.2015842 0.68366402 -0.26038808 0
1.643736 0.93523461 -0.31081668 0
1.926285 1.0959963 -0.31146052 0
2.6960702 1.5339801 -0.3625313 0
3.3810441 1.9237089 -0.36309412 0
4.4901476 2.5547543 -0.36115643 0
6.7537479 3.8426726 -0.36174867 0
13.539778 7.7037125 -0.36219448 0
0.74045759 0.44639611 -0.31471869 0
0.78843796 0.4753218 -0.31104481 0
0.85368943 0.51465964 -0.31113482 0
0.93571067 0.56410736 -0.31331706 0
1.0222939 0.61630541 -0.31243512 0
1.1218052 0.67629725 -0.31046319 0
1.1375142 0.68576771 -0.2823329 0
1.1618019 0.70040989 -0.25551653 0
1.6247857 0.97952664 -0.31180882 0
1.9054021 1.1487006 -0.31267211 0
2.6574008 1.6020545 -0.36265314 0
3.3157415 1.998945 -0.36138412 0
4.4352827 2.6738772 -0.36205626 0
6.6448402 4.0059428 -0.36121577 0
13.322766 8.0318317 -0.36169687 0
0.71965647 0.4590033 -0.3107025 0
0.77852964 0.49655312 -0.31198072 0
0.83687216 0.53376448 -0.30981684 0
0.92551982 0.59030479 -0.3147932 0
1.0013092 0.63864386 -0.31084895 0
1.1049001 0.70471513 -0.31060818 0
1.1368567 0.7250973 -0.28662071 0
1.1370441 0.72521681 -0.25401619 0
1.5960265 1.01796 -0.3111212 0
1.8739338 1.1952116 -0.31235892 0
2.6026621 1.660001 -0.36078569 0
3.2670994 2.0837851 -0.36169955 0
4.379374 2.7932038 -0.36313158 0
6.5462546 4.1752596 -0.36146995 0
13.113789 8.3640909 -0.36163935 0
0.71633047 0.48273227 -0.31442654 0
0.77882242 0.52484536 -0.31730533 0
0.81781256 0.55112064 -0.3078123 0
0.89377052 0.60230845 -0.3090665 0
0.9799763 0.66040218 -0.30930227 0
1.0881827 0.73332202 -0.31101257 0
1.1393384 0.76779562 -0.29203898 0
1.1293174 0.76104254 -0.25649944 0
1.5731268 1.0601239 -0.31177372 0
1.8430257 1.2420077 -0.31233263 0
2.5672259 1.7300435 -0.36181113 0
3.2254498 2.1736178 -0.36304644 0
4.2883201 2.8898818 -0.36151427 0
6.4446611 4.3430319 -0.36179763 0
12.897896 8.6918411 -0.36162016 0
0.69877481 0.49699104 -0.31212714 0
0.7502777 0.53362155 -0.3110638 0
