# .PCD v0.7 - Point Cloud Data file format
VERSION 0.7
FIELDS x y z intensity
SIZE 4 4 4 4
TYPE F F F F
COUNT 1 1 1 1
WIDTH 1359
HEIGHT 1
VIEWPOINT 0 0 0 1 0 0 0
POINTS 1359
DATA ascii
3.3428199 -0.90701568 -0.24214432 0
5.008069 -1.3588519 -0.24157889 0
10.030519 -2.7216058 -0.24164636 0
0.86418712 -0.21122432 -0.18910076 0
0.99336648 -0.2427983 -0.19260931 0
1.1244426 -0.27483585 -0.19024377 0
1.3301826 -0.32512277 -0.19243966 0
1.5647105 -0.38244599 -0.18825614 0
1.9792802 -0.48377499 -0.19018511 0
3.3594663 -0.82111961 -0.24177194 0
5.0390968 -1.2316543 -0.24149919 0
10.098174 -2.4681921 -0.24169853 0
0.89363307 -0.19466619 -0.19440709 0
0.98428124 -0.2144127 -0.18973802 0
1.134006 -0.24702829 -0.1907462 0
1.3295556 -0.28962618 -0.19123052 0
1.5911034 -0.34660092 -0.1903185 0
1.9810233 -0.43153983 -0.18924579 0
3.3683112 -0.73374224 -0.24099898 0
5.0814524 -1.1069275 -0.24211305 0
10.166676 -2.2146764 -0.2419232 0
0.87659907 -0.16790792 -0.18971907 0
0.99984211 -0.19151446 -0.19174482 0
1.1380525 -0.21798792 -0.19044074 0
1.3354828 -0.25580466 -0.19109358 0
1.6173168 -0.30978847 -0.19245745 0
2.5424728 -0.48699722 -0.24162954 0
3.3948116 -0.65025818 -0.24164385 0
5.0923944 -0.97542113 -0.24138454 0
10.220188 -1.9576229 -0.24194379 0
0.89339113 -0.14786121 -0.19248432 0
1.0070181 -0.1666671 -0.19225305 0
1.1405957 -0.18877494 -0.19000854 0
1.3420366 -0.22211453 -0.19116832 0
1.6116861 -0.26674303 -0.19092548 0
2.5508227 -0.42217538 -0.2413336 0
3.4173729 -0.56559426 -0.24215655 0
5.1214237 -0.84762418 -0.24166954 0
10.264555 -1.6988411 -0.24190204 0
0.88164216 -0.12315049 -0.18922304 0
0.99486047 -0.13896517 -0.18920216 0
1.1462849 -0.1601166 -0.1902225 0
1.343417 -0.18765263 -0.1906296 0
1.6323327 -0.22800925 -0.19262828 0
2.561609 -0.35781345 -0.24142279 0
3.4287877 -0.47894362 -0.24203177 0
5.142158 -0.71827245 -0.24171552 0
10.291759 -1.4375845 -0.24161112 0
0.89939642 -0.10256898 -0.19241667 0
1.0192218 -0.11623412 -0.19321574 0
1.1586367 -0.13213326 -0.1916578 0
1.3475374 -0.15367588 -0.19060321 0
1.6299039 -0.18587753 -0.191727 0
2.5756264 -0.29372963 -0.24196813 0
3.4445379 -0.39282206 -0.24236652 0
5.1609545 -0.58856565 -0.24182381 0
10.337724 -1.1789348 -0.24191462 0
0.90083706 -0.079767443 -0.19223295 0
1.0133764 -0.089732587 -0.19161727 0
1.1401242 -0.10095587 -0.18811412 0
1.1295314 -0.1000179 -0.15935941 0
1.6367173 -0.14492828 -0.19203703 0
2.577033 -0.22819147 -0.2414823 0
3.4357722 -0.30423123 -0.24113268 0
5.1664705 -0.45748135 -0.24146436 0
10.36536 -0.91783333 -0.24194221 0
0.90047133 -0.056880932 -0.19178748 0
1.0077578 -0.063657999 -0.19019049 0
1.1445452 -0.072298579 -0.18848246 0
1.1318887 -0.071499094 -0.15938665 0
1.6354007 -0.10330492 -0.19151562 0
2.583601 -0.1632008 -0.24163486 0
3.4503591 -0.21795213 -0.24169341 0
5.1775012 -0.32705218 -0.2415172 0
10.371758 -0.65516275 -0.24162865 0
0.89294881 -0.033814691 -0.18994303 0
1.0197284 -0.038615651 -0.19220451 0
1.1221815 -0.042495407 -0.18456425 0
1.1276495 -0.042702474 -0.15858744 0
1.636803 -0.061983384 -0.19143568 0
2.5794742 -0.097680993 -0.24094157 0
3.4604604 -0.13104267 -0.24209221 0
5.1996078 -0.19690171 -0.24223945 0
10.39007 -0.39345706 -0.2417469 0
0.89957666 -0.011350406 -0.19123104 0
1.0250531 -0.012933605 -0.19308513 0
1.1324178 -0.014288277 -0.18612921 0
1.1293449 -0.014249506 -0.15872476 0
1.1206901 -0.014140304 -0.13098918 0
1.1275645 -0.014227043 -0.10525564 0
1.1401386 -0.014385695 -0.079712778 0
1.1384065 -0.014363841 -0.053002343 0
1.1293827 -0.014249982 -0.026260741 0
1.1269633 -0.014219456 3.2175547e-05 0
1.1289712 -0.014244791 0.026315674 0
1.1210152 -0.014144406 0.052256778 0
1.1332706 -0.014299039 0.079297639 0
1.1250683 -0.014195546 0.10508742 0
1.1337653 -0.014305281 0.13258308 0
1.1316961 -0.014279173 0.1591211 0
1.1362062 -0.014336077 0.18681851 0
1.1342762 -0.014311725 0.21372609 0
0.90371823 0.011402662 -0.19211145 0
1.0258093 0.012943146 -0.19322757 0
1.1364732 0.014339446 -0.18679577 0
1.1296715 0.014253627 -0.15877065 0
1.6432823 0.020734109 -0.19207112 0
2.5923805 0.032709353 -0.24199295 0
3.4513435 0.043547317 -0.24130066 0
5.1979251 0.065584801 -0.24200685 0
10.392732 0.13113026 -0.24165489 0
0.89484674 0.033886563 -0.19034675 0
1.0292323 0.038975552 -0.19399585 0
1.1324838 0.042885542 -0.18625866 0
1.1189016 0.042371202 -0.15735717 0
1.6346588 0.061902188 -0.19118491 0
2.5839376 0.097850017 -0.24135849 0
3.4517817 0.13071403 -0.24148506 0
5.1981931 0.19684812 -0.24217354 0
10.394576 0.3936277 -0.24185175 0
0.89987159 0.056843046 -0.19165973 0
1.0208461 0.06448476 -0.1926606 0
1.1217664 0.070859693 -0.18473129 0
1.1334977 0.071600728 -0.15961321 0
1.6383431 0.10349078 -0.19186021 0
2.5853577 0.16331175 -0.24179915 0
3.4534414 0.21814683 -0.24190931 0
5.1775532 0.32705542 -0.2415196 0
10.367879 0.65491772 -0.24153827 0
0.89158392 0.078948095 -0.19025838 0
1.0275524 0.090987846 -0.19429776 0
1.1561106 0.10237144 -0.19075179 0
1.3461213 0.11919653 -0.18991691 0
1.6352193 0.14479563 -0.19186126 0
2.5856097 0.22895092 -0.24228598 0
3.440433 0.30464393 -0.24145979 0
5.1721511 0.45798436 -0.24172984 0
10.361518 0.9174931 -0.24185254 0
0.89521307 0.1020919 -0.19152167 0
1.0111724 0.11531615 -0.1916898 0
1.1444639 0.13051698 -0.18931337 0
1.3481108 0.15374127 -0.19068432 0
1.6273061 0.18558127 -0.19142139 0
2.5847864 0.29477423 -0.24282867 0
3.4248645 0.39057845 -0.24098225 0
5.1599355 0.58844948 -0.24177606 0
10.32817 1.1778454 -0.24169107 0
0.89469391 0.1249736 -0.19202428 0
1.0072817 0.14070019 -0.19156441 0
1.1451364 0.15995617 -0.1900319 0
1.3390726 0.18704578 -0.19001313 0
1.632284 0.22800246 -0.19262253 0
2.5624743 0.3579343 -0.24150433 0
3.4215159 0.47792789 -0.24151847 0
5.1416483 0.71820128 -0.24169157 0
10.295803 1.4381495 -0.24170606 0
0.89185339 0.14760672 -0.19215301 0
1.0035715 0.16609669 -0.19159506 0
1.1490295 0.19017079 -0.19141351 0
1.343814 0.22240871 -0.19142151 0
1.6247916 0.26891208 -0.192478 0
2.5631273 0.42421183 -0.24249773 0
3.4184294 0.56576914 -0.24223143 0
5.123055 0.84789419 -0.24174652 0
10.261854 1.6983942 -0.2418384 0
0.88822377 0.17013456 -0.19223493 0
1.0104674 0.19354969 -0.19378249 0
1.141956 0.21873562 -0.19109395 0
1.3287631 0.25451756 -0.19013207 0
1.3369111 0.25607824 -0.15908973 0
1.3449575 0.25761947 -0.12782101 0
1.3466033 0.25793472 -0.095851682 0
1.3501804 0.2586199 -0.063999891 0
1.352314 0.25902858 -0.032013502 0
1.3476608 0.25813729 3.9172966e-05 0
0.88024867 0.19175057 -0.19149534 0
1.0055734 0.21905093 -0.19384246 0
1.1306061 0.24628764 -0.19017431 0
1.2070478 0.26293948 -0.17361018 0
1.2033073 0.26212466 -0.14393258 0
1.2000698 0.26141942 -0.11464185 0
1.2063689 0.26279157 -0.08631438 0
1.2066671 0.26285651 -0.057493374 0
1.2115661 0.2639237 -0.028830066 0
1.2061454 0.26274288 3.5241021e-05 0
0.87099594 0.21288852 -0.19059065 0
0.97529322 0.23838083 -0.18910497 0
1.1195984 0.27365187 -0.18942417 0
1.2041941 0.29432872 -0.17421271 0
1.203941 0.29426685 -0.14485063 0
1.2016701 0.29371178 -0.1154661 0
1.2075362 0.29514557 -0.0869032 0
1.1995244 0.29318732 -0.057487316 0
1.2090682 0.29552004 -0.028938895 0
1.2109619 0.2959829 3.5588684e-05 0
0.87553251 0.23756042 -0.19283393 0
0.99166274 0.26907033 -0.19353408 0
1.1181239 0.30338335 -0.19040957 0
1.2071228 0.32753164 -0.17577636 0
1.2088639 0.32800403 -0.14639232 0
1.2051336 0.32699189 -0.11655479 0
1.2136195 0.32929438 -0.087911129 0
1.2033311 0.32650283 -0.058046203 0
1.2076371 0.32767117 -0.02909332 0
1.2136989 0.32931593 3.5901954e-05 0
0.8688466 0.25945193 -0.19274224 0
0.97221386 0.29031909 -0.19110757 0
1.1133806 0.33247378 -0.19096999 0
1.2066349 0.36032107 -0.17697322 0
1.2081761 0.36078128 -0.1473648 0
1.2013495 0.35874277 -0.11702724 0
1.1955081 0.35699841 -0.087224096 0
1.2002486 0.35841402 -0.058315303 0
1.1901809 0.35540766 -0.028879687 0
1.2052799 0.35991648 3.591019e-05 0
0.85787863 0.27993855 -0.19181542 0
0.97043449 0.31666717 -0.19226763 0
1.1058576 0.36085778 -0.19118093 0
1.2005447 0.39175558 -0.17747365 0
1.2060627 0.39355615 -0.14827135 0
1.1999027 0.39154604 -0.11781143 0
1.2055995 0.39340502 -0.08865656 0
1.2067425 0.39377803 -0.059094872 0
1.2069358 0.39384109 -0.02951804 0
1.1936976 0.38952124 3.5846599e-05 0
0.84747064 0.30040568 -0.19112268 0
0.96241391 0.34114999 -0.19232321 0
1.102088 0.3906607 -0.1921726 0
1.1997859 0.42529202 -0.17889127 0
1.201441 0.42587873 -0.14897718 0
1.2107174 0.42916694 -0.1198986 0
1.203575 0.42663518 -0.089271091 0
1.2060593 0.4275158 -0.059570841 0
1.1996996 0.42526147 -0.029594144 0
1.201685 0.42596519 3.639772e-05 0
0.85185879 0.32638124 -0.19390829 0
0.95114261 0.36442083 -0.19184773 0
1.0946002 0.41938519 -0.19265132 0
1.2032579 0.4610163 -0.18108618 0
1.2095567 0.46342963 -0.15138565 0
1.2050779 0.46171364 -0.12045579 0
1.2120316 0.46437788 -0.090738766 0
1.2002376 0.4598591 -0.059837505 0
1.2113951 0.46413401 -0.030162008 0
1.205355 0.46181983 3.685019e-05 0
0.83515745 0.34439111 -0.19202401 0
0.9435069 0.38907081 -0.19222704 0
1.0827792 0.44650206 -0.1924929 0
1.2041335 0.49654457 -0.18304574 0
1.2044243 0.49666446 -0.15226369 0
1.2004522 0.49502647 -0.12120367 0
1.210063 0.49898964 -0.091505088 0
1.2039161 0.49645489 -0.060626268 0
1.2095233 0.49876714 -0.030419149 0
1.2073189 0.49785808 3.7282505e-05 0
0.81960166 0.36243448 -0.19048989 0
0.93175012 0.41202745 -0.19188935 0
1.0720613 0.47407418 -0.19265328 0
1.2016964 0.53139985 -0.18465528 0
1.2072864 0.53387177 -0.15427981 0
1.2140725 0.53687268 -0.12390748 0
1.205699 0.53316981 -0.092163324 0
1.2029251 0.5319432 -0.061232951 0
1.2199364 0.53946573 -0.031013586 0
1.2064159 0.53348684 3.7658421e-05 0
0.81397527 0.38478494 -0.19137843 0
0.91576684 0.43290415 -0.19078708 0
1.0601405 0.50115287 -0.19272269 0
1.2227702 0.57803172 -0.19007477 0
1.4672848 0.69361943 -0.1896819 0
1.8580346 0.87833589 -0.19183125 0
3.1281855 1.4787656 -0.24189362 0
4.6886492 2.2164328 -0.24143875 0
9.4014797 4.4442968 -0.24178183 0
0.81078809 0.40861699 -0.19299239 0
0.90557951 0.45638949 -0.19100365 0
1.052443 0.53040504 -0.19369529 0
1.2188253 0.61425757 -0.19181038 0
1.451787 0.73166448 -0.19000517 0
1.836233 0.92541564 -0.19193067 0
3.0905008 1.5575354 -0.24194229 0
4.6355329 2.3361928 -0.24166287 0
9.27738 4.6755681 -0.24154821 0
0.80410075 0.43102401 -0.19392829 0
0.89746743 0.48107156 -0.19179252 0
1.0288156 0.55147839 -0.19184738 0
1.1931885 0.63958764 -0.19025566 0
1.4540056 0.77939397 -0.19280861 0
1.8131304 0.97189647 -0.19201867 0
3.055675 1.6379406 -0.24237509 0
4.5773945 2.4536314 -0.24178341 0
9.1675653 4.9141111 -0.24184123 0
0.77976137 0.44365993 -0.19069807 0
0.88851297 0.5055362 -0.19254428 0
1.011253 0.57537144 -0.19121945 0
1.183519 0.67338544 -0.19136286 0
1.205124 0.68567806 -0.16204888 0
1.2093445 0.68807936 -0.12987286 0
3.0025811 1.7083752 -0.24150687 0
4.5184746 2.5708716 -0.2420215 0
9.0340414 5.1400881 -0.2416642 0
0.77938408 0.4698635 -0.19344442 0
0.87053794 0.52481699 -0.19145848 0
0.99951661 0.60257375 -0.1918149 0
1.1646179 0.70210755 -0.19111112 0
1.1389813 0.68665212 -0.15543576 0
1.2040684 0.72589087 -0.13123195 0
2.961288 1.7852573 -0.24173272 0
4.4502249 2.6828856 -0.24191573 0
8.9047222 5.3683467 -0.24175234 0
0.76726729 0.4893699 -0.19344099 0
0.85365158 0.54446656 -0.19070616 0
0.98336071 0.62719619 -0.19169128 0
1.1493233 0.73304868 -0.19157636 0
1.1541536 0.7361294 -0.15999085 0
1.1714109 0.74713635 -0.12968653 0
2.9103465 1.8562449 -0.24132186 0
4.3735905 2.789515 -0.24150017 0
8.766449 5.5913196 -0.24175264 0
0.74822962 0.50422901 -0.1917887 0
0.84713823 0.5708831 -0.19240868 0
0.96699774 0.65165597 -0.19164665 0
1.1260854 0.75886452 -0.19083469 0
1.1269978 0.75947934 -0.15883306 0
1.1496174 0.77472264 -0.1293973 0
2.8716412 1.9351876 -0.24208529 0
4.3074026 2.9027417 -0.24181379 0
8.6175261 5.8073168 -0.24161083 0
0.74021 0.52646106 -0.19307746 0
0.82426554 0.58624405 -0.19051363 0
0.94252747 0.67035574 -0.19008957 0
1.096752 0.78004521 -0.1891398 0
1.1409361 0.81147039 -0.16363178 0
1.1500024 0.81791854 -0.13172226 0
2.8150668 2.0021656 -0.24149907 0
4.2359185 3.0127211 -0.24199238 0
8.4817858 6.0325184 -0.24199679 0
0.72229439 0.54167235 -0.19190924 0
0.80735081 0.60545897 -0.19007553 0
0.93228173 0.69914877 -0.19152105 0
1.0872494 0.81536418 -0.19098915 0
1.0970701 0.82272899 -0.16026759 0
1.1027144 0.82696187 -0.12865554 0
1.1019932 0.82642096 -0.096296541 0
1.0947558 0.82099336 -0.063705415 0
1.1028196 0.82704073 -0.032050278 0
1.1029414 0.82713211 3.9357732e-05 0
1.0941857 0.82056594 0.031877492 0
1.0949323 0.82112581 0.063794009 0
1.1025157 0.8268128 0.096421264 0
0.70950693 0.56060064 -0.19220978 0
0.79916334 0.63144064 -0.19183891 0
0.90583324 0.71572345 -0.18973821 0
1.0529072 0.83193052 -0.18858485 0
1.0995541 0.86878747 -0.16378161 0
1.1028392 0.87138319 -0.13119426 0
1.104941 0.87304389 -0.098448269 0
1.1006012 0.8696149 -0.065301977 0
1.1039374 0.87225091 -0.032712143 0
1.0991908 0.86850053 3.9993363e-05 0
1.0983318 0.86782181 0.032626003 0
1.1071078 0.87475586 0.065768763 0
1.0962741 0.86619598 0.097756237 0
0.69690478 0.57979482 -0.19269872 0
0.78745681 0.65513027 -0.19293649 0
0.90178841 0.75024927 -0.19279586 0
1.0313063 0.85800248 -0.18853451 0
1.0958203 0.91167539 -0.16659978 0
1.1027255 0.91742027 -0.1338926 0
1.0953567 0.91128969 -0.099611863 0
1.0928674 0.90921873 -0.066183589 0
1.0999089 0.91507697 -0.033266552 0
1.1033314 0.91792446 4.0973904e-05 0
1.088292 0.9054122 0.032996073 0
1.1007771 0.91579932 0.066744536 0
1.0949079 0.91091633 0.099652767 0
0.67867553 0.59423566 -0.19174418 0
0.76283383 0.66792309 -0.1909731 0
0.87981367 0.77034843 -0.19219334 0
0.99261183 0.86911237 -0.18541177 0
1.097559 0.96100217 -0.17049731 0
1.1003196 0.96341932 -0.13650942 0
1.0989361 0.96220797 -0.10211336 0
1.0971414 0.9606365 -0.067889102 0
1.1012255 0.96421254 -0.034031566 0
1.0987381 0.96203452 4.1691746e-05 0
1.0963144 0.95991248 0.03396304 0
1.1038146 0.96647948 0.068385981 0
1.0933856 0.95734805 0.10168099 0
1.0960681 0.95969677 0.13606586 0
1.0885992 0.95315719 0.27261302 0
0.66261137 0.61038256 -0.19149709 0
0.75262612 0.69330209 -0.19273689 0
0.84990227 0.78291065 -0.18991528 0
0.96566761 0.88955104 -0.18451376 0
1.0672309 0.98310888 -0.16958654 0
1.1025534 1.0156472 -0.13992222 0
1.0928376 1.0066972 -0.10387453 0
1.0931119 1.0069498 -0.069190323 0
1.0967383 1.0102904 -0.03466985 0
1.0963902 1.0099698 4.2556352e-05 0
1.0955905 1.009233 0.034718663 0
1.1006961 1.0139362 0.069756016 0
1.0963469 1.0099298 0.10429361 0
1.1020269 1.0151622 0.13994171 0
1.0376531 0.95586246 0.26581168 0
0.64270616 0.62274617 -0.19022624 0
0.72631067 0.70375425 -0.19048584 0
0.84000427 0.81391698 -0.19223264 0
0.83884847 0.81279707 -0.1641494 0
0.84569347 0.81942946 -0.13762605 0
0.84277457 0.81660122 -0.10953506 0
0.83919704 0.81313479 -0.081690595 0
0.84248459 0.8163203 -0.054613177 0
0.84490114 0.81866175 -0.027353289 0
0.8399058 0.81382155 3.3387547e-05 0
0.84235471 0.81619442 0.027337855 0
0.83524376 0.8093043 0.054210342 0
0.84521949 0.8189702 0.082344368 0
1.1012677 1.0670666 0.14321962 0
0.9996258 0.96858126 0.19569205 0
0.9996962 0.96864945 0.22885931 0
0.97673595 0.94640231 0.256244 0
0.63208669 0.64416289 -0.19183405 0
0.71637195 0.73005843 -0.19265038 0
0.82224888 0.83795816 -0.19294786 0
0.84426481 0.86039466 -0.16940473 0
0.8402034 0.85625571 -0.14020489 0
0.8386755 0.8546986 -0.11177038 0
0.83569807 0.8516643 -0.083415844 0
0.83787078 0.85387856 -0.055693377 0
0.84128624 0.85735923 -0.027927915 0
0.84025836 0.85631168 3.4249781e-05 0
0.84492081 0.86106324 0.028117485 0
0.84595251 0.86211467 0.056299683 0
0.8378877 0.85389578 0.083703049 0
0.84399837 0.86012316 0.11254917 0
1.0901228 1.1109499 0.18199907 0
0.94554061 0.9636054 0.18980469 0
0.94254303 0.96055061 0.22125486 0
0.9538666 0.97209042 0.25659916 0
0.61162281 0.65560782 -0.19058457 0
0.69454354 0.74449182 -0.19177227 0
0.79838139 0.85579717 -0.1923544 0
0.83578247 0.89588797 -0.17218493 0
0.84271485 0.90331882 -0.14438245 0
0.83696967 0.89716053 -0.11452428 0
0.84032434 0.90075648 -0.086119428 0
0.84098005 0.90145928 -0.057394095 0
0.84403545 0.90473449 -0.02876805 0
0.83909398 0.89943767 3.5116453e-05 0
0.83527386 0.89534277 0.028539371 0
0.83606094 0.89618641 0.057128515 0
0.8400979 0.90051377 0.086166881 0
0.83994597 0.90035087 0.11500245 0
1.1027662 1.1820718 0.18903063 0
0.92842442 0.99519229 0.19134995 0
0.9315567 0.99854982 0.22452047 0
0.92939329 0.99623084 0.2566978 0
0.59867847 0.675107 -0.19179942 0
0.67608953 0.76240057 -0.19192879 0
0.78150892 0.88127798 -0.19358657 0
0.84848398 0.95680326 -0.17971948 0
0.83528531 0.94191957 -0.14713573 0
0.83640218 0.94317901 -0.11766642 0
0.83454281 0.94108224 -0.087933101 0
0.84291947 0.95052838 -0.059144888 0
0.83913875 0.94626498 -0.029405806 0
0.84203452 0.94953036 3.6230929e-05 0
0.83635658 0.94312763 0.029380323 0
0.84638381 0.95443493 0.059460964 0
0.8420307 0.94952613 0.088794895 0
0.83811718 0.94511294 0.11798044 0
1.1014435 1.2420561 0.19411567 0
1.0930575 1.2325996 0.23161912 0
0.58200449 0.69065028 -0.19198091 0
0.65058678 0.77203512 -0.19016001 0
0.7265538 0.86218333 -0.185305 0
0.8496716 1.0082842 -0.18530223 0
0.83918446 0.99583936 -0.15220147 0
0.83280367 0.98826742 -0.12063077 0
0.83930272 0.99597967 -0.091054298 0
0.8357985 0.99182135 -0.060382456 0
0.84209377 0.99929178 -0.030383503 0
0.83422017 0.98994833 3.695799e-05 0
0.8368547 0.99307472 0.030268662 0
0.83374953 0.98938984 0.060308464 0
0.83606166 0.99213356 0.090777129 0
0.84109509 0.99810666 0.12190695 0
0.84344 1.0008893 0.15304904 0
1.1029221 1.3088102 0.2406325 0
0.56357408 0.70409125 -0.1917022 0
0.63374883 0.79176289 -0.19101855 0
0.72090966 0.90065575 -0.18960273 0
0.84348083 1.0537878 -0.18969207 0
0.8492294 1.0609697 -0.15882938 0
0.83839834 1.0474381 -0.12523055 0
0.84586775 1.0567698 -0.094629966 0
0.83382529 1.0417248 -0.062119599 0
0.83556163 1.0438942 -0.031088535 0
0.84752285 1.0588377 3.8718939e-05 0
0.83743781 1.0462382 0.031234901 0
0.84422308 1.0547152 0.062971532 0
0.83938825 1.0486749 0.09398216 0
0.83817792 1.0471628 0.12527488 0
0.83901161 1.0482043 0.15699607 0
1.0971214 1.3706691 0.24683599 0
1.0994258 1.3735482 0.28925747 0
0.54656923 0.71932304 -0.19203228 0
0.61809778 0.81345963 -0.19242811 0
0.70511484 0.92798012 -0.19154754 0
0.73383516 0.96577811 -0.17046116 0
0.72769892 0.9577024 -0.14057578 0
0.73517269 0.96753836 -0.11342328 0
0.72746533 0.9573949 -0.084060408 0
0.73394054 0.96591675 -0.056476455 0
0.73379618 0.96572679 -0.028200069 0
0.72558618 0.95492184 3.4238445e-05 0
0.72451311 0.95350957 0.02791173 0
0.72834712 0.9585554 0.056114927 0
0.72307199 0.95161301 0.083621323 0
0.72846556 0.95871133 0.11245784 0
0.72249305 0.95085114 0.13963924 0
0.72966248 0.96028656 0.16956212 0
0.73240358 0.96389401 0.19903164 0
0.72351909 0.95220137 0.22531889 0
0.52101046 0.72284603 -0.18940195 0
0.59888518 0.83088887 -0.19291405 0
0.67844677 0.94127202 -0.19069596 0
0.72927874 1.011796 -0.17527881 0
0.95584577 1.3261334 -0.19105375 0
0.84719801 1.1753962 -0.1352405 0
0.84150749 1.1675013 -0.10061116 0
0.83758652 1.1620613 -0.066687614 0
0.84056091 1.166188 -0.033423577 0
0.83533657 1.1589397 4.0784533e-05 0
0.83471906 1.158083 0.033272833 0
0.83824629 1.1629767 0.066822179 0
0.8289175 1.150034 0.099187225 0
0.83823413 1.1629598 0.13389212 0
0.83946693 1.1646701 0.16787511 0
0.83808416 1.1627518 0.20151316 0
1.096956 1.5219086 0.30843937 0
0.50853223 0.7444362 -0.19163503 0
0.57220751 0.83764994 -0.19106987 0
0.65248746 0.95517105 -0.19011493 0
0.76213133 1.1156778 -0.1898821 0
0.92084879 1.3480231 -0.19079825 0
1.1557735 1.6919273 -0.19125503 0
0.85448486 1.2508734 -0.10590364 0
0.83658391 1.2246684 -0.069046773 0
0.84011483 1.2298373 -0.034629062 0
0.84504032 1.2370477 4.2769068e-05 0
0.84014022 1.2298744 0.034715194 0
0.84130388 1.2315779 0.069521673 0
0.84280813 1.2337799 0.10454217 0
0.83221459 1.2182722 0.13779815 0
0.84322327 1.2343876 0.1748009 0
0.83915186 1.2284275 0.20915809 0
1.0996283 1.6097369 0.32051241 0
1.0985188 1.6081127 0.36692935 0
0.48753956 0.75386333 -0.1908334 0
0.55085069 0.85175884 -0.19105601 0
0.62772787 0.97063106 -0.18997814 0
0.73301542 1.133433 -0.18969482 0
0.89017439 1.3764418 -0.19157964 0
1.1102611 1.7167531 -0.19083297 0
1.4870168 2.2993157 -0.19143024 0
0.85223174 1.3177726 -0.073060013 0
0.84271914 1.3030636 -0.036080547 0
0.83378321 1.2892463 4.3832239e-05 0
0.8408215 1.3001293 0.036087751 0
0.84212273 1.3021414 0.072282121 0
0.84667248 1.3091764 0.10908534 0
0.83862346 1.2967306 0.14423254 0
0.84390622 1.3048991 0.18171194 0
0.83982712 1.2985917 0.21742634 0
0.83748162 1.294965 0.25354931 0
1.104015 1.707095 0.38303468 0
0.46332109 0.75767821 -0.18877883 0
0.52726561 0.86224794 -0.19036317 0
0.60299653 0.98609233 -0.18996505 0
0.71005881 1.1611733 -0.1912773 0
0.85521221 1.3985456 -0.19159088 0
1.0632324 1.7387253 -0.19023184 0
1.4256716 2.3314292 -0.19104728 0
0.84608841 1.3836253 -0.075503044 0
0.84258687 1.3778991 -0.037551872 0
0.840316 1.3741856 4.5984329e-05 0
0.83919781 1.372357 0.03749273 0
0.84030688 1.3741707 0.075079285 0
0.83937967 1.3726543 0.11257348 0
0.83680701 1.3684472 0.14981255 0
0.84289682 1.378406 0.1889254 0
0.83543235 1.3661993 0.22514394 0
0.84160978 1.3763013 0.26523119 0
1.0988605 1.7969885 0.39685544 0
0.44862834 0.77704549 -0.19072238 0
0.51244074 0.88757163 -0.19303714 0
0.58180434 1.0077126 -0.19124036 0
0.67553234 1.170054 -0.18987113 0
0.82076102 1.4215969 -0.19184981 0
1.025344 1.7759444 -0.19141164 0
1.3681781 2.3697493 -0.19129682 0
1.3733757 2.3787515 -0.12787387 0
0.84866583 1.4699293 -0.039463658 0
0.83716607 1.4500113 4.7799411e-05 0
0.83239716 1.4417512 0.038802259 0
0.83777362 1.4510635 0.078100279 0
0.83668554 1.4491789 0.11708025 0
0.8390367 1.4532512 0.15672836 0
0.84261507 1.4594492 0.19705565 0
0.83725971 1.4501734 0.23542517 0
0.83762294 1.4508026 0.27542675 0
0.84048462 1.455759 0.3167111 0
0.43278742 0.79529792 -0.19246005 0
0.48924944 0.89905363 -0.19278736 0
0.55488855 1.0196732 -0.19079167 0
0.64643824 1.1879066 -0.19006006 0
0.78071022 1.4346472 -0.19089103 0
0.97967827 1.8002745 -0.19130804 0
1.296155 2.3818378 -0.1895715 0
1.2925401 2.375195 -0.1258889 0
1.2907023 2.3718178 -0.06278237 0
0.84804982 1.5583916 5.0650444e-05 0
0.83322984 1.5311582 0.040629569 0
0.83612907 1.5364859 0.081536159 0
0.8423335 1.5478872 0.12329812 0
0.8450225 1.5528287 0.16511476 0
0.83740807 1.5388362 0.20485559 0
0.83463383 1.5337383 0.24549332 0
0.83980304 1.5432373 0.28885907 0
0.83714831 1.5383589 0.32997948 0
0.41398114 0.80869472 -0.19311202 0
0.46405593 0.90651369 -0.19181445 0
0.52861595 1.0326289 -0.1906587 0
0.61950392 1.2101747 -0.19106038 0
0.74494785 1.4552242 -0.1910664 0
0.93738514 1.8311423 -0.19201297 0
1.2380024 2.4183855 -0.18993297 0
1.2443612 2.4308071 -0.12713136 0
1.2517139 2.4451702 -0.063867435 0
1.2418436 2.425889 7.7802149e-05 0
0.85028225 1.6609905 0.04349139 0
0.83971697 1.6403517 0.085895941 0
0.8354547 1.6320255 0.12827975 0
0.84257871 1.645942 0.17269942 0
0.84293067 1.6466295 0.21630438 0
0.84099001 1.6428385 0.25947607 0
0.83887154 1.6387001 0.30266818 0
0.83889741 1.6387507 0.34686154 0
0.39046633 0.81268245 -0.19164991 0
0.43965426 0.91505784 -0.19121352 0
0.49740005 1.0352449 -0.18876372 0
0.58886153 1.2256049 -0.19108917 0
0.71096808 1.4797468 -0.19186902 0
0.89298528 1.8585814 -0.1924656 0
1.1834313 2.4630902 -0.19103731 0
1.784837 3.7148035 -0.19186735 0
4.5041904 9.3746271 -0.24181736 0
0.84844989 1.7658894 0.091319226 0
0.842583 1.7536784 0.13612697 0
0.83732837 1.7427419 0.1805812 0
0.8397814 1.7478476 0.22674412 0
0.84158796 1.7516075 0.2732136 0
0.83850658 1.7451942 0.31832746 0
0.83729041 1.7426629 0.3642669 0
0.37015846 0.8229897 -0.19181637 0
0.41673145 0.92653751 -0.19135356 0
0.47500432 1.0560981 -0.19031946 0
0.55546129 1.2349817 -0.19030474 0
0.6757257 1.502371 -0.19252987 0
0.8449406 1.8785938 -0.1922684 0
1.123286 2.4974515 -0.19144253 0
1.6911727 3.7600594 -0.1919391 0
4.266387 9.4856482 -0.24182652 0
1.0699606 2.378891 0.12158409 0
0.85012048 1.8901105 0.14500563 0
0.84048283 1.8686827 0.19137204 0
0.83838224 1.8640125 0.23899278 0
0.83342612 1.8529932 0.28565568 0
0.83963126 1.8667893 0.33653417 0
0.83381498 1.8538578 0.38298896 0
0.356004 0.84809554 -0.19551139 0
0.39391309 0.93840504 -0.19169019 0
0.44774053 1.0666362 -0.1901215 0
0.52202511 1.2436017 -0.18954243 0
0.63629007 1.515811 -0.19213302 0
0.79781133 1.9005973 -0.19239827 0
1.0630975 2.5325789 -0.19201732 0
1.5915303 3.7914457 -0.19142982 0
4.0247631 9.588048 -0.24177042 0
0.99383831 2.3675854 0.11968614 0
0.84711909 2.0180614 0.15313275 0
0.83804554 1.9964459 0.20222576 0
0.83758509 1.9953489 0.25304097 0
0.83872229 1.998058 0.30465835 0
0.84107488 2.0036626 0.35726827 0
0.83558351 1.9905806 0.40674818 0
0.32891852 0.84253037 -0.19225346 0
0.37134379 0.95120341 -0.19232878 0
0.42081285 1.0779191 -0.19017896 0
0.49244151 1.2613972 -0.19029981 0
0.5992623 1.5350205 -0.19258945 0
0.74781132 1.9155313 -0.1919383 0
1.0018498 2.5662551 -0.19259214 0
1.4969283 3.8344071 -0.19163036 0
3.7805948 9.6840582 -0.24170835 0
0.92624736 2.3725982 0.11871997 0
0.84764725 2.1712627 0.16308253 0
0.83666819 2.1431396 0.2148774 0
0.83631766 2.1422417 0.2689068 0
0.83536249 2.1397953 0.32295242 0
0.83626479 2.1421063 0.37807003 0
0.84012842 2.152003 0.43526134 0
0.30904377 0.85467571 -0.1931835 0
0.34523645 0.95476836 -0.19122688 0
0.39748353 1.0992602 -0.19211303 0
0.43460122 1.2019111 -0.17961344 0
0.43235642 1.1957029 -0.14860097 0
0.43462309 1.2019715 -0.11930169 0
0.93250716 2.5788941 -0.19171333 0
1.3997642 3.8711166 -0.19163835 0
3.533391 9.7717657 -0.24159469 0
0.85964084 2.3773789 0.11783601 0
0.8508355 2.3530273 0.1750661 0
0.84084183 2.3253894 0.23094895 0
0.83754212 2.3162637 0.28800592 0
0.83880067 2.3197443 0.34680596 0
0.83364737 2.3054929 0.40306494 0
0.83770096 2.3167031 0.46414921 0
0.28749597 0.86254585 -0.19326074 0
0.32219395 0.96664673 -0.19191614 0
0.36697131 1.1009878 -0.19073555 0
0.40449226 1.2135582 -0.17977111 0
0.40108326 1.2033305 -0.14824364 0
0.40562698 1.2169626 -0.11973537 0
0.86968631 2.6092339 -0.19227579 0
1.302295 3.9071469 -0.19173381 0
3.2897246 9.8698359 -0.24188952 0
0.79220814 2.3767838 0.11677828 0
0.84732473 2.5421448 0.18748569 0
0.83928216 2.5180154 0.24789713 0
0.83614522 2.5086038 0.30919912 0
0.83833128 2.5151627 0.37273937 0
0.83876115 2.5164523 0.43610668 0
0.83825469 2.5149329 0.49946654 0
0.26221702 0.85831541 -0.19076928 0
0.29412609 0.96276343 -0.18961094 0
0.33786482 1.1059334 -0.19005451 0
0.38100639 1.2471489 -0.18326421 0
0.383342 1.254794 -0.1533429 0
0.38055435 1.2456692 -0.12157605 0
0.72329569 2.3675652 -0.17306674 0
0.72667867 2.3786385 -0.11578904 0
0.72505635 2.3733282 -0.057698566 0
0.72468001 2.3720963 7.0809219e-05 0
0.72558928 2.3750727 0.057882849 0
0.72434211 2.3709903 0.11555859 0
0.84396607 2.7625556 0.20210589 0
0.83269429 2.7256596 0.26618576 0
0.83593673 2.7362731 0.33455357 0
0.83603299 2.7365882 0.40229878 0
0.83578736 2.7357841 0.47031188 0
0.24316756 0.87433088 -0.19290337 0
0.27432337 0.98635435 -0.19283205 0
0.30982843 1.1140161 -0.19003916 0
0.36105004 1.298188 -0.18936487 0
0.43875599 1.5775867 -0.19137576 0
0.54994506 1.9773768 -0.19157429 0
0.65910298 2.3698642 -0.17196402 0
0.65763718 2.3645935 -0.11426099 0
0.65633613 2.3599157 -0.056951631 0
0.65744299 2.3638954 7.0046786e-05 0
0.65733314 2.3635004 0.057178289 0
0.65932393 2.3706584 0.11469486 0
0.81178725 2.918854 0.2119741 0
0.8083359 2.9064443 0.28175893 0
0.80903113 2.9089441 0.3530564 0
0.80911726 2.9092538 0.42454466 0
0.81248033 2.9213462 0.49852806 0
0.22043142 0.87780446 -0.19238102 0
0.24890235 0.99118173 -0.19248638 0
0.28245875 1.1248103 -0.19060373 0
0.32870302 1.3089648 -0.18966635 0
0.39641139 1.5785939 -0.19022366 0
0.49818987 1.9838972 -0.19092701 0
0.59810603 2.3817847 -0.17167895 0
0.59418261 2.3661606 -0.11357588 0
0.59528995 2.3705704 -0.056828078 0
0.59574825 2.3723953 6.9830865e-05 0
0.59634358 2.3747661 0.057068534 0
0.59670794 2.3762169 0.11419878 0
0.76604939 3.0505705 0.22006547 0
0.76778328 3.0574751 0.29442796 0
0.76697958 3.0542748 0.36822838 0
0.76719064 3.055115 0.44286335 0
0.19909777 0.88702691 -0.19323939 0
0.22369492 0.99661291 -0.19238342 0
0.25611585 1.1410558 -0.19220001 0
0.29813442 1.3282582 -0.19131069 0
0.35485503 1.5809617 -0.18936944 0
0.44827747 1.9971803 -0.19105567 0
0.55182016 2.4584873 -0.17614768 0
0.55260623 2.4619892 -0.11746879 0
0.55134767 2.4563823 -0.058532957 0
0.55228615 2.4605632 7.199285e-05 0
0.5511719 2.4555988 0.058658067 0
0.55097568 2.4547248 0.11726614 0
0.7137537 3.1799388 0.22802582 0
0.71242428 3.174016 0.30382228 0
0.71041787 3.1650767 0.37930435 0
0.71256661 3.17465 0.45743823 0
0.17380419 0.87738264 -0.1901222 0
0.19727482 0.99586493 -0.19121701 0
0.22252223 1.1233166 -0.18820608 0
0.26611292 1.3433672 -0.19245818 0
0.31860882 1.6083722 -0.19162849 0
0.39731663 2.005698 -0.19085041 0
0.41589588 2.099488 -0.14962609 0
0.41428486 2.0913553 -0.099254251 0
0.41417783 2.0908151 -0.049557012 0
0.41612923 2.100666 6.1135965e-05 0
0.41550919 2.0975361 0.049838468 0
0.41307679 2.0852568 0.099086463 0
0.41377848 2.0887992 0.1489865 0
0.41487473 2.0943332 0.19940738 0
0.41422835 2.0910702 0.2492626 0
0.40659791 2.0525508 0.29418159 0
0.29294196 1.4788032 0.24785447 0
0.2696965 1.3614576 0.26149684 0
0.15316889 0.89054257 -0.192075 0
0.17219742 1.0011767 -0.1913415 0
0.19689205 1.1447544 -0.1909045 0
0.23342124 1.3571395 -0.19352563 0
0.28102979 1.6339415 -0.19376813 0
0.34734756 2.019521 -0.19127063 0
0.36709535 2.1343372 -0.15140119 0
0.87999707 5.1164103 -0.24169019 0
1.7622001 10.245646 -0.24171366 0
0.58062649 3.3758333 0.15966441 0
0.57921737 3.3676405 0.23908278 0
0.57898283 3.3662767 0.31901979 0
0.25953674 1.5089782 0.17903744 0
0.2703785 1.5720136 0.22425917 0
0.26835546 1.5602514 0.26028749 0
0.23629645 1.3738563 0.26264918 0
0.13120203 0.89789563 -0.19288529 0
0.14784694 1.011807 -0.19259863 0
0.1650168 1.1293107 -0.18757476 0
0.19898632 1.3617849 -0.19341031 0
0.23707847 1.6224728 -0.19163744 0
0.29466152 2.0165489 -0.1902242 0
0.39379695 2.6949933 -0.19040619 0
0.75113362 5.1404662 -0.24185398 0
1.5024737 10.282346 -0.24160789 0
0.50681633 3.4684539 0.16338798 0
0.50238228 3.4381089 0.24310802 0
0.50438297 3.4518008 0.32581466 0
0.22059804 1.5096872 0.17840414 0
0.27623826 1.890467 0.26860872 0
0.20033927 1.371044 0.26106173 0
0.10779525 0.89502311 -0.19162275 0
0.12080655 1.0030558 -0.19029185 0
0.13770507 1.1433641 -0.18927141 0
0.16322201 1.3552312 -0.19183332 0
0.19584686 1.626115 -0.19142283 0
0.24509758 2.0350432 -0.19132434 0
0.32624844 2.7088382 -0.19074187 0
0.62194192 5.1639786 -0.24214457 0
1.2431875 10.322177 -0.24172957 0
0.42376062 3.5184813 0.16518819 0
0.42263195 3.5091097 0.24729548 0
0.42337888 3.5153117 0.33069551 0
0.42325339 3.5142696 0.41389731 0
0.22979449 1.9079819 0.27018723 0
0.16453999 1.3661742 0.25926116 0
0.084565483 0.89099783 -0.19024339 0
0.095864095 1.0100421 -0.19109736 0
0.11033574 1.162518 -0.19192003 0
0.12977803 1.3673656 -0.19302584 0
0.15449239 1.6277608 -0.19109672 0
0.19360168 2.0398238 -0.19125348 0
0.25859559 2.7246115 -0.19133203 0
0.4899818 5.16254 -0.24142034 0
0.98379147 10.365412 -0.24208349 0
0.340083 3.5831785 0.16776924 0
0.33884537 3.5701385 0.25091374 0
0.33768803 3.5579443 0.33379802 0
0.33908862 3.5727012 0.41963756 0
0.33849037 3.5663981 0.50366354 0
0.17221907 1.8145324 0.29966792 0
0.13008018 1.3705492 0.25938576 0
0.062944919 0.90561086 -0.19296287 0
0.070376039 1.012525 -0.19117019 0
0.080119468 1.1527072 -0.18990606 0
0.093975574 1.35206 -0.19046971 0
0.11363095 1.6348487 -0.19153115 0
0.14115873 2.0309007 -0.1900223 0
0.18979834 2.7306962 -0.19136196 0
0.35935354 5.1701469 -0.2412751 0
0.72146422 10.379962 -0.24192099 0
0.25227109 3.6295135 0.16958658 0
0.25225937 3.6293449 0.25454631 0
0.13206162 1.9000174 0.17788583 0
0.13295595 1.9128845 0.22421548 0
0.13244538 1.9055388 0.26855156 0
0.12376686 1.7806777 0.29346752 0
0.095471703 1.3735852 0.25942171 0
0.040053025 0.90640366 -0.19285499 0
0.044565298 1.0085168 -0.19014049 0
0.050886817 1.1515733 -0.18944733 0
0.059695106 1.3509058 -0.19003434 0
0.072299741 1.6361498 -0.19140884 0
0.089916088 2.0348094 -0.19011514 0
0.12108111 2.7400765 -0.19174412 0
0.22921258 5.1871018 -0.24171938 0
0.45883432 10.383463 -0.24165574 0
0.16213915 3.6692235 0.1711963 0
0.16196433 3.6652675 0.2566973 0
0.085626572 1.9377372 0.18115726 0
0.084911034 1.9215444 0.22490771 0
0.085594192 1.9370043 0.27259478 0
0.075879507 1.7171601 0.28259379 0
0.060798269 1.3758703 0.25948086 0
0.017183922 0.9078176 -0.19300209 0
0.019145427 1.0114428 -0.19054037 0
0.021983646 1.1613843 -0.19090928 0
0.025795052 1.362739 -0.19154638 0
0.031054255 1.6405798 -0.19177434 0
0.038619939 2.040271 -0.19047371 0
0.052001093 2.7471902 -0.1920889 0
0.09838929 5.1978545 -0.24202767 0
0.19682245 10.398026 -0.24180205 0
0.069990791 3.6975765 0.17238185 0
0.069711804 3.682838 0.25772256 0
0.06970524 3.6824908 0.34399867 0
0.069721803 3.6833661 0.43077749 0
0.031880673 1.6842391 0.27695534 0
0.026041666 1.3757675 0.25925493 0
-0.0056657647 0.8983053 -0.19094937 0
-0.0063703377 1.0100151 -0.19024113 0
-0.0072503686 1.1495438 -0.18893284 0
-0.0085676406 1.3583969 -0.19090566 0
-0.010361377 1.6427932 -0.19200249 0
-0.012856778 2.0384383 -0.19027232 0
-0.017301327 2.7431202 -0.19177377 0
-0.032798223 5.2001486 -0.24209593 0
-0.065650694 10.408898 -0.24201635 0
-0.023495419 3.7251916 0.17364162 0
-0.02342638 3.7142456 0.25987905 0
-0.023430971 3.7149737 0.34697777 0
-0.023435244 3.715651 0.43448409 0
-0.010361468 1.6428077 0.27009937 0
-0.0085914861 1.3621776 0.25665313 0
-0.028416974 0.90066212 -0.19154181 0
-0.031754468 1.0064423 -0.18965873 0
-0.036318514 1.1510975 -0.18927859 0
-0.043129694 1.3669746 -0.19220291 0
-0.051631738 1.6364427 -0.19135164 0
-0.064521268 2.04497 -0.19097318 0
-0.086327821 2.7361181 -0.19137564 0
-0.11987982 3.7995322 -0.17697394 0
-0.12015697 3.8083162 -0.088589109 0
-0.12000321 3.803443 0.0001086362 0
-0.11990635 3.8003731 0.088621557 0
-0.11740087 3.720963 0.17352737 0
-0.11746018 3.7228432 0.26060504 0
-0.11759494 3.7271142 0.34827802 0
-0.11745234 3.7225945 0.43550399 0
-0.051551443 1.6338978 0.2687628 0
-0.042874195 1.3588766 0.25615349 0
-0.051399816 0.90436149 -0.1925431 0
-0.057350501 1.0090617 -0.19036448 0
-0.066819102 1.1756583 -0.19353287 0
-0.07724864 1.3591623 -0.19131769 0
-0.092892498 1.6344105 -0.19132721 0
-0.11686151 2.0561366 -0.19223024 0
-0.15610595 2.7466288 -0.19232513 0
-0.21512885 3.7851157 -0.17649913 0
-0.2151636 3.785727 -0.088161893 0
-0.21581662 3.7972167 0.00010857936 0
-0.21525532 3.7873409 0.088416189 0
-0.21238139 3.7367752 0.17445919 0
-0.21169201 3.7246456 0.26102212 0
-0.21189983 3.7283022 0.34877771 0
-0.078896075 1.3881484 0.16257979 0
-0.077568099 1.3647832 0.19218847 0
-0.077839665 1.3695612 0.22553293 0
-0.078247927 1.3767445 0.25981119 0
-0.073560402 0.89497823 -0.19087987 0
-0.08432661 1.0259662 -0.19389336 0
-0.095393538 1.1606128 -0.1913915 0
-0.11042114 1.3434473 -0.18943758 0
-0.13459133 1.6375155 -0.19202721 0
-0.16862573 2.0515978 -0.19214259 0
-0.22473605 2.7342684 -0.19179572 0
-0.42536205 5.1752 -0.24174207 0
-0.85205936 10.366646 -0.24184191 0
-0.30627313 3.7262957 0.17427532 0
-0.30615416 3.724848 0.26149455 0
-0.30600631 3.7230492 0.34889767 0
-0.30440879 3.7036128 0.43452817 0
-0.11476861 1.3963411 0.19697763 0
-0.11520176 1.401611 0.23121591 0
-0.11302784 1.3751619 0.2599681 0
-0.097149879 0.90242094 -0.19292875 0
-0.1078077 1.001421 -0.18970847 0
-0.12396208 1.1514783 -0.19034049 0
-0.14581753 1.3544927 -0.19145305 0
-0.17628615 1.6375142 -0.19248752 0
-0.21936038 2.0376289 -0.19129193 0
-0.29145113 2.7072766 -0.19035774 0
-0.55662036 5.1704221 -0.24209803 0
-1.1123762 10.332814 -0.24163067 0
-0.39929926 3.7090733 0.17388581 0
-0.39958858 3.7117608 0.26120061 0
-0.39942837 3.7102726 0.34853408 0
-0.39878976 3.7043407 0.43565571 0
-0.15059437 1.3988644 0.19780676 0
-0.14950629 1.3887572 0.22964485 0
-0.14920112 1.3859226 0.26263061 0
-0.12011122 0.90135825 -0.1932881 0
-0.1352658 1.0150837 -0.19288205 0
-0.15400544 1.1557128 -0.19162196 0
-0.18016441 1.3520192 -0.19168513 0
-0.21625033 1.6228211 -0.191341 0
-0.27241945 2.0443344 -0.19250563 0
-0.36008045 2.7021747 -0.19057733 0
-0.68671787 5.1533804 -0.24203455 0
-1.3740559 10.311415 -0.2418642 0
-0.49263626 3.6969216 0.17384367 0
-0.49054521 3.6812294 0.25984058 0
-0.24198419 1.8159373 0.17110401 0
-0.24266554 1.8210504 0.21481983 0
-0.18527512 1.3903719 0.19720432 0
-0.18548989 1.3919835 0.23087896 0
-0.18324035 1.3751022 0.26137331 0
-0.14237767 0.89528996 -0.19269603 0
-0.16034712 1.0082843 -0.19229782 0
-0.1809632 1.137921 -0.18936898 0
-0.21342419 1.3420401 -0.19097319 0
-0.2576133 1.6199071 -0.19170299 0
-0.32175639 2.0232475 -0.19122376 0
-0.42857841 2.6949587 -0.19077054 0
-0.81832635 5.1457462 -0.24256879 0
-1.6335764 10.272148 -0.24183325 0
-0.58195901 3.6594365 0.17271666 0
-0.57983273 3.6460662 0.2583093 0
-0.28075948 1.7654533 0.16696174 0
-0.27928457 1.7561789 0.20793258 0
-0.27972722 1.7589624 0.25040522 0
-0.21921667 1.378464 0.26298022 0
-0.16632852 0.89901823 -0.19434014 0
-0.18728863 1.0123093 -0.19390522 0
-0.21041986 1.1373353 -0.19009478 0
-0.2487338 1.3444251 -0.19214472 0
-0.29594398 1.5995997 -0.19012316 0
-0.37191573 2.0102327 -0.1908201 0
-0.4953818 2.6775763 -0.19036451 0
-0.94350058 5.0996923 -0.24144347 0
-1.8930944 10.232319 -0.24194339 0
-0.66869467 3.6143453 0.17133047 0
-0.6670115 3.605248 0.25652847 0
-0.66800535 3.6106198 0.34294733 0
-0.66770393 3.6089904 0.42916515 0
-0.28867346 1.560302 0.26088271 0
-0.25320393 1.3685864 0.26223147 0
-0.18795152 0.88976759 -0.19330432 0
-0.20917922 0.99026 -0.1906323 0
-0.23863119 1.1296865 -0.18976258 0
-0.2797747 1.3244609 -0.19024006 0
-0.34022552 1.6106367 -0.19239433 0
-0.42422986 2.0083156 -0.19159347 0
-0.56440818 2.6719236 -0.1909146 0
-0.62027603 2.9364033 -0.13971987 0
-0.61932963 2.9319229 -0.069672793 0
-0.61691463 2.9204903 8.5215128e-05 0
-0.75463963 3.5724843 0.17019477 0
-0.75188535 3.5594454 0.25453866 0
-0.75393629 3.5691547 0.34070775 0
-0.75572908 3.5776417 0.42756933 0
-0.2901479 1.3735679 0.26450488 0
-0.20798238 0.87481958 -0.19113638 0
-0.23369265 0.98296255 -0.19030233 0
-0.27087939 1.1393782 -0.19247769 0
-0.31442836 1.3225547 -0.1910453 0
-0.374789 1.5764447 -0.18937965 0
-0.47378495 1.9928435 -0.19119734 0
-0.5227735 2.1989002 -0.15800852 0
-0.62017465 2.6085908 -0.12482693 0
-0.62068164 2.6107233 -0.062392354 0
-0.6173169 2.5965705 7.6194025e-05 0
-0.83760297 3.5231421 0.16879748 0
-0.83418173 3.5087514 0.25233871 0
-0.83516324 3.5128798 0.33724058 0
-0.83502263 3.5122886 0.42214316 0
-0.83471698 3.5110028 0.50738049 0
-0.23083219 0.87248158 -0.19183736 0
-0.26188815 0.98986447 -0.19285679 0
-0.29761803 1.1249135 -0.19124219 0
-0.34833995 1.3166282 -0.19139825 0
-0.41603184 1.5724847 -0.1901048 0
-0.52060807 1.9677539 -0.18999033 0
-0.58047909 2.1940496 -0.15866221 0
-0.64377111 2.4332759 -0.11717792 0
-0.64696664 2.445354 -0.058811784 0
-0.64976871 2.455945 7.2525632e-05 0
-0.91285306 3.450331 0.16635989 0
-0.91506326 3.4586849 0.2503193 0
-0.91087538 3.4428561 0.33261931 0
-0.91179693 3.4463391 0.41684985 0
-0.91234326 3.4484041 0.50150216 0
-0.25167224 0.86260933 -0.1910025 0
-0.28197554 0.96647412 -0.1896258 0
-0.32671425 1.1198167 -0.19171651 0
-0.34464076 1.18126 -0.17292917 0
-0.46007958 1.5769277 -0.19198461 0
-0.57437795 1.9686866 -0.19141909 0
-0.71525699 2.451551 -0.17853197 0
-0.71558732 2.4526834 -0.11894437 0
-0.71524364 2.4515054 -0.059374977 0
-0.71311086 2.444195 7.2686998e-05 0
-0.98380506 3.3720024 0.1637283 0
-0.98253745 3.3676577 0.24544787 0
-0.98428404 3.3736441 0.32822818 0
-0.98252177 3.367604 0.41019529 0
-0.98161232 3.3644869 0.49274418 0
-0.27136734 0.84975564 -0.18961255 0
-0.30921027 0.96825647 -0.19144574 0
-0.35313192 1.105792 -0.19078057 0
-0.37886095 1.1863595 -0.17501982 0
-0.39762509 1.2451173 -0.15276118 0
-0.39898756 1.2493837 -0.12242008 0
-0.39740053 1.2444141 -0.091324665 0
-0.39386249 1.2333351 -0.060274225 0
-0.39899743 1.2494146 -0.030494764 0
-0.39616251 1.2405374 3.7177386e-05 0
-0.3994402 1.2508011 0.030603614 0
-0.39858332 1.2481179 0.061071642 0
-0.3995654 1.2511932 0.091897525 0
-0.39860624 1.2481897 0.12237854 0
-0.39545634 1.2383261 0.15200321 0
-0.39729658 1.2440885 0.18361242 0
-0.40011415 1.2529114 0.21623999 0
-0.40406713 1.2652898 0.25025433 0
-0.29640943 0.85325557 -0.19200169 0
-0.33723882 0.97078866 -0.19356769 0
-0.38082358 1.0962534 -0.19073242 0
-0.43117628 1.2412006 -0.18465698 0
-0.43591928 1.254854 -0.15525615 0
-0.43410358 1.2496272 -0.12347817 0
-0.43326592 1.247216 -0.092303403 0
-0.43440112 1.2504839 -0.061628483 0
-0.432248 1.2442857 -0.0306261 0
-0.4332619 1.2472043 3.7692895e-05 0
-0.42998174 1.237762 0.030540384 0
-0.43538648 1.2533202 0.061844192 0
-0.43521821 1.2528359 0.092795417 0
-0.43342331 1.247669 0.12336074 0
-0.43127111 1.2414737 0.15367673 0
-0.4305957 1.2395294 0.18448475 0
-0.43144396 1.2419711 0.21616232 0
-0.43487674 1.2518529 0.24968807 0
-0.31840724 0.84700477 -0.19234221 0
-0.36066961 0.95942825 -0.19305609 0
-0.40594262 1.0798602 -0.18960246 0
-0.48072028 1.2787787 -0.19199148 0
-0.48686126 1.2951144 -0.16170616 0
-0.51253867 1.3634197 -0.13595715 0
-0.51248717 1.3632827 -0.10181806 0
-0.51167607 1.3611251 -0.067696199 0
-0.51603502 1.3727205 -0.034097027 0
-0.51036668 1.3576419 4.1406638e-05 0
-1.2043743 3.2037926 0.079774588 0
-1.1922184 3.1714563 0.15792775 0
-1.1595769 3.0846257 0.23056726 0
-1.1602273 3.0863559 0.3079544 0
-1.1611291 3.0887547 0.38584855 0
-1.1625469 3.0925264 0.46449378 0
-0.33737335 0.83301431 -0.19103797 0
-0.37977359 0.93770546 -0.19055307 0
-0.43248716 1.0678614 -0.18935196 0
-0.51178718 1.2636625 -0.19160029 0
-0.50977105 1.2586844 -0.15871346 0
-0.5125137 1.2654563 -0.12743777 0
-0.50923908 1.2573708 -0.094837643 0
-0.51128507 1.2624227 -0.063408799 0
-0.51468313 1.270813 -0.031878255 0
-0.51089609 1.2614622 3.8854152e-05 0
-1.2740057 3.1456692 0.15819445 0
-1.1950699 2.9507675 0.22274534 0
-1.2008878 2.9651327 0.29878792 0
-1.2002221 2.9634891 0.3738654 0
-1.1961917 2.9535375 0.44800973 0
-0.35942328 0.82685846 -0.19164559 0
-0.40392783 0.92924184 -0.19084407 0
-0.45949847 1.0570829 -0.18943681 0
-0.51372969 1.1818426 -0.18110278 0
-0.51418 1.1828786 -0.15074313 0
-0.51049167 1.1743934 -0.11952674 0
-0.51010758 1.17351 -0.089454986 0
-0.51308316 1.1803552 -0.05991808 0
-0.51133698 1.1763382 -0.029822603 0
-0.50543475 1.16276 3.6195426e-05 0
-1.3569396 3.121659 0.15865877 0
-1.2277148 2.8243756 0.21547483 0
-1.2252289 2.8186567 0.28705263 0
-1.2253554 2.8189478 0.35941768 0
-1.2250651 2.81828 0.43204555 0
-1.2262936 2.821106 0.50574273 0
-0.38425964 0.82631826 -0.19370654 0
-0.42865619 0.92178929 -0.19147447 0
-0.48872074 1.0509531 -0.19048814 0
-0.51525259 1.1080077 -0.17172658 0
-0.5137381 1.1047509 -0.14239377 0
-0.51198554 1.1009822 -0.1133342 0
-0.51067752 1.0981693 -0.084667429 0
-0.51611626 1.109865 -0.056982897 0
-0.5121631 1.1013639 -0.028240571 0
-0.51505053 1.1075732 3.4871071e-05 0
-1.4298167 3.0747015 0.15805595 0
-1.2488174 2.6854777 0.20721677 0
-1.2401192 2.6667728 0.27468479 0
-1.2347118 2.6551445 0.34239689 0
-1.2437763 2.6746371 0.41470525 0
-1.2400368 2.6665957 0.48350024 0
-0.4011851 0.80869794 -0.19188848 0
-0.45077559 0.90866113 -0.19104989 0
-0.51213044 1.0323385 -0.18939669 0
-0.51030195 1.0286527 -0.16137238 0
-0.51122695 1.0305173 -0.13444591 0
-0.51486325 1.0378473 -0.10813837 0
-0.51300764 1.0341067 -0.080700845 0
-0.51323426 1.0345635 -0.053764701 0
-0.50870049 1.0254245 -0.026614111 0
-0.50619358 1.0203712 3.251747e-05 0
-1.2500126 2.5197413 0.19679995 0
-1.2405797 2.5007267 0.26072368 0
-1.2409785 2.5015304 0.3265225 0
-1.244746 2.5091248 0.3937881 0
-1.246057 2.5117676 0.46098271 0
-0.4238646 0.80286986 -0.19298255 0
-0.47516778 0.90004659 -0.19169913 0
-0.5314762 1.006704 -0.18709508 0
-0.53042889 1.0047202 -0.15966727 0
-0.53592139 1.015124 -0.13415958 0
-0.53202021 1.0077345 -0.10636599 0
-0.53385854 1.0112165 -0.079940565 0
-0.53809422 1.0192397 -0.05365704 0
-0.52920341 1.002399 -0.026354769 0
-0.53548932 1.0143056 3.2744447e-05 0
-1.2489185 2.3656588 0.18716791 0
-1.238175 2.3453088 0.2476992 0
-1.234334 2.3380332 0.30914932 0
-1.2418416 2.3522537 0.3739683 0
-1.2412479 2.3511293 0.43711126 0
-1.2429446 2.3543432 0.50160426 0
-0.44303846 0.79022813 -0.19257033 0
-0.4991591 0.89032799 -0.19225125 0
-0.55737865 0.99417162 -0.18732075 0
-0.56218743 1.0027488 -0.16155742 0
-0.5590083 0.99707842 -0.13359675 0
-0.55637789 0.99238664 -0.10619439 0
-0.55941045 0.9977957 -0.079970285 0
-0.56352222 1.0051297 -0.053645894 0
-0.56296664 1.0041387 -0.026765555 0
-0.55469388 0.98938292 3.2381522e-05 0
-1.295027 2.3098824 0.061721746 0
-1.2956915 2.3110676 0.12349816 0
-1.2461301 2.2226672 0.17828621 0
-1.2418396 2.2150145 0.23717293 0
-1.2396406 2.2110922 0.29640698 0
-1.241734 2.2148261 0.35698852 0
-1.242269 2.2157803 0.41764393 0
-1.2409648 2.213454 0.47810796 0
-0.4558185 0.76699072 -0.18965073 0
-0.51809925 0.87178856 -0.19101076 0
-0.58763218 0.98878926 -0.18904091 0
-0.59008479 0.99291623 -0.16232105 0
-0.5823549 0.97990936 -0.13322324 0
-0.58790994 0.98925668 -0.10741308 0
-0.58197135 0.97926396 -0.079636894 0
-0.5812189 0.97799784 -0.052963875 0
-0.58803719 0.98947078 -0.02676166 0
-0.58456963 0.98363602 3.266591e-05 0
-1.3562777 2.2821636 0.061876055 0
-1.3610891 2.2902596 0.1241824 0
-1.2519801 2.1066656 0.17146142 0
-1.2401865 2.0868208 0.22672594 0
-1.2414817 2.0890002 0.28414997 0
-1.2411115 2.0883775 0.34154752 0
-1.2390635 2.0849311 0.39874816 0
-1.2418045 2.0895433 0.45796719 0
-0.48614991 0.77293289 -0.19409214 0
-0.54182076 0.86144435 -0.19167951 0
-0.61379141 0.97587097 -0.18947253 0
-0.61314321 0.97484034 -0.16184434 0
-0.61264944 0.97405535 -0.13448675 0
-0.61218369 0.97331482 -0.10732559 0
-0.61265433 0.9740631 -0.080445804 0
-0.61091989 0.97130543 -0.05341946 0
-0.61220694 0.97335172 -0.026735092 0
-0.61199391 0.9730131 3.2815635e-05 0
-1.2551084 1.9955049 0.16493978 0
-1.240732 1.9726478 0.21765438 0
-1.2488478 1.9855514 0.27427864 0
-1.239068 1.9700023 0.327198 0
-1.2370384 1.9667754 0.38200015 0
-1.2372764 1.9671538 0.4378477 0
-0.49496728 0.74458086 -0.19004913 0
-0.56626749 0.85183799 -0.19266076 0
-0.63684225 0.95800388 -0.18906403 0
-0.63823551 0.96009976 -0.16201983 0
-0.64248222 0.96648818 -0.13563764 0
-0.63030988 0.94817722 -0.10627406 0
-0.64396715 0.96872187 -0.081321098 0
-0.63276517 0.95187068 -0.05321198 0
-0.64278054 0.96693689 -0.026995897 0
-0.63777584 0.95940828 3.2889206e-05 0
-1.2507348 1.8814844 0.15807422 0
-1.2479087 1.8772333 0.2105348 0
-1.2380928 1.8624671 0.26150939 0
-1.2443609 1.8718963 0.31601924 0
-1.2415622 1.8676862 0.36872321 0
-1.2384163 1.8629538 0.42147774 0
-0.5156948 0.73484576 -0.19082569 0
-0.58673996 0.83608252 -0.19238536 0
-0.66638786 0.94957775 -0.19065966 0
-0.66440576 0.94675332 -0.16254564 0
-0.66238701 0.94387668 -0.13476762 0
-0.66782153 0.95162064 -0.10851462 0
-0.66460145 0.94703215 -0.080882668 0
-0.67072493 0.95575786 -0.054358315 0
-0.66986716 0.95453566 -0.027113054 0
-0.66777337 0.95155203 3.3187087e-05 0
-1.2980592 1.8496858 0.15810478 0
-1.2513634 1.7831459 0.20346005 0
-1.2356933 1.7608168 0.25153562 0
-1.2401762 1.7672046 0.30353251 0
-1.2379839 1.7640808 0.35432491 0
-1.2430447 1.7712921 0.40770814 0
-0.53873676 0.72790372 -0.19249259 0
-0.60061163 0.81150478 -0.19015749 0
-0.69181949 0.93473846 -0.19112515 0
-0.68851632 0.9302755 -0.16264829 0
-0.68803549 0.92962575 -0.13516925 0
-0.69670486 0.94133925 -0.10931255 0
-0.68917793 0.93116939 -0.08098767 0
-0.69284171 0.93611962 -0.054218676 0
-0.68611145 0.92702615 -0.026814995 0
-0.69254708 0.93572152 3.3234006e-05 0
-1.3494489 1.8232816 0.15870853 0
-1.2393799 1.6745641 0.1945779 0
-1.2441504 1.6810097 0.24454288 0
-1.2434201 1.680023 0.29385498 0
-1.2385218 1.6734047 0.3422817 0
-1.2471365 1.6850443 0.39497533 0
-0.54854846 0.70333135 -0.18959534 0
