# .PCD v0.7 - Point Cloud Data file format
VERSION 0.7
FIELDS x y z intensity
SIZE 4 4 4 4
TYPE F F F F
COUNT 1 1 1 1
WIDTH 1357
HEIGHT 1
VIEWPOINT 0 0 0 1 0 0 0
POINTS 1357
DATA ascii
0.98473328 -0.95415121 -0.19269677 0
1.1686498 -1.132356 -0.19018316 0
1.4796743 -1.4337213 -0.19231266 0
1.956146 -1.8953956 -0.1904186 0
3.7275693 -3.6118052 -0.24163574 0
7.4651284 -7.2332902 -0.24168012 0
0.66991299 -0.61710864 -0.19360729 0
0.75367928 -0.69427222 -0.19300659 0
0.85804719 -0.79041356 -0.19173531 0
1.0099247 -0.93031961 -0.19297013 0
1.2060972 -1.1110294 -0.19165286 0
1.5099339 -1.3909168 -0.19162184 0
2.5460587 -2.3453712 -0.24200359 0
3.8251622 -3.5236523 -0.24211997 0
7.6485524 -7.0456729 -0.24178436 0
0.68042332 -0.59576595 -0.19223797 0
0.76524937 -0.67003804 -0.19157782 0
0.8715952 -0.76315248 -0.19039804 0
1.0209993 -0.89396793 -0.1907143 0
1.2193072 -1.0676026 -0.18940996 0
1.5201381 -1.3310045 -0.18859354 0
2.591754 -2.2692914 -0.24082628 0
3.9030747 -3.4174592 -0.24151511 0
7.8198886 -6.8469486 -0.24166082 0
0.69407499 -0.57744056 -0.19191626 0
0.77962667 -0.6486159 -0.19101802 0
0.89920747 -0.74810201 -0.19224407 0
1.0467974 -0.8708905 -0.19136648 0
1.250138 -1.0400611 -0.190061 0
1.5585376 -1.2966363 -0.18923716 0
2.6615701 -2.2143121 -0.2420435 0
3.9875269 -3.317451 -0.24148296 0
7.9976277 -6.6536827 -0.24188682 0
0.69741279 -0.55104476 -0.1889334 0
0.80187935 -0.63358665 -0.19249088 0
0.91511852 -0.72306001 -0.19168313 0
1.0739892 -0.84858793 -0.1923608 0
1.2716831 -1.0047914 -0.18942071 0
1.6032267 -1.2667528 -0.19072057 0
2.7120826 -2.1428902 -0.24164172 0
4.0726829 -3.2179372 -0.2416445 0
8.1585932 -6.4463263 -0.24175744 0
0.71576768 -0.53677779 -0.19017515 0
0.8135463 -0.61010516 -0.19153413 0
0.93871063 -0.70397002 -0.19284174 0
1.0917251 -0.81872064 -0.19177537 0
1.3109472 -0.98312247 -0.19151224 0
1.6292107 -1.2217988 -0.19008274 0
2.7731404 -2.0796695 -0.24232803 0
4.1506515 -3.1127105 -0.24153242 0
8.3108644 -6.2325912 -0.24153137 0
0.73726356 -0.52436548 -0.1923089 0
0.8285107 -0.58926338 -0.19149481 0
0.94984573 -0.67556071 -0.19156553 0
1.1172642 -0.7946341 -0.19267721 0
1.3237675 -0.94150591 -0.18985327 0
1.6738299 -1.1904814 -0.19172189 0
2.8227551 -2.0076339 -0.24215864 0
4.2258029 -3.0055263 -0.24141449 0
8.4793997 -6.0308204 -0.2419287 0
0.74671239 -0.50320655 -0.1913998 0
0.8408438 -0.56664133 -0.19097905 0
0.97172964 -0.65484476 -0.19258446 0
1.1373484 -0.76645464 -0.19274339 0
1.3491726 -0.90920204 -0.19014518 0
1.7016683 -1.1467475 -0.1915344 0
2.8737245 -1.9365916 -0.24226093 0
4.3092923 -2.9040151 -0.24191988 0
8.6314697 -5.8167138 -0.24200179 0
0.75584936 -0.48208743 -0.19056234 0
0.86057341 -0.54888141 -0.19225252 0
0.98290825 -0.62690765 -0.19160308 0
1.1490349 -0.73286462 -0.19152826 0
1.3693346 -0.87337375 -0.18981962 0
1.7344315 -1.1062359 -0.19201836 0
2.9107933 -1.8565298 -0.24135889 0
4.3806477 -2.7940161 -0.24188986 0
8.7728443 -5.5953984 -0.24192899 0
0.78215855 -0.47153616 -0.19413304 0
0.87349224 -0.52659804 -0.19210823 0
0.99925655 -0.60241699 -0.191765 0
1.1668203 -0.7034353 -0.19147253 0
1.4000856 -0.84406281 -0.19106843 0
1.7544024 -1.0576681 -0.1912131 0
2.9673254 -1.7888972 -0.24222556 0
4.4382191 -2.6756477 -0.24126309 0
8.9149885 -5.374536 -0.24203108 0
0.78868973 -0.44873992 -0.1928816 0
0.8916238 -0.50730622 -0.19321842 0
1.01041 -0.57489181 -0.19106005 0
1.1747316 -0.66838568 -0.18994203 0
1.4071283 -0.80061221 -0.18921171 0
1.7845205 -1.0153366 -0.19164166 0
3.0099618 -1.7125746 -0.24210052 0
4.5065527 -2.5640883 -0.24138293 0
9.0389061 -5.1428561 -0.24179435 0
0.79570305 -0.42652255 -0.19190298 0
0.90162975 -0.48330271 -0.19268201 0
1.0284721 -0.55129427 -0.19178332 0
1.2097805 -0.64848143 -0.19290127 0
1.437373 -0.77047843 -0.19060306 0
1.8058512 -0.96799463 -0.19124779 0
3.05213 -1.6360403 -0.24209389 0
4.5810366 -2.4555838 -0.24197578 0
9.1688108 -4.9147792 -0.2418741 0
0.81447411 -0.41047463 -0.19386975 0
0.91397732 -0.46062177 -0.19277491 0
1.0448481 -0.52657735 -0.19229749 0
1.2261791 -0.61796373 -0.19296768 0
1.4448819 -0.72818446 -0.18910144 0
1.8415262 -0.9280833 -0.19248393 0
3.0918689 -1.5582248 -0.2420494 0
4.6332502 -2.3350427 -0.24154389 0
9.3026829 -4.6883202 -0.24220701 0
0.81202167 -0.38386142 -0.1909191 0
0.93199474 -0.44057545 -0.19416794 0
1.0535058 -0.49801651 -0.19151656 0
1.2234545 -0.57835519 -0.19018114 0
1.4899698 -0.7043432 -0.1926145 0
1.8517987 -0.87538803 -0.19118741 0
3.1254556 -1.477475 -0.24168251 0
4.6873074 -2.2157986 -0.24136966 0
9.3993082 -4.4432702 -0.241726 0
0.82011276 -0.3626605 -0.1906087 0
0.92929459 -0.41094157 -0.19138363 0
1.079558 -0.47738931 -0.19400047 0
1.2426276 -0.54949999 -0.19094487 0
1.5007617 -0.66364896 -0.1917832 0
1.8884567 -0.83509082 -0.1927347 0
3.1702721 -1.40192 -0.2423348 0
4.7427363 -2.0972762 -0.2414213 0
9.5101452 -4.2054634 -0.24176975 0
0.83174181 -0.34298262 -0.19123864 0
0.93705988 -0.38641229 -0.19091356 0
1.078861 -0.4448863 -0.19179632 0
1.2553869 -0.51767975 -0.19083701 0
1.5172117 -0.62564754 -0.19180638 0
1.8953041 -0.78156024 -0.1913594 0
3.1964552 -1.3181117 -0.24171628 0
4.7885189 -1.9746257 -0.2411381 0
9.6292992 -3.9708023 -0.242174 0
0.83741993 -0.32084912 -0.19062157 0
0.94773632 -0.36311576 -0.19116068 0
1.0862275 -0.41617727 -0.1911777 0
1.2665106 -0.48525095 -0.19060551 0
1.5340363 -0.58775073 -0.19199684 0
1.922856 -0.73672318 -0.19220261 0
3.2345197 -1.2392741 -0.24215236 0
4.8545532 -1.8599739 -0.24202238 0
9.7037115 -3.7178807 -0.24160856 0
0.84731573 -0.30035079 -0.19108774 0
0.96429545 -0.34181696 -0.19269922 0
1.0900334 -0.38638771 -0.19007063 0
1.2737994 -0.45152783 -0.18992689 0
1.5430692 -0.5469768 -0.19133863 0
1.9339802 -0.68554425 -0.19152407 0
3.2549264 -1.1537844 -0.24142313 0
4.8866315 -1.7321802 -0.24136519 0
9.8040304 -3.4752667 -0.24184544 0
0.85216796 -0.27807507 -0.19053857 0
0.96400094 -0.31456783 -0.19099298 0
1.1040698 -0.36027437 -0.19087183 0
1.2848957 -0.41928056 -0.18994305 0
1.5648021 -0.51061815 -0.19237418 0
1.9453448 -0.63479489 -0.19100206 0
3.2961607 -1.0755862 -0.24239083 0
4.9404092 -1.612129 -0.24193467 0
9.8711748 -3.2211111 -0.24141942 0
0.85742992 -0.25604269 -0.1902096 0
0.98956597 -0.2955007 -0.19451846 0
1.1205721 -0.33462131 -0.19220351 0
1.3031571 -0.38914421 -0.19112982 0
1.5596558 -0.46573892 -0.19023581 0
1.9549592 -0.58378303 -0.19043873 0
3.3219438 -0.99198711 -0.24236852 0
4.9833789 -1.488119 -0.24212252 0
9.9587984 -2.9738612 -0.24164978 0
0.87410951 -0.23717432 -0.19252053 0
0.98961556 -0.26851487 -0.19313455 0
1.1071128 -0.30039567 -0.18853444 0
1.3084728 -0.35503116 -0.19053453 0
1.560045 -0.42329088 -0.18892002 0
1.9535133 -0.53005165 -0.18893452 0
3.3371997 -0.9054907 -0.2417372 0
5.02635 -1.3638121 -0.24246073 0
10.036836 -2.7233198 -0.24179855 0
0.86513811 -0.21145676 -0.18930885 0
0.99038583 -0.24206977 -0.19203137 0
1.1228747 -0.27445266 -0.1899785 0
1.3259413 -0.3240861 -0.19182606 0
1.5712122 -0.38403514 -0.1890384 0
1.9777398 -0.48339847 -0.1900371 0
3.372046 -0.82419431 -0.24267726 0
5.0515294 -1.2346932 -0.24209502 0
10.100574 -2.4687788 -0.24175598 0
0.88500023 -0.19278565 -0.19252905 0
1.0009595 -0.21804585 -0.19295304 0
1.1400118 -0.24833655 -0.1917564 0
1.3227104 -0.28813502 -0.19024597 0
1.5970507 -0.34789646 -0.19102986 0
1.9834446 -0.43206728 -0.18947709 0
3.3748264 -0.73516148 -0.24146515 0
5.075603 -1.1056533 -0.24183436 0
10.150923 -2.2112448 -0.24154836 0
0.8805874 -0.16867185 -0.19058223 0
0.99813175 -0.19118685 -0.19141681 0
1.1303706 -0.21651649 -0.18915527 0
1.3309376 -0.25493404 -0.1904432 0
1.6186595 -0.31004566 -0.19261724 0
2.5403566 -0.48659188 -0.24142842 0
3.4062161 -0.65244269 -0.24245563 0
5.1040316 -0.97765023 -0.24193615 0
10.214136 -1.9564638 -0.24180055 0
0.88572288 -0.14659207 -0.19083217 0
1.0041783 -0.16619711 -0.1917109 0
1.1432444 -0.18921332 -0.19044977 0
1.3365027 -0.22119865 -0.19038004 0
1.6178175 -0.2677578 -0.19165182 0
2.5582061 -0.42339736 -0.24203213 0
3.4119744 -0.56470078 -0.24177402 0
5.1205482 -0.84747934 -0.24162824 0
10.265812 -1.6990491 -0.24193166 0
0.89749962 -0.12536551 -0.19262645 0
1.001496 -0.13989204 -0.19046411 0
1.1577226 -0.16171426 -0.19212055 0
1.3348914 -0.18646175 -0.18941984 0
1.6250979 -0.22699867 -0.1917745 0
2.5709977 -0.35912487 -0.24230765 0
3.431011 -0.47925419 -0.24218871 0
5.1465492 -0.71888584 -0.24192195 0
10.3003 -1.4387776 -0.24181162 0
0.90014154 -0.10265396 -0.19257608 0
1.0105557 -0.11524582 -0.19157292 0
1.1459084 -0.13068171 -0.18955232 0
1.3487273 -0.15381159 -0.19077152 0
1.6243432 -0.18524338 -0.19107287 0
2.5707784 -0.29317674 -0.24151267 0
3.4428532 -0.39262992 -0.24224798 0
5.1617904 -0.58866102 -0.24186298 0
10.33888 -1.1790667 -0.24194168 0
0.89797401 -0.07951393 -0.19162199 0
1.0085269 -0.089303181 -0.19070029 0
1.1304275 -0.10009725 -0.18651423 0
1.1365782 -0.10064188 -0.16035362 0
1.6345071 -0.14473255 -0.19177769 0
2.5830884 -0.22872767 -0.24204974 0
3.4450903 -0.30505633 -0.24178666 0
5.1755314 -0.45828366 -0.24188782 0
10.363688 -0.91768527 -0.24190319 0
0.90964645 -0.057460506 -0.19374165 0
1.008828 -0.063725606 -0.19039246 0
1.1334107 -0.071595237 -0.18664885 0
1.1349645 -0.071693376 -0.15981975 0
1.6442028 -0.10386092 -0.19254641 0
2.5801272 -0.16298136 -0.24130996 0
3.4492404 -0.21788146 -0.24161503 0
5.1796079 -0.32718521 -0.24161546 0
10.378171 -0.65556782 -0.24177805 0
0.88956183 -0.033686433 -0.18922256 0
1.0189799 -0.038587309 -0.19206342 0
1.1288165 -0.042746663 -0.18565549 0
1.1322649 -0.042877249 -0.15923652 0
1.6388549 -0.062061086 -0.19167566 0
2.5708568 -0.097354665 -0.24013665 0
3.4550743 -0.13083871 -0.24171539 0
5.1949496 -0.19672531 -0.24202244 0
10.39557 -0.39366534 -0.24187487 0
0.90008521 -0.011356822 -0.19133914 0
1.0147409 -0.01280349 -0.19114266 0
1.1260221 -0.014207581 -0.185078 0
1.1287121 -0.014241521 -0.1586358 0
1.1298468 -0.014255838 -0.13205944 0
1.1281898 -0.014234932 -0.10531401 0
1.1320283 -0.014283364 -0.079145752 0
1.1411107 -0.01439796 -0.053128239 0
1.1299084 -0.014256616 -0.026272966 0
1.1254628 -0.014200523 3.2132702e-05 0
1.123705 -0.014178344 0.026192922 0
1.1188112 -0.014116597 0.052154042 0
1.1375684 -0.014353265 0.07959836 0
1.1268504 -0.01421803 0.10525388 0
1.1288505 -0.014243267 0.13200833 0
1.1319177 -0.014281969 0.15915225 0
1.1294348 -0.01425064 0.18570514 0
1.1270028 -0.014219956 0.21235563 0
0.89673156 0.011314508 -0.19062623 0
1.0109321 0.012755433 -0.19042522 0
1.1298169 0.014255461 -0.18570173 0
1.1435254 0.014428427 -0.16071774 0
1.6463981 0.020773422 -0.19243529 0
2.5934153 0.032722406 -0.24208952 0
3.4507763 0.043540161 -0.24126101 0
5.193789 0.065532617 -0.2418143 0
10.381174 0.13098443 -0.24138615 0
0.91066366 0.03448553 -0.19371124 0
1.0233471 0.038752694 -0.19288661 0
1.126408 0.042655453 -0.18525936 0
1.1298927 0.042787421 -0.15890291 0
1.6352953 0.06192629 -0.19125935 0
2.5909085 0.098113999 -0.24200964 0
3.4661438 0.13125791 -0.24248981 0
5.193531 0.19667158 -0.24195634 0
10.384043 0.39322883 -0.24160667 0
0.89680243 0.056649175 -0.19100605 0
1.0126647 0.063967951 -0.19111654 0
1.1312308 0.071457542 -0.18628988 0
1.1371831 0.071833529 -0.16013217 0
1.6430826 0.10379016 -0.19241524 0
2.5817297 0.16308257 -0.24145983 0
3.4568377 0.21836136 -0.24214721 0
5.1876521 0.32769334 -0.2419907 0
10.373898 0.65529788 -0.24167848 0
0.90587431 0.080213487 -0.19330788 0
1.0193355 0.09026026 -0.19274406 0
1.1587414 0.10260438 -0.19118585 0
1.3409538 0.11873896 -0.18918785 0
1.6417966 0.14537802 -0.19263297 0
2.5817902 0.22861272 -0.2419281 0
3.4390106 0.30451798 -0.24135996 0
5.1811185 0.45877838 -0.24214895 0
10.360099 0.91736752 -0.24181941 0
0.90345174 0.10303146 -0.19328426 0
1.0119412 0.11540381 -0.19183554 0
1.1406175 0.13007832 -0.1886771 0
1.3439404 0.15326567 -0.19009443 0
1.6364444 0.18662342 -0.19249636 0
2.5753026 0.29369271 -0.24193771 0
3.4424999 0.39258963 -0.24222311 0
5.1611962 0.58859324 -0.24183513 0
10.331031 1.1781716 -0.24175802 0
0.89795589 0.12542924 -0.19272438 0
1.0084487 0.14086322 -0.19178638 0
1.1550282 0.1613379 -0.19167343 0
1.338094 0.18690908 -0.18987426 0
1.6290272 0.22754754 -0.19223821 0
2.5721042 0.35927942 -0.24241193 0
3.4199047 0.47770283 -0.24140474 0
5.131237 0.71674705 -0.24120218 0
10.302215 1.4390451 -0.24185659 0
0.88963747 0.14723997 -0.19167559 0
1.0032232 0.16603902 -0.19152856 0
1.1418253 0.18897846 -0.19021338 0
1.3344468 0.2208584 -0.19008718 0
1.6203535 0.26817754 -0.19195224 0
2.5495179 0.42195943 -0.24121013 0
3.4184988 0.56578064 -0.24223635 0
5.1236892 0.84799916 -0.24177645 0
10.256513 1.69751 -0.24171251 0
0.8836571 0.16925985 -0.1912466 0
1.0017869 0.19188699 -0.1921178 0
1.1324874 0.21692199 -0.18950951 0
1.3340139 0.25552332 -0.1908834 0
1.3478301 0.25816971 -0.16038908 0
1.3353231 0.25577408 -0.1269054 0
1.3471648 0.25804228 -0.095891647 0
1.3470646 0.25802311 -0.063852198 0
1.3525803 0.25907961 -0.032019805 0
1.3546633 0.25947857 3.9376515e-05 0
0.87984419 0.19166246 -0.19140735 0
0.9994024 0.21770665 -0.19265288 0
1.1357636 0.24741116 -0.19104184 0
1.2102149 0.26362938 -0.17406571 0
1.2061688 0.26274797 -0.14427485 0
1.199026 0.26119202 -0.11454212 0
1.2015121 0.26173359 -0.085966878 0
1.2033651 0.26213723 -0.057336047 0
1.2140763 0.26447052 -0.028889798 0
1.1921402 0.25969204 3.4831817e-05 0
0.87619525 0.21415934 -0.19172837 0
0.99114275 0.24225478 -0.19217813 0
1.1248097 0.27492562 -0.19030589 0
1.2070259 0.29502085 -0.17462239 0
1.2069523 0.29500288 -0.14521293 0
1.2082263 0.29531425 -0.11609607 0
1.1996218 0.29321116 -0.086333625 0
1.2043313 0.29436222 -0.057717685 0
1.2110292 0.29599935 -0.028985832 0
1.2006621 0.29346544 3.5285986e-05 0
0.87416947 0.23719057 -0.19253372 0
0.99314803 0.26947331 -0.19382395 0
1.1150955 0.30256164 -0.18989384 0
1.2146688 0.32957909 -0.17687517 0
1.2020286 0.3261494 -0.14556457 0
1.2008541 0.32583073 -0.1161409 0
1.2004815 0.32572964 -0.086959451 0
1.2167201 0.3301357 -0.05869206 0
1.204635 0.32685661 -0.029020997 0
1.205088 0.32697955 3.5647241e-05 0
0.85774016 0.25613534 -0.19027844 0
0.98715907 0.29478195 -0.19404534 0
1.1150708 0.33297852 -0.19125991 0
1.2002412 0.35841182 -0.17603548 0
1.2062958 0.36021981 -0.14713545 0
1.2098513 0.36128151 -0.11785542 0
1.1988204 0.35798752 -0.087465756 0
1.2052482 0.35990697 -0.058558211 0
1.2083426 0.36083102 -0.029320378 0
1.201637 0.35882863 3.5801655e-05 0
0.85383981 0.2786206 -0.19091237 0
0.97172004 0.3170867 -0.19252233 0
1.1069044 0.36119935 -0.19136189 0
1.2002852 0.39167091 -0.17743528 0
1.2066011 0.39373186 -0.14833754 0
1.2067639 0.39378497 -0.1184851 0
1.21398 0.39613968 -0.089272834 0
1.2141153 0.39618385 -0.059455916 0
1.2020932 0.39226088 -0.029399605 0
1.2102137 0.39491069 3.6342575e-05 0
0.84741533 0.3003861 -0.19111021 0
0.96190077 0.3409681 -0.19222069 0
1.095085 0.38817838 -0.1909515 0
1.2109252 0.42924064 -0.18055218 0
1.2031643 0.42648962 -0.14919086 0
1.2074032 0.42799214 -0.11957038 0
1.2069598 0.42783502 -0.089522153 0
1.197848 0.42460507 -0.059165254 0
1.2042717 0.42688212 -0.029706925 0
1.2083693 0.42833459 3.6600177e-05 0
0.85481173 0.32751262 -0.19458047 0
0.9500069 0.36398569 -0.19161865 0
1.1003218 0.42157736 -0.19365831 0
1.206522 0.46226689 -0.18157741 0
1.2095653 0.46343288 -0.15138671 0
1.1969829 0.45861205 -0.11964662 0
1.2064453 0.46223751 -0.090320542 0
1.2123783 0.46451071 -0.060442775 0
1.20841 0.46299031 -0.030087685 0
1.1987354 0.45928353 3.6647813e-05 0
0.82655025 0.34084177 -0.19004497 0
0.9441815 0.38934898 -0.19236448 0
1.0820022 0.44618163 -0.19235475 0
1.2111197 0.49942541 -0.18410774 0
1.1981065 0.49405921 -0.151465 0
1.2009888 0.49524778 -0.12125786 0
1.1998796 0.49479038 -0.090735018 0
1.2038333 0.49642077 -0.060622104 0
1.2084523 0.4983255 -0.030392215 0
1.2063609 0.49746305 3.7252921e-05 0
0.82702202 0.3657158 -0.19221452 0
0.93270433 0.41244939 -0.19208586 0
1.0736456 0.47477475 -0.19293799 0
1.2038176 0.53233784 -0.18498123 0
1.1977891 0.52967203 -0.15306616 0
1.2036655 0.53227061 -0.12284535 0
1.2065293 0.53353697 -0.092226796 0
1.2001227 0.53070396 -0.061090298 0
1.2065296 0.53353715 -0.030672755 0
1.2031417 0.53203899 3.7556219e-05 0
0.82068944 0.38795885 -0.19295703 0
0.92260355 0.43613601 -0.1922114 0
1.0505153 0.49660283 -0.19097292 0
1.2279844 0.58049661 -0.19088531 0
1.4712998 0.69551736 -0.19020092 0
1.863956 0.88113505 -0.19244258 0
3.1301475 1.4796931 -0.24204533 0
4.7050705 2.2241957 -0.24228437 0
9.3914661 4.4395633 -0.24152431 0
0.80343747 0.40491244 -0.19124271 0
0.90877903 0.458002 -0.19167849 0
1.0399716 0.52411979 -0.19140001 0
1.2143743 0.61201441 -0.19110993 0
1.466374 0.739016 -0.19191428 0
1.8344858 0.9245351 -0.19174804 0
3.0839024 1.5542098 -0.24142572 0
4.639616 2.3382506 -0.24187574 0
9.2764711 4.6751103 -0.24152456 0
0.79304749 0.4250991 -0.19126253 0
0.89841157 0.48157766 -0.19199428 0
1.0276047 0.55082935 -0.19162159 0
1.1974807 0.64188838 -0.19094005 0
1.4378103 0.77071279 -0.19066104 0
1.8078429 0.96906221 -0.1914587 0
3.0506628 1.6352539 -0.24197751 0
4.5741282 2.4518807 -0.24161088 0
9.1593847 4.9097266 -0.24162544 0
0.77360392 0.44015655 -0.18919221 0
0.88302517 0.50241387 -0.19135506 0
1.0194507 0.58003569 -0.19276957 0
1.1832051 0.67320693 -0.19131213 0
1.2183599 0.69320893 -0.16382869 0
1.2139273 0.69068688 -0.13036501 0
3.0016317 1.7078351 -0.24143051 0
4.5029187 2.5620205 -0.24118827 0
9.0373173 5.1419525 -0.24175185 0
0.77214843 0.4655014 -0.19164851 0
0.87243009 0.5259577 -0.19187464 0
0.99942905 0.60252094 -0.19179809 0
1.1606293 0.69970292 -0.19045658 0
1.1406121 0.6876353 -0.15565832 0
1.1914186 0.71826476 -0.12985325 0
2.961412 1.7853321 -0.24174283 0
4.4496603 2.6825452 -0.24188504 0
8.9008408 5.3660069 -0.24164698 0
0.76073503 0.48520356 -0.1917941 0
0.85520035 0.54545438 -0.19105215 0
0.98731095 0.62971574 -0.19246131 0
1.1407633 0.72758901 -0.19014952 0
1.1424615 0.72867215 -0.15837008 0
1.1828178 0.7544117 -0.13094938 0
2.9148757 1.8591337 -0.24169742 0
4.3820057 2.7948823 -0.24196485 0
8.7652636 5.5905628 -0.24171995 0
0.74641925 0.50300896 -0.19132465 0
0.84399837 0.56876719 -0.19169554 0
0.96538854 0.65057153 -0.19132772 0
1.0150406 0.68403184 -0.17201622 0
0.98199922 0.6617654 -0.13839772 0
0.97408348 0.65643102 -0.10963976 0
2.8726137 1.9358431 -0.24216729 0
4.2972832 2.8959222 -0.2412457 0
8.628767 5.8148918 -0.24192598 0
0.74062335 0.52675509 -0.19318528 0
0.83603048 0.59461164 -0.19323286 0
0.95134437 0.67662662 -0.19186777 0
0.98637825 0.70154387 -0.17010535 0
0.98535627 0.70081699 -0.14131869 0
0.92531133 0.6581111 -0.10598595 0
0.95774829 0.68118125 -0.082163349 0
4.2333832 3.0109177 -0.24184754 0
8.469615 6.0238619 -0.24164955 0
0.71646488 0.53730065 -0.19036038 0
0.81563908 0.61167461 -0.19202684 0
0.93928391 0.70439994 -0.19295952 0
1.0868988 0.81510121 -0.19092755 0
0.89017612 0.66757238 -0.13004309 0
0.88806671 0.66599053 -0.10361223 0
0.92703611 0.69521493 -0.081008099 0
0.9633435 0.72244304 -0.056058351 0
1.1002761 0.82513326 -0.031976357 0
1.0964597 0.82227129 3.9126437e-05 0
1.0993601 0.82444632 0.032028239 0
1.0967789 0.8225106 0.063901588 0
1.1003356 0.82517791 0.096230611 0
0.70006084 0.55313706 -0.18965079 0
0.79457366 0.62781423 -0.19073716 0
0.92398369 0.73006457 -0.19354004 0
1.0582504 0.83615243 -0.18954188 0
0.85801494 0.67794091 -0.1278037 0
0.86988348 0.6873185 -0.10348173 0
0.90299976 0.71348459 -0.080455661 0
0.91273594 0.72117746 -0.054155365 0
0.92723727 0.73263532 -0.027476121 0
1.1008921 0.86984468 4.005526e-05 0
1.1013943 0.87024158 0.032716975 0
1.0997959 0.86897868 0.065334402 0
1.1038014 0.87214345 0.098427452 0
0.6992656 0.58175898 -0.19335149 0
0.78710419 0.65483689 -0.1928501 0
0.89937931 0.74824494 -0.1922808 0
0.84448612 0.70257616 -0.15438166 0
0.83048123 0.6909247 -0.12625974 0
0.83747727 0.69674516 -0.10168624 0
0.85660887 0.7126618 -0.077900112 0
0.88525695 0.73649579 -0.053610791 0
0.9019261 0.75036383 -0.027278597 0
0.93570811 0.77846897 3.4748955e-05 0
1.1026436 0.91735214 0.033431202 0
1.1017053 0.9165715 0.066800818 0
1.0948609 0.91087729 0.099648498 0
0.67786169 0.59352303 -0.19151424 0
0.76102412 0.6663385 -0.19052003 0
0.82840067 0.72533214 -0.18096228 0
0.83007216 0.72679567 -0.15505068 0
0.82741761 0.72447145 -0.12853295 0
1.0093993 0.88381118 -0.12522952 0
0.84138322 0.73669946 -0.07818149 0
0.89248109 0.78143978 -0.055225097 0
0.89123476 0.78034848 -0.027542144 0
0.91152948 0.79811817 3.4588094e-05 0
1.1081601 0.97028434 0.034330014 0
1.0972296 0.9607138 0.06797801 0
1.1061289 0.96850586 0.10286607 0
1.1044027 0.96699435 0.1371005 0
1.100189 0.96330494 0.27551538 0
0.67008662 0.61726856 -0.19365746 0
0.75182688 0.6925658 -0.19253221 0
0.85843271 0.79076874 -0.19182147 0
0.83767664 0.77164865 -0.16005805 0
0.82432413 0.75934869 -0.13098785 0
0.8509919 0.78391439 -0.10799719 0
0.87914819 0.80985135 -0.083563283 0
0.89102542 0.82079238 -0.056398928 0
0.90049595 0.82951641 -0.028466281 0
0.94086945 0.86670756 3.6519818e-05 0
0.93804896 0.8641094 0.029726258 0
1.1004311 1.0136921 0.069739223 0
1.1053095 1.018186 0.1051462 0
1.0890296 1.0031893 0.13829122 0
1.0497339 0.96699095 0.26890635 0
0.64582682 0.62576991 -0.19114989 0
0.74018008 0.71719289 -0.19412328 0
0.83226043 0.80641365 -0.19046049 0
0.84014368 0.81405205 -0.16440286 0
0.84347945 0.81728423 -0.13726574 0
0.83553606 0.80958754 -0.10859428 0
0.83884442 0.81279314 -0.081656262 0
0.83479398 0.80886853 -0.05411464 0
0.83361143 0.80772269 -0.026987789 0
0.83815569 0.8121258 3.3317978e-05 0
0.83436936 0.80845702 0.027078697 0
0.83338261 0.80750096 0.05408955 0
0.8359431 0.80998194 0.081440628 0
1.0974101 1.0633287 0.14271794 0
0.99948245 0.96844238 0.19566397 0
1.0047413 0.97353786 0.23001428 0
0.98963422 0.95889997 0.25962782 0
0.63568515 0.64783007 -0.19292614 0
0.70857531 0.72211283 -0.19055367 0
0.81909353 0.83474255 -0.19220744 0
0.83774579 0.85375112 -0.16809666 0
0.8356232 0.85158801 -0.1394406 0
0.84273332 0.85883397 -0.11231117 0
0.8395865 0.855627 -0.083803974 0
0.8409214 0.85698742 -0.055896152 0
0.84314579 0.85925436 -0.027989645 0
0.84186643 0.85795051 3.431533e-05 0
0.83580881 0.85177714 0.027814254 0
0.8432346 0.85934478 0.056118801 0
0.83563817 0.85160327 0.083478324 0
0.84116602 0.85723668 0.11217147 0
1.0931551 1.1140401 0.18250532 0
0.94821131 0.96632713 0.1903408 0
0.9460274 0.96410149 0.22207278 0
0.95055217 0.96871269 0.25570753 0
0.6205191 0.66514385 -0.19335669 0
0.69784975 0.74803573 -0.19268514 0
0.79464066 0.85178745 -0.19145314 0
0.83721048 0.89741868 -0.17247912 0
0.83069491 0.8904345 -0.14232306 0
0.83627152 0.89641219 -0.11442874 0
0.83556247 0.89565217 -0.085631415 0
0.84326541 0.90390903 -0.057550065 0
0.84202361 0.90257794 -0.028699478 0
0.84248054 0.90306771 3.5258181e-05 0
0.83973724 0.90012711 0.028691875 0
0.84208691 0.90264577 0.057540271 0
0.83451718 0.89453167 0.085594475 0
0.8424775 0.90306443 0.11534905 0
1.0974212 1.1763425 0.18811443 0
0.93434781 1.0015416 0.19257078 0
0.93276572 0.99984574 0.22481185 0
0.92427689 0.99074644 0.25528467 0
0.59847814 0.6748811 -0.19173522 0
0.6745261 0.76063746 -0.19148494 0
0.7679525 0.86599094 -0.19022854 0
0.84887707 0.95724648 -0.17980273 0
0.83799636 0.94497675 -0.14761329 0
0.83858162 0.94563669 -0.11797303 0
0.84338945 0.95105827 -0.088865243 0
0.83934712 0.94649994 -0.058894224 0
0.8398692 0.94708866 -0.029431403 0
0.84487146 0.95272952 3.6352998e-05 0
0.83509642 0.9417066 0.029336056 0
0.84031075 0.9475866 0.05903431 0
0.84614241 0.95416272 0.089228489 0
0.84952581 0.95797807 0.11958642 0
1.105664 1.2468153 0.19485946 0
1.0978764 1.2380337 0.23264024 0
0.58120489 0.68970144 -0.19171716 0
0.65715182 0.77982575 -0.19207892 0
0.72678041 0.86245227 -0.1853628 0
0.85047531 1.009238 -0.18547752 0
0.83536005 0.99130106 -0.15150784 0
0.83547562 0.99143821 -0.12101781 0
0.84462142 1.0022913 -0.091631316 0
0.84133059 0.99838609 -0.060782123 0
0.84196615 0.99914032 -0.030378899 0
0.84554863 1.0033916 3.7459871e-05 0
0.84150517 0.99859327 0.030436868 0
0.83922291 0.99588495 0.060704373 0
0.84039426 0.99727499 0.091247551 0
0.84229583 0.99953157 0.12208098 0
0.84275353 1.0000747 0.15292448 0
1.0926098 1.2965729 0.23838259 0
0.56797695 0.70959198 -0.19319987 0
0.64032871 0.79998338 -0.19300179 0
0.726978 0.9082371 -0.19119874 0
0.84699953 1.0581839 -0.19048339 0
0.8417415 1.0516149 -0.15742894 0
0.8332516 1.0410081 -0.12446178 0
0.84323359 1.053479 -0.09433528 0
0.84087253 1.0505292 -0.062644616 0
0.83255935 1.0401433 -0.03097683 0
0.83980453 1.0491949 3.8366332e-05 0
0.83670485 1.0453224 0.031207561 0
0.83943856 1.0487378 0.06261465 0
0.83955806 1.048887 0.094001167 0
0.83362651 1.0414766 0.12459462 0
0.83329463 1.041062 0.15592632 0
1.0912073 1.3632805 0.24550542 0
1.0951041 1.3681489 0.28812045 0
0.54678637 0.7196089 -0.19210857 0
0.61076236 0.80380577 -0.19014443 0
0.70027536 0.92161107 -0.19023287 0
0.71992809 0.94747537 -0.16723071 0
0.72586602 0.95529014 -0.1402217 0
0.73132843 0.96247905 -0.11283018 0
0.72654581 0.9561848 -0.083954155 0
0.73190039 0.9632318 -0.056319468 0
0.73099798 0.96204418 -0.028092535 0
0.73104811 0.9621101 3.4496177e-05 0
0.72045898 0.94817412 0.027755547 0
0.72708458 0.95689386 0.05601766 0
0.72005469 0.94764203 0.083272375 0
0.72984231 0.96052325 0.11267038 0
0.73728669 0.97032052 0.14249846 0
0.72730666 0.9571861 0.16901465 0
0.72801346 0.95811629 0.1978386 0
0.73002982 0.96076995 0.22734648 0
0.52150017 0.72352546 -0.18957998 0
0.59541017 0.82606763 -0.19179466 0
0.67876756 0.94171709 -0.19078612 0
0.72714311 1.0088329 -0.17476553 0
0.95325977 1.3225455 -0.19053686 0
0.84521663 1.1726472 -0.13492419 0
0.84104091 1.1668539 -0.10055537 0
0.83590871 1.1597335 -0.066554032 0
0.83744079 1.1618592 -0.033299506 0
0.83870083 1.1636074 4.0948788e-05 0
0.83427548 1.1574676 0.033255152 0
0.83955157 1.1647877 0.066926226 0
0.83473849 1.1581099 0.099883758 0
0.83897173 1.1639831 0.13400994 0
0.84041166 1.1659808 0.16806404 0
0.8403033 1.1658305 0.20204672 0
1.1005853 1.5269439 0.30945987 0
0.50797576 0.74362153 -0.19142531 0
0.57644033 0.84384626 -0.19248328 0
0.65390968 0.95725304 -0.19052932 0
0.76235318 1.1160026 -0.18993738 0
0.91834539 1.3443583 -0.19027954 0
1.1541198 1.6895065 -0.19098139 0
0.84941244 1.2434479 -0.10527498 0
0.83732426 1.2257521 -0.069107875 0
0.84019655 1.2299569 -0.034632429 0
0.83965504 1.2291641 4.2496507e-05 0
0.83535677 1.222872 0.034517542 0
0.84287161 1.2338728 0.069651224 0
0.83591235 1.2236853 0.10368681 0
0.84352767 1.2348332 0.13967137 0
0.84187561 1.2324148 0.17452154 0
0.83446628 1.2215683 0.20799021 0
1.0970159 1.6059124 0.31975096 0
1.0955334 1.6037424 0.36593217 0
0.48670775 0.75257713 -0.19050781 0
0.55348188 0.85582733 -0.1919686 0
0.62867874 0.97210133 -0.19026591 0
0.73757488 1.1404831 -0.19087476 0
0.88844734 1.3737713 -0.19120795 0
1.1073363 1.7122308 -0.19033027 0
1.4807721 2.28966 -0.19062635 0
0.85353851 1.3197931 -0.07317204 0
0.82962734 1.2828202 -0.035520025 0
0.83478868 1.290801 4.3885098e-05 0
0.82859415 1.2812227 0.035562959 0
0.83732885 1.2947288 0.071870647 0
0.84265417 1.3029631 0.10856763 0
0.844248 1.3054276 0.14519988 0
0.83755738 1.2950822 0.18034489 0
0.83568841 1.2921922 0.21635486 0
0.8425498 1.3028017 0.25508371 0
1.0955427 1.6939948 0.38009524 0
0.46753952 0.76457667 -0.19049762 0
0.53321731 0.87198097 -0.19251198 0
0.60048556 0.98198605 -0.18917401 0
0.71188921 1.1641666 -0.19177036 0
0.84763426 1.3861532 -0.1898932 0
1.0706627 1.7508762 -0.19156127 0
1.4196154 2.3215253 -0.19023572 0
0.84954929 1.389285 -0.075811885 0
0.84791267 1.3866085 -0.037789229 0
0.83768189 1.3698779 4.5840181e-05 0
0.84251493 1.3777815 0.037640925 0
0.84336495 1.3791715 0.075352512 0
0.83843684 1.3711125 0.11244703 0
0.84093392 1.375196 0.15055139 0
0.84100246 1.3753082 0.18850081 0
0.83939856 1.3726852 0.22621281 0
0.83470589 1.3650112 0.26305544 0
1.0942196 1.7893991 0.39517939 0
0.45015949 0.77969754 -0.1913733 0
0.51145673 0.88586724 -0.19266646 0
0.58428383 1.0120072 -0.19205537 0
0.67504489 1.1692096 -0.18973412 0
0.82016432 1.4205633 -0.19171034 0
1.0288205 1.7819659 -0.19206063 0
1.3600953 2.3557491 -0.19016667 0
1.3682197 2.3698211 -0.1273938 0
0.85180342 1.4753639 -0.039609559 0
0.8375122 1.4506108 4.7819172e-05 0
0.83987445 1.4547023 0.039150812 0
0.8357451 1.4475501 0.077911176 0
0.8394416 1.4539526 0.11746591 0
0.83651769 1.4488882 0.15625781 0
0.83973259 1.4544564 0.19638154 0
0.83663791 1.4490963 0.23525032 0
0.84210801 1.4585708 0.27690151 0
0.83680338 1.449383 0.31532395 0
0.43303102 0.79574561 -0.19256838 0
0.48845938 0.89760178 -0.19247605 0
0.5533216 1.0167938 -0.1902529 0
0.65298951 1.1999453 -0.19198619 0
0.77975863 1.4328985 -0.19065836 0
0.9804908 1.8017676 -0.1914667 0
1.2886021 2.3679585 -0.18846685 0
1.2912331 2.3727932 -0.12576161 0
1.2915908 2.3734505 -0.06282559 0
0.84996605 1.5619129 5.0764895e-05 0
0.83733296 1.5386982 0.040829644 0
0.84056193 1.5446317 0.081968427 0
0.83343613 1.5315373 0.12199575 0
0.8376559 1.5392916 0.16367535 0
0.83596414 1.5361828 0.20450236 0
0.83988154 1.5433815 0.24703684 0
0.83796036 1.5398511 0.28822523 0
0.83732206 1.5386782 0.33004797 0
0.41025844 0.80142254 -0.19137546 0
0.46723282 0.91271955 -0.1931276 0
0.52908456 1.0335443 -0.19082773 0
0.61527389 1.2019116 -0.18975581 0
0.75016248 1.4654107 -0.19240385 0
0.93625134 1.8289274 -0.19178073 0
1.2390052 2.4203444 -0.19008683 0
1.2432883 2.4287112 -0.12702174 0
1.242568 2.427304 -0.063400775 0
1.2451363 2.4323211 7.8008437e-05 0
0.84917611 1.6588296 0.04343481 0
0.83623105 1.6335421 0.085539356 0
0.83860594 1.6381813 0.1287636 0
0.84134853 1.6435388 0.17244728 0
0.83864027 1.6382484 0.21520342 0
0.84363419 1.6480038 0.2602919 0
0.83821589 1.6374193 0.30243161 0
0.83921576 1.6393726 0.34699318 0
0.38998011 0.81167048 -0.19141127 0
0.43828574 0.91220957 -0.19061832 0
0.500673 1.0420569 -0.19000579 0
0.58662087 1.2209414 -0.19036207 0
0.71035028 1.4784609 -0.19170229 0
0.88827688 1.8487817 -0.1914508 0
1.1798912 2.4557223 -0.19046587 0
1.7854618 3.7161038 -0.19193453 0
4.5076604 9.3818502 -0.24200366 0
0.84600765 1.7608062 0.091056362 0
0.84297174 1.7544875 0.13618977 0
0.83874553 1.7456914 0.18088682 0
0.83694679 1.7419478 0.22597875 0
0.83633238 1.740669 0.27150744 0
0.83691382 1.7418791 0.3177228 0
0.84177148 1.7519895 0.36621645 0
0.37222335 0.82758069 -0.1928864 0
0.42092893 0.93586993 -0.19328094 0
0.47920176 1.0654305 -0.19200125 0
0.55683327 1.2380321 -0.1907748 0
0.67458963 1.499845 -0.19220617 0
0.84356397 1.8755332 -0.19195515 0
1.1162165 2.4817338 -0.1902377 0
1.6835653 3.7431452 -0.19107568 0
4.2619243 9.4757252 -0.24157356 0
1.0676328 2.3737152 0.12131956 0
0.8478651 1.8850961 0.14462094 0
0.83795321 1.8630584 0.19079606 0
0.83779866 1.8627149 0.23882641 0
0.84003419 1.8676852 0.28792056 0
0.8374868 1.8620216 0.33567464 0
0.83881265 1.8649694 0.38528451 0
0.34722918 0.82719165 -0.19069241 0
0.39640263 0.94433576 -0.19290167 0
0.45086536 1.0740803 -0.19144839 0
0.52604604 1.2531805 -0.19100237 0
0.6384486 1.5209533 -0.19278482 0
0.79180926 1.8862989 -0.19095083 0
1.0621428 2.5303049 -0.19184491 0
1.5937034 3.7966225 -0.19169119 0
4.0252705 9.5892572 -0.2418009 0
0.99298441 2.3655512 0.11958331 0
0.84759766 2.0192015 0.15321925 0
0.83899003 1.9986959 0.20245367 0
0.83763218 1.9954611 0.25305519 0
0.83623528 1.9921333 0.30375499 0
0.83767766 1.9955695 0.35582522 0
0.83366704 1.9860151 0.40581527 0
0.32623392 0.83565372 -0.1906843 0
0.37238982 0.95388281 -0.19287054 0
0.42055267 1.0772527 -0.19006138 0
0.49647576 1.271731 -0.1918588 0
0.59478617 1.5235548 -0.19115092 0
0.74588007 1.9105844 -0.19144261 0
0.99622464 2.5518463 -0.19151078 0
1.4956136 3.8310394 -0.19146205 0
3.7806613 9.6842279 -0.2417126 0
0.92740023 2.3755515 0.11886774 0
0.84417957 2.1623802 0.16241536 0
0.84164393 2.1558852 0.21615531 0
0.83453465 2.1376746 0.26833352 0
0.84127426 2.1549382 0.32523793 0
0.83794713 2.1464157 0.37883058 0
0.83691669 2.1437762 0.43359736 0
0.31104258 0.8602035 -0.19443294 0
0.34663597 0.95863879 -0.19200207 0
0.39666325 1.0969917 -0.19171657 0
0.43419722 1.2007937 -0.17944647 0
0.43478671 1.2024239 -0.14943627 0
0.43533698 1.2039458 -0.11949765 0
0.93283093 2.5797896 -0.1917799 0
1.3987737 3.8683772 -0.19150274 0
3.5347698 9.7755795 -0.24168898 0
0.85972941 2.3776238 0.11784815 0
0.8530103 2.3590419 0.17551358 0
0.839481 2.3216259 0.23057517 0
0.83652818 2.3134599 0.28765726 0
0.83738112 2.3158185 0.34621903 0
0.83929992 2.321125 0.4057979 0
0.83984649 2.3226366 0.46533799 0
0.28403017 0.85214764 -0.19093093 0
0.3212423 0.96379155 -0.19134928 0
0.36534443 1.0961068 -0.18988995 0
0.4049519 1.2149372 -0.17997541 0
0.40284416 1.2086136 -0.14889449 0
0.40288654 1.2087407 -0.11892643 0
0.86840618 2.6053932 -0.19199277 0
1.2995861 3.8990197 -0.19133498 0
3.2886226 9.8665304 -0.2418085 0
0.7894547 2.3685231 0.11637241 0
0.84790242 2.5438778 0.18761352 0
0.84020978 2.5207984 0.24817112 0
0.83594775 2.5080116 0.30912611 0
0.84068429 2.522222 0.37378556 0
0.83765095 2.5131216 0.43552947 0
0.84058851 2.5219347 0.50085717 0
0.26423025 0.8649053 -0.19223395 0
0.29673439 0.97130114 -0.19129239 0
0.33877459 1.1089115 -0.19056629 0
0.37855995 1.2391409 -0.18208747 0
0.37902901 1.2406763 -0.15161763 0
0.38099718 1.2471187 -0.12171752 0
0.72261608 2.3653405 -0.17290412 0
0.72411615 2.3702505 -0.11538073 0
0.72265184 2.3654573 -0.057507217 0
0.72723573 2.3804619 7.1058937e-05 0
0.72078705 2.3593535 0.057499755 0
0.72611445 2.3767917 0.11584135 0
0.84332281 2.7604499 0.20195185 0
0.83201134 2.7234242 0.26596743 0
0.83140236 2.7214308 0.33273888 0
0.83635712 2.7376492 0.40245476 0
0.83487499 2.7327976 0.46979848 0
0.23954296 0.86129826 -0.190028 0
0.27131054 0.97552139 -0.19071423 0
0.31269664 1.1243289 -0.19179842 0
0.36049691 1.2961991 -0.18907475 0
0.43868557 1.5773335 -0.19134504 0
0.55050117 1.9793766 -0.19176804 0
0.65950066 2.371294 -0.17206778 0
0.66128683 2.3777163 -0.11489511 0
0.65960425 2.3716664 -0.057235211 0
0.66147822 2.3784046 7.0476723e-05 0
0.65929461 2.370553 0.057348903 0
0.66036016 2.3743844 0.11487512 0
0.81384939 2.9262686 0.21251257 0
0.81160009 2.9181809 0.28289673 0
0.81079119 2.9152727 0.3538245 0
0.81368244 2.9256685 0.42694002 0
0.8103916 2.913836 0.49724644 0
0.22038487 0.87761909 -0.19234039 0
0.24825966 0.98862237 -0.19198935 0
0.28432709 1.1322505 -0.19186451 0
0.33069164 1.3168839 -0.19081379 0
0.39749432 1.5829062 -0.19074333 0
0.4990097 1.987162 -0.19124122 0
0.59489775 2.3690083 -0.17075804 0
0.59490669 2.3690441 -0.11371429 0
0.59383655 2.3647826 -0.056689329 0
0.59809941 2.3817582 7.0106464e-05 0
0.59506565 2.3696771 0.05694624 0
0.59490085 2.3690209 0.11385295 0
0.76755065 3.0565488 0.22049674 0
0.76870096 3.0611298 0.29477987 0
0.76793218 3.058068 0.36868569 0
0.76747298 3.0562396 0.44302636 0
0.19622302 0.87421924 -0.19044922 0
0.22319952 0.99440575 -0.19195735 0
0.25421143 1.1325711 -0.19077083 0
0.30045611 1.3386018 -0.19280049 0
0.35526818 1.5828024 -0.18958993 0
0.44752586 1.9938319 -0.19073534 0
0.54771006 2.4401755 -0.17483568 0
0.55132347 2.4562745 -0.11719612 0
0.54928231 2.4471805 -0.058313694 0
0.55342042 2.4656167 7.2140705e-05 0
0.55129093 2.4561293 0.058670737 0
0.55208445 2.4596646 0.11750212 0
0.71197063 3.1719949 0.2274562 0
0.71115297 3.1683519 0.30328012 0
0.71588171 3.1894195 0.38222161 0
0.71080899 3.1668193 0.45630991 0
0.17452735 0.88103324 -0.19091326 0
0.19950323 1.0071142 -0.19337699 0
0.22299342 1.1256952 -0.18860461 0
0.26534328 1.3394819 -0.19190156 0
0.32007802 1.6157891 -0.19251215 0
0.39826775 2.0104992 -0.19130728 0
0.41559374 2.0979629 -0.14951739 0
0.41358131 2.0878038 -0.099085696 0
0.4130336 2.0850389 -0.049420103 0
0.41339284 2.0868523 6.0733943e-05 0
0.41463572 2.0931265 0.049733695 0
0.4144119 2.0919967 0.099406719 0
0.41534641 2.0967143 0.14955105 0
0.41402406 2.090039 0.19899851 0
0.41479993 2.0939555 0.24960655 0
0.40475005 2.0432227 0.29284462 0
0.29428428 1.4855794 0.24899021 0
0.27207378 1.3734581 0.26380184 0
0.15284784 0.88867599 -0.19167241 0
0.17331582 1.0076793 -0.19258425 0
0.19495773 1.1335081 -0.18902899 0
0.22932145 1.3333029 -0.19012657 0
0.27669826 1.6087575 -0.19078158 0
0.34618631 2.0127695 -0.19063118 0
0.36853984 2.1427355 -0.15199694 0
0.87876642 5.1092553 -0.24135219 0
1.7631232 10.251013 -0.24184026 0
0.5815984 3.3814843 0.15993166 0
0.57878846 3.3651466 0.23890573 0
0.57879734 3.3651981 0.31891757 0
0.26094261 1.5171521 0.18000725 0
0.27071965 1.573997 0.22454211 0
0.26968253 1.5679671 0.26157466 0
0.23620936 1.37335 0.26255238 0
0.13118817 0.8978008 -0.19286491 0
0.14745685 1.0091374 -0.19209047 0
0.16637635 1.138615 -0.18912016 0
0.19617718 1.3425603 -0.19067989 0
0.23664811 1.6195276 -0.19128957 0
0.29447046 2.0152411 -0.19010085 0
0.39355311 2.6933243 -0.19028828 0
0.74976504 5.1311002 -0.24141331 0
1.5022728 10.280971 -0.24157558 0
0.50708157 3.470269 0.16347349 0
0.50537485 3.4585888 0.24455616 0
0.50395745 3.4488885 0.3255398 0
0.22112522 1.5132949 0.17883047 0
0.27619007 1.8901373 0.26856187 0
0.19923884 1.3635131 0.25962776 0
0.10825105 0.89880759 -0.192433 0
0.12182579 1.0115186 -0.19189735 0
0.13813484 1.1469325 -0.18986212 0
0.16377133 1.3597921 -0.19247892 0
0.19592671 1.6267779 -0.19150089 0
0.2451106 2.0351515 -0.1913345 0
0.32659453 2.7117119 -0.19094421 0
0.62202448 5.1646647 -0.24217673 0
1.2424392 10.315963 -0.24158405 0
0.42500833 3.5288408 0.16567455 0
0.42316407 3.5135279 0.24760684 0
0.42212367 3.5048897 0.3297151 0
0.42268285 3.5095325 0.41333938 0
0.22816525 1.8944544 0.2682716 0
0.165022 1.3701763 0.26002067 0
0.08495263 0.89507687 -0.19111434 0
0.096339144 1.0150473 -0.19204433 0
0.10982423 1.1571287 -0.19103031 0
0.12894036 1.3585398 -0.19177993 0
0.15468727 1.6298141 -0.19133778 0
0.19475999 2.0520279 -0.19239774 0
0.25771081 2.7152896 -0.1906774 0
0.49068463 5.1699452 -0.24176665 0
0.98190093 10.345492 -0.24161828 0
0.34077176 3.5904353 0.16810901 0
0.33913842 3.573226 0.25113073 0
0.33972767 3.5794344 0.33581418 0
0.33970824 3.5792298 0.42040437 0
0.33950573 3.5770962 0.5051744 0
0.17284597 1.8211377 0.30075878 0
0.12990741 1.3687289 0.25904125 0
0.062980957 0.90612936 -0.19307336 0
0.071072251 1.0225416 -0.19306138 0
0.079730473 1.1471107 -0.18898404 0
0.094799511 1.3639141 -0.19213967 0
0.11373395 1.6363307 -0.19170478 0
0.1415561 2.0366178 -0.19055724 0
0.19061428 2.7424352 -0.19218463 0
0.35992241 5.1783314 -0.24165705 0
0.72063476 10.368028 -0.24164286 0
0.25216067 3.6279252 0.16951238 0
0.25180587 3.6228201 0.2540887 0
0.13146213 1.8913921 0.17707831 0
0.13276726 1.9101697 0.22389726 0
0.13278399 1.9104103 0.26923811 0
0.12292656 1.7685879 0.29147506 0
0.094974443 1.366431 0.25807053 0
0.040042359 0.90616226 -0.19280362 0
0.044739015 1.012448 -0.19088167 0
0.050743826 1.1483374 -0.18891498 0
0.059975721 1.3572561 -0.19092767 0
0.072401904 1.6384616 -0.1916793 0
0.089375131 2.0225673 -0.18897136 0
0.12110779 2.7406805 -0.19178636 0
0.22922604 5.1874061 -0.24173357 0
0.45892504 10.385515 -0.24170351 0
0.16223443 3.6713798 0.17129689 0
0.16226251 3.6720154 0.2571699 0
0.086027324 1.9468062 0.18200512 0
0.08489868 1.921265 0.22487502 0
0.085783385 1.9412858 0.27319732 0
0.076205552 1.7245387 0.28380808 0
0.0607979 1.375862 0.25947928 0
0.017108155 0.90381485 -0.19215111 0
0.019093348 1.0086915 -0.19002207 0
0.0221285 1.169037 -0.19216724 0
0.025835056 1.3648523 -0.19184344 0
0.031051487 1.6404337 -0.19175725 0
0.038310386 2.0239174 -0.18894699 0
0.051944003 2.7441742 -0.19187802 0
0.098177947 5.1866894 -0.24150778 0
0.19665545 10.389204 -0.24159689 0
0.06980633 3.6878316 0.17192754 0
0.069734141 3.6840179 0.25780514 0
0.069915615 3.6936049 0.34503689 0
0.069945432 3.6951802 0.43215919 0
0.031450801 1.6615293 0.27322096 0
0.025919884 1.3693337 0.25804254 0
-0.005639141 0.89408416 -0.19005209 0
-0.0063720429 1.0102855 -0.19029205 0
-0.0073000402 1.1574192 -0.1902272 0
-0.0086159483 1.3660561 -0.19198205 0
-0.010436451 1.6546961 -0.19339365 0
-0.012792285 2.028213 -0.18931785 0
-0.017342888 2.7497098 -0.19223446 0
-0.032730483 5.1894083 -0.24159591 0
-0.065625191 10.404854 -0.2419223 0
-0.023421727 3.7135077 0.173097 0
-0.023447627 3.7176144 0.26011476 0
-0.023421636 3.7134933 0.34683952 0
-0.02342524 3.7140648 0.43429863 0
-0.010423257 1.6526042 0.27171007 0
-0.0086491629 1.3713222 0.25837609 0
-0.02859352 0.90625763 -0.19273178 0
-0.031921413 1.0117335 -0.19065583 0
-0.036324237 1.151279 -0.1893084 0
-0.043175347 1.3684214 -0.19240636 0
-0.051693868 1.6384119 -0.19158189 0
-0.064565904 2.0463848 -0.19110531 0
-0.086112902 2.7293062 -0.19089919 0
-0.11962974 3.7916059 -0.17660475 0
-0.11959887 3.7906277 -0.088177644 0
-0.11973337 3.7948906 0.00010839192 0
-0.11988212 3.7996051 0.088603646 0
-0.11777502 3.7328217 0.1740804 0
-0.11718047 3.7139776 0.25998443 0
-0.11727409 3.7169449 0.34732774 0
-0.11733346 3.7188268 0.43506318 0
-0.051455438 1.630855 0.26826227 0
-0.043073606 1.3651969 0.25734487 0
-0.051411957 0.90457511 -0.1925886 0
-0.057509169 1.0118533 -0.19089115 0
-0.066504762 1.1701276 -0.19262242 0
-0.077442236 1.3625687 -0.19179717 0
-0.093472414 1.6446139 -0.19252165 0
-0.11671361 2.0535345 -0.19198696 0
-0.15594552 2.7438061 -0.19212748 0
-0.21508709 3.7843807 -0.17646487 0
-0.21490578 3.7811911 -0.088056259 0
-0.21484269 3.7800808 0.00010808936 0
-0.21562825 3.7939026 0.088569373 0
-0.2122667 3.7347569 0.17436497 0
-0.21138953 3.7193236 0.26064914 0
-0.21123675 3.7166355 0.34768629 0
-0.078576557 1.3825266 0.16192135 0
-0.077211663 1.3585117 0.19130532 0
-0.07720352 1.3583685 0.22368978 0
-0.077846639 1.369684 0.25847876 0
-0.074284218 0.90378457 -0.19275807 0
-0.083415352 1.0148793 -0.19179811 0
-0.094555132 1.1504122 -0.18970938 0
-0.11083868 1.3485273 -0.1901539 0
-0.1337077 1.6267649 -0.19076651 0
-0.16859701 2.0512483 -0.19210987 0
-0.22463012 2.7329795 -0.19170532 0
-0.42590329 5.1817846 -0.24204968 0
-0.85135752 10.358107 -0.24164271 0
-0.30647925 3.7288029 0.1743926 0
-0.30588961 3.7216294 0.26126859 0
-0.30499431 3.7107368 0.34774384 0
-0.30592477 3.7220571 0.43669215 0
-0.11389302 1.3856881 0.19547483 0
-0.1146136 1.3944552 0.23003545 0
-0.11254636 1.3693039 0.25886065 0
-0.095403634 0.88620013 -0.1894609 0
-0.10944214 1.0166032 -0.19258459 0
-0.12353595 1.1475199 -0.18968618 0
-0.14651842 1.3610032 -0.19237328 0
-0.17454346 1.6213264 -0.19058466 0
-0.21988197 2.042474 -0.19174679 0
-0.29160973 2.70875 -0.19046134 0
-0.55591911 5.1639085 -0.24179304 0
-1.1125613 10.334534 -0.24167089 0
-0.3991991 3.7081428 0.17384219 0
-0.39874223 3.7038991 0.26064736 0
-0.39999244 3.715512 0.34902626 0
-0.39878365 3.7042837 0.43564901 0
-0.14960709 1.3896937 0.19650999 0
-0.14960627 1.3896861 0.22979844 0
-0.14799377 1.3747076 0.26050538 0
-0.11889301 0.89221638 -0.19132772 0
-0.13256402 0.99480861 -0.18902947 0
-0.15358894 1.1525872 -0.19110373 0
-0.17992283 1.3502064 -0.1914281 0
-0.21731843 1.6308365 -0.19228606 0
-0.27242458 2.044373 -0.19250926 0
-0.35957348 2.6983702 -0.190309 0
-0.68610591 5.148788 -0.24181886 0
-1.3721321 10.296978 -0.24152559 0
-0.49197716 3.6919754 0.17361107 0
-0.4913227 3.6870639 0.26025242 0
-0.24181515 1.8146688 0.17098449 0
-0.24349281 1.8272586 0.21555218 0
-0.18599775 1.3957947 0.19797346 0
-0.18496864 1.3880718 0.23023017 0
-0.18305756 1.3737304 0.26111257 0
-0.14192258 0.89242834 -0.19208013 0
-0.16045888 1.0089869 -0.19243184 0
-0.18088932 1.1374564 -0.18929166 0
-0.21566816 1.3561504 -0.19298109 0
-0.25686017 1.6151713 -0.19114254 0
-0.31941459 2.008522 -0.189832 0
-0.43104526 2.7104707 -0.1918686 0
-0.81608444 5.131649 -0.24190424 0
-1.6313281 10.258011 -0.24150042 0
-0.58300608 3.6660206 0.17302741 0
-0.58131695 3.6553991 0.2589705 0
-0.28083965 1.7659575 0.16700943 0
-0.27959871 1.7581544 0.20816648 0
-0.27831021 1.7500521 0.24913675 0
-0.21747349 1.3675026 0.26088902 0
-0.16343851 0.88339758 -0.19096345 0
-0.18418323 0.99552429 -0.1906901 0
-0.20884752 1.1288368 -0.18867433 0
-0.24816728 1.341363 -0.19170709 0
-0.29624084 1.6012042 -0.19031386 0
-0.37057796 2.0030019 -0.19013374 0
-0.49617529 2.681865 -0.19066943 0
-0.94437504 5.1044188 -0.24166724 0
-1.8921846 10.227402 -0.24182712 0
-0.66994631 3.6211107 0.17165117 0
-0.66552562 3.5972166 0.25595701 0
-0.66724819 3.6065273 0.34255862 0
-0.66836333 3.6125546 0.42958897 0
-0.29023543 1.5687445 0.26229429 0
-0.25191537 1.3616217 0.26089698 0
-0.18870029 0.89331228 -0.19407441 0
-0.20962298 0.99236083 -0.19103672 0
-0.23776898 1.1256047 -0.18907693 0
-0.27953744 1.3233378 -0.19007874 0
-0.33837965 1.6018983 -0.19135052 0
-0.4225508 2.0003669 -0.19083516 0
-0.56592518 2.679105 -0.19142774 0
-0.62066162 2.9382288 -0.13980673 0
-0.61907184 2.9307027 -0.069643788 0
-0.61999995 2.9350963 8.564131e-05 0
-0.75561583 3.5771055 0.17041494 0
-0.75209385 3.5604324 0.25460923 0
-0.75553238 3.5767105 0.34142902 0
-0.75527513 3.5754926 0.42731249 0
-0.28746894 1.3608857 0.2620627 0
-0.2096632 0.8818894 -0.19268104 0
-0.23555335 0.99078912 -0.19181755 0
-0.26877901 1.1305436 -0.19098525 0
-0.31378523 1.3198495 -0.19065453 0
-0.37550882 1.5794725 -0.18974338 0
-0.47451946 1.9959331 -0.19149373 0
-0.52360833 2.2024117 -0.15826085 0
-0.6191749 2.6043856 -0.12462571 0
-0.61878163 2.6027315 -0.062201362 0
-0.61881846 2.6028864 7.6379365e-05 0
-0.83540171 3.5138831 0.16835387 0
-0.83740318 3.5223017 0.25331318 0
-0.83383536 3.5072947 0.3367044 0
-0.83562338 3.5148153 0.42244685 0
-0.83486015 3.511605 0.50746751 0
-0.23183684 0.87627882 -0.19267228 0
-0.25951344 0.98088872 -0.19110802 0
-0.29665172 1.1212611 -0.19062127 0
-0.34774256 1.3143702 -0.19106999 0
-0.41237813 1.5586748 -0.18843524 0
-0.52215117 1.9735864 -0.19055346 0
-0.57998025 2.1921644 -0.15852587 0
-0.64531559 2.4391136 -0.11745904 0
-0.64666945 2.4442308 -0.058784768 0
-0.64574635 2.4407418 7.2076677e-05 0
-0.91484314 3.4578528 0.16672257 0
-0.91234672 3.4484172 0.24957618 0
-0.91150779 3.4452462 0.33285022 0
-0.91341293 3.4524472 0.41758865 0
-0.911529 3.4453266 0.50105458 0
-0.25210512 0.86409307 -0.19133104 0
-0.284226 0.97418767 -0.19113922 0
-0.32254744 1.1055348 -0.18927141 0
-0.34534219 1.1836641 -0.17328112 0
-0.4595581 1.5751404 -0.19176701 0
-0.57239515 1.9618906 -0.1907583 0
-0.71673071 2.4566023 -0.17889982 0
-0.71359521 2.4458551 -0.11861324 0
-0.71499187 2.4506423 -0.059354074 0
-0.71474665 2.4498019 7.2853742e-05 0
-0.98697996 3.3828845 0.16425668 0
-0.98073119 3.3614669 0.24499667 0
-0.98254466 3.3676825 0.32764816 0
-0.98188639 3.3654261 0.40992999 0
-0.98265088 3.3680465 0.49326551 0
-0.2784304 0.87187278 -0.19454773 0
-0.31028524 0.97162259 -0.1921113 0
-0.35556635 1.1134152 -0.19209579 0
-0.38112229 1.1934407 -0.17606446 0
-0.394243 1.2345266 -0.15146184 0
-0.39846894 1.2477597 -0.12226094 0
-0.40111357 1.256041 -0.092177942 0
-0.39736649 1.2443075 -0.060810454 0
-0.3982428 1.2470516 -0.03043709 0
-0.39617321 1.2405708 3.717839e-05 0
-0.39765275 1.2452039 0.030466666 0
-0.39702979 1.2432531 0.060833603 0
-0.39736167 1.2442924 0.091390677 0
-0.39894074 1.2492371 0.12248123 0
-0.39814785 1.2467543 0.15303776 0
-0.39593038 1.2398105 0.18298104 0
-0.39713967 1.2435973 0.21463245 0
-0.39872193 1.2485518 0.24694385 0
-0.29885641 0.86029953 -0.19358674 0
-0.33712432 0.97045904 -0.19350198 0
-0.38259387 1.1013495 -0.19161907 0
-0.42952049 1.2364342 -0.18394788 0
-0.43012682 1.2381796 -0.15319312 0
-0.43105906 1.2408632 -0.12261218 0
-0.43184927 1.2431378 -0.092001595 0
-0.43229327 1.244416 -0.061329439 0
-0.43240839 1.2447474 -0.030637465 0
-0.42910454 1.2352369 3.7331214e-05 0
-0.43059972 1.2395409 0.030584279 0
-0.43431339 1.2502313 0.061691768 0
-0.4336358 1.2482808 0.092458025 0
-0.43284619 1.2460077 0.12319648 0
-0.43198755 1.243536 0.15393202 0
-0.42971587 1.2369967 0.1841078 0
-0.42986763 1.2374334 0.21537256 0
-0.43241087 1.2447546 0.24827227 0
-0.31714377 0.84364378 -0.19157898 0
-0.36108786 0.96054077 -0.19327995 0
-0.41329783 1.0994262 -0.19303785 0
-0.47998574 1.2768247 -0.19169812 0
-0.48475921 1.2895226 -0.16100799 0
-0.51441729 1.3684171 -0.13645549 0
-0.51258302 1.3635377 -0.1018371 0
-0.51440221 1.368377 -0.068056874 0
-0.51437503 1.3683046 -0.033987343 0
-0.51371771 1.366556 4.1678508e-05 0
