# .PCD v0.7 - Point Cloud Data file format
VERSION 0.7
FIELDS x y z intensity
SIZE 4 4 4 4
TYPE F F F F
COUNT 1 1 1 1
WIDTH 1350
HEIGHT 1
VIEWPOINT 0 0 0 1 0 0 0
POINTS 1350
DATA ascii
-0.94505167 -5.1080761 -0.24184041 0
-1.8914797 -10.223592 -0.24173704 0
-0.14151819 -0.88988549 -0.19153281 0
-0.15997793 -1.0059627 -0.19185506 0
-0.18285953 -1.1498452 -0.19135338 0
-0.21400289 -1.3456789 -0.19149101 0
-0.25867617 -1.6265905 -0.19249392 0
-0.32107934 -2.01899 -0.19082138 0
-0.42994651 -2.7035615 -0.19137952 0
-0.8170926 -5.1379881 -0.24220309 0
-1.632435 -10.264971 -0.24166428 0
-0.11826506 -0.88750398 -0.19031718 0
-0.1352929 -1.015287 -0.1929207 0
-0.15359718 -1.152649 -0.19111396 0
-0.17924501 -1.3451197 -0.19070692 0
-0.21712241 -1.6293654 -0.19211262 0
-0.26945314 -2.0220742 -0.19040948 0
-0.36338758 -2.7269926 -0.19232768 0
-0.68631947 -5.1503906 -0.24189414 0
-1.3728383 -10.302278 -0.2416499 0
-0.097377777 -0.90453792 -0.19338132 0
-0.10957928 -1.0178771 -0.19282591 0
-0.12433522 -1.1549444 -0.19091345 0
-0.14423752 -1.3398159 -0.18937853 0
-0.17510697 -1.6265609 -0.19119997 0
-0.21959655 -2.0398226 -0.19149788 0
-0.29348639 -2.7261822 -0.19168706 0
-0.55536056 -5.15872 -0.2415501 0
-1.1127554 -10.336336 -0.24171305 0
-0.073473215 -0.8939175 -0.19065364 0
-0.082608633 -1.0050642 -0.18994319 0
-0.095572427 -1.1627892 -0.19175042 0
-0.11224431 -1.365629 -0.19256537 0
-0.13435747 -1.6346705 -0.19169357 0
-0.16729957 -2.0354631 -0.19063149 0
-0.22338453 -2.7178249 -0.1906423 0
-0.4249703 -5.1704335 -0.24151945 0
-0.85213554 -10.367572 -0.24186353 0
-0.051240824 -0.90156412 -0.19194753 0
-0.057591416 -1.0133005 -0.19116415 0
-0.066231355 -1.1653172 -0.19183053 0
-0.076831989 -1.3518316 -0.19028579 0
-0.082307994 -1.4481798 -0.16952671 0
-0.081976861 -1.4423537 -0.13484706 0
-0.081679061 -1.4371141 -0.10062996 0
-0.082095973 -1.4444495 -0.067354366 0
-0.08188428 -1.4407248 -0.033551555 0
-0.082259573 -1.447328 4.138556e-05 0
-0.02846056 -0.90204352 -0.19183558 0
-0.031872097 -1.0101705 -0.19036129 0
-0.03616162 -1.1461248 -0.1884609 0
-0.041691277 -1.3213847 -0.18579276 0
-0.041496433 -1.3152092 -0.15378933 0
-0.041752029 -1.3233101 -0.12357968 0
-0.04184233 -1.3261721 -0.092758074 0
-0.041803993 -1.3249571 -0.061713614 0
-0.041410442 -1.3124837 -0.030531017 0
-0.042099457 -1.3343217 3.8111688e-05 0
-0.0057335794 -0.90905732 -0.19323489 0
-0.0064792936 -1.02729 -0.19349493 0
-0.0073606838 -1.1670341 -0.19180746 0
-0.0076861731 -1.2186404 -0.17126463 0
-0.0076725008 -1.2164727 -0.14217602 0
-0.0077425609 -1.2275808 -0.11458509 0
-0.0076931366 -1.2197444 -0.085273333 0
-0.0076500052 -1.212906 -0.056467541 0
-0.0076299477 -1.209726 -0.028127227 0
-0.0076953 -1.2200875 3.4832225e-05 0
0.017150573 -0.90605575 -0.19262752 0
0.019133111 -1.0107921 -0.1904178 0
0.022055168 -1.1651629 -0.19153041 0
0.022815777 -1.2053455 -0.16942316 0
0.022822594 -1.2057056 -0.14094004 0
0.022995595 -1.2148452 -0.11341438 0
0.022967389 -1.2133551 -0.084840156 0
0.023110891 -1.2209362 -0.056850445 0
0.022955496 -1.2127267 -0.028201489 0
0.02274535 -1.2016249 3.4310597e-05 0
0.03968044 -0.89797193 -0.19106098 0
0.045114696 -1.0209497 -0.19248454 0
0.051399991 -1.1631864 -0.19135782 0
0.053248964 -1.2050289 -0.1695136 0
0.053327519 -1.2068067 -0.14118111 0
0.053360909 -1.2075622 -0.11282427 0
0.053596813 -1.2129008 -0.084875949 0
0.053755183 -1.2164847 -0.05668829 0
0.053503104 -1.2107801 -0.028178649 0
0.053254575 -1.2051558 3.4438832e-05 0
0.063128568 -0.90825313 -0.19352588 0
0.07080815 -1.018742 -0.19234398 0
0.080695949 -1.1610012 -0.19127248 0
0.084211193 -1.2115763 -0.17067926 0
0.084967196 -1.2224532 -0.14321683 0
0.084394969 -1.2142203 -0.11360917 0
0.0838781 -1.206784 -0.084569119 0
0.084219806 -1.2117002 -0.056546379 0
0.08372049 -1.2045164 -0.02807311 0
0.084292315 -1.2127434 3.4705397e-05 0
0.085095324 -0.89658028 -0.19143535 0
0.095514625 -1.0063601 -0.19040072 0
0.10945175 -1.1532042 -0.19038241 0
0.11545481 -1.2164536 -0.17172214 0
0.11503141 -1.2119925 -0.14228614 0
0.11503752 -1.2120569 -0.11364222 0
0.11456586 -1.2070873 -0.084766015 0
0.11475025 -1.2090302 -0.056538928 0
0.11420005 -1.2032331 -0.028101427 0
0.11422923 -1.2035406 3.4513552e-05 0
0.10776304 -0.89475578 -0.1915655 0
0.12141521 -1.0081095 -0.19125059 0
0.13853686 -1.1502705 -0.1904147 0
0.14579676 -1.2105494 -0.17135356 0
0.14614433 -1.2134352 -0.14284305 0
0.14619792 -1.2138802 -0.11412279 0
0.1468364 -1.2191814 -0.08584822 0
0.14469153 -1.2013727 -0.056333669 0
0.14527537 -1.2062203 -0.028247831 0
0.14615853 -1.2135532 3.4895351e-05 0
0.12935123 -0.88522947 -0.19016436 0
0.14730802 -1.0081187 -0.19189657 0
0.16760287 -1.1470088 -0.19051433 0
0.17660564 -1.2086203 -0.17165679 0
0.17560212 -1.2017527 -0.14194432 0
0.17675717 -1.2096573 -0.11410886 0
0.17758769 -1.2153411 -0.085866064 0
0.17681295 -1.210039 -0.056931172 0
0.17621607 -1.2059542 -0.028336732 0
0.17575291 -1.2027845 3.47022e-05 0
0.15272626 -0.88796914 -0.19151995 0
0.17195015 -0.99973917 -0.19106676 0
0.19592266 -1.1391183 -0.18996458 0
0.20688337 -1.2028452 -0.17152354 0
0.21007282 -1.2213891 -0.14484379 0
0.20723861 -1.2049106 -0.11411816 0
0.20670927 -1.2018329 -0.085253134 0
0.20823286 -1.2106912 -0.057190914 0
0.20619823 -1.1988616 -0.028283352 0
0.20829733 -1.211066 3.5081644e-05 0
0.1747523 -0.88216877 -0.19115932 0
0.19828506 -1.0009646 -0.19219622 0
0.22641917 -1.1429888 -0.19150205 0
0.24042518 -1.2136927 -0.17388029 0
0.23834555 -1.2031945 -0.14335385 0
0.2389745 -1.2063695 -0.11479102 0
0.24007915 -1.2119459 -0.08637283 0
0.24156401 -1.2194415 -0.057873838 0
0.23798403 -1.2013695 -0.028475154 0
0.23910104 -1.2070084 3.5127723e-05 0
0.1992083 -0.8875193 -0.19334666 0
0.22303037 -0.99365222 -0.19181189 0
0.25309384 -1.127592 -0.18993215 0
0.26862559 -1.1967895 -0.17237508 0
0.27134237 -1.2088933 -0.14480266 0
0.27187106 -1.2112489 -0.11587134 0
0.27230293 -1.2131729 -0.0869224 0
0.27236083 -1.2134309 -0.057896379 0
0.2721616 -1.2125432 -0.028893607 0
0.27500126 -1.2251946 3.5847585e-05 0
0.21896316 -0.87195754 -0.1910996 0
0.24904025 -0.99173087 -0.19259302 0
0.28460595 -1.133361 -0.19205268 0
0.30225077 -1.2036264 -0.17440301 0
0.30242062 -1.2043028 -0.14512086 0
0.30433401 -1.2119224 -0.11663342 0
0.303826 -1.2098993 -0.0872095 0
0.3053104 -1.2158104 -0.058358993 0
0.30280805 -1.2058456 -0.028906921 0
0.30544287 -1.2163379 3.5802608e-05 0
0.23813203 -0.85622513 -0.18890871 0
0.27170137 -0.97692668 -0.19098894 0
0.30852839 -1.1093416 -0.18924175 0
0.33902788 -1.2190052 -0.1778146 0
0.33575872 -1.2072506 -0.14645059 0
0.33634117 -1.209345 -0.11716502 0
0.3366164 -1.2103345 -0.087825291 0
0.33559152 -1.2066495 -0.05830726 0
0.33694035 -1.2114993 -0.029237002 0
0.34104389 -1.226254 3.6336274e-05 0
0.2647554 -0.86662424 -0.19261602 0
0.29783431 -0.9749015 -0.19200146 0
0.33840111 -1.1076889 -0.19035619 0
0.37031606 -1.2121562 -0.17812216 0
0.36724362 -1.2020992 -0.14690329 0
0.36921278 -1.2085447 -0.11795274 0
0.36961624 -1.2098655 -0.088440008 0
0.36992961 -1.2108912 -0.058944616 0
0.36650562 -1.1996834 -0.029165799 0
0.37195578 -1.2175235 3.6344176e-05 0
0.28558818 -0.85682201 -0.19197826 0
0.32342324 -0.97033477 -0.19264837 0
0.37025467 -1.1108385 -0.19244207 0
0.42755818 -1.2827606 -0.19002245 0
0.51888818 -1.556769 -0.19178531 0
0.65170223 -1.955238 -0.19237332 0
0.86271268 -2.5883117 -0.19073401 0
1.3029948 -3.9092469 -0.19183685 0
3.2892654 -9.8684587 -0.24185577 0
0.30652377 -0.84770656 -0.19160825 0
0.34429446 -0.95216322 -0.19070511 0
0.3963486 -1.0961214 -0.19156449 0
0.46491838 -1.2857546 -0.19214301 0
0.55651569 -1.5390714 -0.19127452 0
0.69957 -1.9346952 -0.19202819 0
0.93068814 -2.5738637 -0.19133937 0
1.3962921 -3.8615143 -0.19116299 0
3.5379264 -9.7843094 -0.24190481 0
0.32626593 -0.83573574 -0.19070302 0
0.3665024 -0.93880206 -0.18982129 0
0.42245692 -1.0821306 -0.19092198 0
0.49580431 -1.2700112 -0.19159932 0
0.59544396 -1.5252398 -0.19136232 0
0.7474885 -1.9147043 -0.19185543 0
0.99652368 -2.5526121 -0.19156827 0
1.4975376 -3.8359678 -0.19170836 0
3.7857795 -9.6973381 -0.24203983 0
0.34434617 -0.82032347 -0.1891091 0
0.39129442 -0.93216664 -0.19041584 0
0.45083594 -1.0740103 -0.1914359 0
0.52667123 -1.25467 -0.19122939 0
0.63083148 -1.5028073 -0.19048476 0
0.79637378 -1.8971727 -0.1920516 0
1.0583115 -2.5211775 -0.19115289 0
1.5922048 -3.7930522 -0.19151095 0
4.0259504 -9.5908775 -0.24184176 0
0.36928716 -0.82105255 -0.19136487 0
0.4180094 -0.92937881 -0.19194035 0
0.4796218 -1.0663644 -0.19216955 0
0.55617899 -1.2365774 -0.19055063 0
0.66826159 -1.4857756 -0.19040316 0
0.84922636 -1.8881226 -0.19324364 0
1.1271807 -2.5061109 -0.19210632 0
1.6886868 -3.7545323 -0.19165695 0
4.264679 -9.4818497 -0.24172971 0
0.39079675 -0.81337011 -0.1918121 0
0.44222969 -0.92041814 -0.19233362 0
0.50333846 -1.0476046 -0.19101736 0
0.59208941 -1.2323231 -0.19213665 0
0.70718241 -1.4718676 -0.19084738 0
0.89149398 -1.8554776 -0.19214419 0
1.1835881 -2.4634168 -0.19106264 0
1.7859616 -3.7171443 -0.19198826 0
4.507247 -9.3809891 -0.24198145 0
0.40915054 -0.79925829 -0.19085866 0
0.46709719 -0.91245466 -0.19307154 0
0.52768081 -1.0308021 -0.19032143 0
0.6190511 -1.2092901 -0.19092073 0
0.74139416 -1.4482821 -0.19015492 0
0.93485659 -1.826203 -0.19149503 0
1.2534915 -2.4486427 -0.19230929 0
1.8786261 -3.6698167 -0.19193164 0
4.7356615 -9.2509146 -0.24163234 0
0.4308134 -0.7916705 -0.1915822 0
0.48485821 -0.89098424 -0.19105701 0
0.55855691 -1.0264143 -0.19205299 0
0.65312123 -1.2001873 -0.19202492 0
0.7757045 -1.4254487 -0.18966709 0
0.98183024 -1.804229 -0.19172826 0
1.3081554 -2.4038899 -0.19132663 0
1.9700559 -3.6202104 -0.19187661 0
4.9714088 -9.1355505 -0.24181938 0
0.44799191 -0.77594316 -0.19045182 0
0.51411033 -0.89046341 -0.19366609 0
0.58779186 -1.0180833 -0.19320849 0
0.68154585 -1.1804696 -0.19156134 0
0.81875342 -1.4181195 -0.19138053 0
1.0270187 -1.7788448 -0.19172426 0
1.3694847 -2.3720121 -0.19147949 0
2.5962365 -4.4968042 -0.2417334 0
5.2032142 -9.0122128 -0.24195375 0
0.47206464 -0.77197677 -0.19234137 0
0.52236581 -0.85423529 -0.18859416 0
0.60387367 -0.98752671 -0.19024138 0
0.70831245 -1.1583174 -0.19080685 0
0.85141736 -1.3923398 -0.19074073 0
1.0705104 -1.7506269 -0.191534 0
1.426623 -2.3329852 -0.19117478 0
2.7104454 -4.4324455 -0.24187411 0
5.4268379 -8.8746166 -0.24185985 0
0.48598039 -0.75145245 -0.19022311 0
0.55245417 -0.85423821 -0.19161217 0
0.63577604 -0.98307556 -0.19241387 0
0.74143422 -1.1464506 -0.19187351 0
0.88362837 -1.3663199 -0.19017084 0
1.1177701 -1.728364 -0.19212364 0
1.4942569 -2.3105109 -0.19236229 0
2.8174973 -4.3565855 -0.24153803 0
5.6505709 -8.7372561 -0.241926 0
0.50866348 -0.74462831 -0.19168447 0
0.57603675 -0.84325552 -0.19234851 0
0.6501568 -0.95175922 -0.18943584 0
0.77183491 -1.1298828 -0.19229971 0
0.92394924 -1.3525617 -0.19144066 0
1.1642766 -1.704375 -0.19266212 0
1.5484109 -2.266706 -0.19190785 0
2.927438 -4.2854524 -0.2416137 0
5.8667555 -8.5882959 -0.24182436 0
0.52724594 -0.73149711 -0.19166873 0
0.59405559 -0.82418829 -0.19135833 0
0.68253756 -0.94694752 -0.19184577 0
0.80146843 -1.1119514 -0.19262926 0
0.95503289 -1.3250055 -0.19089127 0
1.2024559 -1.6682785 -0.19195126 0
1.5988574 -2.2182429 -0.19116038 0
3.0352359 -4.2110639 -0.24166177 0
6.0752254 -8.4287224 -0.24157171 0
0.53942561 -0.7099216 -0.18952245 0
0.61412954 -0.8082372 -0.1911927 0
0.70292896 -0.92510337 -0.19095373 0
0.82885188 -1.0908266 -0.19253241 0
0.98848695 -1.3009175 -0.1909544 0
1.2424805 -1.6351907 -0.19169131 0
1.6600718 -2.1847699 -0.19182539 0
3.1416941 -4.1346879 -0.24175221 0
6.291429 -8.2799578 -0.24178204 0
0.55869538 -0.6979962 -0.19004269 0
0.6396361 -0.79911804 -0.19279303 0
0.73201871 -0.91453463 -0.19252446 0
0.85482997 -1.0679667 -0.1922444 0
1.0217807 -1.2765437 -0.19110125 0
1.2795718 -1.5986104 -0.19112809 0
1.7087262 -2.1347668 -0.19116074 0
3.2457306 -4.0549965 -0.24180545 0
6.4989319 -8.1193256 -0.24180415 0
0.58356535 -0.69250256 -0.19249578 0
0.65596277 -0.77841473 -0.19173136 0
0.76372421 -0.90629256 -0.19478519 0
0.87856394 -1.04257 -0.19160327 0
1.0576022 -1.2550303 -0.19181553 0
1.3239055 -1.5710458 -0.19176637 0
1.7637677 -2.0930192 -0.19134769 0
3.3495147 -3.974786 -0.24198647 0
6.6978006 -7.9481139 -0.2416627 0
0.60523927 -0.68250543 -0.19390132 0
0.67235672 -0.75819117 -0.19086911 0
0.77557427 -0.87458569 -0.1921165 0
0.9073599 -1.0231954 -0.19219011 0
1.0841916 -1.2226018 -0.19098066 0
1.3605294 -1.5342175 -0.19140151 0
1.827342 -2.0606244 -0.19254117 0
3.4420791 -3.8815022 -0.24151936 0
6.8956413 -7.7759533 -0.24164286 0
0.61245495 -0.6564998 -0.19084387 0
0.69448572 -0.74442977 -0.19175629 0
0.80126762 -0.85889095 -0.19304977 0
0.93107283 -0.99803114 -0.19181632 0
1.1140931 -1.1942134 -0.19087772 0
1.4030868 -1.5039901 -0.19198723 0
1.8664527 -2.000679 -0.19128071 0
3.5400939 -3.7946806 -0.24159966 0
7.0898819 -7.5997524 -0.24165107 0
0.63654745 -0.64870888 -0.19318785 0
0.71368212 -0.72731721 -0.19192702 0
0.81941712 -0.83507228 -0.19228336 0
0.96091497 -0.9792735 -0.192811 0
1.1451936 -1.1670728 -0.19109866 0
1.4325567 -1.4599261 -0.19091702 0
1.9111679 -1.9476812 -0.19076468 0
3.6396987 -3.7092361 -0.24193124 0
7.287075 -7.4262967 -0.24190673 0
0.64708775 -0.62699169 -0.19152309 0
0.7309013 -0.7082023 -0.19168979 0
0.84230494 -0.81614619 -0.19275914 0
0.97242993 -0.94222999 -0.1902892 0
1.1752421 -1.1387436 -0.19125597 0
1.4843074 -1.4382105 -0.19291481 0
1.9530962 -1.8924406 -0.19012173 0
3.72135 -3.6057792 -0.24123257 0
7.4754834 -7.2433233 -0.24201535 0
0.66069937 -0.60862124 -0.19094451 0
0.74871743 -0.68970144 -0.19173592 0
0.8617726 -0.7938453 -0.19256778 0
0.99884987 -0.9201178 -0.19085403 0
1.2074316 -1.1122584 -0.19186488 0
1.5084829 -1.3895801 -0.19143769 0
2.5409431 -2.3406589 -0.24151736 0
3.8200529 -3.5189457 -0.24179657 0
7.6594219 -7.0556855 -0.24212797 0
0.68140501 -0.59662551 -0.19251531 0
0.76813084 -0.67256105 -0.19229919 0
0.87801087 -0.76876992 -0.19179952 0
1.0240943 -0.89667785 -0.19129242 0
1.2292278 -1.0762888 -0.19095103 0
1.5163568 -1.3276937 -0.18812442 0
2.5996332 -2.2761903 -0.24155843 0
3.9010324 -3.4156711 -0.24138875 0
7.8192449 -6.846385 -0.24164091 0
0.69086188 -0.57476741 -0.19102782 0
0.7780652 -0.64731681 -0.19063544 0
0.90045649 -0.74914116 -0.1925111 0
1.0608605 -0.88259041 -0.19393738 0
1.2519079 -1.0415336 -0.19033009 0
1.5572271 -1.2955462 -0.18907805 0
2.6542246 -2.2082009 -0.24137549 0
3.9910395 -3.3203735 -0.24169567 0
8.0038948 -6.6588969 -0.2420764 0
0.71344626 -0.56371325 -0.19327699 0
0.79573733 -0.62873363 -0.19101648 0
0.91319311 -0.72153866 -0.19127981 0
1.0627099 -0.83967596 -0.19034061 0
1.2738008 -1.0064646 -0.18973616 0
1.593619 -1.2591616 -0.18957764 0
2.7148974 -2.1451139 -0.2418925 0
4.0757365 -3.22035 -0.24182568 0
8.1576853 -6.4456086 -0.24173053 0
0.71349049 -0.53507 -0.1895701 0
0.8137148 -0.61023152 -0.19157381 0
0.93646008 -0.70228225 -0.19237942 0
1.0848128 -0.81353688 -0.19056112 0
1.3171818 -0.98779804 -0.19242305 0
1.6249555 -1.2186077 -0.18958628 0
2.7582788 -2.0685244 -0.24102937 0
4.1465626 -3.1096439 -0.24129446 0
8.3283558 -6.245708 -0.24203968 0
0.73282182 -0.52120638 -0.19115032 0
0.83338583 -0.5927307 -0.1926216 0
0.94971389 -0.67546695 -0.19153893 0
1.1129268 -0.79154927 -0.19192922 0
1.325458 -0.94270819 -0.19009571 0
1.6751748 -1.191438 -0.19187593 0
2.8211269 -2.0064759 -0.24201895 0
4.2287989 -3.0076571 -0.24158564 0
8.4750032 -6.0276937 -0.24180326 0
0.75400871 -0.50812346 -0.19327001 0
0.84100664 -0.56675106 -0.19101602 0
0.97479355 -0.65690953 -0.19319169 0
1.1283494 -0.76039028 -0.19121836 0
1.3518133 -0.91098171 -0.19051737 0
1.6950673 -1.1422992 -0.19079141 0
2.8683095 -1.9329425 -0.24180444 0
4.2985454 -2.8967729 -0.24131657 0
8.6291161 -5.8151274 -0.24193579 0
0.76695603 -0.48917139 -0.19336252 0
0.8581568 -0.54734004 -0.19171265 0
0.98184496 -0.62622947 -0.1913958 0
1.1521212 -0.73483312 -0.19204272 0
1.3672105 -0.87201905 -0.18952519 0
1.7250541 -1.1002549 -0.1909802 0
2.9145463 -1.8589236 -0.2416701 0
4.3768444 -2.7915902 -0.24167983 0
8.7783394 -5.5989027 -0.24208052 0
0.77436143 -0.46683553 -0.19219777 0
0.87725866 -0.52886868 -0.19293658 0
0.99973047 -0.60270268 -0.19185594 0
1.1672931 -0.70372033 -0.19155012 0
1.4190291 -0.85548323 -0.19365364 0
1.7530266 -1.0568386 -0.19106315 0
2.9627688 -1.7861501 -0.24185359 0
4.4523859 -2.6841884 -0.24203321 0
8.9053822 -5.3687449 -0.24177027 0
0.78772604 -0.44819161 -0.19264592 0
0.87987292 -0.50062031 -0.19067195 0
1.0143341 -0.57712454 -0.19180207 0
1.1840774 -0.67370313 -0.19145314 0
1.4048856 -0.79933619 -0.18891014 0
1.7757142 -1.0103261 -0.19069594 0
3.0063949 -1.7105452 -0.24181363 0
4.517767 -2.5704687 -0.24198358 0
9.0416536 -5.1444197 -0.24186786 0
0.79675591 -0.42708692 -0.19215688 0
0.90159082 -0.48328182 -0.1926737 0
1.0290552 -0.55160683 -0.19189206 0
1.206947 -0.64696264 -0.19244948 0
1.4490814 -0.7767545 -0.19215566 0
1.8138551 -0.97228491 -0.19209543 0
3.0443339 -1.6318614 -0.24147552 0
4.5786357 -2.4542968 -0.24184898 0
9.1634331 -4.9118962 -0.24173222 0
0.80594575 -0.40617657 -0.19183975 0
0.90803581 -0.45762745 -0.19152173 0
1.0497631 -0.52905446 -0.19320206 0
1.2203718 -0.61503696 -0.19205377 0
1.4609684 -0.73629165 -0.1912068 0
1.8323046 -0.92343581 -0.19152005 0
3.0859089 -1.5552212 -0.24158281 0
4.6394358 -2.33816 -0.24186635 0
9.2859125 -4.6798687 -0.24177037 0
0.81003028 -0.38292003 -0.19045089 0
0.91315001 -0.43166712 -0.1902419 0
1.0583646 -0.5003134 -0.19239986 0
1.2218128 -0.57757914 -0.18992595 0
1.4781039 -0.69873387 -0.19108053 0
1.853035 -0.87597245 -0.19131505 0
3.1240807 -1.4768251 -0.24157621 0
4.6942921 -2.2191002 -0.24172933 0
9.399642 -4.443428 -0.24173458 0
0.82390064 -0.36433551 -0.19148906 0
0.92374945 -0.40848947 -0.19024165 0
1.0653361 -0.47110021 -0.19144474 0
1.2492808 -0.55244207 -0.1919672 0
1.4978365 -0.66235536 -0.19140938 0
1.8743629 -0.82885844 -0.19129629 0
3.162935 -1.3986754 -0.24177396 0
4.7564478 -2.1033397 -0.24211927 0
9.5106592 -4.2056904 -0.24178281 0
0.82641375 -0.3407855 -0.1900136 0
0.94781929 -0.39084908 -0.19310564 0
1.0747743 -0.44320109 -0.19106981 0
1.254536 -0.51732886 -0.19070765 0
1.5098373 -0.62260664 -0.1908741 0
1.8961996 -0.78192955 -0.19144982 0
3.1995447 -1.3193856 -0.24194989 0
4.7891998 -1.9749064 -0.24117239 0
9.6158895 -3.9652724 -0.24183673 0
0.84911603 -0.32533038 -0.19328395 0
0.95279527 -0.36505404 -0.19218108 0
1.0794111 -0.41356567 -0.189978 0
1.2629955 -0.48390415 -0.19007649 0
1.5232358 -0.58361268 -0.19064508 0
1.9137163 -0.73322135 -0.19128904 0
3.2364495 -1.2400134 -0.24229681 0
4.8482141 -1.8575451 -0.24170634 0
9.7119503 -3.7210371 -0.24181367 0
0.85494566 -0.30305538 -0.19280845 0
0.965204 -0.34213901 -0.19288078 0
1.0995475 -0.3897602 -0.19172962 0
1.2742804 -0.45169833 -0.1899986 0
1.5444685 -0.54747277 -0.19151214 0
1.9498289 -0.69116223 -0.19309358 0
3.2476823 -1.1512165 -0.24088581 0
4.8958697 -1.7354549 -0.2418215 0
9.7967396 -3.472682 -0.24166557 0
0.85072255 -0.27760342 -0.19021538 0
0.96812713 -0.31591427 -0.19181047 0
1.098021 -0.3583006 -0.18982613 0
1.2824833 -0.41849336 -0.18958643 0
1.5597835 -0.50898051 -0.1917572 0
1.9428678 -0.63398665 -0.19075885 0
3.2813933 -1.0707674 -0.24130487 0
4.9322281 -1.6094593 -0.24153402 0
9.8872042 -3.2263415 -0.24181144 0
0.86789298 -0.25916713 -0.19253069 0
0.97694248 -0.29173112 -0.19203708 0
1.1227487 -0.33527127 -0.19257684 0
1.3009548 -0.38848656 -0.19080681 0
1.5554303 -0.46447712 -0.18972042 0
1.9690875 -0.58800197 -0.191815 0
3.3127074 -0.98922902 -0.24169464 0
4.976645 -1.4861082 -0.24179535 0
9.9538698 -2.9723897 -0.24153021 0
0.8684175 -0.23562989 -0.19126686 0
0.97156209 -0.26361638 -0.18961121 0
1.1191506 -0.30366194 -0.19058442 0
1.3117424 -0.35591835 -0.19101065 0
1.5661643 -0.42495126 -0.18966107 0
1.9545294 -0.53032732 -0.18903279 0
3.3406065 -0.9064151 -0.24198399 0
5.0117636 -1.3598543 -0.24175709 0
10.032252 -2.7220762 -0.24168813 0
0.8719629 -0.21312487 -0.19080225 0
0.99201471 -0.2424679 -0.1923472 0
1.1328101 -0.27688107 -0.19165947 0
1.3093722 -0.32003629 -0.18942899 0
1.574061 -0.38473147 -0.18938115 0
1.9752843 -0.48279831 -0.18980116 0
3.3575315 -0.8206467 -0.2416327 0
5.0411243 -1.2321498 -0.24159636 0
10.093451 -2.4670379 -0.24158549 0
0.87952662 -0.19159329 -0.19133827 0
0.9883095 -0.21529022 -0.19051453 0
1.1325098 -0.24670236 -0.19049454 0
1.3307841 -0.28989378 -0.19140722 0
1.5981307 -0.34813172 -0.19115905 0
1.9866846 -0.43277308 -0.18978661 0
3.3796637 -0.73621523 -0.24181125 0
5.0778675 -1.1061466 -0.24194224 0
10.166036 -2.2145369 -0.24190797 0
0.88283867 -0.16910307 -0.19106947 0
1.0044912 -0.19240499 -0.1926364 0
1.1308694 -0.21661204 -0.18923874 0
1.3232453 -0.25346065 -0.18934253 0
1.6189944 -0.31010979 -0.19265708 0
2.5421236 -0.48693031 -0.24159634 0
3.390383 -0.64940995 -0.24132863 0
5.096746 -0.9762547 -0.24159081 0
10.213971 -1.9564321 -0.24179663 0
0.87488151 -0.14479777 -0.18849635 0
0.99849629 -0.16525671 -0.19062614 0
1.1531297 -0.19084939 -0.19209655 0
1.3389108 -0.22159719 -0.19072306 0
1.6118876 -0.26677638 -0.19094935 0
2.554904 -0.42285085 -0.24171971 0
3.4165123 -0.56545186 -0.24209557 0
5.1156807 -0.84667367 -0.24139854 0
10.258189 -1.6977875 -0.24175201 0
0.89494002 -0.12500797 -0.19207709 0
1.0155035 -0.14184867 -0.19312806 0
1.1611152 -0.16218814 -0.19268353 0
1.3419632 -0.18744954 -0.19042331 0
1.6210511 -0.22643341 -0.19129695 0
2.5690324 -0.35885036 -0.24212243 0
3.4309499 -0.47924566 -0.2421844 0
5.1446791 -0.71862465 -0.24183404 0
10.291906 -1.4376051 -0.2416146 0
0.89814836 -0.10242665 -0.19214965 0
1.0105292 -0.11524279 -0.19156787 0
1.1575038 -0.13200408 -0.1914704 0
1.3359593 -0.15235549 -0.18896554 0
1.6221198 -0.18498981 -0.19081132 0
2.5762119 -0.29379642 -0.24202316 0
3.4362171 -0.39187312 -0.24178104 0
5.1656828 -0.58910489 -0.24204536 0
10.331368 -1.17821 -0.2417659 0
0.88955826 -0.07876873 -0.18982613 0
1.020123 -0.09032999 -0.19289297 0
1.1289696 -0.099968143 -0.18627366 0
1.1363498 -0.10062166 -0.16032138 0
1.62537 -0.14392349 -0.19070563 0
2.578707 -0.22833969 -0.24163917 0
3.4531662 -0.30577144 -0.24235344 0
5.1777735 -0.45848218 -0.24199261 0
10.34859 -0.91634834 -0.24155077 0
0.90131134 -0.056933992 -0.19196638 0
1.0161585 -0.064188652 -0.19177592 0
1.127835 -0.071243033 -0.18573067 0
1.1227288 -0.070920482 -0.15809679 0
1.6317948 -0.10307714 -0.19109336 0
2.5818255 -0.16308863 -0.2414688 0
3.4544797 -0.21821241 -0.24198204 0
5.1803441 -0.32723173 -0.24164981 0
10.389545 -0.6562863 -0.24204302 0
0.90400589 -0.034233406 -0.19229501 0
1.0265986 -0.038875818 -0.19349943 0
1.1354182 -0.04299666 -0.18674126 0
1.1317881 -0.042859197 -0.15916948 0
1.6371181 -0.06199532 -0.19147255 0
2.59128 -0.098128058 -0.24204431 0
3.4587443 -0.13097769 -0.24197215 0
5.1879578 -0.19646053 -0.24169669 0
10.400817 -0.39386407 -0.24199697 0
0.89498299 -0.011292445 -0.19025451 0
1.0228132 -0.012905343 -0.19266321 0
1.1291043 -0.01424647 -0.18558459 0
1.1395334 -0.014378059 -0.16015668 0
1.1359169 -0.014332429 -0.13276893 0
1.1279665 -0.014232114 -0.10529316 0
1.1181134 -0.014107792 -0.078172892 0
1.1368426 -0.014344107 -0.052929524 0
1.136771 -0.014343204 -0.026432535 0
1.1281731 -0.014234721 3.2210086e-05 0
1.1336229 -0.014303484 0.026424102 0
1.1293448 -0.014249505 0.052645069 0
1.1216961 -0.014152997 0.078487739 0
1.1254278 -0.014200082 0.105121 0
1.1368634 -0.01434437 0.13294536 0
1.1309309 -0.014269518 0.15901351 0
1.1369015 -0.014344851 0.18693285 0
1.1263152 -0.014211279 0.21222608 0
0.90994102 0.011481178 -0.19343428 0
1.013077 0.012782496 -0.19082925 0
1.1361368 0.014335201 -0.18674047 0
1.1339585 0.014307718 -0.15937316 0
1.644024 0.020743467 -0.1921578 0
2.5976217 0.032775484 -0.2424822 0
3.4543257 0.043584943 -0.24150915 0
5.1996374 0.065606408 -0.24208659 0
10.402637 0.13125524 -0.2418852 0
0.89773709 0.03399602 -0.19096157 0
1.0133671 0.038374759 -0.1910055 0
1.1319083 0.042863749 -0.18616401 0
1.1277174 0.042705044 -0.15859698 0
1.6405579 0.062125575 -0.19187485 0
2.577698 0.09761373 -0.24077567 0
3.4499831 0.13064592 -0.24135922 0
5.1967807 0.19679464 -0.24210773 0
10.387609 0.39336386 -0.24168965 0
0.8921994 0.056358412 -0.19002567 0
1.0203152 0.064451218 -0.19256039 0
1.127853 0.071244165 -0.18573362 0
1.1312026 0.071455754 -0.15929003 0
1.6367056 0.10338734 -0.19166845 0
2.5792153 0.16292375 -0.24122468 0
3.4551744 0.21825629 -0.2420307 0
5.1811213 0.32728082 -0.24168605 0
10.373526 0.65527439 -0.24166983 0
0.89459151 0.079214416 -0.19090019 0
1.0136758 0.089759104 -0.19167387 0
1.1596342 0.10268345 -0.19133317 0
1.3546149 0.11994862 -0.1911152 0
1.6360165 0.14486621 -0.19195479 0
2.5784628 0.22831807 -0.24161629 0
3.4466064 0.30519059 -0.24189305 0
5.1739359 0.45814237 -0.24181326 0
10.354682 0.91688776 -0.24169296 0
0.90030777 0.10267291 -0.19261165 0
1.0123384 0.11544912 -0.19191085 0
1.1525594 0.13144019 -0.1906525 0
1.3613031 0.15524575 -0.19255032 0
1.6342574 0.18637401 -0.19223909 0
2.5809965 0.29434204 -0.24247263 0
3.434056 0.39162669 -0.241629 0
5.1531687 0.58767778 -0.241459 0
10.348058 1.1801134 -0.24215646 0
0.89632291 0.12520114 -0.1923739 0
1.0086347 0.1408892 -0.19182172 0
1.1542406 0.1612279 -0.19154273 0
1.3422542 0.1874902 -0.1904646 0
1.6069371 0.22446191 -0.18963139 0
2.5688982 0.35883161 -0.24210978 0
3.4177492 0.47740173 -0.24125259 0
5.1565833 0.72028744 -0.24239361 0
10.289676 1.4372935 -0.24156222 0
0.88563031 0.14657675 -0.19081223 0
1.0018593 0.16581331 -0.19126819 0
1.1432523 0.18921462 -0.19045109 0
1.3458419 0.22274433 -0.19171037 0
1.6190711 0.26796529 -0.19180033 0
2.5477037 0.42165917 -0.2410385 0
3.4160278 0.56537163 -0.24206124 0
5.1165552 0.84681845 -0.24143982 0
10.253716 1.6970472 -0.24164662 0
0.89245886 0.17094576 -0.19315152 0
0.98545921 0.18875949 -0.18898652 0
1.1433089 0.21899475 -0.19132034 0
1.3360127 0.25590616 -0.19116941 0
1.3385824 0.25639838 -0.15928861 0
1.3470718 0.25802448 -0.12802196 0
1.3314494 0.25503209 -0.094773024 0
1.3362008 0.2559422 -0.063337244 0
1.3428161 0.25720933 -0.031788655 0
1.3558265 0.2597014 3.9410326e-05 0
0.87626636 0.19088309 -0.19062902 0
0.99625289 0.21702057 -0.19204576 0
1.1211818 0.2442347 -0.1885891 0
1.2039776 0.26227066 -0.1731686 0
1.212284 0.26408011 -0.14500631 0
1.2014019 0.2617096 -0.1147691 0
1.1999816 0.26140019 -0.085857369 0
1.190979 0.25943908 -0.056745898 0
1.1988317 0.2611497 -0.028527044 0
1.2133896 0.26432094 3.5452682e-05 0
0.88264436 0.21573563 -0.19313957 0
0.99255496 0.24259993 -0.19245195 0
1.1323576 0.27677044 -0.1915829 0
1.200018 0.29330802 -0.17360856 0
1.2073312 0.29509547 -0.14525852 0
1.2112349 0.29604962 -0.11638516 0
1.1994686 0.2931737 -0.086322598 0
1.2023586 0.29388008 -0.057623148 0
1.205153 0.29456308 -0.028845187 0
1.2081547 0.29529676 3.5506182e-05 0
0.86759263 0.23540607 -0.1910852 0
0.98640966 0.267645 -0.19250888 0
1.1213057 0.30424666 -0.19095141 0
1.2023377 0.3262333 -0.17507958 0
1.2101202 0.32834494 -0.14654446 0
1.2029222 0.32639191 -0.11634093 0
1.1928251 0.32365221 -0.086404845 0
1.2039108 0.32666013 -0.058074169 0
1.2134904 0.32925937 -0.029234333 0
1.2149836 0.32966453 3.5939956e-05 0
0.86681426 0.258845 -0.19229139 0
0.97626412 0.29152855 -0.19190373 0
1.1193322 0.33425102 -0.19199081 0
1.2065743 0.36030298 -0.17696434 0
1.1999021 0.35831052 -0.14635558 0
1.1976434 0.35763606 -0.11666622 0
1.2217962 0.36484846 -0.089142062 0
1.2097373 0.36124748 -0.058776315 0
1.2070622 0.36044869 -0.029289313 0
1.2081003 0.36075866 3.5994221e-05 0
0.84826434 0.27680126 -0.18966573 0
0.96412641 0.31460875 -0.19101784 0
1.1060234 0.36091188 -0.1912096 0
1.2073976 0.39399177 -0.17848668 0
1.2039565 0.39286888 -0.14801241 0
1.2040601 0.3929027 -0.11821964 0
1.2062194 0.39360732 -0.088702142 0
1.2057462 0.39345291 -0.059046078 0
1.2011979 0.3919687 -0.029377706 0
1.2054007 0.39334017 3.6198042e-05 0
0.84124863 0.29820013 -0.18971947 0
0.9614647 0.34081352 -0.19213353 0
1.0917745 0.38700488 -0.19037424 0
1.2050444 0.42715603 -0.17967534 0
1.2066697 0.42773214 -0.14962551 0
1.2134185 0.43012443 -0.12016609 0
1.2078202 0.42813995 -0.089585967 0
1.2005631 0.42556751 -0.059299365 0
1.2101678 0.42897213 -0.02985237 0
1.202058 0.42609742 3.6409016e-05 0
0.8468433 0.32445958 -0.19276661 0
0.95394742 0.36549547 -0.19241346 0
1.0863658 0.41623026 -0.19120204 0
1.2051878 0.46175569 -0.18137662 0
1.2063471 0.4621999 -0.15098394 0
1.2101363 0.46365169 -0.12096141 0
1.2093349 0.46334463 -0.09053687 0
1.2025681 0.46075201 -0.05995369 0
1.207508 0.46264467 -0.030065224 0
1.2073178 0.46257183 3.6910194e-05 0
0.82821381 0.34152779 -0.19042748 0
0.94017851 0.38769829 -0.19154893 0
1.0789698 0.44493121 -0.19181569 0
1.2109914 0.49937251 -0.18408823 0
1.2092882 0.49867016 -0.15287858 0
1.1987382 0.49431971 -0.12103062 0
1.2061585 0.4973796 -0.091209829 0
1.2100126 0.49896887 -0.060933273 0
1.1967133 0.49348471 -0.030096982 0
1.2125338 0.50000858 3.7443548e-05 0
0.82104462 0.36307257 -0.19082527 0
0.93511945 0.41351739 -0.19258323 0
1.065933 0.4713642 -0.19155201 0
1.204682 0.53272009 -0.18511406 0
1.1997839 0.53055412 -0.15332107 0
1.1986402 0.53004837 -0.12233247 0
1.2020514 0.53155684 -0.091884509 0
1.212883 0.53634667 -0.061739843 0
1.1963527 0.52903682 -0.030414034 0
1.2095156 0.53485757 3.7755181e-05 0
0.81651473 0.38598537 -0.1919755 0
0.9140715 0.43210274 -0.19043387 0
1.0661072 0.50397348 -0.19380738 0
1.2320702 0.58242804 -0.19152041 0
1.4791772 0.69924122 -0.19121927 0
1.854454 0.8766433 -0.19146158 0
3.117938 1.4739214 -0.24110122 0
4.7003307 2.2219548 -0.24204029 0
9.3930454 4.4403095 -0.24156491 0
0.80335742 0.40487212 -0.19122367 0
0.89802021 0.4525798 -0.18940926 0
1.0470963 0.52771038 -0.19271125 0
1.2102618 0.60994184 -0.19046272 0
1.461212 0.73641443 -0.19123869 0
1.8253354 0.91992354 -0.19079161 0
3.0863352 1.555436 -0.24161619 0
4.6333952 2.3351157 -0.24155144 0
9.2869244 4.6803784 -0.2417967 0
0.79438728 0.42581728 -0.19158565 0
0.89580923 0.48018271 -0.19143814 0
1.0329642 0.55370224 -0.19262101 0
1.200403 0.64345479 -0.19140601 0
1.4400421 0.77190912 -0.19095699 0
1.8101918 0.9703213 -0.19170746 0
3.0518284 1.6358787 -0.24206996 0
4.5700054 2.4496706 -0.2413931 0
9.1628513 4.9115844 -0.24171689 0
0.78727323 0.44793397 -0.19253518 0
0.88996321 0.50636137 -0.19285856 0
1.0057336 0.57223111 -0.19017577 0
1.1789607 0.67079198 -0.19062585 0
1.2016852 0.68372148 -0.16158648 0
1.2130122 0.69016623 -0.13026674 0
2.9986038 1.7061123 -0.24118696 0
4.5200019 2.5717404 -0.24210328 0
9.0378189 5.1422377 -0.24176528 0
0.76480699 0.46107551 -0.18982635 0
0.87190866 0.52564335 -0.19175996 0
0.99091983 0.59739101 -0.1901651 0
1.158252 0.69826978 -0.19006649 0
1.1488342 0.69259214 -0.15678038 0
1.1898553 0.71732235 -0.12968287 0
2.9567873 1.7825441 -0.24136533 0
4.4508824 2.6832819 -0.24195148 0
8.908967 5.3709059 -0.2418676 0
0.758959 0.48407081 -0.19134633 0
0.85582268 0.54585135 -0.1911912 0
0.98716229 0.62962091 -0.19243233 0
1.1530411 0.73541993 -0.19219606 0
1.1368995 0.7251246 -0.15759906 0
1.1809744 0.753236 -0.13074531 0
2.911303 1.8568549 -0.24140117 0
4.3820648 2.79492 -0.24196811 0
8.7732182 5.5956364 -0.24193929 0
0.74149704 0.49969193 -0.19006298 0
0.84049928 0.56640917 -0.19090079 0
0.96324205 0.64912498 -0.19090232 0
1.1325073 0.76319224 -0.19192298 0
1.1524446 0.7766279 -0.16241939 0
1.1593632 0.78129029 -0.13049425 0
2.8577259 1.9258102 -0.24091221 0
4.3011718 2.8985429 -0.241464 0
8.6230679 5.8110518 -0.24176621 0
0.73138833 0.52018678 -0.19077639 0
0.83200765 0.5917505 -0.19230306 0
0.96006864 0.68283159 -0.19362728 0
1.1049868 0.78590202 -0.19055991 0
1.1423769 0.81249505 -0.16383842 0
1.1391435 0.81019533 -0.13047846 0
2.8134251 2.000998 -0.24135822 0
4.2337508 3.0111794 -0.24186856 0
8.4693861 6.0236988 -0.241643 0
0.7185607 0.53887236 -0.19091722 0
0.81816477 0.61356872 -0.19262147 0
0.9273569 0.69545549 -0.19050932 0
1.0822569 0.81162018 -0.19011216 0
1.0914561 0.81851882 -0.15944746 0
1.0955768 0.82160908 -0.12782277 0
1.1030571 0.82721895 -0.096389517 0
1.1035547 0.82759202 -0.064217441 0
1.0987668 0.82400137 -0.031932496 0
1.1078404 0.83080608 3.9532551e-05 0
1.0977505 0.82323933 0.031981349 0
1.0983186 0.82366532 0.063991301 0
1.0941305 0.82052451 0.095687941 0
0.70077372 0.55370033 -0.18984391 0
0.79463285 0.62786102 -0.19075136 0
0.9137882 0.72200888 -0.19140448 0
1.0580095 0.835962 -0.18949871 0
1.0973191 0.86702162 -0.16344872 0
1.0991554 0.86847252 -0.13075604 0
1.0997063 0.86890781 -0.097981863 0
1.0923675 0.86310917 -0.064813443 0
1.0990361 0.86837822 -0.032566905 0
1.0944827 0.86478049 3.9822062e-05 0
1.0976965 0.86731982 0.032607134 0
1.1024044 0.87103963 0.065489359 0
1.0981406 0.86767066 0.097922668 0
0.68783462 0.57224888 -0.19019076 0
0.78299898 0.65142155 -0.19184427 0
0.89755374 0.74672616 -0.19189051 0
1.0234445 0.85146189 -0.1870973 0
1.1030012 0.91764969 -0.16769151 0
1.0867875 0.90416056 -0.13195741 0
1.101464 0.91637081 -0.10016727 0
1.100471 0.91554469 -0.066644065 0
1.0977186 0.91325474 -0.033200305 0
1.0970753 0.91271955 4.0741572e-05 0
1.1110005 0.92430472 0.033684574 0
1.0923598 0.90879649 0.066234164 0
1.1048476 0.9191857 0.10055742 0
0.68047112 0.59580785 -0.19225147 0
0.76736498 0.67189044 -0.19210745 0
0.87897229 0.76961172 -0.19200955 0
0.99133676 0.86799598 -0.18517359 0
1.0972283 0.96071261 -0.17044593 0
1.0968041 0.96034127 -0.13607328 0
1.0939069 0.95780444 -0.10164604 0
1.0933031 0.95727581 -0.067651592 0
1.0976501 0.96108192 -0.03392107 0
1.0991807 0.96242213 4.1708547e-05 0
1.0941398 0.95800841 0.033895675 0
1.1060761 0.96845961 0.068526089 0
1.0983679 0.96171039 0.10214432 0
1.1005492 0.96362042 0.13662216 0
1.0892037 0.95368648 0.27276438 0
0.66372752 0.61141074 -0.19181967 0
0.75286376 0.69352102 -0.19279775 0
0.85958046 0.79182595 -0.19207793 0
0.9714182 0.89484835 -0.18561256 0
1.059541 0.97602504 -0.16836458 0
1.0966899 1.0102458 -0.1391781 0
1.1036212 1.0166308 -0.10489951 0
1.1022999 1.0154136 -0.069771901 0
1.097156 1.0106752 -0.034683056 0
1.1030607 1.0161145 4.2815271e-05 0
1.1042795 1.0172372 0.034994014 0
1.0988693 1.0122534 0.069640242 0
1.098091 1.0115365 0.10445952 0
1.1078039 1.0204839 0.14067531 0
1.0406353 0.95860964 0.26657563 0
0.64224291 0.62229729 -0.19008914 0
0.7369476 0.71406084 -0.19327553 0
0.83317375 0.80729854 -0.19066949 0
0.83884817 0.81279677 -0.16414934 0
0.83395916 0.80805957 -0.13571644 0
0.84107941 0.81495875 -0.10931475 0
0.83748823 0.81147909 -0.081524253 0
0.83858687 0.81254357 -0.054360509 0
0.83414602 0.80824065 -0.027005097 0
0.84493035 0.81869006 3.3587279e-05 0
0.84148359 0.81535035 0.027309584 0
0.83945996 0.81338954 0.054483991 0
0.84231389 0.81615484 0.082061291 0
1.0971947 1.06312 0.14268993 0
1.0042498 0.97306168 0.19659726 0
1.0097001 0.97834259 0.23114948 0
0.99563712 0.96471643 0.26120266 0
0.6309185 0.64297235 -0.1914795 0
0.71907032 0.73280835 -0.19337603 0
0.8147496 0.83031559 -0.19118808 0
0.84289134 0.85899496 -0.16912915 0
0.83514494 0.85110056 -0.13936079 0
0.83557731 0.85154122 -0.11135749 0
0.84665811 0.86283374 -0.084509827 0
0.82900518 0.84484357 -0.055104081 0
0.83772314 0.853728 -0.027809629 0
0.84290767 0.85901165 3.435777e-05 0
0.84209871 0.85818726 0.028023571 0
0.83629322 0.85227084 0.055656843 0
0.83486974 0.85082012 0.083401561 0
0.84044015 0.85649699 0.11207467 0
1.1030285 1.1241021 0.18415371 0
0.93676054 0.95465761 0.18804222 0
0.94087291 0.95884854 0.22086281 0
0.95525432 0.97350472 0.25697246 0
0.62182969 0.66654873 -0.19376507 0
0.69491291 0.74488771 -0.19187425 0
0.7925967 0.84959644 -0.19096069 0
0.84030002 0.90073043 -0.17311564 0
0.8339985 0.89397568 -0.14288907 0
0.83613217 0.89626282 -0.11440968 0
0.83900714 0.8993445 -0.085984431 0
0.83823884 0.89852101 -0.057207022 0
0.84218198 0.90274769 -0.028704876 0
0.83645999 0.89661425 3.5006218e-05 0
0.83628249 0.89642394 0.028573833 0
0.84283596 0.9034487 0.057591457 0
0.83544344 0.8955245 0.085689485 0
0.84263104 0.90322906 0.11537007 0
1.1013429 1.1805462 0.18878667 0
0.93114722 0.99811089 0.19191113 0
0.92554796 0.99210894 0.22307226 0
0.9271763 0.9938544 0.25608549 0
0.59161317 0.66713977 -0.1895359 0
0.67286682 0.75876641 -0.19101392 0
0.77673697 0.87589687 -0.19240452 0
0.84928167 0.95770276 -0.17988843 0
0.84143001 0.94884872 -0.14821813 0
0.83438694 0.94090652 -0.11738291 0
0.83980769 0.94701934 -0.088487849 0
0.83746153 0.94437367 -0.058761925 0
0.83312643 0.93948513 -0.029195117 0
0.83425158 0.94075388 3.589605e-05 0
0.84662873 0.95471108 0.029741172 0
0.84269476 0.95027494 0.059201796 0
0.8384251 0.9454602 0.088414669 0
0.83536422 0.94200855 0.11759292 0
1.0987526 1.2390217 0.19364142 0
1.1024624 1.2432051 0.23361202 0
0.580764 0.68917817 -0.19157171 0
0.65095168 0.77246821 -0.19026668 0
0.73399931 0.87101877 -0.18720396 0
0.85340714 1.0127171 -0.1861169 0
0.83875495 0.99532968 -0.15212357 0
0.84142202 0.99849463 -0.12187913 0
0.83448923 0.99026763 -0.090532094 0
0.83547938 0.99144262 -0.060359403 0
0.8384127 0.99492353 -0.030250685 0
0.84524566 1.0030321 3.7446447e-05 0
0.83859628 0.99514139 0.030331654 0
0.84515262 1.0029216 0.061133295 0
0.83873814 0.99530971 0.091067731 0
0.84079921 0.99775553 0.12186407 0
0.83837718 0.99488139 0.15213035 0
1.099224 1.3044218 0.23982565 0
0.56679803 0.70811909 -0.19279884 0
0.63958919 0.79905945 -0.19277889 0
0.72981787 0.91178507 -0.19194564 0
0.85405648 1.0670004 -0.19207044 0
0.85003984 1.0619823 -0.15898095 0
0.83965099 1.0490031 -0.12541765 0
0.83997285 1.0494052 -0.093970485 0
0.84006613 1.0495218 -0.062584542 0
0.84027576 1.0497837 -0.031263933 0
0.83822811 1.0472255 3.8294314e-05 0
0.84099728 1.050685 0.03136766 0
0.83756477 1.0463967 0.062474884 0
0.837008 1.0457011 0.093715653 0
0.84279352 1.0529292 0.12596473 0
0.83893061 1.0481031 0.15698092 0
1.0968021 1.3702704 0.2467642 0
1.1046392 1.3800614 0.29062912 0
0.54272443 0.71426314 -0.19068146 0
0.61648589 0.81133831 -0.1919263 0
0.69953597 0.92063797 -0.19003202 0
0.72485161 0.95395511 -0.16837437 0
0.73169315 0.96295905 -0.14134738 0
0.73028773 0.9611094 -0.11266962 0
0.72599024 0.95545363 -0.083889961 0
0.73193723 0.96328032 -0.056322303 0
0.72512621 0.9543165 -0.027866879 0
0.72619438 0.95572227 3.4267145e-05 0
0.73190814 0.96324199 0.028196622 0
0.72825533 0.95843464 0.056107856 0
0.7295627 0.96015525 0.084371954 0
0.72820312 0.95836592 0.11241733 0
0.72738189 0.95728517 0.14058413 0
0.72406101 0.95291466 0.16826043 0
0.73029244 0.9611156 0.19845793 0
0.72462416 0.95365572 0.22566304 0
0.52739686 0.7317065 -0.1917236 0
0.59667331 0.82782006 -0.19220155 0
0.67753345 0.94000489 -0.19043924 0
0.72470641 1.0054523 -0.17417987 0
0.95914149 1.3307058 -0.19171248 0
0.84988743 1.1791275 -0.1356698 0
0.83912224 1.164192 -0.10032597 0
0.84442896 1.1715544 -0.0672324 0
0.84370768 1.1705538 -0.033548702 0
0.84240478 1.1687461 4.1129631e-05 0
0.8333748 1.1562179 0.033219252 0
0.84328246 1.1699638 0.067223646 0
0.83751756 1.1619656 0.1002163 0
0.83578873 1.1595671 0.13350151 0
0.83623213 1.1601822 0.16722822 0
0.8391493 1.1642295 0.20176926 0
1.1041391 1.5318743 0.31045908 0
0.51139176 0.74862224 -0.19271259 0
0.57671803 0.84425282 -0.19257601 0
0.65871453 0.96428686 -0.19192931 0
0.76092649 1.113914 -0.18958192 0
0.92156082 1.3490653 -0.19094579 0
1.1561089 1.6924183 -0.19131054 0
0.8485406 1.2421716 -0.10516691 0
0.83598751 1.2237953 -0.068997547 0
0.83827907 1.2271498 -0.03455339 0
0.84040189 1.2302575 4.2534306e-05 0
0.84055811 1.2304862 0.034732461 0
0.83593458 1.2237178 0.069077983 0
0.83657849 1.2246604 0.10376944 0
0.83773732 1.2263567 0.1387126 0
0.84194231 1.2325125 0.17453536 0
0.83600271 1.2238175 0.20837316 0
1.1002992 1.6107191 0.32070798 0
1.0969985 1.6058871 0.36642152 0
0.49113896 0.75942898 -0.19224229 0
0.55281138 0.85479057 -0.19173606 0
0.6281665 0.97130924 -0.19011088 0
0.73471153 1.1360557 -0.19013377 0
0.88968736 1.3756887 -0.19147481 0
1.1118833 1.7192615 -0.1911118 0
1.4789439 2.286833 -0.19039099 0
0.8486684 1.3122627 -0.072754532 0
0.83611333 1.2928493 -0.035797719 0
0.84083915 1.3001566 4.4203171e-05 0
0.83884943 1.29708 0.036003109 0
0.83426571 1.2899925 0.071607731 0
0.83815736 1.2960099 0.10798825 0
0.83855814 1.2966295 0.14422129 0
0.84189206 1.3017848 0.18127824 0
0.83281827 1.2877543 0.2156118 0
0.84073669 1.2999982 0.25453478 0
1.0946337 1.6925892 0.37977988 0
0.47500515 0.77678537 -0.19353947 0
0.52330953 0.85577846 -0.18893488 0
0.60625905 0.99142748 -0.19099285 0
0.71213108 1.1645622 -0.19183552 0
0.84874928 1.3879766 -0.19014302 0
1.0709753 1.7513872 -0.19161718 0
1.4323362 2.3423281 -0.19194038 0
0.85079533 1.3913226 -0.075923078 0
0.84979886 1.3896931 -0.037873294 0
0.83618951 1.3674374 4.5758512e-05 0
0.83793992 1.3702998 0.037436526 0
0.83455056 1.3647572 0.074564971 0
0.83566183 1.3665745 0.11207486 0
0.83062965 1.3583453 0.14870663 0
0.83843571 1.3711107 0.1879255 0
0.84349918 1.3793911 0.22731791 0
0.84397912 1.3801759 0.26597789 0
1.1031698 1.8040355 0.39841178 0
0.45095026 0.78106713 -0.19170947 0
0.5055449 0.87562764 -0.19043945 0
0.57847565 1.0019472 -0.19014622 0
0.68211126 1.1814489 -0.19172026 0
0.81930792 1.41908 -0.19151016 0
1.0304488 1.784786 -0.19236459 0
1.3605452 2.3565285 -0.19022958 0
1.3706548 2.3740389 -0.12762052 0
0.8524484 1.476481 -0.039639551 0
0.83957237 1.454179 4.7936803e-05 0
0.83754283 1.4506638 0.039042123 0
0.84375244 1.4614191 0.078657649 0
0.83940607 1.453891 0.11746094 0
0.83952272 1.454093 0.15681913 0
0.84017891 1.4552296 0.19648592 0
0.84333867 1.4607024 0.23713447 0
0.83877599 1.4527997 0.27580589 0
0.84266394 1.4595337 0.3175323 0
0.42977077 0.78975451 -0.19111854 0
0.49167934 0.90351886 -0.19374485 0
0.55422181 1.018448 -0.19056241 0
0.65376633 1.2013729 -0.19221459 0
0.78147495 1.4360524 -0.19107801 0
0.98569864 1.8113377 -0.19248368 0
1.2970035 2.3833971 -0.1896956 0
1.2905604 2.371557 -0.12569608 0
1.2936155 2.377171 -0.062924072 0
0.84699643 1.556456 5.0587532e-05 0
0.83679122 1.5377026 0.040803228 0
0.8366589 1.5374595 0.081587821 0
0.84043998 1.5444076 0.12302095 0
0.84047675 1.5444753 0.16422653 0
0.8435995 1.5502137 0.2063702 0
0.83987123 1.5433625 0.2470338 0
0.84120852 1.5458199 0.28934249 0
0.83752638 1.5390536 0.33012852 0
0.41468775 0.81007504 -0.19344163 0
0.46326318 0.90496504 -0.19148678 0
0.52908242 1.0335401 -0.19082695 0
0.62206906 1.2151856 -0.19185148 0
0.74716759 1.4595603 -0.19163571 0
0.93601966 1.8284749 -0.19173326 0
1.2402109 2.4226995 -0.19027178 0
1.24292 2.4279919 -0.12698412 0
1.2379937 2.4183686 -0.063167378 0
1.2492033 2.4402659 7.8263241e-05 0
0.84879726 1.6580896 0.043415435 0
0.83889103 1.6387382 0.085811451 0
0.83832955 1.6376414 0.12872116 0
0.83727348 1.6355784 0.17161204 0
0.83735663 1.6357408 0.21487401 0
0.83967465 1.640269 0.25907025 0
0.83823425 1.6374552 0.30243826 0
0.83818126 1.6373518 0.34656546 0
0.39518186 0.82249695 -0.19396441 0
0.44053516 0.91689128 -0.19159664 0
0.50621092 1.053583 -0.19210745 0
0.5877763 1.2233461 -0.19073701 0
0.71138895 1.4806226 -0.1919826 0
0.88637429 1.8448219 -0.19104074 0
1.1794822 2.4548712 -0.19039986 0
1.783789 3.7126222 -0.1917547 0
4.5056162 9.3775949 -0.24189389 0
0.85004121 1.7692014 0.0914905 0
0.84034729 1.7490253 0.13576578 0
0.83592683 1.7398249 0.18027893 0
0.84182227 1.7520952 0.22729516 0
0.84033936 1.7490088 0.27280825 0
0.83720475 1.7424847 0.31783324 0
0.83822721 1.7446127 0.36467448 0
0.3660126 0.81377208 -0.18966798 0
0.41308278 0.91842526 -0.18967818 0
0.47980759 1.0667775 -0.19224398 0
0.5559997 1.2361788 -0.19048922 0
0.67452925 1.4997108 -0.19218898 0
0.84305364 1.8743986 -0.19183902 0
1.1176828 2.4849937 -0.19048759 0
1.6881458 3.7533295 -0.19159555 0
4.2636809 9.4796314 -0.24167314 0
1.0652146 2.3683388 0.12104478 0
0.84554183 1.8799306 0.14422466 0
0.83941072 1.866299 0.19112793 0
0.84022522 1.8681099 0.23951814 0
0.83802056 1.8632083 0.2872304 0
0.84393197 1.8763515 0.33825797 0
0.83860731 1.8645129 0.38519019 0
0.35194841 0.83843404 -0.19328412 0
0.39412481 0.93890941 -0.1917932 0
0.44866216 1.0688318 -0.19051285 0
0.52527422 1.2513418 -0.19072214 0
0.63380057 1.5098803 -0.19138131 0
0.79648411 1.8974354 -0.19207819 0
1.0602503 2.5257962 -0.19150305 0
1.595318 3.8004687 -0.1918854 0
4.0246987 9.5878954 -0.24176656 0
0.99593657 2.3725841 0.11993884 0
0.84594339 2.0152607 0.15292022 0
0.84144408 2.0045421 0.20304586 0
0.8419072 2.0056453 0.2543467 0
0.8364923 1.9927455 0.30384833 0
0.83808345 1.9965361 0.35599756 0
0.83829582 1.9970421 0.40806848 0
0.3252289 0.83307934 -0.19009687 0
0.36869466 0.9444176 -0.19095673 0
0.416677 1.0673251 -0.18830983 0
0.49177495 1.2596898 -0.19004221 0
0.59758824 1.5307324 -0.19205146 0
0.74571085 1.9101509 -0.19139917 0
0.99534839 2.5496018 -0.19134234 0
1.4970633 3.8347528 -0.19164763 0
3.7813728 9.6860504 -0.24175809 0
0.92620295 2.3724844 0.11871427 0
0.84851646 2.1734893 0.16324975 0
0.84127194 2.1549323 0.21605976 0
0.84099483 2.1542225 0.27041069 0
0.83625716 2.1420867 0.32329831 0
0.83988315 2.1513748 0.37970585 0
0.83969742 2.1508992 0.43503803 0
0.30824029 0.85245365 -0.19268124 0
0.34411713 0.95167285 -0.19060689 0
0.39603004 1.0952405 -0.19141053 0
0.43672767 1.2077918 -0.18049225 0
0.43799037 1.2112838 -0.15053736 0
0.43273827 1.196759 -0.11878432 0
0.931961 2.577384 -0.19160105 0
1.4017837 3.8767018 -0.19191483 0
3.5329814 9.7706337 -0.2415667 0
0.85817903 2.3733363 0.11763563 0
0.84956855 2.3495235 0.17480542 0
0.83846974 2.3188293 0.23029743 0
0.83747876 2.3160884 0.2879841 0
0.83966041 2.3221221 0.34716141 0
0.84008533 2.323297 0.40617764 0
0.83703393 2.3148584 0.46377963 0
0.28526625 0.85585612 -0.19176185 0
0.32197961 0.96600366 -0.19178848 0
0.36631191 1.0990095 -0.19039282 0
0.4059425 1.2179092 -0.18041565 0
0.40514377 1.2155129 -0.14974444 0
0.40393308 1.2118806 -0.11923535 0
0.86728585 2.6020322 -0.19174509 0
1.3047113 3.9143968 -0.19208956 0
3.2872217 9.8623266 -0.24170549 0
0.79191166 2.3758945 0.11673459 0
0.84893954 2.5469894 0.18784301 0
0.83859462 2.5159526 0.24769406 0
0.83897454 2.5170927 0.31024539 0
0.84100199 2.5231752 0.37392682 0
0.83837998 2.5153086 0.4359085 0
0.83802301 2.5142376 0.49932852 0
0.26133657 0.85543334 -0.19012871 0
0.29717451 0.97274184 -0.19157612 0
0.33699915 1.1030998 -0.18956757 0
0.37932327 1.2416395 -0.18245463 0
0.38011944 1.2442456 -0.15205383 0
0.38003337 1.243964 -0.12140962 0
0.72512555 2.3735547 -0.17350456 0
0.72356272 2.368439 -0.11529255 0
0.7235043 2.368248 -0.057575058 0
0.72462761 2.3719246 7.0804097e-05 0
0.72583175 2.3758664 0.057902191 0
0.72583944 2.3758914 0.11579747 0
0.84330028 2.7603762 0.20194645 0
0.83307445 2.7269039 0.26630729 0
0.83597708 2.7364051 0.33456972 0
0.83642805 2.7378814 0.40248889 0
0.83662492 2.7385259 0.4707832 0
0.24006863 0.86318833 -0.19044501 0
0.2734026 0.98304367 -0.19218482 0
0.31070432 1.1171653 -0.1905764 0
0.36557862 1.3144709 -0.19174004 0
0.43743417 1.5728339 -0.19079921 0
0.55369407 1.9908569 -0.19288027 0
0.6599769 2.3730063 -0.17219202 0
0.65797794 2.365819 -0.1143202 0
0.6602971 2.3741577 -0.05729533 0
0.6580857 2.3662064 7.0115268e-05 0
0.65981501 2.3724241 0.057394173 0
0.65851581 2.367753 0.11455429 0
0.81060779 2.9146132 0.21166612 0
0.81264442 2.921936 0.28326073 0
0.8131631 2.9238012 0.35485959 0
0.8117668 2.9187806 0.42593485 0
0.80975974 2.9115641 0.49685875 0
0.2188412 0.87147182 -0.19099315 0
0.24647082 0.9814989 -0.19060598 0
0.28103673 1.1191477 -0.18964416 0
0.32975918 1.3131707 -0.19027576 0
0.39782482 1.5842226 -0.19090192 0
0.4973647 1.9806113 -0.19061078 0
0.59587878 2.3729153 -0.17103966 0
0.59612602 2.3738999 -0.11394737 0
0.59782141 2.380651 -0.057069734 0
0.5972271 2.3782845 7.0004215e-05 0
0.59707177 2.3776658 0.057138219 0
0.5980652 2.3816218 0.11445854 0
0.76829427 3.05951 0.22071037 0
0.77208179 3.0745928 0.29607633 0
0.76738989 3.0559087 0.36842537 0
0.76653403 3.0525005 0.44248435 0
0.19710132 0.87813222 -0.19130167 0
0.22255747 0.99154532 -0.19140519 0
0.25559708 1.1387446 -0.1918107 0
0.29720515 1.3241181 -0.19071437 0
0.35592189 1.5857148 -0.18993878 0
0.44562694 1.9853717 -0.18992601 0
0.5513522 2.4564023 -0.17599832 0
0.55107844 2.4551828 -0.11714403 0
