# .PCD v0.7 - Point Cloud Data file format
VERSION 0.7
FIELDS x y z intensity
SIZE 4 4 4 4
TYPE F F F F
COUNT 1 1 1 1
WIDTH 1359
HEIGHT 1
VIEWPOINT 0 0 0 1 0 0 0
POINTS 1359
DATA ascii
4.0701489 -3.215935 -0.24149416 0
8.1594467 -6.447 -0.24178271 0
0.72453171 -0.54335022 -0.19250369 0
0.81508785 -0.61126125 -0.19189706 0
0.92681646 -0.69505024 -0.19039831 0
1.0937778 -0.82026005 -0.19213594 0
1.3175226 -0.98805362 -0.19247283 0
1.6189122 -1.2140757 -0.1888812 0
2.7618315 -2.0711884 -0.2413398 0
4.1539392 -3.115176 -0.24172373 0
8.321826 -6.2408113 -0.24184991 0
0.73883474 -0.52548295 -0.19271873 0
0.82352936 -0.58572048 -0.19034347 0
0.94535297 -0.67236537 -0.19065943 0
1.1161473 -0.79383975 -0.1924846 0
1.3266805 -0.94357771 -0.19027103 0
1.6690924 -1.187112 -0.19117926 0
2.8204989 -2.0060291 -0.24196509 0
4.2382183 -3.0143566 -0.24212377 0
8.4780264 -6.0298438 -0.24188952 0
0.75387692 -0.50803471 -0.19323623 0
0.85586745 -0.57676572 -0.19439134 0
0.96849453 -0.65266466 -0.19194329 0
1.1261656 -0.75891858 -0.19084826 0
1.3441602 -0.90582424 -0.18943876 0
1.6868227 -1.1367432 -0.18986343 0
2.8607669 -1.9278594 -0.24116857 0
4.3049645 -2.9010985 -0.24167691 0
8.625164 -5.8124638 -0.24182497 0
0.75279814 -0.48014134 -0.18979308 0
0.8559258 -0.54591709 -0.19121423 0
0.98590058 -0.62881613 -0.19218639 0
1.1528656 -0.73530793 -0.19216681 0
1.3618878 -0.86862415 -0.18878733 0
1.7338859 -1.1058879 -0.19195797 0
2.9159362 -1.8598101 -0.24178535 0
4.3772111 -2.7918241 -0.24170008 0
8.7689543 -5.592917 -0.24182172 0
0.76907766 -0.46365011 -0.19088633 0
0.88054138 -0.53084773 -0.19365856 0
0.99681228 -0.60094339 -0.19129591 0
1.1735506 -0.70749283 -0.19257696 0
1.408693 -0.84925193 -0.19224308 0
1.7581984 -1.0599566 -0.19162683 0
2.9622903 -1.7858616 -0.24181454 0
4.4428897 -2.6784632 -0.24151696 0
8.912879 -5.3732643 -0.2419738 0
0.7813459 -0.44456151 -0.19108559 0
0.88976371 -0.50624788 -0.19281533 0
1.0120193 -0.57580751 -0.19136436 0
1.1865988 -0.67513782 -0.19186084 0
1.4104038 -0.80247593 -0.18965216 0
1.7891232 -1.0179554 -0.19213594 0
3.0112884 -1.7133294 -0.24220721 0
4.513895 -2.5682659 -0.24177621 0
9.039813 -5.1433725 -0.24181862 0
0.78577864 -0.42120275 -0.18950945 0
0.90498716 -0.48510239 -0.1933995 0
1.0303209 -0.55228531 -0.19212809 0
1.1973573 -0.64182222 -0.19092037 0
1.4503925 -0.77745724 -0.1923295 0
1.8210505 -0.97614199 -0.19285746 0
3.0497081 -1.6347421 -0.24190179 0
4.5773959 -2.4536321 -0.24178348 0
9.1630487 -4.9116902 -0.24172208 0
0.80920726 -0.40782028 -0.19261611 0
0.91448075 -0.46087551 -0.19288109 0
1.0457698 -0.52704191 -0.19246714 0
1.2169098 -0.61329216 -0.19150893 0
1.45776 -0.73467469 -0.1907869 0
1.8480216 -0.93135685 -0.19316287 0
3.089957 -1.5572613 -0.24189973 0
4.6434407 -2.3401785 -0.24207515 0
9.2944708 -4.6841817 -0.24199319 0
0.81330186 -0.38446659 -0.1912201 0
0.91619247 -0.43310535 -0.19087575 0
1.0590671 -0.50064552 -0.19252756 0
1.2213764 -0.57737285 -0.18985809 0
1.4852974 -0.70213443 -0.19201046 0
1.8619806 -0.88020128 -0.19223864 0
3.1158972 -1.4729565 -0.24094339 0
4.6942396 -2.2190754 -0.24172662 0
9.4010563 -4.4440966 -0.24177094 0
0.82663494 -0.36554465 -0.19212456 0
0.92212397 -0.40777066 -0.18990688 0
1.0675426 -0.47207597 -0.19184124 0
1.2362806 -0.54669327 -0.18996955 0
1.5082867 -0.66697657 -0.19274482 0
1.8824246 -0.83242333 -0.19211906 0
3.1563168 -1.3957487 -0.24126805 0
4.7539892 -2.1022525 -0.24199411 0
9.5118723 -4.2062263 -0.24181364 0
0.83335096 -0.3436462 -0.19160864 0
0.93872273 -0.38709798 -0.19125234 0
1.0698825 -0.44118389 -0.19020016 0
1.2552725 -0.5176326 -0.19081962 0
1.5132079 -0.62399656 -0.19130021 0
1.8985256 -0.78288871 -0.19168466 0
3.188925 -1.3150065 -0.24114685 0
4.7992377 -1.9790457 -0.24167787 0
9.6086979 -3.962307 -0.24165587 0
0.84597182 -0.32412571 -0.19256824 0
0.93957376 -0.35998833 -0.18951426 0
1.0827655 -0.4148508 -0.19056836 0
1.267977 -0.48581275 -0.19082618 0
1.5134443 -0.5798611 -0.1894196 0
1.9257251 -0.73782247 -0.1924894 0
3.234247 -1.2391696 -0.24213193 0
4.8513789 -1.8587576 -0.24186411 0
9.7098742 -3.7202415 -0.241762 0
0.84679884 -0.30016753 -0.19097117 0
0.95851171 -0.33976677 -0.19154342 0
1.0918871 -0.38704479 -0.19039387 0
1.2824363 -0.45458937 -0.19121467 0
1.5463959 -0.54815602 -0.19175114 0
1.9390593 -0.68734467 -0.19202705 0
3.2600791 -1.1556109 -0.24180532 0
4.8786349 -1.7293457 -0.24097022 0
9.8110542 -3.4777563 -0.24201868 0
0.86566037 -0.28247786 -0.19355537 0
0.97427142 -0.31791925 -0.19302782 0
1.09496 -0.35730168 -0.18929693 0
1.2993745 -0.42400521 -0.1920834 0
1.5620556 -0.50972193 -0.19203652 0
1.9502732 -0.63640314 -0.19148594 0
3.2821369 -1.07101 -0.24135956 0
4.9424887 -1.6128075 -0.24203649 0
9.8833513 -3.2250843 -0.2417172 0
0.85758841 -0.25609002 -0.19024476 0
0.97137356 -0.29006815 -0.19094239 0
1.1188897 -0.3341189 -0.19191492 0
1.2954741 -0.38684991 -0.19000296 0
1.554332 -0.46414915 -0.18958645 0
1.9697703 -0.58820587 -0.19188152 0
3.3178492 -0.99076444 -0.24206978 0
4.9815302 -1.4875669 -0.24203271 0
9.9641972 -2.9754734 -0.24178079 0
0.86790591 -0.23549107 -0.1911542 0
0.98337805 -0.26682243 -0.19191723 0
1.1235286 -0.3048498 -0.19132996 0
1.3243837 -0.35934836 -0.19285144 0
1.5655117 -0.4247742 -0.18958205 0
1.9524809 -0.52977151 -0.18883468 0
3.3276412 -0.90289724 -0.24104483 0
5.0225382 -1.3627778 -0.24227685 0
10.035693 -2.7230096 -0.241771 0
0.86304927 -0.21094622 -0.18885177 0
0.99257594 -0.24260508 -0.19245602 0
1.1333659 -0.27701691 -0.19175349 0
1.3198116 -0.32258788 -0.19093926 0
1.5787288 -0.38587233 -0.18994275 0
1.9756452 -0.48288652 -0.18983583 0
3.361172 -0.82153648 -0.24189469 0
5.038712 -1.2315602 -0.24148074 0
10.108024 -2.4705997 -0.24193428 0
0.87680781 -0.19100103 -0.1907468 0
0.98329651 -0.21419819 -0.18954818 0
1.1431037 -0.24901009 -0.19227648 0
1.3106294 -0.28550333 -0.18850835 0
1.6078137 -0.35024104 -0.19231728 0
1.9793901 -0.43118405 -0.18908978 0
3.3717079 -0.73448217 -0.24124202 0
5.0744157 -1.1053946 -0.24177779 0
10.165703 -2.2144644 -0.24190004 0
0.87319487 -0.16725586 -0.18898231 0
1.002576 -0.19203812 -0.1922691 0
1.1344082 -0.21728989 -0.18983093 0
1.3419312 -0.25703982 -0.19201627 0
1.6159445 -0.30952561 -0.19229415 0
2.54544 -0.48756555 -0.24191153 0
3.3999045 -0.65123373 -0.24200636 0
5.1066356 -0.978149 -0.24205959 0
10.20801 -1.9552902 -0.24165551 0
0.88830912 -0.14702012 -0.1913894 0
0.99299872 -0.16434683 -0.18957658 0
1.1388769 -0.18849048 -0.18972221 0
1.3419639 -0.22210251 -0.19115797 0
1.6198851 -0.26810002 -0.19189677 0
2.5474708 -0.42162061 -0.24101646 0
3.4083261 -0.56409699 -0.2415155 0
5.1260672 -0.84839272 -0.24188866 0
10.25052 -1.6965182 -0.24157128 0
0.88737017 -0.1239506 -0.19045241 0
1.002483 -0.14002991 -0.19065182 0
1.1522976 -0.16095649 -0.1912203 0
1.342659 -0.18754674 -0.19052203 0
1.6253374 -0.22703214 -0.19180277 0
2.5689085 -0.35883304 -0.24211074 0
3.4316969 -0.47935 -0.24223714 0
5.1374645 -0.71761686 -0.24149491 0
10.302496 -1.4390843 -0.24186319 0
0.88194174 -0.10057841 -0.18868242 0
1.0238864 -0.11676608 -0.19410004 0
1.1498867 -0.1311354 -0.1902104 0
1.3444178 -0.15332012 -0.19016197 0
1.6290365 -0.18577862 -0.19162495 0
2.5822656 -0.29448676 -0.24259184 0
3.4330263 -0.39150923 -0.24155654 0
5.1622968 -0.58871871 -0.24188671 0
10.341736 -1.1793923 -0.24200851 0
0.89832008 -0.079544574 -0.19169584 0
1.0175304 -0.090100423 -0.19240274 0
1.1226774 -0.099410996 -0.1852355 0
1.1327016 -0.10029862 -0.1598067 0
1.6294123 -0.14428143 -0.19117993 0
2.5881872 -0.22917916 -0.24252754 0
3.442843 -0.30485731 -0.24162892 0
5.1776595 -0.4584721 -0.24198729 0
10.364481 -0.91775542 -0.24192168 0
0.89955145 -0.056822825 -0.19159155 0
1.0186614 -0.064346761 -0.19224828 0
1.1139493 -0.070365898 -0.18344396 0
1.1312639 -0.071459621 -0.15929864 0
1.6373861 -0.10343033 -0.19174814 0
2.5843983 -0.16325115 -0.24170941 0
3.4615979 -0.21866205 -0.24248065 0
5.1812468 -0.32728875 -0.2416919 0
10.375616 -0.65540642 -0.24171852 0
0.90212971 -0.034162361 -0.19189595 0
1.006122 -0.038100399 -0.18963988 0
1.1235092 -0.042545684 -0.18478261 0
1.1337563 -0.042933725 -0.15944625 0
1.6441675 -0.062262267 -0.19229701 0
2.6028478 -0.098566122 -0.24312484 0
3.4561625 -0.13087992 -0.24179153 0
5.1914706 -0.19659357 -0.24186036 0
10.398773 -0.39378664 -0.24194941 0
0.90136343 -0.01137295 -0.19161086 0
1.0182151 -0.012847326 -0.19179708 0
1.1290137 -0.014245327 -0.18556969 0
1.133467 -0.014301516 -0.15930408 0
1.1364707 -0.014339414 -0.13283364 0
1.1275008 -0.014226237 -0.10524968 0
1.1240915 -0.01418322 -0.078590848 0
1.1184654 -0.014112234 -0.052073918 0
1.1156789 -0.014077076 -0.025942098 0
1.1280127 -0.014232696 3.2205506e-05 0
1.1268445 -0.014217957 0.026266102 0
1.1292565 -0.014248391 0.052640952 0
1.1259356 -0.014206489 0.078784384 0
1.1283695 -0.014237197 0.10539576 0
1.1348257 -0.01431866 0.13270707 0
1.1233422 -0.014173766 0.1579465 0
1.1350825 -0.0143219 0.18663377 0
1.1239959 -0.014182015 0.21178904 0
0.90277719 0.011390788 -0.1919114 0
1.0209498 0.012881831 -0.1923122 0
1.1212506 0.014147376 -0.18429372 0
1.1268647 0.014218211 -0.15837614 0
1.6304002 0.020571569 -0.19056542 0
2.5929558 0.032716613 -0.24204665 0
3.4690034 0.043770138 -0.24253535 0
5.1934347 0.065528147 -0.24179779 0
10.393528 0.13114031 -0.24167341 0
0.89578599 0.033922132 -0.19054654 0
1.0164402 0.038491134 -0.19158472 0
1.1295825 0.042775676 -0.18578149 0
1.132661 0.042892251 -0.15929222 0
1.6514109 0.062536567 -0.19314419 0
2.587178 0.097972728 -0.24166116 0
3.4523768 0.13073656 -0.24152668 0
5.1830502 0.19627468 -0.24146804 0
10.392055 0.39353222 -0.2417931 0
0.90790361 0.057350412 -0.19337045 0
1.0145098 0.064084508 -0.19146478 0
1.1274042 0.071215816 -0.18565972 0
1.1321282 0.071514226 -0.15942037 0
1.6373112 0.1034256 -0.19173937 0
2.57882 0.16289878 -0.24118769 0
3.4563498 0.21833055 -0.24211304 0
5.1809416 0.32726946 -0.24167767 0
10.378355 0.65557945 -0.24178234 0
0.90431803 0.080075681 -0.19297576 0
1.0127416 0.08967638 -0.19149722 0
1.1583788 0.10257229 -0.19112603 0
1.3492011 0.11946924 -0.19035141 0
1.6343501 0.14471866 -0.19175927 0
2.5705154 0.22761436 -0.24087159 0
3.4382739 0.30445275 -0.24130826 0
5.1665764 0.45749074 -0.24146931 0
10.35667 0.91706383 -0.24173938 0
0.90497655 0.10320535 -0.19361047 0
1.0239474 0.11677302 -0.19411157 0
1.1483531 0.13096051 -0.18995671 0
1.3565676 0.1547057 -0.19188049 0
1.6293769 0.18581744 -0.19166499 0
2.5749862 0.29365662 -0.241908 0
3.4496911 0.39340973 -0.24272911 0
5.1732316 0.58996576 -0.24239907 0
10.337657 1.1789273 -0.24191307 0
0.88978106 0.12428736 -0.19096985 0
1.0107454 0.14118403 -0.19222315 0
1.1522952 0.16095614 -0.1912199 0
1.3366005 0.18670048 -0.18966234 0
1.6293569 0.22759359 -0.1922771 0
2.5653358 0.358334 -0.24177404 0
3.4204147 0.47777408 -0.24144074 0
5.1449838 0.71866721 -0.24184836 0
10.299651 1.4386871 -0.24179642 0
0.88783342 0.14694138 -0.19128691 0
0.9950155 0.16468062 -0.18996161 0
1.147298 0.18988422 -0.19112505 0
1.3440733 0.22245163 -0.19145845 0
1.6191493 0.26797825 -0.19180959 0
2.5338731 0.41937011 -0.23972999 0
3.4151087 0.56521952 -0.24199612 0
5.1204176 0.84745765 -0.24162208 0
10.256519 1.6975111 -0.24171266 0
0.89144897 0.17075233 -0.19293296 0
0.99952739 0.19145419 -0.19168447 0
1.1411885 0.21858862 -0.19096553 0
1.3448485 0.25759861 -0.19243371 0
1.3533027 0.25921798 -0.16104032 0
1.3402984 0.25672707 -0.12737823 0
1.3563985 0.25981095 -0.096548907 0
1.3371882 0.25613132 -0.063384049 0
1.3462138 0.25786012 -0.031869091 0
1.3459303 0.25780582 3.9122668e-05 0
0.87461567 0.19052351 -0.19026992 0
0.99750614 0.21729358 -0.19228734 0
1.1353056 0.24731138 -0.1909648 0
1.2047489 0.26243868 -0.17327952 0
1.2058492 0.26267835 -0.14423662 0
1.194405 0.26018539 -0.11410068 0
1.2115762 0.26392594 -0.086686954 0
1.2028245 0.26201949 -0.057310291 0
1.2143062 0.26452062 -0.02889527 0
1.2010074 0.26162365 3.5090899e-05 0
0.87461531 0.21377316 -0.19138265 0
0.99691176 0.24366483 -0.19329672 0
1.1237023 0.27465492 -0.19011851 0
1.2083926 0.2953549 -0.17482011 0
1.2083052 0.29533356 -0.14537571 0
1.2122868 0.29630676 -0.11648625 0
1.196607 0.29247427 -0.086116657 0
1.2091079 0.29552972 -0.057946607 0
1.199039 0.29306871 -0.028698849 0
1.2032295 0.29409295 3.5361438e-05 0
0.87362915 0.23704398 -0.19241472 0
0.9823432 0.26654163 -0.19171526 0
1.1200475 0.30390528 -0.19073714 0
1.2017318 0.32606891 -0.17499135 0
1.2101103 0.32834226 -0.14654326 0
1.1908044 0.32310393 -0.11516894 0
1.2031651 0.32645777 -0.087153837 0
1.2016343 0.32604241 -0.057964351 0
1.2066646 0.32740733 -0.029069893 0
1.2079957 0.32776847 3.573325e-05 0
0.87796718 0.26217547 -0.19476552 0
0.97422564 0.29091984 -0.19150302 0
1.114971 0.33294871 -0.19124278 0
1.2044913 0.35968095 -0.17665882 0
1.202159 0.3589845 -0.14663088 0
1.2017313 0.35885677 -0.11706443 0
1.2089967 0.36102632 -0.088208213 0
1.2046214 0.35971981 -0.05852776 0
1.203811 0.35947782 -0.02921042 0
1.1914736 0.35579365 3.5498844e-05 0
0.85770828 0.27988297 -0.19177733 0
0.95769656 0.31251061 -0.18974392 0
1.1031576 0.35997674 -0.19071415 0
1.2035145 0.39272466 -0.17791265 0
1.2039239 0.39285824 -0.14800842 0
1.2158405 0.39674678 -0.11937627 0
1.2137007 0.39604855 -0.089252293 0
1.2070101 0.39386535 -0.059107974 0
1.2087638 0.39443761 -0.029562749 0
1.2120111 0.39549723 3.6396552e-05 0
0.84434426 0.29929745 -0.1904176 0
0.9592852 0.34004095 -0.191698 0
1.0981952 0.38928083 -0.19149382 0
1.2081791 0.42826718 -0.18014272 0
1.1987934 0.4249402 -0.14864886 0
1.2133536 0.43010142 -0.12015967 0
1.1984469 0.42481735 -0.088890724 0
1.209255 0.42864853 -0.059728678 0
1.2056928 0.42738587 -0.029741982 0
1.2128143 0.42991024 3.6734811e-05 0
0.83975583 0.32174411 -0.1911533 0
0.96239632 0.36873257 -0.19411762 0
1.0851022 0.41574615 -0.19097964 0
1.2021008 0.46057296 -0.18091203 0
1.2085016 0.46302536 -0.15125358 0
1.2014773 0.46033409 -0.12009588 0
1.2038704 0.46125099 -0.090127774 0
1.2102425 0.4636924 -0.060336299 0
1.1935542 0.45729843 -0.029717796 0
1.2008457 0.4600921 3.6712328e-05 0
0.83646441 0.34493005 -0.19232449 0
0.93694443 0.38636467 -0.19089003 0
1.0837288 0.44689366 -0.19266172 0
1.2051619 0.49696866 -0.18320209 0
1.198006 0.49401781 -0.1514523 0
1.2054051 0.49706888 -0.12170374 0
1.2099354 0.49893707 -0.091495447 0
1.2098613 0.49890646 -0.060925651 0
1.1991796 0.49450171 -0.030159008 0
1.2011244 0.49530369 3.7091217e-05 0
0.82168466 0.36335558 -0.19097403 0
0.92815572 0.41043797 -0.1911491 0
1.0712334 0.47370806 -0.19250451 0
1.2104801 0.5352841 -0.186005 0
1.2118177 0.53587562 -0.15485889 0
1.1982723 0.52988571 -0.12229493 0
1.2052244 0.53295994 -0.092127047 0
1.2017015 0.53140211 -0.061170667 0
1.2109169 0.53547722 -0.03078429 0
1.2050362 0.53287673 3.7615355e-05 0
0.82274348 0.38892984 -0.19343998 0
0.92684436 0.43814075 -0.19309492 0
1.0635211 0.50275099 -0.19333725 0
1.2230184 0.57814902 -0.19011335 0
1.4780898 0.69872719 -0.19107871 0
1.860311 0.879412 -0.19206627 0
3.1185746 1.4742223 -0.24115044 0
4.6993136 2.2214742 -0.24198793 0
9.4052544 4.4460807 -0.2418789 0
0.80880034 0.40761521 -0.19251925 0
0.91106427 0.45915368 -0.19216049 0
1.0469728 0.52764815 -0.19268851 0
1.212027 0.61083138 -0.19074051 0
1.452466 0.73200667 -0.19009402 0
1.8260006 0.92025876 -0.19086114 0
3.0773721 1.5509188 -0.24091451 0
4.6329088 2.3348706 -0.24152608 0
9.2813072 4.6775475 -0.24165046 0
0.79390663 0.42555961 -0.19146971 0
0.8971296 0.48089045 -0.19172031 0
1.0274395 0.55074078 -0.19159077 0
1.1935649 0.63978934 -0.19031568 0
1.4460938 0.77515298 -0.19175947 0
1.8155203 0.97317755 -0.19227178 0
3.0369585 1.6279079 -0.24089049 0
4.5914812 2.4611824 -0.2425275 0
9.1568289 4.9083562 -0.24155802 0
0.78485239 0.4465566 -0.19194314 0
0.88581085 0.50399882 -0.19195873 0
1.0195659 0.58010131 -0.19279137 0
1.1785543 0.67056072 -0.19056013 0
1.2050978 0.68566316 -0.16204536 0
1.2225903 0.69561589 -0.13129535 0
3.018194 1.7172585 -0.24276266 0
4.5167341 2.569881 -0.24192825 0
9.0329895 5.1394901 -0.24163608 0
0.77181458 0.46530011 -0.19156565 0
0.88637668 0.53436559 -0.19494192 0
0.99657518 0.60080045 -0.19125041 0
1.1627029 0.70095313 -0.19079688 0
1.1577135 0.69794518 -0.15799214 0
1.1949635 0.72040188 -0.13023961 0
2.9573109 1.7828598 -0.24140806 0
4.4457221 2.6801708 -0.24167094 0
8.9040203 5.3679237 -0.2417333 0
0.75448602 0.48121789 -0.19021861 0
0.85481489 0.54520851 -0.19096605 0
0.98687196 0.62943572 -0.19237573 0
1.1461141 0.73100179 -0.19104142 0
1.1425595 0.72873461 -0.15838365 0
1.1690123 0.74560642 -0.12942098 0
2.919415 1.8620288 -0.2420738 0
4.384963 2.7967682 -0.24212812 0
8.7681923 5.5924311 -0.24180071 0
0.75099224 0.5060907 -0.19249684 0
0.84341264 0.56837243 -0.1915625 0
0.96558714 0.6507054 -0.19136709 0
1.117862 0.75332278 -0.18944108 0
1.1466647 0.77273285 -0.16160481 0
1.1645778 0.78480446 -0.13108121 0
2.8787386 1.9399706 -0.24268363 0
4.3108606 2.9050722 -0.24200794 0
8.6199074 5.8089213 -0.24167758 0
0.73658621 0.5238837 -0.19213222 0
0.82570559 0.58726823 -0.19084646 0
0.95160156 0.67680955 -0.19191964 0
1.0974493 0.78054106 -0.18926004 0
1.1401025 0.81087744 -0.16351223 0
1.1382365 0.80955029 -0.13037458 0
2.8118014 1.9998432 -0.24121894 0
4.2349992 3.0120671 -0.24193986 0
8.4748402 6.0275779 -0.24179862 0
0.72053838 0.54035544 -0.19144268 0
0.81908411 0.61425817 -0.19283791 0
0.92886704 0.69658798 -0.19081955 0
1.0887039 0.81645495 -0.19124465 0
1.0947627 0.82099855 -0.15993051 0
1.1028491 0.8270629 -0.12867126 0
1.0915189 0.81856596 -0.095381252 0
1.1006151 0.82538754 -0.064046383 0
1.0982728 0.82363099 -0.031918138 0
1.1024691 0.82677788 3.9340874e-05 0
1.0934548 0.82001781 0.031856198 0
1.1018163 0.82628834 0.064195089 0
1.097849 0.82331312 0.096013144 0
0.71372795 0.56393582 -0.19335328 0
0.79716522 0.62986183 -0.19135925 0
0.91066617 0.71954203 -0.19075052 0
1.0602736 0.83775103 -0.18990426 0
1.1013411 0.8701995 -0.16404781 0
1.0928688 0.8635053 -0.13000818 0
1.0908761 0.86193085 -0.097195111 0
1.0957952 0.86581749 -0.065016821 0
1.0958537 0.86586374 -0.032472603 0
1.0987332 0.86813891 3.9976709e-05 0
1.1007442 0.86972791 0.032697666 0
1.0967736 0.86659062 0.065154865 0
1.0978141 0.86741275 0.097893551 0
0.69544262 0.57857841 -0.19229442 0
0.77454919 0.64439166 -0.18977398 0
0.89536089 0.74490184 -0.1914217 0
1.0255222 0.85319042 -0.18747713 0
1.1014605 0.91636777 -0.16745725 0
1.0931168 0.90942621 -0.13272591 0
1.1018056 0.91665494 -0.10019833 0
1.105179 0.91946143 -0.066929176 0
1.0968506 0.91253263 -0.033174053 0
1.0999576 0.9151175 4.0848608e-05 0
1.0946541 0.91070521 0.033188969 0
1.09242 0.90884656 0.066237815 0
1.1037321 0.91825777 0.10045591 0
0.67175937 0.58818001 -0.18979017 0
0.77340788 0.67718148 -0.19362028 0
0.87856913 0.76925874 -0.19192147 0
1.0018388 0.87719136 -0.18713528 0
1.1041623 0.96678394 -0.17152309 0
1.0994329 0.96264291 -0.1363994 0
1.1013408 0.96431345 -0.1023368 0
1.0995039 0.96270514 -0.06803529 0
1.0936726 0.9575994 -0.033798158 0
1.0973352 0.96080619 4.1638516e-05 0
1.0984699 0.96179968 0.034029815 0
1.0978552 0.96126151 0.068016768 0
1.0967149 0.96026313 0.1019906 0
1.1008686 0.96389997 0.1366618 0
1.0992461 0.96247941 0.27527925 0
0.6608817 0.60878921 -0.19099721 0
0.75195283 0.69268185 -0.19256447 0
0.85386801 0.78656381 -0.19080146 0
0.96503133 0.88896495 -0.1843922 0
1.0633278 0.97951335 -0.16896632 0
1.0969024 1.0104415 -0.13920505 0
1.0989803 1.0123557 -0.10445839 0
1.0995626 1.0128921 -0.069598638 0
1.0998218 1.0131308 -0.034767326 0
1.1009845 1.0142019 4.2734679e-05 0
1.0994805 1.0128165 0.034841936 0
1.0982618 1.0116938 0.069601744 0
1.0944891 1.0082185 0.10411688 0
1.0982375 1.0116714 0.1394605 0
1.0292552 0.94812649 0.2636604 0
0.65449977 0.63417351 -0.19371688 0
0.73124951 0.70853972 -0.1917811 0
0.83643073 0.81045443 -0.19141485 0
0.83875173 0.81270331 -0.16413048 0
0.84420198 0.81798428 -0.13738333 0
0.84561813 0.8193565 -0.10990464 0
0.84238183 0.8162207 -0.082000613 0
0.84215564 0.81600153 -0.054591853 0
0.83593869 0.80997765 -0.027063133 0
0.84367579 0.81747448 3.353741e-05 0
0.83778775 0.81176931 0.027189638 0
0.83936256 0.81329519 0.054477669 0
0.83301085 0.80714077 0.081154957 0
1.0974 1.063319 0.14271663 0
1.0044324 0.97323865 0.19663301 0
1.0123577 0.98091781 0.23175791 0
0.99294454 0.96210754 0.26049629 0
0.6323877 0.64446962 -0.19192539 0
0.71599483 0.7296741 -0.19254896 0
0.8135252 0.82906777 -0.19090077 0
0.83926159 0.8552959 -0.16840082 0
0.83498758 0.85094023 -0.13933451 0
0.8398174 0.85586232 -0.11192256 0
0.84263462 0.85873336 -0.084108219 0
0.83829379 0.85430956 -0.055721492 0
0.83899742 0.85502672 -0.027851932 0
0.84150749 0.85758471 3.4300698e-05 0
0.83770061 0.85370505 0.02787721 0
0.83637041 0.85234946 0.055661976 0
0.8417654 0.85784751 0.084090419 0
0.83328396 0.84920406 0.11112038 0
1.092225 1.1130922 0.18235004 0
0.9474948 0.96559697 0.19019698 0
0.94658089 0.96466553 0.2222027 0
0.95320064 0.97141176 0.25642002 0
0.61873281 0.66322917 -0.19280009 0
0.69754112 0.74770492 -0.19259994 0
0.79756129 0.85491812 -0.19215682 0
0.84009755 0.90051329 -0.1730739 0
0.83888155 0.89920992 -0.14372569 0
0.84063965 0.90109444 -0.11502644 0
0.8375985 0.8978346 -0.085840076 0
0.83594441 0.89606154 -0.057050433 0
0.83977932 0.90017223 -0.028622985 0
0.83302534 0.89293253 3.4862478e-05 0
0.83703905 0.89723492 0.028599683 0
0.82850766 0.88808995 0.056612395 0
0.83906811 0.89940989 0.086061262 0
0.83542198 0.89550155 0.11438303 0
1.0974634 1.1763877 0.18812166 0
0.92917436 0.99599618 0.19150452 0
0.92839628 0.99516207 0.22375876 0
0.92916393 0.99598497 0.25663447 0
0.60203773 0.67889512 -0.19287562 0
0.67234147 0.758174 -0.19086479 0
0.77619451 0.87528515 -0.19227016 0
0.84631485 0.95435721 -0.17926002 0
0.83607328 0.94280815 -0.14727454 0
0.83716851 0.94404322 -0.11777424 0
0.84366429 0.95136827 -0.088894203 0
0.83883381 0.94592106 -0.058858208 0
0.84256643 0.95013022 -0.029525921 0
0.84192652 0.94940865 3.6226284e-05 0
0.84236389 0.94990188 0.029591354 0
0.83592528 0.94264126 0.058726221 0
0.83743703 0.94434595 0.088310473 0
0.84742439 0.95560837 0.11929061 0
1.1067538 1.2480443 0.19505154 0
1.0898738 1.2290093 0.23094447 0
0.58087707 0.68931234 -0.19160901 0
0.65233207 0.77410626 -0.19067015 0
0.72928602 0.86542559 -0.18600185 0
0.852202 1.011287 -0.18585408 0
0.83224863 0.98760879 -0.15094353 0
0.83474082 0.99056619 -0.12091137 0
0.83904165 0.9956699 -0.091025978 0
0.84480435 1.0025084 -0.061033089 0
0.83234751 0.98772609 -0.030031849 0
0.83739066 0.9937107 3.7098449e-05 0
0.8427276 1.0000439 0.030481081 0
0.84562731 1.003485 0.061167631 0
0.8369903 0.99323559 0.090877958 0
0.8284232 0.98306924 0.12007031 0
0.84721655 1.0053709 0.15373433 0
1.1029388 1.30883 0.24063614 0
0.5624246 0.70265526 -0.19131121 0
0.64037597 0.80004239 -0.19301604 0
0.72717702 0.90848577 -0.19125108 0
0.84867769 1.0602804 -0.19086079 0
0.84728044 1.0585349 -0.15846486 0
0.83663803 1.045239 -0.12496761 0
0.84180248 1.0516911 -0.094175175 0
0.83834779 1.047375 -0.062456526 0
0.8365047 1.0450723 -0.031123625 0
0.83997375 1.0494064 3.8374063e-05 0
0.83699411 1.0456837 0.03121835 0
0.84429961 1.0548109 0.062977247 0
0.84142137 1.0512149 0.09420979 0
0.83986956 1.0492762 0.12552771 0
0.84182781 1.0517226 0.15752304 0
1.0974025 1.3710203 0.24689923 0
1.1046323 1.3800528 0.2906273 0
0.54695481 0.71983051 -0.19216774 0
0.60982352 0.80257016 -0.18985215 0
0.70614225 0.92933232 -0.19182664 0
0.72869056 0.95900744 -0.16926613 0
0.72395939 0.95278084 -0.13985337 0
0.72876614 0.95910686 -0.11243487 0
0.73376948 0.96569163 -0.084788866 0
0.72889245 0.9592731 -0.056088004 0
0.73246115 0.96396977 -0.028148763 0
0.72409075 0.95295382 3.4167879e-05 0
0.72741884 0.95733374 0.028023673 0
0.72679937 0.95651853 0.055995684 0
0.73137605 0.9625417 0.084581658 0
0.73249918 0.96401983 0.11308054 0
0.72593856 0.95538563 0.14030516 0
0.72798985 0.95808524 0.16917342 0
0.73058081 0.9614951 0.19853629 0
0.72872084 0.95904726 0.22693884 0
0.52855718 0.7333163 -0.19214541 0
0.59578538 0.82658815 -0.19191553 0
0.67701697 0.93928838 -0.19029407 0
0.72840005 1.0105768 -0.17506763 0
0.95253479 1.3215396 -0.19039194 0
0.85219008 1.1823223 -0.13603738 0
0.84510273 1.1724893 -0.10104101 0
0.84103918 1.1668515 -0.06696251 0
0.84347922 1.1702368 -0.033539616 0
0.84056377 1.1661919 4.1039744e-05 0
0.83811373 1.1627927 0.03340815 0
0.83244497 1.154928 0.066359714 0
0.83949274 1.164706 0.10045265 0
0.83980507 1.1651393 0.13414305 0
0.83809626 1.1627685 0.167601 0
0.84801239 1.1765261 0.20390034 0
1.0959252 1.5204785 0.30814955 0
0.5145331 0.7532208 -0.19389637 0
0.57690918 0.84453261 -0.19263983 0
0.65527225 0.95924771 -0.19092633 0
0.76278025 1.1166277 -0.19004378 0
0.92105323 1.3483223 -0.19084062 0
1.1573007 1.6941631 -0.19150776 0
0.84955031 1.2436497 -0.10529206 0
0.84260541 1.2334832 -0.069543749 0
0.84018308 1.2299371 -0.034631874 0
0.84467769 1.2365167 4.2750711e-05 0
0.84093773 1.2310419 0.034748148 0
0.83475822 1.2219957 0.068980768 0
0.8393355 1.2286963 0.10411143 0
0.84646493 1.2391331 0.14015771 0
0.83623785 1.2241617 0.17335282 0
0.83713073 1.2254689 0.20865433 0
1.0965027 1.6051613 0.31960139 0
1.0956924 1.6039752 0.36598527 0
0.49436668 0.76441979 -0.19350569 0
0.55356061 0.85594904 -0.19199592 0
0.62900883 0.97261173 -0.19036582 0
0.73875874 1.1423137 -0.19118114 0
0.89109999 1.3778729 -0.19177884 0
1.1119019 1.7192903 -0.19111501 0
1.4831854 2.2933915 -0.19093701 0
0.84376067 1.304674 -0.072333805 0
0.8384878 1.2965208 -0.035899382 0
0.84024799 1.2992425 4.4172095e-05 0
0.84283471 1.3032423 0.036174159 0
0.83824253 1.2961416 0.071949072 0
0.83712798 1.2944182 0.10785563 0
0.83814675 1.2959934 0.14415054 0
0.83760476 1.2951554 0.18035509 0
0.84002078 1.2988912 0.2174765 0
0.84265804 1.3029691 0.25511646 0
1.0957986 1.6943904 0.38018402 0
0.46852559 0.76618928 -0.1908994 0
0.52558863 0.85950559 -0.18975773 0
0.60528684 0.98983771 -0.19068658 0
0.70563447 1.1539382 -0.19008544 0
0.85473776 1.3977697 -0.19148459 0
1.0586535 1.7312372 -0.18941258 0
1.4285088 2.3360689 -0.19142747 0
0.84939069 1.3890256 -0.075797729 0
0.84862959 1.3877809 -0.037821181 0
0.83656472 1.3680509 4.5779045e-05 0
0.83743227 1.3694698 0.037413847 0
0.83333862 1.3627753 0.074456684 0
0.84070426 1.3748205 0.11275113 0
0.83796197 1.3703359 0.15001933 0
0.84477121 1.3814713 0.18934554 0
0.83661616 1.3681351 0.22546296 0
0.84121096 1.3756491 0.26510552 0
1.1056528 1.8080962 0.39930853 0
0.45040503 0.78012282 -0.1914777 0
0.51262778 0.88789552 -0.19310759 0
0.57825917 1.0015723 -0.19007507 0
0.68129611 1.1800371 -0.19149116 0
0.82027566 1.4207562 -0.19173636 0
1.0261743 1.7773824 -0.19156662 0
1.3687787 2.3707893 -0.19138077 0
1.3705057 2.3737807 -0.12760665 0
0.85287476 1.4772193 -0.039659377 0
0.83942342 1.4539211 4.7928297e-05 0
0.83384818 1.4442645 0.038869899 0
0.83981293 1.4545957 0.078290388 0
0.83842379 1.4521897 0.11732349 0
0.84162569 1.4577355 0.15721197 0
0.83543605 1.4470148 0.19537675 0
0.83841413 1.4521729 0.23574977 0
0.84162915 1.4577415 0.27674407 0
0.84101093 1.4566706 0.31690943 0
0.42926991 0.7888341 -0.19089581 0
0.48762354 0.89606583 -0.19214669 0
0.55082905 1.0122133 -0.18939584 0
0.64456421 1.1844629 -0.18950908 0
0.78170556 1.4364762 -0.19113439 0
0.98498803 1.8100318 -0.1923449 0
1.2940155 2.3779063 -0.18925858 0
1.2886035 2.3679612 -0.12550551 0
1.2926083 2.3753204 -0.062875085 0
0.85182059 1.5653208 5.087566e-05 0
0.84110063 1.5456216 0.04101336 0
0.83988583 1.5433893 0.081902497 0
0.83973289 1.5431082 0.12291744 0
0.83930326 1.5423188 0.16399725 0
0.83892941 1.5416319 0.20522776 0
0.83401495 1.5326009 0.24531128 0
0.8438161 1.5506117 0.29023939 0
0.83584774 1.5359689 0.32946682 0
0.40895298 0.79887235 -0.1907665 0
0.46387047 0.90615135 -0.1917378 0
0.52695376 1.0293819 -0.1900592 0
0.62229002 1.2156173 -0.19191964 0
0.74574506 1.4567815 -0.19127087 0
0.93540162 1.8272675 -0.19160667 0
1.2448291 2.431721 -0.1909803 0
1.2401965 2.4226716 -0.12670587 0
1.2382169 2.4188044 -0.063178763 0
1.2452654 2.4325733 7.8016521e-05 0
0.84742242 1.655404 0.043345116 0
0.84259754 1.6459788 0.086190596 0
0.83853322 1.6380392 0.12875243 0
0.83651775 1.6341021 0.17145713 0
0.8427394 1.6462559 0.21625529 0
0.84010196 1.6411037 0.25920209 0
0.84131235 1.6434681 0.30354884 0
0.83728349 1.6355979 0.34619424 0
0.38919163 0.81002939 -0.19102427 0
0.44268909 0.92137432 -0.19253343 0
0.49848738 1.037508 -0.18917637 0
0.58630919 1.2202926 -0.19026092 0
0.7120983 1.4820991 -0.19217403 0
0.88697678 1.8460758 -0.19117059 0
1.186322 2.4691067 -0.19150396 0
1.780302 3.7053649 -0.19137986 0
4.5018654 9.3697891 -0.24169253 0
0.85147107 1.7721773 0.091644391 0
0.84010935 1.74853 0.13572732 0
0.84130716 1.7510231 0.18143928 0
0.83453548 1.7369291 0.22532769 0
0.83923203 1.746704 0.27244875 0
0.83754933 1.7432019 0.31796405 0
0.84308654 1.7547265 0.36678857 0
0.36983591 0.8222726 -0.19164923 0
0.41793522 0.92921388 -0.1919063 0
0.47514582 1.0564128 -0.19037616 0
0.55677575 1.2379043 -0.1907551 0
0.67577744 1.502486 -0.19254462 0
0.84036261 1.8684155 -0.19122668 0
1.121436 2.4933383 -0.19112726 0
1.6893622 3.7560339 -0.19173361 0
4.258893 9.4689856 -0.24140173 0
1.0659351 2.3699408 0.12112665 0
0.84694523 1.8830509 0.14446403 0
0.84078866 1.8693627 0.19144168 0
0.8382619 1.8637449 0.23895848 0
0.83745593 1.8619529 0.28703687 0
0.83950883 1.8665172 0.33648509 0
0.84089792 1.8696057 0.3862423 0
0.34676057 0.82607526 -0.19043505 0
0.39814195 0.94847929 -0.19374807 0
0.4503819 1.0729287 -0.1912431 0
0.52558929 1.2520926 -0.19083655 0
0.64006841 1.524812 -0.19327393 0
0.79600424 1.8962923 -0.19196248 0
1.0611935 2.528043 -0.19167341 0
1.5948464 3.7993453 -0.19182868 0
4.0230408 9.5839453 -0.24166696 0
0.9968853 2.3748441 0.12005309 0
0.85340738 2.033042 0.15426947 0
0.8406074 2.0025489 0.20284396 0
0.83761841 1.9954283 0.25305104 0
0.83701479 1.9939903 0.30403814 0
0.83939469 1.9996599 0.35655457 0
0.83684319 1.9935815 0.40736139 0
0.32721579 0.83816874 -0.19125821 0
0.37298247 0.95540088 -0.19317749 0
0.42356423 1.0849669 -0.1914224 0
0.49144337 1.2588404 -0.18991408 0
0.59816825 1.5322181 -0.19223784 0
0.74495846 1.9082236 -0.19120607 0
0.99597871 2.5512164 -0.1914635 0
1.4999416 3.8421257 -0.19201611 0
3.7844212 9.6938581 -0.24195297 0
0.9255172 2.370728 0.11862638 0
0.84860092 2.1737056 0.163266 0
0.83616418 2.1418486 0.21474795 0
0.84052134 2.1530094 0.27025846 0
0.83972138 2.1509604 0.32463756 0
0.84061933 2.1532607 0.38003868 0
0.83989739 2.1514113 0.43514162 0
0.30520085 0.8440479 -0.19078128 0
0.34534305 0.9550631 -0.19128592 0
0.39712924 1.0982804 -0.1919418 0
0.43467343 1.2021108 -0.17964329 0
0.42989764 1.188903 -0.14775588 0
0.43497664 1.2029493 -0.11939874 0
0.93252891 2.5789545 -0.19171782 0
1.4020588 3.8774626 -0.1919525 0
3.5324104 9.7690544 -0.24152765 0
0.85892379 2.375396 0.11773772 0
0.84963089 2.3496959 0.17481825 0
0.83731484 2.3156352 0.22998022 0
0.83756661 2.3163316 0.28801432 0
0.83663309 2.3137498 0.34590974 0
0.83725089 2.3154583 0.40480721 0
0.84258747 2.3302169 0.46685669 0
0.28864467 0.86599213 -0.19403291 0
0.32104275 0.96319282 -0.19123042 0
0.36437279 1.0931917 -0.18938494 0
0.40415576 1.2125487 -0.17962156 0
0.40366033 1.2110622 -0.14919615 0
0.40417925 1.2126191 -0.11930802 0
0.53363448 1.6010109 -0.11797932 0
0.54213762 1.6265221 -0.079817645 0
0.54251426 1.627652 -0.039890427 0
0.54795158 1.6439651 4.9470924e-05 0
0.79216719 2.3766611 0.11677226 0
0.85135001 2.5542214 0.18837637 0
0.83756733 2.5128706 0.24739063 0
0.83737564 2.5122955 0.30965412 0
0.83898503 2.5171239 0.37303004 0
0.84010518 2.5204847 0.43680549 0
0.84017289 2.5206878 0.50060952 0
0.26328698 0.86181766 -0.19154769 0
0.29747221 0.97371626 -0.19176804 0
0.34040117 1.1142356 -0.19148126 0
0.37911177 1.2409471 -0.1823529 0
0.37722823 1.2347819 -0.15089729 0
0.37894008 1.2403852 -0.12106033 0
0.49405882 1.6172036 -0.11821603 0
0.4932825 1.6146624 -0.078599676 0
0.4964416 1.6250031 -0.039505851 0
0.50880003 1.6654561 4.9715367e-05 0
0.72561485 2.3751564 0.057884887 0
0.72729242 2.3806474 0.11602927 0
0.84127164 2.7537358 0.20146066 0
0.83602309 2.7365558 0.26724988 0
0.83274055 2.725811 0.33327442 0
0.83326072 2.7275138 0.40096477 0
0.83778465 2.7423217 0.47143579 0
0.2450718 0.88117772 -0.19441399 0
0.27227911 0.97900409 -0.19139507 0
0.31267765 1.1242607 -0.19178678 0
0.36294669 1.3050075 -0.19035964 0
0.4418681 1.5887765 -0.19273318 0
0.44794118 1.6106128 -0.15604107 0
0.44595176 1.6034596 -0.11635155 0
0.45330667 1.629905 -0.078759648 0
0.45837793 1.648139 -0.039774392 0
0.46474829 1.6710442 4.9516271e-05 0
0.65705371 2.3624957 0.057153981 0
0.66448778 2.3892257 0.11559316 0
0.80953544 2.9107575 0.2113861 0
0.81023955 2.9132893 0.28242248 0
0.81074464 2.9151053 0.35380417 0
0.81270719 2.9221618 0.42642829 0
0.80971807 2.9114141 0.49683318 0
0.2209454 0.87985122 -0.19282959 0
0.24684055 0.98297119 -0.19089189 0
0.28349656 1.1289432 -0.19130406 0
0.32951346 1.3121922 -0.19013397 0
0.39739326 1.5825039 -0.19069484 0
0.41005439 1.6329231 -0.15714984 0
0.40815195 1.6253473 -0.11715497 0
0.40932518 1.6300194 -0.07824105 0
0.41366708 1.6473098 -0.039489839 0
0.42035159 1.6739289 4.9271683e-05 0
0.59362853 2.3639543 0.056808714 0
0.59610373 2.373811 0.11408315 0
0.76573282 3.04931 0.21997453 0
0.768556 3.0605524 0.29472429 0
0.7701304 3.0668221 0.36974108 0
0.77032888 3.0676124 0.44467494 0
0.19907461 0.88692373 -0.1932169 0
0.2243883 0.9997021 -0.19297975 0
0.25613266 1.1411306 -0.19221261 0
0.29861441 1.3303967 -0.1916187 0
0.3546811 1.5801868 -0.18927664 0
0.35949752 1.601645 -0.15321769 0
0.40227893 1.7922462 -0.12841231 0
0.36279094 1.616318 -0.077119313 0
0.37454879 1.668702 -0.039763384 0
0.55075616 2.4537468 7.1793402e-05 0
0.55037981 2.45207 0.058573771 0
0.55214685 2.4599428 0.11751541 0
0.71331847 3.1779997 0.2278868 0
0.71206766 3.1724272 0.3036702 0
0.7131263 3.1771436 0.38075045 0
0.71455705 3.1835179 0.45871603 0
0.17562149 0.88655663 -0.19211014 0
0.19536856 0.98624194 -0.18936928 0
0.2241472 1.1315197 -0.18958046 0
0.2662957 1.3442899 -0.19259037 0
0.31726623 1.6015947 -0.19082098 0
0.31678468 1.5991639 -0.15216702 0
0.34959957 1.764817 -0.1257748 0
0.32339579 1.6325374 -0.077479072 0
0.41394067 2.0896177 -0.049528632 0
0.41356087 2.0877006 6.0758633e-05 0
0.4144327 2.0921018 0.049709346 0
0.41524059 2.09618 0.099605501 0
0.41590536 2.0995359 0.1497523 0
0.41588122 2.0994141 0.19989115 0
0.41174945 2.0785565 0.24777092 0
0.40717804 2.0554795 0.29460132 0
0.29487509 1.4885617 0.24949007 0
0.27068251 1.3664349 0.26245287 0
0.15337136 0.89171982 -0.19232891 0
0.17252824 1.0031003 -0.19170912 0
0.19593693 1.1392012 -0.18997841 0
0.23150921 1.3460227 -0.1919404 0
0.27849272 1.6191907 -0.19201884 0
0.30468205 1.7714586 -0.16777642 0
0.28321546 1.6466492 -0.1168066 0
0.88007933 5.1168885 -0.24171276 0
1.7600771 10.233303 -0.24142246 0
0.58099055 3.37795 0.15976451 0
0.57866752 3.3644435 0.23885582 0
0.57886314 3.3655808 0.31895384 0
0.26111734 1.5181681 0.1801278 0
0.27130783 1.5774168 0.22502996 0
0.27125233 1.5770942 0.26309729 0
0.2360741 1.3725637 0.26240206 0
0.13033041 0.89193064 -0.1916039 0
0.14529628 0.99435121 -0.18927591 0
0.1677261 1.1478522 -0.19065441 0
0.19779082 1.3536034 -0.1922483 0
0.23799784 1.6287646 -0.19238059 0
0.29670241 2.0305159 -0.19154173 0
0.39439535 2.6990883 -0.19069551 0
0.75187302 5.1455264 -0.24209206 0
1.502681 10.283764 -0.24164122 0
0.5054177 3.4588821 0.16293709 0
0.50350672 3.4458039 0.24365214 0
0.50650078 3.4662941 0.32718268 0
0.21983378 1.5044569 0.17778605 0
0.27591026 1.8882223 0.26828977 0
0.19929925 1.3639264 0.25970647 0
0.10538942 0.8750475 -0.187346 0
0.12311736 1.0222425 -0.19393179 0
0.13631654 1.1318351 -0.18736291 0
0.16329446 1.3558327 -0.19191846 0
0.19534485 1.6219468 -0.19093217 0
0.24553315 2.0386598 -0.19166435 0
0.32585984 2.7056119 -0.19051467 0
0.62303966 5.1730938 -0.24257198 0
1.2430817 10.321298 -0.24170898 0
0.42510998 3.5296848 0.16571419 0
0.42395714 3.5201128 0.2480709 0
0.42391434 3.5197575 0.33111376 0
0.42393851 3.5199583 0.41456729 0
0.23004748 1.9100825 0.27048469 0
0.16589016 1.3773847 0.2613886 0
0.085585229 0.90174198 -0.19253746 0
0.095682226 1.0081259 -0.19073482 0
0.10975588 1.1564085 -0.19091141 0
0.12986611 1.3682938 -0.19315685 0
0.15436403 1.6264085 -0.19093797 0
0.19408491 2.044915 -0.19173084 0
0.2572431 2.7103615 -0.19033134 0
0.49071687 5.1702852 -0.24178253 0
0.98151284 10.341404 -0.24152279 0
0.34051996 3.5877821 0.1679848 0
0.33987299 3.5809655 0.25167465 0
0.33934546 3.5754073 0.33543637 0
0.3390919 3.5727358 0.41964161 0
0.34000325 3.5823381 0.50591469 0
0.17230354 1.8154224 0.29981491 0
0.13015695 1.371358 0.25953883 0
0.062145844 0.89411432 -0.19051324 0
0.070284054 1.0112016 -0.19092031 0
0.07965751 1.1460608 -0.18881108 0
0.094642311 1.3616525 -0.19182105 0
0.11297009 1.6253407 -0.19041723 0
0.14088561 2.0269711 -0.18965465 0
0.19044921 2.7400601 -0.1920182 0
0.36016831 5.181869 -0.24182214 0
0.72034216 10.363817 -0.24154474 0
0.25288686 3.6383729 0.17000054 0
0.2514281 3.6173851 0.2537075 0
0.13131185 1.8892301 0.1768759 0
0.13342741 1.9196675 0.22501054 0
0.13275805 1.9100372 0.26918551 0
0.12335698 1.7747806 0.29249564 0
0.095204428 1.3697399 0.25869545 0
0.039675735 0.89786553 -0.19103833 0
0.044615738 1.0096582 -0.1903557 0
0.051055331 1.1553868 -0.19007468 0
0.060697537 1.3735908 -0.1932255 0
0.072527602 1.6413064 -0.19201209 0
0.089664772 2.0291219 -0.18958376 0
0.12136711 2.7465489 -0.19219702 0
0.22897732 5.1817775 -0.24147128 0
0.45921978 10.392185 -0.24185874 0
0.16221234 3.6708801 0.17127359 0
0.1613465 3.6512859 0.25571811 0
0.085612468 1.937418 0.18112741 0
0.085040681 1.9244785 0.22525114 0
0.085780166 1.941213 0.27318707 0
0.075764202 1.7145509 0.28216437 0
0.060396288 1.3667735 0.25776523 0
0.017105332 0.90366572 -0.19211939 0
0.019528467 1.0316786 -0.19435249 0
0.022164583 1.1709433 -0.19248058 0
0.02580075 1.36304 -0.19158868 0
0.030992212 1.6373022 -0.19139118 0
0.038428124 2.0301375 -0.18952768 0
0.051717475 2.7322068 -0.19104123 0
0.098067977 5.1808796 -0.24123725 0
0.19664837 10.38883 -0.24158821 0
0.069810718 3.6880634 0.17193834 0
0.069670483 3.6806548 0.25756979 0
0.06988851 3.6921732 0.34490314 0
0.069799513 3.6874714 0.43125761 0
0.031745002 1.6770717 0.27577674 0
0.025804982 1.3632636 0.25689864 0
-0.005640428 0.89428818 -0.19009547 0
-0.0063650571 1.0091779 -0.19008343 0
-0.0072550015 1.1502783 -0.18905357 0
-0.0086119799 1.3654268 -0.19189362 0
-0.010352523 1.6413895 -0.19183843 0
-0.01283513 2.035006 -0.18995194 0
-0.017287327 2.7409005 -0.19161861 0
-0.032777619 5.1968813 -0.24194384 0
-0.065635949 10.40656 -0.24196197 0
-0.023452163 3.7183335 0.17332195 0
-0.023424676 3.7139752 0.25986016 0
-0.023418134 3.7129381 0.34678766 0
-0.023381853 3.707186 0.43349424 0
-0.010314881 1.6354213 0.26888493 0
-0.0086334236 1.3688267 0.2579059 0
-0.02877437 0.91198957 -0.19395079 0
-0.032063581 1.0162395 -0.19150497 0
-0.03652567 1.1576633 -0.19035821 0
-0.042803954 1.3566504 -0.19075128 0
-0.051558964 1.6341362 -0.19108193 0
-0.064701699 2.0506887 -0.19150724 0
-0.086414553 2.738867 -0.1915679 0
-0.11957888 3.7899938 -0.17652965 0
-0.11969066 3.7935369 -0.088245317 0
-0.12011827 3.8070898 0.00010874036 0
-0.11996198 3.8021362 0.088662669 0
-0.11768367 3.7299266 0.17394538 0
-0.11690157 3.705138 0.25936568 0
-0.1174487 3.7224791 0.34784487 0
-0.11703251 3.7092881 0.43394727 0
-0.051717501 1.6391609 0.26962852 0
-0.043399286 1.3755192 0.25929067 0
-0.051201012 0.90086365 -0.1917984 0
-0.057691384 1.0150595 -0.19149598 0
-0.066342764 1.1672773 -0.1921532 0
-0.077386618 1.36159 -0.19165942 0
-0.09335909 1.64262 -0.19228825 0
-0.11667811 2.0529099 -0.19192857 0
-0.15547282 2.7354889 -0.19154508 0
-0.2151413 3.7853346 -0.17650934 0
-0.21519344 3.786252 -0.08817412 0
-0.2147301 3.7780998 0.00010803272 0
-0.2147419 3.7783072 0.088205293 0
-0.21176971 3.7260127 0.17395672 0
-0.21210591 3.7319283 0.26153249 0
-0.21197961 3.7297058 0.34890902 0
-0.078662172 1.384033 0.16209778 0
-0.077655464 1.3663203 0.19240493 0
-0.077355586 1.361044 0.22413036 0
-0.077731766 1.3676628 0.25809732 0
-0.073209152 0.89070475 -0.18996842 0
-0.083418913 1.0149226 -0.19180629 0
-0.094809271 1.1535043 -0.19021927 0
-0.11185995 1.3609526 -0.19190598 0
-0.1343627 1.634734 -0.19170102 0
-0.1678787 2.0425091 -0.19129139 0
-0.22498779 2.7373312 -0.19201057 0
-0.42619181 5.1852951 -0.24221365 0
-0.85160726 10.361145 -0.2417136 0
-0.30633724 3.7270756 0.1743118 0
-0.3063437 3.7271543 0.26165643 0
-0.30558711 3.7179492 0.34841973 0
-0.30610272 3.7242219 0.43694615 0
-0.1151404 1.4008645 0.19761573 0
-0.11388861 1.3856344 0.22858036 0
-0.11184026 1.360713 0.2572366 0
-0.09737584 0.90451992 -0.19337748 0
-0.10817318 1.0048158 -0.19035159 0
-0.12432445 1.1548443 -0.19089691 0
-0.14627069 1.3587021 -0.19204803 0
-0.17613907 1.636148 -0.19232692 0
-0.2189403 2.0337267 -0.1909256 0
-0.29359689 2.7272086 -0.19175923 0
-0.55657905 5.1700382 -0.24208006 0
-1.1119674 10.329017 -0.24154188 0
-0.39891806 3.7055323 0.17371981 0
-0.39871854 3.7036788 0.26063189 0
-0.39906764 3.7069216 0.34821931 0
-0.39882362 3.7046549 0.4356927 0
-0.14927129 1.3865745 0.1960689 0
-0.14989361 1.3923552 0.23023981 0
-0.14873935 1.3816333 0.26181778 0
-0.11872087 0.89092457 -0.19105069 0
-0.13493423 1.0125955 -0.19240926 0
-0.15529063 1.1653574 -0.19322106 0
-0.18126675 1.3602916 -0.19285795 0
-0.21687073 1.6274767 -0.19188993 0
-0.27307889 2.0492833 -0.19297163 0
-0.36102983 2.7092991 -0.1910798 0
-0.68553543 5.1445074 -0.24161781 0
-1.3739671 10.310748 -0.24184859 0
-0.49260119 3.6966584 0.1738313 0
-0.49063832 3.6819282 0.2598899 0
-0.2422048 1.8175927 0.17126 0
-0.24306095 1.8240176 0.21516986 0
-0.18462291 1.3854774 0.19651011 0
-0.18606165 1.3962742 0.23159063 0
-0.1822286 1.3675096 0.25993016 0
-0.14143133 0.88933927 -0.19141525 0
-0.16054897 1.0095536 -0.19253987 0
-0.18222861 1.1458781 -0.19069317 0
-0.21429744 1.3475311 -0.19175456 0
-0.25910515 1.629288 -0.19281314 0
-0.31941521 2.0085258 -0.18983237 0
-0.43006584 2.7043118 -0.19143264 0
-0.81551349 5.1280589 -0.24173501 0
-1.6332054 10.269815 -0.24177834 0
-0.58165121 3.657501 0.1726253 0
-0.5803408 3.649261 0.25853562 0
-0.27899763 1.7543746 0.16591401 0
-0.27914384 1.7552941 0.20782782 0
-0.2791529 1.7553511 0.2498911 0
-0.21847253 1.3737847 0.26208749 0
-0.16405933 0.88675314 -0.19168881 0
-0.18531005 1.0016149 -0.19185674 0
-0.20841348 1.1264907 -0.18828221 0
-0.24831784 1.3421768 -0.19182339 0
-0.29715186 1.6061285 -0.19089915 0
-0.37357134 2.0191815 -0.19166955 0
-0.49548337 2.6781251 -0.19040354 0
-0.94184905 5.0907655 -0.24102084 0
-1.892401 10.228571 -0.24185477 0
-0.67169708 3.6305737 0.17209974 0
-0.6677193 3.6090736 0.25680068 0
-0.66963542 3.6194303 0.34378418 0
-0.66770953 3.6090207 0.42916876 0
-0.29014724 1.5682678 0.26221457 0
-0.25483891 1.3774236 0.26392475 0
-0.18909962 0.89520264 -0.19448511 0
-0.21070133 0.99746573 -0.19201946 0
-0.23783906 1.1259365 -0.18913266 0
-0.27991048 1.3251036 -0.19033237 0
-0.33806425 1.6004052 -0.19117215 0
-0.42294052 2.0022118 -0.19101116 0
-0.56231642 2.6620212 -0.19020705 0
-0.61767912 2.9241095 -0.1391349 0
-0.6166901 2.9194274 -0.06937585 0
-0.61831707 2.9271295 8.540885e-05 0
-0.75562352 3.577142 0.17041668 0
-0.75326461 3.565975 0.25500557 0
-0.75477135 3.5731077 0.34108511 0
-0.75284594 3.563993 0.42593813 0
-0.28592315 1.3535678 0.26065353 0
-0.20984988 0.88267463 -0.1928526 0
-0.23533055 0.98985201 -0.19163613 0
-0.26994371 1.1354425 -0.19181284 0
-0.31488883 1.3244915 -0.19132507 0
-0.37514877 1.5779581 -0.18956146 0
-0.47183454 1.9846398 -0.19041024 0
-0.52648574 2.2145145 -0.15913054 0
-0.61706328 2.5955038 -0.12420069 0
-0.61918354 2.6044221 -0.062241763 0
-0.62195134 2.6160641 7.6766046e-05 0
-0.83546466 3.5141478 0.16836655 0
-0.83197004 3.4994485 0.25166968 0
-0.83331674 3.5051131 0.33649495 0
-0.83339351 3.5054362 0.42131957 0
-0.833507 3.5059135 0.50664502 0
-0.23138282 0.87456274 -0.19229496 0
-0.25868711 0.97776538 -0.1904995 0
-0.30014664 1.1344709 -0.19286701 0
-0.34700412 1.3115791 -0.19066425 0
-0.41193283 1.5569917 -0.18823177 0
-0.5194152 1.9632452 -0.18955499 0
-0.58102685 2.19612 -0.15881193 0
-0.64750254 2.4473798 -0.11785711 0
-0.64904052 2.4531927 -0.059000306 0
-0.64987946 2.4563639 7.2538001e-05 0
-0.91476077 3.4575415 0.16670756 0
-0.91291416 3.4505618 0.24973141 0
-0.91257167 3.4492674 0.33323872 0
-0.91321987 3.4517174 0.41750038 0
-0.91302657 3.4509869 0.50187778 0
-0.25195894 0.86359197 -0.19122009 0
-0.28510892 0.97721386 -0.19173297 0
-0.32663721 1.1195526 -0.1916713 0
-0.34710684 1.1897124 -0.17416656 0
-0.45891798 1.5729463 -0.19149989 0
-0.57072759 1.9561749 -0.19020256 0
-0.71225435 2.4412594 -0.17778249 0
-0.71513671 2.4511387 -0.11886947 0
-0.71478659 2.4499388 -0.059337031 0
-0.71357912 2.4458001 7.2734736e-05 0
-0.98436117 3.3739085 0.16382086 0
-0.98221987 3.3665693 0.24536856 0
-0.9818722 3.3653777 0.3274239 0
-0.98571157 3.3785372 0.41152701 0
-0.98335785 3.3704696 0.49362037 0
-0.26883736 0.84183329 -0.18784478 0
-0.31039864 0.97197771 -0.19218151 0
-0.35271654 1.1044914 -0.19055617 0
-0.38080114 1.192435 -0.17591611 0
-0.39571494 1.2391359 -0.15202732 0
-0.39940283 1.250684 -0.12254749 0
-0.39807594 1.2465291 -0.091479875 0
-0.39706475 1.2433627 -0.060764275 0
-0.39591458 1.239761 -0.030259147 0
-0.39656627 1.2418017 3.7215275e-05 0
-0.39809284 1.246582 0.030500386 0
-0.39661896 1.2419667 0.060770661 0
-0.39523703 1.2376393 0.090902023 0
-0.39699093 1.2431314 0.12188261 0
-0.3990927 1.2497129 0.15340094 0
-0.3952018 1.237529 0.18264432 0
-0.39919129 1.2500216 0.21574123 0
-0.39850625 1.2478765 0.24681027 0
-0.29764581 0.85681462 -0.19280256 0
-0.33352056 0.96008509 -0.19143349 0
-0.38115117 1.0971965 -0.1908965 0
-0.43307292 1.2466604 -0.18546925 0
-0.43471768 1.2513951 -0.15482819 0
-0.43161592 1.2424662 -0.12277057 0
-0.43435055 1.2503382 -0.092534475 0
-0.43293363 1.2462593 -0.061420284 0
-0.4345881 1.251022 -0.030791905 0
-0.43190247 1.243291 3.7574628e-05 0
-0.43085751 1.240283 0.030602589 0
-0.43389514 1.2490273 0.061632358 0
-0.43259835 1.2452942 0.092236817 0
-0.43004832 1.2379537 0.12240016 0
-0.43113098 1.2410703 0.1536268 0
-0.42955431 1.2365316 0.18403858 0
-0.43365413 1.2483335 0.21726967 0
-0.43165612 1.242582 0.24783893 0
-0.32165655 0.85564834 -0.19430505 0
-0.35907966 0.95519871 -0.19220503 0
-0.40818319 1.0858206 -0.19064897 0
-0.47716859 1.2693306 -0.19057299 0
-0.48894751 1.3006642 -0.1623991 0
-0.51209003 1.3622261 -0.13583814 0
-0.51183754 1.3615546 -0.10168899 0
-0.51447296 1.3685652 -0.068066232 0
-0.51406139 1.3674704 -0.033966623 0
-0.51275426 1.3639932 4.1600342e-05 0
-1.2023371 3.1983736 0.079639658 0
-1.1931052 3.1738155 0.15804522 0
-1.1606262 3.0874169 0.23077589 0
-1.1592817 3.0838406 0.30770344 0
-1.1584805 3.0817091 0.38496843 0
-1.1587936 3.0825419 0.46299413 0
-0.34058869 0.84095335 -0.19285865 0
-0.3802577 0.93890083 -0.19079597 0
-0.43237087 1.0675743 -0.18930104 0
-0.50849962 1.2555451 -0.19036952 0
-0.51206583 1.2643504 -0.15942793 0
-0.51563448 1.273162 -0.12821376 0
-0.51309955 1.2669028 -0.095556594 0
-0.50974125 1.2586108 -0.063217334 0
-0.51363039 1.2682136 -0.031813052 0
-0.514449 1.2702348 3.9124359e-05 0
-1.2721655 3.1411257 0.15796596 0
-1.1969647 2.9554462 0.22309853 0
-1.199986 2.9629061 0.29856354 0
-1.1997912 2.9624248 0.37373114 0
-1.2007656 2.9648311 0.44972283 0
-0.36197671 0.83273268 -0.1930071 0
-0.41006795 0.94336724 -0.19374509 0
-0.46276608 1.0646001 -0.19078395 0
-0.51508379 1.1849577 -0.18158014 0
-0.51316029 1.1805327 -0.15044416 0
-0.51251018 1.1790371 -0.11999936 0
-0.51378554 1.1819711 -0.090099968 0
-0.51794505 1.1915401 -0.060485855 0
-0.51069003 1.1748499 -0.029784871 0
-0.51654649 1.1883227 3.6991165e-05 0
-1.3534771 3.1136937 0.15825394 0
-1.228368 2.8258784 0.21558948 0
-1.2243384 2.8166082 0.28684402 0
-1.2283894 2.8259275 0.36030757 0
-1.2286915 2.8266227 0.43332449 0
-1.2249839 2.8180933 0.50520265 0
-0.3789624 0.81492698 -0.19103618 0
-0.43070117 0.92618686 -0.19238794 0
-0.49140882 1.0567336 -0.19153588 0
-0.5091238 1.0948281 -0.16968393 0
