# .PCD v0.7 - Point Cloud Data file format
VERSION 0.7
FIELDS x y z intensity
SIZE 4 4 4 4
TYPE F F F F
COUNT 1 1 1 1
WIDTH 1360
HEIGHT 1
VIEWPOINT 0 0 0 1 0 0 0
POINTS 1360
DATA ascii
0.35143468 -0.83721024 -0.193002 0
0.39634651 -0.94420207 -0.19287436 0
0.45181876 -1.0763516 -0.19185324 0
0.5230459 -1.2460334 -0.18991305 0
0.63123548 -1.5037696 -0.19060674 0
0.79334891 -1.8899667 -0.19132213 0
1.0607551 -2.526999 -0.19159424 0
1.5891863 -3.7858615 -0.19114788 0
4.0257506 -9.5904016 -0.24182977 0
0.37023324 -0.823156 -0.19185512 0
0.41454211 -0.92166984 -0.19034825 0
0.478791 -1.0645173 -0.19183667 0
0.56125563 -1.2478645 -0.19228993 0
0.66614002 -1.4810586 -0.18979868 0
0.84275341 -1.873731 -0.1917707 0
1.1257185 -2.5028598 -0.19185711 0
1.690238 -3.7579811 -0.191833 0
4.263144 -9.4784365 -0.24164268 0
0.39187923 -0.81562316 -0.19234341 0
0.44558701 -0.92740577 -0.19379377 0
0.50290978 -1.0467124 -0.19085467 0
0.59150809 -1.2311132 -0.191948 0
0.70283431 -1.4628178 -0.18967396 0
0.89055091 -1.8535147 -0.19194092 0
1.1856445 -2.4676967 -0.1913946 0
1.7863806 -3.7180164 -0.19203329 0
4.5046954 -9.375679 -0.24184448 0
0.41176742 -0.80437028 -0.19207938 0
0.45971325 -0.8980304 -0.19001943 0
0.53335184 -1.0418804 -0.19236684 0
0.62213451 -1.2153134 -0.19187167 0
0.74423611 -1.4538338 -0.19088385 0
0.93558407 -1.8276241 -0.19164404 0
1.2507896 -2.4433649 -0.19189477 0
1.8806362 -3.6737435 -0.192137 0
4.7382183 -9.255909 -0.24176279 0
0.42987922 -0.78995383 -0.19116677 0
0.4907482 -0.90180773 -0.19337794 0
0.55754542 -1.0245554 -0.19170518 0
0.64750201 -1.1898614 -0.19037281 0
0.77636045 -1.426654 -0.18982747 0
0.97896522 -1.7989641 -0.19116879 0
1.3105195 -2.4082341 -0.19167238 0
1.9684081 -3.6171823 -0.1917161 0
4.9656882 -9.1250381 -0.24154113 0
0.45020163 -0.77977049 -0.19139121 0
0.51026994 -0.88381171 -0.19221941 0
0.58252102 -1.0089539 -0.19147594 0
0.68276507 -1.1825813 -0.19190402 0
0.81597173 -1.4133016 -0.19073033 0
1.0269754 -1.7787699 -0.19171618 0
1.3725123 -2.3772564 -0.19190282 0
2.5961132 -4.4965911 -0.24172194 0
5.1973133 -9.0019922 -0.24167934 0
0.4708795 -0.7700386 -0.19185849 0
0.53046507 -0.8674801 -0.19151831 0
0.60326391 -0.98652959 -0.19004929 0
0.70982736 -1.1607949 -0.19121495 0
0.85426807 -1.3970017 -0.19137937 0
1.0688764 -1.7479548 -0.19124165 0
1.4282207 -2.335598 -0.19138889 0
2.7081201 -4.4286427 -0.2416666 0
5.4254551 -8.8723555 -0.24179821 0
0.4941195 -0.76403761 -0.19340894 0
0.54606229 -0.84435469 -0.18939522 0
0.63730836 -0.98544496 -0.19287762 0
0.73778307 -1.140805 -0.19092864 0
0.88660669 -1.3709252 -0.19081181 0
1.1160923 -1.7257699 -0.19183527 0
1.4931443 -2.3087904 -0.19221906 0
2.816227 -4.3546214 -0.24142915 0
5.6454635 -8.7293587 -0.24170734 0
0.51549608 -0.75463051 -0.19425927 0
0.57258981 -0.83820957 -0.19119753 0
0.65930188 -0.9651466 -0.19210044 0
0.76618809 -1.1216165 -0.19089283 0
0.92203355 -1.3497573 -0.19104373 0
1.1586919 -1.6961997 -0.19173796 0
1.5514263 -2.2711203 -0.19228157 0
2.9244828 -4.2811265 -0.24136981 0
5.8653035 -8.5861692 -0.2417645 0
0.5241847 -0.72724998 -0.1905559 0
0.59228802 -0.82173598 -0.19078895 0
0.68076521 -0.94448853 -0.1913476 0
0.79708481 -1.1058695 -0.19157569 0
0.95633656 -1.3268143 -0.19115184 0
1.2008262 -1.6660172 -0.19169109 0
1.6025255 -2.2233319 -0.19159894 0
3.0409777 -4.2190299 -0.24211892 0
6.0782437 -8.43291 -0.24169174 0
0.53873312 -0.70901024 -0.18927912 0
0.61288846 -0.80660379 -0.19080631 0
0.70390499 -0.92638791 -0.19121888 0
0.82683212 -1.0881685 -0.19206324 0
0.99214524 -1.3057321 -0.19166112 0
1.2458071 -1.6395687 -0.19220454 0
1.6583186 -2.1824627 -0.19162279 0
3.1372643 -4.1288576 -0.24141133 0
6.2904172 -8.2786264 -0.24174315 0
0.56543338 -0.70641416 -0.19233465 0
0.63788831 -0.79693449 -0.19226624 0
0.72922397 -0.91104305 -0.19178945 0
0.84800833 -1.0594442 -0.19071026 0
1.0225836 -1.2775468 -0.19125141 0
1.282253 -1.6019602 -0.19152859 0
1.7092532 -2.1354253 -0.1912197 0
3.2389135 -4.0464797 -0.24129757 0
6.5067415 -8.1290827 -0.24209473 0
0.58068091 -0.68907958 -0.19154431 0
0.65180713 -0.77348334 -0.19051673 0
0.75439095 -0.895217 -0.19240478 0
0.87370348 -1.0368022 -0.19054326 0
1.0545157 -1.2513676 -0.19125573 0
1.3323138 -1.5810237 -0.19298431 0
1.7698971 -2.1002929 -0.19201267 0
3.3509448 -3.9764831 -0.24208979 0
6.7055569 -7.9573178 -0.24194254 0
0.59670424 -0.67288071 -0.19116692 0
0.67917317 -0.76587778 -0.19280416 0
0.77748555 -0.87674099 -0.19258994 0
0.9027639 -1.0180126 -0.19121663 0
1.0847968 -1.2232842 -0.19108726 0
1.3638734 -1.5379883 -0.19187194 0
1.8213007 -2.0538118 -0.19190462 0
3.4497094 -3.8901067 -0.24205476 0
6.8997731 -7.7806129 -0.24178766 0
0.6140762 -0.65823764 -0.19134906 0
0.69605201 -0.74610877 -0.19218877 0
0.79754239 -0.85489786 -0.19215226 0
0.93759894 -1.0050266 -0.19316082 0
1.1099471 -1.1897693 -0.1901674 0
1.398599 -1.4991795 -0.19137315 0
1.8655546 -1.9997164 -0.19118866 0
3.5444198 -3.7993176 -0.24189489 0
7.0907679 -7.6007023 -0.24168128 0
0.62702066 -0.63900006 -0.19029653 0
0.71415925 -0.72780341 -0.19205531 0
0.81816506 -0.83379632 -0.19198957 0
0.94898492 -0.96711552 -0.1904172 0
1.1393464 -1.1611139 -0.19012293 0
1.4429739 -1.4705423 -0.19230531 0
1.9094141 -1.9458939 -0.19058964 0
3.6314714 -3.7008514 -0.24138436 0
7.2829871 -7.4221306 -0.24177101 0
0.64738476 -0.62727946 -0.19161099 0
0.73390269 -0.71111047 -0.19247694 0
0.84357578 -0.81737757 -0.19304997 0
0.98009425 -0.94965631 -0.19178899 0
1.1730118 -1.1365825 -0.19089301 0
1.4759533 -1.4301158 -0.19182904 0
1.9567407 -1.8959719 -0.19047649 0
3.7330155 -3.6170824 -0.24198879 0
7.4705448 -7.2385383 -0.24185547 0
0.66173339 -0.60957372 -0.19124334 0
0.74211025 -0.68361509 -0.19004391 0
0.85012501 -0.78311586 -0.18996507 0
1.0039421 -0.92480868 -0.19182703 0
1.2066317 -1.1115216 -0.19173779 0
1.503791 -1.3852581 -0.19084226 0
2.5394166 -2.3392527 -0.24137226 0
3.8119085 -3.5114434 -0.24128106 0
7.6428304 -7.0404015 -0.24160348 0
0.68522376 -0.59996915 -0.19359423 0
0.76982391 -0.67404342 -0.19272304 0
0.88002664 -0.77053493 -0.19223987 0
1.0371829 -0.90813798 -0.19373727 0
1.2198616 -1.0680881 -0.18949609 0
1.5351931 -1.3441864 -0.19046131 0
2.6042316 -2.2802165 -0.24198569 0
3.9009223 -3.4155748 -0.24138194 0
7.8190327 -6.846199 -0.24163435 0
0.69605142 -0.57908493 -0.19246276 0
0.78841484 -0.6559273 -0.19317122 0
0.88769048 -0.73852038 -0.18978181 0
1.0486281 -0.87241352 -0.19170113 0
1.2484974 -1.0386962 -0.18981157 0
1.5575858 -1.2958446 -0.1891216 0
2.6494205 -2.2042041 -0.2409386 0
3.990931 -3.3202832 -0.2416891 0
7.992269 -6.6492243 -0.24172476 0
0.70452762 -0.55666637 -0.19086085 0
0.79910254 -0.6313926 -0.1918243 0
0.91061473 -0.71950144 -0.19073974 0
1.0673312 -0.84332734 -0.19116832 0
1.2763959 -1.0085151 -0.19012271 0
1.5977446 -1.2624214 -0.19006842 0
2.7178562 -2.1474519 -0.24215612 0
4.0730686 -3.2182422 -0.2416674 0
8.1640978 -6.4506755 -0.24192055 0
0.72567672 -0.54420888 -0.19280791 0
0.81896502 -0.61416882 -0.19280988 0
0.93518579 -0.70132667 -0.19211763 0
1.0913329 -0.81842655 -0.19170646 0
1.3143321 -0.98566103 -0.19200675 0
1.6396853 -1.229654 -0.19130482 0
2.7582099 -2.0684724 -0.24102333 0
4.1499949 -3.1122179 -0.24149421 0
8.3149719 -6.2356715 -0.24165075 0
0.73688149 -0.52409369 -0.19220924 0
0.84000641 -0.59743947 -0.19415183 0
0.95376611 -0.67834902 -0.19235618 0
1.11009 -0.78953159 -0.19143999 0
1.3146555 -0.9350251 -0.18854642 0
1.6737003 -1.1903893 -0.19170704 0
2.8243403 -2.0087614 -0.24229464 0
4.240263 -3.015811 -0.24224058 0
8.4733324 -6.0265059 -0.2417556 0
0.74447387 -0.50169802 -0.19082601 0
0.84983039 -0.57269734 -0.19302015 0
0.95992482 -0.64688957 -0.19024488 0
1.131464 -0.7624892 -0.19174618 0
1.344749 -0.90622103 -0.18952173 0
1.6983602 -1.1445183 -0.19116206 0
2.8731308 -1.9361914 -0.24221088 0
4.3033123 -2.8999853 -0.24158417 0
8.6199322 -5.8089385 -0.2416783 0
0.75467914 -0.48134106 -0.19026731 0
0.85678273 -0.54646367 -0.19140567 0
0.98618478 -0.62899745 -0.19224179 0
1.1513954 -0.73437023 -0.19192174 0
1.3810641 -0.88085496 -0.19144559 0
1.739174 -1.1092607 -0.1925434 0
2.9174116 -1.860751 -0.24190769 0
4.374948 -2.7903807 -0.24157511 0
8.7677536 -5.5921516 -0.24178863 0
0.77474082 -0.46706423 -0.19229195 0
0.87325102 -0.5264526 -0.19205518 0
1.0049298 -0.60583717 -0.19285373 0
1.1706953 -0.70577145 -0.19210842 0
1.4032552 -0.84597367 -0.19150099 0
1.7597978 -1.0609208 -0.19180115 0
2.9594786 -1.7841665 -0.241585 0
4.4524083 -2.684202 -0.24203442 0
8.9116373 -5.3725157 -0.2419401 0
0.78708529 -0.44782704 -0.19248922 0
0.89225209 -0.50766367 -0.19335458 0
1.0094756 -0.57436019 -0.19088335 0
1.1906735 -0.67745614 -0.19251966 0
1.4169524 -0.80620182 -0.19053271 0
1.7897552 -1.018315 -0.19220382 0
3.0025804 -1.7083749 -0.24150681 0
4.5264878 -2.5754306 -0.2424507 0
9.0279551 -5.1366253 -0.24150141 0
0.8073433 -0.43276212 -0.1947103 0
0.90402824 -0.48458835 -0.19319458 0
1.0263093 -0.55013496 -0.19138002 0
1.2035791 -0.64515728 -0.19191246 0
1.452399 -0.7785328 -0.19259559 0
1.8099669 -0.97020078 -0.19168366 0
3.048728 -1.6342168 -0.24182405 0
4.5772142 -2.4535348 -0.24177389 0
9.1672182 -4.9139256 -0.24183209 0
0.8029691 -0.40467641 -0.19113122 0
0.91100311 -0.45912287 -0.19214758 0
1.0492795 -0.52881068 -0.19311304 0
1.2207423 -0.61522371 -0.19211207 0
1.4655353 -0.73859322 -0.1918045 0
1.8177731 -0.91611236 -0.19000116 0
3.0937309 -1.5591633 -0.24219517 0
4.643364 -2.3401396 -0.24207114 0
9.2989082 -4.6864181 -0.24210873 0
0.815534 -0.38552174 -0.19174491 0
0.92390448 -0.43675101 -0.19248244 0
1.0547872 -0.49862227 -0.19174951 0
1.2247244 -0.57895553 -0.19037853 0
1.4802624 -0.69975424 -0.19135956 0
1.8592708 -0.87892026 -0.19195887 0
3.1230025 -1.4763155 -0.24149284 0
4.6997042 -2.2216587 -0.24200803 0
9.3928556 -4.4402199 -0.24156004 0
0.83278579 -0.36826459 -0.19355412 0
0.92677999 -0.40982959 -0.19086577 0
1.0539752 -0.46607637 -0.18940316 0
1.2389995 -0.54789561 -0.19038735 0
1.4992716 -0.66299003 -0.1915928 0
1.8732369 -0.8283605 -0.19118138 0
3.1663802 -1.4001988 -0.2420373 0
4.7565632 -2.1033907 -0.24212514 0
9.5158234 -4.207974 -0.24191409 0
0.83659905 -0.34498557 -0.19235545 0
0.93684101 -0.38632202 -0.19086896 0
1.0679705 -0.44039547 -0.18986027 0
1.2520655 -0.51631016 -0.19033211 0
1.515725 -0.62503451 -0.19161841 0
1.9050782 -0.78559077 -0.19234625 0
3.1847692 -1.3132927 -0.24083258 0
4.7920446 -1.9760796 -0.24131565 0
9.6107416 -3.9631498 -0.24170728 0
0.84151375 -0.32241762 -0.19155346 0
0.9509964 -0.3643648 -0.19181824 0
1.083087 -0.414974 -0.19062495 0
1.2662578 -0.48515409 -0.19056746 0
1.5278873 -0.58539486 -0.19122726 0
1.9242038 -0.73723954 -0.19233733 0
3.2286711 -1.2370332 -0.24171449 0
4.8483157 -1.857584 -0.24171141 0
9.7079773 -3.7195148 -0.24171476 0
0.84675664 -0.3001526 -0.19096166 0
0.95457065 -0.33836979 -0.19075587 0
1.1026912 -0.39087453 -0.19227779 0
1.2826585 -0.45466813 -0.19124779 0
1.5495391 -0.54927021 -0.19214089 0
1.9309119 -0.68445665 -0.19122021 0
3.2517254 -1.1526498 -0.24118569 0
4.9003549 -1.7370448 -0.24204302 0
9.7999735 -3.4738286 -0.24174534 0
0.85623068 -0.2794008 -0.19144695 0
0.9648084 -0.31483132 -0.19115295 0
1.1134331 -0.3633298 -0.19249058 0
1.2996144 -0.42408347 -0.19211887 0
1.5695287 -0.51216054 -0.19295526 0
1.9603182 -0.63968092 -0.1924722 0
3.2946298 -1.0750867 -0.24227825 0
4.9433818 -1.613099 -0.24208024 0
9.8781729 -3.2233946 -0.24159057 0
0.87488133 -0.26125398 -0.19408096 0
0.97680324 -0.29168954 -0.1920097 0
1.1113245 -0.33185983 -0.19061734 0
1.3071746 -0.39034387 -0.19171904 0
1.5520219 -0.46345931 -0.18930468 0
1.9549385 -0.58377689 -0.19043672 0
3.316108 -0.99024451 -0.24194275 0
4.9711213 -1.4844588 -0.24152699 0
9.9649744 -2.9757054 -0.24179965 0
0.86288041 -0.23412751 -0.19004734 0
0.97862828 -0.26553366 -0.19099025 0
1.12687 -0.30575648 -0.19189899 0
1.312434 -0.35610595 -0.19111134 0
1.5679834 -0.42544484 -0.18988137 0
1.9606268 -0.53198177 -0.18962252 0
3.3413429 -0.90661496 -0.24203734 0
5.0037651 -1.357684 -0.24137127 0
10.033146 -2.7223184 -0.24170965 0
0.8794505 -0.21495499 -0.19244067 0
0.98150837 -0.23989993 -0.19031006 0
1.1250504 -0.27498445 -0.1903466 0
1.3152446 -0.32147163 -0.19027856 0
1.5716982 -0.38415393 -0.18909687 0
1.9754417 -0.48283678 -0.1898163 0
3.3558478 -0.82023513 -0.24151152 0
5.0534935 -1.2351732 -0.24218915 0
10.099913 -2.4686172 -0.24174014 0
0.879143 -0.19150972 -0.19125482 0
0.99530637 -0.21681438 -0.19186331 0
1.1311721 -0.24641094 -0.19026951 0
1.3142769 -0.28629792 -0.18903299 0
1.5947317 -0.34739131 -0.19075248 0
1.9987085 -0.43539232 -0.19093524 0
3.3820813 -0.7367419 -0.24198422 0
5.0778294 -1.1061382 -0.24194044 0
10.164191 -2.2141352 -0.24186407 0
0.88647079 -0.16979879 -0.19185555 0
0.99313593 -0.19022994 -0.19045874 0
1.1368141 -0.21775073 -0.19023353 0
1.3403589 -0.25673866 -0.1917913 0
1.6063551 -0.3076888 -0.19115303 0
2.5401735 -0.48655677 -0.24141102 0
3.393476 -0.65000236 -0.24154878 0
5.0999689 -0.97687209 -0.24174359 0
10.218045 -1.9572124 -0.24189307 0
0.8788963 -0.14546224 -0.18936136 0
0.9975428 -0.16509889 -0.1904441 0
1.1289457 -0.18684681 -0.18806779 0
1.3411287 -0.22196428 -0.19103901 0
1.6158879 -0.26743844 -0.19142322 0
2.5557055 -0.42298353 -0.24179555 0
3.4155507 -0.56529272 -0.24202743 0
5.1366425 -0.85014302 -0.2423877 0
10.256126 -1.6974461 -0.24170341 0
0.8845371 -0.12355486 -0.18984437 0
1.0141772 -0.1416634 -0.19287582 0
1.1479747 -0.16035265 -0.19050293 0
1.3491569 -0.18845439 -0.19144408 0
1.6158355 -0.22570488 -0.19068147 0
2.5624661 -0.35793316 -0.24150357 0
3.4316876 -0.47934869 -0.24223647 0
5.1551833 -0.72009188 -0.24232779 0
10.302575 -1.4390955 -0.24186507 0
0.90308768 -0.10298994 -0.19320638 0
1.0135751 -0.11559015 -0.19214529 0
1.1578975 -0.13204896 -0.19153552 0
1.3495257 -0.15390263 -0.19088446 0
1.6319956 -0.18611607 -0.19197303 0
2.5842628 -0.29471454 -0.24277948 0
3.4293859 -0.39109409 -0.24130039 0
5.1645689 -0.58897781 -0.24199316 0
10.323248 -1.177284 -0.24157588 0
0.9045015 -0.080091923 -0.19301492 0
1.0098886 -0.089423761 -0.19095777 0
1.1235154 -0.099485189 -0.18537375 0
1.1400706 -0.10095113 -0.16084634 0
1.6315851 -0.14447382 -0.19143486 0
2.5941253 -0.22970495 -0.24308394 0
3.4376955 -0.30440155 -0.24126767 0
5.1710811 -0.45788959 -0.24167983 0
10.352077 -0.91665721 -0.24163219 0
0.90029359 -0.056869704 -0.19174962 0
1.0191195 -0.064375691 -0.19233474 0
1.143702 -0.072245322 -0.18834363 0
1.1202941 -0.070766687 -0.15775396 0
1.6335686 -0.10318919 -0.19130108 0
2.5885999 -0.16351655 -0.24210237 0
3.4526918 -0.21809947 -0.2418568 0
5.1820359 -0.32733861 -0.24172872 0
10.375587 -0.65540457 -0.24171783 0
0.91164416 -0.034522656 -0.19391979 0
1.0139893 -0.038398325 -0.19112279 0
1.1223254 -0.042500857 -0.18458793 0
1.1323915 -0.042882044 -0.15925433 0
1.6388477 -0.062060814 -0.19167483 0
2.5777626 -0.097616181 -0.24078171 0
3.444653 -0.13044408 -0.24098633 0
5.1940451 -0.19669105 -0.2419803 0
10.392445 -0.393547 -0.24180217 0
0.90198112 -0.011380744 -0.19174217 0
1.010197 -0.012746158 -0.19028674 0
1.1359783 -0.014333203 -0.18671444 0
1.1216706 -0.014152675 -0.15764615 0
1.1350933 -0.014322037 -0.13267267 0
1.1335906 -0.014303076 -0.10581816 0
1.1237235 -0.014178578 -0.078565121 0
1.138185 -0.014361046 -0.052992027 0
1.1211524 -0.014146136 -0.026069367 0
1.1308435 -0.014268415 3.2286331e-05 0
1.1276392 -0.014227984 0.026284626 0
1.124491 -0.014188262 0.052418806 0
1.1264035 -0.014212392 0.078817122 0
1.1191943 -0.01412143 0.10453875 0
1.1316826 -0.014279002 0.13233952 0
1.121565 -0.014151342 0.1576966 0
1.1292883 -0.014248792 0.18568106 0
1.1315871 -0.014277797 0.21321942 0
0.90025729 0.011358993 -0.19137572 0
1.021129 0.012884093 -0.19234596 0
1.1286047 0.014240165 -0.18550247 0
1.1382495 0.014361859 -0.15997624 0
1.6329553 0.02060381 -0.19086407 0
2.5889151 0.032665625 -0.24166945 0
3.4606047 0.043664169 -0.24194814 0
5.1852508 0.065424889 -0.24141678 0
10.392481 0.13112709 -0.24164905 0
0.89835787 0.034019526 -0.19109361 0
1.0143315 0.038411278 -0.19118726 0
1.1277626 0.042706754 -0.18548214 0
1.1358467 0.043012887 -0.15974025 0
1.6399373 0.062102076 -0.19180226 0
2.5899291 0.098076902 -0.24191815 0
3.4544132 0.13081367 -0.24166913 0
5.1955214 0.19674695 -0.24204907 0
10.389549 0.39343736 -0.2417348 0
0.90000278 0.056851335 -0.19168767 0
1.0211248 0.064502366 -0.19271322 0
1.1274992 0.071221814 -0.18567535 0
1.1356769 0.071738377 -0.15992007 0
1.6340027 0.1032166 -0.19135192 0
2.5839593 0.16322343 -0.24166837 0
3.4547634 0.21823034 -0.24200191 0
5.1790929 0.3271527 -0.24159144 0
10.371773 0.65516365 -0.24162897 0
0.90383071 0.080032527 -0.19287178 0
1.0182296 0.090162329 -0.19253494 0
1.1501325 0.10184209 -0.18976544 0
1.3523476 0.11974786 -0.19079535 0
1.6429598 0.14548104 -0.19276945 0
2.5876713 0.22913349 -0.24247919 0
3.4437063 0.30493376 -0.2416895 0
5.1732869 0.45808491 -0.24178292 0
10.359482 0.91731286 -0.24180502 0
0.89460891 0.10202301 -0.19139244 0
1.0042577 0.11452758 -0.19037898 0
1.160832 0.13238363 -0.19202094 0
1.3508627 0.15405512 -0.19107357 0
1.6206421 0.18482129 -0.1906375 0
2.5757008 0.29373813 -0.24197513 0
3.4331737 0.39152604 -0.24156691 0
5.1536965 0.58773798 -0.24148373 0
10.336401 1.178784 -0.24188368 0
0.89553219 0.12509069 -0.19220419 0
1.015322 0.14182331 -0.19309352 0
1.150032 0.16064003 -0.19084434 0
1.3328604 0.18617804 -0.18913163 0
1.6121092 0.22518438 -0.19024174 0
2.5619226 0.35785723 -0.24145235 0
3.4204133 0.47777387 -0.24144064 0
5.1568794 0.72032881 -0.24240753 0
10.305229 1.4394661 -0.24192736 0
0.90055424 0.14904675 -0.19402765 0
0.9894045 0.16375196 -0.1888904 0
1.1384872 0.18842599 -0.1896573 0
1.3312939 0.22033657 -0.18963808 0
1.6256865 0.26906019 -0.19258402 0
2.5525525 0.42246169 -0.24149725 0
3.4121923 0.56473684 -0.24178946 0
5.1188579 0.8471995 -0.24154846 0
10.255907 1.6974097 -0.24169824 0
0.89708054 0.17183103 -0.19415179 0
1.001814 0.19189216 -0.19212297 0
1.1418698 0.21871911 -0.19107954 0
1.3369954 0.2560944 -0.19131 0
1.3427279 0.2571924 -0.15978192 0
1.3349062 0.25569421 -0.12686577 0
1.3437953 0.25739688 -0.095651805 0
1.3495392 0.25849709 -0.063969493 0
1.3495301 0.25849536 -0.031947598 0
1.3539078 0.25933388 3.9354552e-05 0
0.87511319 0.19063188 -0.19037814 0
0.99298006 0.21630763 -0.19141486 0
1.1353759 0.24732667 -0.1909766 0
1.1972247 0.26079965 -0.17219733 0
1.2163531 0.26496649 -0.14549303 0
1.2038548 0.26224393 -0.11500342 0
1.2171577 0.26514179 -0.087086305 0
1.1994609 0.26128674 -0.057150025 0
1.2072332 0.26297984 -0.028726961 0
1.2111533 0.26383379 3.538734e-05 0
0.87699193 0.21435407 -0.1919027 0
0.98820311 0.24153627 -0.19160815 0
1.1345617 0.27730918 -0.1919558 0
1.2105457 0.29588115 -0.17513159 0
1.2153938 0.29706615 -0.14622857 0
1.2047328 0.29446039 -0.11576039 0
1.2055308 0.29465541 -0.086758874 0
1.2044462 0.29439032 -0.057723194 0
1.2085689 0.295398 -0.028926946 0
1.2052498 0.29458672 3.542081e-05 0
0.86030853 0.23342966 -0.18948089 0
0.98619419 0.26758653 -0.19246683 0
1.1158592 0.30276883 -0.1900239 0
1.2103497 0.3284072 -0.17624626 0
1.2044426 0.3268044 -0.1458569 0
1.2052349 0.32701939 -0.11656459 0
1.1989094 0.32530308 -0.086845577 0
1.2068973 0.32747045 -0.05821823 0
1.2091572 0.32808366 -0.029129945 0
1.2171937 0.33026421 3.6005335e-05 0
0.88006079 0.26280066 -0.19522996 0
0.9717049 0.29016709 -0.19100752 0
1.1125251 0.33221835 -0.19082326 0
1.2027614 0.35916439 -0.1764051 0
1.2046962 0.35974213 -0.14694034 0
1.2150766 0.3628419 -0.11836444 0
1.2073863 0.36054543 -0.088090718 0
1.2083563 0.36083511 -0.058709219 0
1.2091681 0.36107752 -0.029340411 0
1.2014561 0.35877457 3.579626e-05 0
0.84928554 0.27713448 -0.18989407 0
0.96176189 0.3138372 -0.19054936 0
1.1042079 0.36031944 -0.19089572 0
1.2071995 0.39392713 -0.17845739 0
1.2056534 0.39342263 -0.14822105 0
1.2090005 0.39451483 -0.11870471 0
1.2019267 0.39220652 -0.088386469 0
1.198607 0.39112327 -0.058696467 0
1.213604 0.39601701 -0.029681124 0
1.2056412 0.39341861 3.620526e-05 0
0.85361326 0.30258307 -0.19250797 0
0.96205294 0.34102204 -0.19225109 0
1.0947977 0.38807654 -0.19090141 0
1.2131751 0.43003809 -0.18088762 0
1.202602 0.42629027 -0.14912114 0
1.2105423 0.42910489 -0.11988126 0
1.2066929 0.42774037 -0.089502349 0
1.2127681 0.42989385 -0.059902202 0
1.2255971 0.43444142 -0.030232981 0
1.2096156 0.42877641 3.6637928e-05 0
0.83944046 0.32162327 -0.19108151 0
0.94897038 0.36358854 -0.19140959 0
1.0860552 0.41611123 -0.19114737 0
1.1956724 0.45811 -0.17994459 0
1.2120119 0.46437031 -0.15169293 0
1.2055053 0.46187732 -0.12049849 0
1.2164644 0.46607625 -0.091070622 0
1.2052363 0.46177432 -0.060086716 0
1.2031142 0.46096122 -0.029955825 0
1.1972531 0.45871565 3.6602494e-05 0
0.83476543 0.34422946 -0.19193386 0
0.94796884 0.39091077 -0.1931361 0
1.0879636 0.44863993 -0.19341455 0
1.207646 0.49799299 -0.1835797 0
1.2046814 0.49677044 -0.15229619 0
1.2044077 0.49665764 -0.12160304 0
1.2138195 0.50053871 -0.091789156 0
1.1988424 0.49436268 -0.060370773 0
1.1962121 0.493278 -0.030084373 0
1.2031505 0.4961392 3.7153783e-05 0
0.82024932 0.36272088 -0.19064043 0
0.92979014 0.41116071 -0.19148569 0
1.0656738 0.47124958 -0.19150543 0
1.1922878 0.52723926 -0.18320952 0
1.2045578 0.53266519 -0.15393114 0
1.2033333 0.53212368 -0.12281144 0
1.2044414 0.53261375 -0.092067204 0
1.2037959 0.53232825 -0.061277278 0
1.1949281 0.52840686 -0.030377818 0
1.2125211 0.53618658 3.7848997e-05 0
0.80878419 0.38233095 -0.19015792 0
0.91719258 0.43357813 -0.19108412 0
1.0596555 0.50092369 -0.19263455 0
1.2246009 0.57889712 -0.19035934 0
1.4751998 0.69736105 -0.19070511 0
1.8554618 0.87711966 -0.19156562 0
3.1180837 1.4739902 -0.24111247 0
4.7112446 2.227114 -0.24260229 0
9.4051762 4.4460444 -0.2418769 0
0.7980693 0.40220702 -0.18996492 0
0.9156304 0.46145493 -0.19312358 0
1.0302799 0.51923537 -0.18961629 0
1.2090307 0.60932136 -0.19026899 0
1.4545413 0.73305255 -0.19036564 0
1.8379859 0.9262991 -0.19211389 0
3.0839632 1.5542406 -0.24143051 0
4.6327667 2.3347988 -0.24151868 0
9.2886219 4.6812339 -0.2418409 0
0.79459631 0.42592931 -0.19163604 0
0.89796948 0.48134068 -0.19189981 0
1.0228477 0.54827946 -0.19073452 0
1.1967089 0.64147466 -0.19081698 0
1.427049 0.76494443 -0.18923405 0
1.8142182 0.97247958 -0.19213387 0
3.053895 1.6369864 -0.24223389 0
4.5804114 2.4552488 -0.24194278 0
9.1561699 4.9080033 -0.24154063 0
0.77695245 0.44206178 -0.19001113 0
0.89027411 0.50653827 -0.19292594 0
1.0141331 0.57701015 -0.19176406 0
1.1738212 0.66786778 -0.18979485 0
1.2142295 0.69085878 -0.16327326 0
1.2004273 0.68300575 -0.12891524 0
3.0030751 1.7086563 -0.2415466 0
4.5127616 2.567621 -0.24171549 0
9.0380545 5.1423717 -0.24177156 0
0.77129263 0.46498543 -0.1914361 0
0.87759107 0.52906907 -0.19300969 0
1.000924 0.60342222 -0.19208498 0
1.1601855 0.69943541 -0.19038378 0
1.1494783 0.69298041 -0.15686828 0
1.2010931 0.72409719 -0.13090767 0
2.9560359 1.782091 -0.24130398 0
4.4436593 2.6789272 -0.24155881 0
8.9036846 5.3677216 -0.24172419 0
0.76302934 0.48666692 -0.19237253 0
0.84574693 0.5394249 -0.18894026 0
0.98340636 0.62722534 -0.19170018 0
1.1532549 0.73555619 -0.19223168 0
1.1409305 0.72769564 -0.15815784 0
1.1739005 0.74872416 -0.12996215 0
2.9287832 1.868004 -0.2428506 0
4.3774238 2.7919598 -0.24171183 0
8.7686138 5.5927 -0.24181235 0
0.74794704 0.50403857 -0.19171627 0
0.84667909 0.57057369 -0.1923044 0
0.96548384 0.65063578 -0.19134662 0
1.1144682 0.75103575 -0.18886594 0
1.1413288 0.76913697 -0.16085279 0
1.1599931 0.78171474 -0.13056515 0
2.8709741 1.9347382 -0.24202906 0
4.3034534 2.9000802 -0.24159208 0
8.6258068 5.8128972 -0.241843 0
0.73307592 0.5213871 -0.1912166 0
0.82761616 0.58862716 -0.19128805 0
0.9524793 0.67743379 -0.19209667 0
1.1054865 0.78625739 -0.19064608 0
1.1413547 0.81176805 -0.16369182 0
1.1417006 0.81201404 -0.13077135 0
2.8272085 2.0108013 -0.24254069 0
4.2295065 3.0081606 -0.24162608 0
8.4722528 6.0257378 -0.2417248 0
0.72131938 0.54094118 -0.1916502 0
0.81287962 0.60960519 -0.19137718 0
0.93132401 0.69843054 -0.19132429 0
1.0864431 0.81475949 -0.1908475 0
1.1036586 0.82766992 -0.16123009 0
1.1032503 0.82736367 -0.12871805 0
1.1003376 0.8251794 -0.096151866 0
1.0912995 0.81840152 -0.063504301 0
1.1017474 0.82623667 -0.032019116 0
1.103501 0.82755172 3.9377701e-05 0
1.1010125 0.82568556 0.032076381 0
1.1044581 0.82826948 0.064349003 0
1.0970846 0.8227399 0.09594629 0
0.70570397 0.55759585 -0.19117954 0
0.79656518 0.6293878 -0.19121522 0
0.91259128 0.72106314 -0.19115375 0
1.0491996 0.82900107 -0.18792078 0
1.0964139 0.86630636 -0.16331388 0
1.0919169 0.86275315 -0.12989494 0
1.096473 0.86635303 -0.097693779 0
1.0991062 0.86843365 -0.065213278 0
1.0943302 0.86465997 -0.03242746 0
1.099241 0.86854017 3.999519e-05 0
1.0981301 0.86766243 0.032620013 0
1.0950618 0.86523807 0.065053165 0
1.0973778 0.86706799 0.097854652 0
0.69247687 0.57611102 -0.19147436 0
0.77647758 0.64599603 -0.19024646 0
0.89906335 0.74798214 -0.19221325 0
1.0257237 0.85335803 -0.18751396 0
1.0985564 0.91395181 -0.16701576 0
1.1062284 0.92033446 -0.1343179 0
1.0911633 0.90780097 -0.099230513 0
1.0960426 0.91186041 -0.066375881 0
1.1064479 0.92051715 -0.03346432 0
1.1047276 0.91908598 4.1025753e-05 0
1.0968013 0.91249156 0.033254065 0
1.0994483 0.91469383 0.066663966 0
1.09263 0.90902126 0.099445455 0
0.68371797 0.59865069 -0.1931688 0
0.7582674 0.66392475 -0.1898299 0
0.87606674 0.76706767 -0.19137484 0
0.99451339 0.87077737 -0.18576695 0
1.0918868 0.95603567 -0.16961619 0
1.0987904 0.96208036 -0.1363197 0
1.0907339 0.95502621 -0.1013512 0
1.0985786 0.96189493 -0.067978032 0
1.1006428 0.96370232 -0.034013558 0
1.1082197 0.9703365 4.2051528e-05 0
1.1018012 0.96471649 0.034133013 0
1.0940734 0.95795029 0.067782469 0
1.099655 0.96283746 0.10226402 0
1.0927618 0.95680183 0.13565542 0
1.0880764 0.9526993 0.27248204 0
0.66274107 0.610502 -0.19153456 0
0.75295842 0.69360816 -0.19282198 0
0.85711551 0.78955537 -0.19152713 0
0.96259731 0.8867228 -0.18392712 0
1.0617545 0.978064 -0.16871631 0
1.0970367 1.0105653 -0.1392221 0
1.1063546 1.0191487 -0.10515931 0
1.1013383 1.0145278 -0.06971103 0
1.0944287 1.0081627 -0.034596838 0
1.0932013 1.0070322 4.2432574e-05 0
1.1026596 1.0157449 0.034942679 0
1.1027924 1.0158672 0.069888867 0
1.0966451 1.0102046 0.10432198 0
1.1060008 1.0188228 0.14044632 0
1.04435 0.96203148 0.26752719 0
0.65336651 0.63307542 -0.19338146 0
0.73763746 0.71472925 -0.19345644 0
0.83904099 0.81298357 -0.19201219 0
0.83368075 0.8077898 -0.16313817 0
0.84423673 0.81801796 -0.13738899 0
0.84062064 0.81451416 -0.10925511 0
0.84095305 0.81483632 -0.081861533 0
0.83277029 0.80690759 -0.053983454 0
0.83925778 0.81319362 -0.027170585 0
0.83138597 0.80556631 3.3048869e-05 0
0.84372818 0.81752527 0.02738243 0
0.84422815 0.81800961 0.054793462 0
0.84155542 0.81541997 0.081987403 0
1.1017681 1.0675514 0.14328471 0
1.005955 0.97471386 0.19693108 0
1.0040566 0.9728744 0.22985752 0
0.99202013 0.9612118 0.26025376 0
0.62791818 0.63991475 -0.19056892 0
0.71174067 0.7253387 -0.19140492 0
0.81703061 0.83264017 -0.19172335 0
0.84207696 0.85816503 -0.16896574 0
0.84415472 0.86028254 -0.14086425 0
0.83756346 0.85356534 -0.11162218 0
0.83719671 0.85319155 -0.083565436 0
0.83738554 0.85338402 -0.055661123 0
0.83696628 0.85295671 -0.027784504 0
0.83478403 0.8507328 3.4026642e-05 0
0.83607274 0.85204613 0.027823038 0
0.8391335 0.85516536 0.055845864 0
0.83210307 0.84800059 0.083125174 0
0.84099472 0.85706216 0.11214863 0
1.0970217 1.1179805 0.18315084 0
0.94441241 0.96245563 0.18957822 0
0.95149022 0.96966869 0.22335513 0
0.95264125 0.97084171 0.25626954 0
0.61074698 0.65466899 -0.19031166 0
0.68951738 0.73910421 -0.19038448 0
0.80149508 0.85913479 -0.19310458 0
0.84305704 0.90368569 -0.17368361 0
0.83870083 0.8990162 -0.14369473 0
0.83854347 0.89884752 -0.11473962 0
0.84257185 0.90316558 -0.086349756 0
0.84427762 0.90499401 -0.057619143 0
0.84271085 0.90331459 -0.028722901 0
0.83947074 0.89984149 3.513222e-05 0
0.83932734 0.89968771 0.028677868 0
0.83797318 0.89823616 0.05725918 0
0.83865744 0.89896971 0.086019136 0
0.84266949 0.90327024 0.11537534 0
1.0951722 1.1739318 0.18772893 0
0.93198824 0.99901241 0.19208446 0
0.92848146 0.99525344 0.22377929 0
0.92857683 0.99535567 0.25647232 0
0.59747589 0.67375094 -0.19141415 0
0.68150657 0.76850915 -0.19346657 0
0.77023661 0.86856663 -0.19079433 0
0.85059106 0.95917934 -0.18016578 0
0.8406561 0.94797605 -0.14808181 0
0.83902812 0.94614017 -0.11803585 0
0.83392811 0.9403891 -0.087868333 0
0.82721853 0.932823 -0.058043204 0
0.83942449 0.94658715 -0.029415818 0
0.83722657 0.94410866 3.6024056e-05 0
0.8351053 0.94171655 0.029336367 0
0.84321398 0.95086044 0.059238274 0
0.83799827 0.94497889 0.08836966 0
0.83931834 0.94646746 0.11814953 0
1.0954278 1.2352724 0.19305547 0
1.0992966 1.239635 0.23294117 0
0.59064955 0.70090914 -0.19483258 0
0.65477622 0.77700669 -0.19138455 0
0.73017669 0.8664825 -0.18622901 0
0.84620214 1.0041671 -0.18454558 0
0.83845419 0.99497277 -0.15206902 0
0.84288591 1.0002317 -0.12209118 0
0.83651012 0.99266583 -0.090751342 0
0.83758116 0.99393678 -0.060511246 0
0.8374691 0.99380374 -0.03021664 0
0.84126455 0.99830776 3.7270074e-05 0
0.84218472 0.99939966 0.030461445 0
0.83867228 0.99523157 0.060664546 0
0.84246141 0.99972808 0.091472 0
0.84235847 0.99960589 0.12209006 0
0.83686531 0.99308729 0.15185602 0
1.0975665 1.3024549 0.23946404 0
0.55939394 0.69886893 -0.1902803 0
0.63863295 0.79786474 -0.19249067 0
0.72692615 0.90817231 -0.1911851 0
0.84410846 1.054572 -0.18983321 0
0.85221893 1.0647047 -0.1593885 0
0.83739233 1.0461813 -0.12508029 0
0.84302729 1.0532212 -0.094312198 0
0.84159702 1.0514344 -0.062698588 0
0.83819222 1.0471807 -0.031186411 0
0.84172326 1.0515921 3.8453989e-05 0
0.83795738 1.0468873 0.03125428 0
0.84118569 1.0509205 0.062744968 0
0.84232527 1.0523442 0.094310999 0
0.84175032 1.0516258 0.12580881 0
0.83570385 1.0440719 0.15637712 0
1.0962262 1.3695509 0.24663462 0
1.100379 1.3747389 0.28950825 0
0.54405439 0.71601337 -0.19114871 0
0.62188029 0.81843776 -0.19360571 0
0.70364487 0.9260456 -0.19114822 0
0.7294637 0.96002495 -0.16944572 0
0.72317421 0.95174748 -0.13970169 0
0.72773468 0.95774949 -0.11227574 0
0.72603703 0.95551515 -0.083895363 0
0.73939687 0.97309768 -0.056896318 0
0.72868538 0.95900065 -0.028003661 0
0.72914809 0.95960957 3.4406519e-05 0
0.72359663 0.95230347 0.027876424 0
0.72882974 0.95919061 0.056152113 0
0.73396111 0.96594381 0.084880613 0
0.72099829 0.94888383 0.11130507 0
0.73098898 0.96203226 0.14128128 0
0.72544515 0.95473629 0.16858208 0
0.72943604 0.95998853 0.1982252 0
0.73179334 0.96309096 0.22789569 0
0.52823436 0.73286843 -0.19202806 0
0.59522969 0.82581723 -0.19173653 0
0.67642087 0.9384613 -0.19012651 0
0.73059696 1.0136248 -0.17559564 0
0.95145077 1.3200357 -0.19017527 0
0.85097349 1.1806343 -0.13584317 0
0.83628958 1.160262 -0.099987298 0
0.84013307 1.1655943 -0.066890366 0
0.83723265 1.1615704 -0.033291232 0
0.84147382 1.1674545 4.1084175e-05 0
0.83818871 1.1628968 0.033411138 0
0.8394199 1.1646049 0.066915736 0
0.84022784 1.1657258 0.10054061 0
0.84034687 1.1658911 0.13422959 0
0.84004319 1.1654696 0.16799036 0
0.83428621 1.1574825 0.20059995 0
1.0939252 1.5177037 0.30758718 0
0.509552 0.745929 -0.1920193 0
0.57459271 0.84114158 -0.19186632 0
0.65280074 0.95562965 -0.1902062 0
0.76102489 1.1140581 -0.18960644 0
0.92433351 1.3531243 -0.19152027 0
1.1527596 1.6875154 -0.19075631 0
0.84981412 1.244036 -0.10532475 0
0.83664221 1.2247536 -0.069051579 0
0.83909875 1.2283498 -0.034587178 0
0.83306271 1.2195137 4.2162857e-05 0
0.84274656 1.2336898 0.034822889 0
0.84129995 1.231572 0.069521345 0
0.83671468 1.2248597 0.10378633 0
0.83114165 1.2167015 0.13762049 0
0.84019232 1.2299507 0.17417258 0
0.83165735 1.2174565 0.2072901 0
1.099591 1.6096823 0.32050157 0
1.0952197 1.6032833 0.36582738 0
0.48859307 0.75549233 -0.19124578 0
0.5541116 0.85680103 -0.19218703 0
0.63308442 0.97891366 -0.19159926 0
0.73358458 1.1343131 -0.18984212 0
0.88654953 1.3708369 -0.19079952 0
1.1099244 1.7162327 -0.19077513 0
1.4851522 2.2964327 -0.19119021 0
0.85387683 1.3203162 -0.073201038 0
0.84711689 1.3098637 -0.03626883 0
0.84388369 1.3048643 4.4363223e-05 0
0.84123385 1.3007669 0.03610545 0
0.84238285 1.3025436 0.07230445 0
0.83551937 1.2919309 0.10764838 0
0.83836919 1.2963375 0.14418881 0
0.84202278 1.3019868 0.18130638 0
0.83851117 1.2965569 0.21708566 0
0.84150356 1.3011839 0.25476694 0
1.0971375 1.6964606 0.38064852 0
0.47223532 0.77225584 -0.19241092 0
0.53033203 0.8672626 -0.19147028 0
0.60808116 0.99440724 -0.19156688 0
0.70886827 1.1592265 -0.19095658 0
0.8512677 1.3920951 -0.19070721 0
1.0688171 1.747858 -0.19123106 0
1.424156 2.3289506 -0.19084418 0
0.84274518 1.378158 -0.0752047 0
0.84864378 1.3878042 -0.037821814 0
0.84128577 1.3757714 4.6037396e-05 0
0.84308422 1.3787124 0.037666362 0
0.84307659 1.3787 0.075326748 0
0.83633214 1.3676707 0.11216477 0
0.83709812 1.3689233 0.14986467 0
0.841196 1.3756247 0.1885442 0
0.84640098 1.3841364 0.22809991 0
0.84039873 1.3743209 0.26484954 0
1.100523 1.7997073 0.3974559 0
0.45270067 0.78409892 -0.19245362 0
0.50854421 0.88082266 -0.19156931 0
0.57931024 1.0033927 -0.19042055 0
0.67626035 1.1713148 -0.19007576 0
0.81699437 1.4150729 -0.19096936 0
1.0264807 1.777913 -0.19162382 0
1.3611537 2.3575826 -0.19031467 0
1.3718638 2.3761332 -0.1277331 0
0.85071743 1.4734827 -0.039559059 0
0.83794737 1.4513644 4.7844016e-05 0
0.84350359 1.4609882 0.039319985 0
0.83620721 1.4483504 0.077954248 0
0.83826452 1.4519137 0.1173012 0
0.83973283 1.4544569 0.15685838 0
0.84101433 1.4566766 0.19668129 0
0.84022456 1.4553087 0.23625883 0
0.84135807 1.4572719 0.27665493 0
0.84073669 1.4561957 0.31680611 0
0.42993718 0.79006034 -0.19119255 0
0.48863173 0.89791846 -0.19254395 0
0.55470127 1.0193291 -0.19072728 0
0.64444321 1.1842405 -0.18947348 0
0.77639991 1.4267265 -0.18983711 0
0.98489398 1.8098589 -0.19232653 0
1.29085 2.3720894 -0.1887956 0
1.288265 2.3673391 -0.12547253 0
1.2938281 2.3775618 -0.062934421 0
0.84876561 1.559707 5.0693197e-05 0
0.83531183 1.5349841 0.040731091 0
0.83248603 1.5297914 0.0811809 0
0.84205467 1.5473748 0.1232573 0
0.84164006 1.546613 0.16445385 0
0.84013891 1.5438545 0.20552364 0
0.83599025 1.5362307 0.24589229 0
0.83853996 1.5409162 0.28842461 0
0.83432037 1.5331622 0.32886478 0
0.40865573 0.79829174 -0.19062784 0
0.46396473 0.90633553 -0.19177677 0
0.5284183 1.0322428 -0.19058743 0
0.61645287 1.2042147 -0.19011942 0
0.74861532 1.4623884 -0.19200704 0
0.9364301 1.8292767 -0.19181734 0
1.2501502 2.4421155 -0.19179668 0
1.2436838 2.4294839 -0.12706216 0
1.240293 2.4228601 -0.063284695 0
1.2456522 2.4333291 7.8040764e-05 0
0.84930497 1.6590815 0.043441404 0
0.83752787 1.6360753 0.085672006 0
0.84031957 1.6415287 0.12902671 0
0.84008336 1.6410674 0.17218795 0
0.8417148 1.6442543 0.21599238 0
0.84281063 1.646395 0.26003778 0
0.83491349 1.6309682 0.30124012 0
0.83860755 1.6381844 0.34674171 0
0.38649249 0.80441165 -0.18969947 0
0.44290093 0.92181522 -0.19262555 0
0.50157511 1.0439346 -0.19034816 0
0.5834325 1.2143054 -0.18932742 0
0.70877182 1.4751756 -0.19127631 0
0.89122194 1.8549113 -0.19208555 0
1.1783465 2.4525073 -0.19021651 0
1.7842705 3.7136245 -0.19180647 0
4.5028539 9.3718452 -0.24174559 0
0.84992796 1.7689656 0.091478303 0
0.84083056 1.7500312 0.13584384 0
0.84509772 1.7589124 0.18225676 0
0.83732456 1.742734 0.22608075 0
0.83969086 1.7476591 0.27259773 0
0.83883971 1.7458876 0.31845394 0
0.84263796 1.7537929 0.36659339 0
0.37502348 0.8338064 -0.19433744 0
0.41725275 0.92769653 -0.19159292 0
0.47790805 1.0625541 -0.1914829 0
0.55458158 1.2330258 -0.19000335 0
0.67484134 1.5004047 -0.19227791 0
0.84547907 1.8797911 -0.19239095 0
1.1209811 2.492327 -0.19104972 0
1.6878303 3.7526281 -0.19155975 0
4.2659197 9.4846087 -0.24180003 0
1.0679957 2.3745222 0.1213608 0
0.85032028 1.8905548 0.14503972 0
0.83625144 1.8592749 0.19040859 0
0.84265327 1.8735085 0.24021029 0
0.84000993 1.8676313 0.28791225 0
0.83917105 1.8657662 0.3363497 0
0.84222621 1.8725588 0.38685241 0
0.34980366 0.83332467 -0.19210626 0
0.39165816 0.93303317 -0.19059286 0
0.45028293 1.0726929 -0.19120108 0
0.5265637 1.2544138 -0.19119035 0
0.6357221 1.5144581 -0.19196154 0
0.79414886 1.8918724 -0.19151504 0
1.0586624 2.5220134 -0.19121625 0
1.5990791 3.8094287 -0.19233778 0
4.0295844 9.599534 -0.24206004 0
0.99572629 2.3720832 0.11991351 0
0.84861201 2.0216179 0.15340261 0
0.84393483 2.0104756 0.20364688 0
0.83573973 1.9909527 0.25248346 0
0.8412993 2.0041971 0.30559444 0
0.83529007 1.9898816 0.35481101 0
0.84430456 2.0113566 0.41099346 0
0.3264747 0.83627045 -0.19082505 0
0.37222174 0.95345229 -0.19278349 0
0.41918552 1.0737509 -0.18944353 0
0.49355409 1.2642471 -0.19072974 0
0.59598678 1.5266302 -0.19153677 0
0.74826193 1.9166856 -0.19205396 0
1.0021309 2.5669751 -0.19264618 0
1.4982877 3.8378892 -0.19180438 0
3.7821934 9.6881523 -0.24181055 0
0.92758435 2.3760231 0.11889134 0
0.85127604 2.180558 0.16378067 0
0.83934385 2.1499934 0.21556459 0
0.84093297 2.1540639 0.27039081 0
0.83951735 2.1504378 0.32455871 0
0.84131473 2.1550419 0.38035306 0
0.83913964 2.1494703 0.43474904 0
0.30470771 0.84268415 -0.19047302 0
0.34990185 0.96767074 -0.19381106 0
0.40103558 1.1090835 -0.19382982 0
0.43261853 1.1964278 -0.17879403 0
0.43607932 1.2059988 -0.14988053 0
0.43560362 1.2046832 -0.11957084 0
0.92900544 2.5692101 -0.19099343 0
1.4039016 3.8825586 -0.19220477 0
3.5378752 9.7841673 -0.24190131 0
0.8585062 2.3742409 0.11768048 0
0.84924984 2.3486421 0.17473984 0
0.83944893 2.3215373 0.23056638 0
0.83955675 2.3218353 0.28869867 0
0.83756113 2.3163164 0.34629345 0
0.8379752 2.3174615 0.40515739 0
0.83772975 2.3167827 0.46416515 0
0.28612491 0.85843235 -0.19233908 0
0.32377762 0.971398 -0.19285946 0
0.36587739 1.0977058 -0.19016698 0
0.4021652 1.2065766 -0.17873688 0
0.40218005 1.2066212 -0.14864904 0
0.40369928 1.2111791 -0.11916634 0
0.86677176 2.6004899 -0.19163144 0
1.3021127 3.9066005 -0.19170699 0
3.2896175 9.8695145 -0.24188165 0
0.79098171 2.3731046 0.1165975 0
0.84720826 2.5417953 0.18745993 0
0.8372587 2.5119445 0.24729946 0
0.83870071 2.5162711 0.31014416 0
0.83948547 2.5186253 0.37325254 0
0.83808041 2.5144098 0.43575272 0
0.84105825 2.523344 0.50113702 0
0.26547661 0.86898506 -0.19314073 0
0.30057558 0.98387462 -0.19376867 0
0.34136602 1.117394 -0.19202399 0
0.38235921 1.251577 -0.18391491 0
0.38297367 1.2535884 -0.15319556 0
0.38082385 1.2465514 -0.12166215 0
0.72384477 2.3693621 -0.1731981 0
0.72582167 2.3758333 -0.11565249 0
0.72282416 2.3660214 -0.05752093 0
0.72594744 2.376245 7.0933063e-05 0
0.72386098 2.3694153 0.057744972 0
0.7231952 2.3672361 0.11537562 0
0.84061486 2.751586 0.20130336 0
0.83315855 2.7271793 0.26633418 0
0.83542734 2.7346058 0.33434972 0
0.8365559 2.7382998 0.4025504 0
0.82908028 2.71383 0.46653771 0
0.23941052 0.86082208 -0.18992293 0
0.2728903 0.98120165 -0.1918247 0
0.3121703 1.1224363 -0.19147557 0
0.36421117 1.3095541 -0.19102284 0
0.44334286 1.5940791 -0.19337645 0
0.55104655 1.9813374 -0.191958 0
0.65948063 2.3712218 -0.17206253 0
0.65848738 2.3676507 -0.11440872 0
0.65885568 2.3689749 -0.057170257 0
0.66035146 2.3743532 7.0356669e-05 0
0.65857083 2.3679507 0.05728595 0
0.65887606 2.3690481 0.11461695 0
0.81124026 2.9168873 0.21183127 0
0.810206 2.9131687 0.2824108 0
0.80925405 2.9097457 0.35315371 0
0.81085235 2.9154925 0.42545503 0
0.81052917 2.9143305 0.49733087 0
0.21945587 0.87391961 -0.1915296 0
0.25021049 0.99639106 -0.19349802 0
0.28158703 1.121339 -0.19001549 0
0.32843417 1.3078942 -0.18951121 0
0.39824426 1.5858927 -0.19110319 0
0.49678925 1.9783198 -0.19039024 0
0.59554499 2.3715861 -0.17094384 0
0.59515208 2.3700213 -0.11376119 0
0.59403169 2.3655596 -0.05670796 0
0.59615719 2.3740237 6.9878799e-05 0
0.59631741 2.3746617 0.057066027 0
0.59305406 2.3616667 0.11349951 0
0.76635212 3.0517759 0.22015244 0
0.76801509 3.0583982 0.29451683 0
0.76691037 3.0539989 0.36819515 0
0.76788723 3.0578892 0.4432655 0
0.19782649 0.88136303 -0.19200552 0
0.2211161 0.98512363 -0.19016556 0
0.25454858 1.1340731 -0.19102386 0
0.29680362 1.3223292 -0.1904567 0
0.35396048 1.5769763 -0.18889208 0
0.45004052 2.0050352 -0.19180708 0
0.55177563 2.4582889 -0.17613347 0
0.55157202 2.4573817 -0.11724894 0
0.55104655 2.4550407 -0.058500994 0
0.5506323 2.4531949 7.1777264e-05 0
0.5519833 2.459214 0.058744427 0
0.55128306 2.4560943 0.11733156 0
0.71335745 3.1781733 0.22789924 0
0.71115625 3.1683664 0.30328152 0
0.71313369 3.1771765 0.38075438 0
0.71177775 3.1711357 0.45693183 0
0.17697728 0.89340067 -0.19359319 0
0.19778328 0.99843168 -0.19170985 0
0.22444305 1.1330131 -0.18983069 0
0.26559791 1.3407675 -0.19208573 0
0.31718111 1.6011652 -0.19076979 0
0.39756748 2.0069642 -0.19097091 0
0.41315326 2.0856431 -0.1486394 0
0.41477579 2.0938337 -0.099371873 0
0.41391775 2.0895023 -0.049525894 0
0.41519544 2.095952 6.0998773e-05 0
0.41424501 2.0911543 0.049686834 0
0.41415682 2.090709 0.099345535 0
0.41324434 2.0861027 0.14879416 0
0.41632313 2.101645 0.20010355 0
0.41512826 2.095613 0.24980411 0
0.40700546 2.0546083 0.29447645 0
0.29144609 1.4712518 0.24658883 0
0.26980993 1.3620301 0.26160684 0
0.15393016 0.89496875 -0.19302964 0
0.17116527 0.99517578 -0.19019461 0
0.19657539 1.1429133 -0.19059746 0
0.23132023 1.3449241 -0.19178373 0
0.27907673 1.622586 -0.1924215 0
0.34664431 2.0154324 -0.19088338 0
0.36812177 2.1403048 -0.15182452 0
0.88001877 5.1165361 -0.24169613 0
1.7630579 10.250633 -0.24183132 0
0.58016771 3.3731658 0.15953824 0
0.57855248 3.3637748 0.23880833 0
0.57943332 3.368896 0.31926802 0
0.26202413 1.5234402 0.18075332 0
0.26931182 1.5658118 0.22337441 0
0.27142328 1.5780882 0.26326311 0
0.23597357 1.3719791 0.2622903 0
0.1309046 0.89586014 -0.19244802 0
0.14808099 1.0134087 -0.1929035 0
0.16638646 1.1386842 -0.18913163 0
0.19765544 1.352677 -0.19211672 0
0.23663031 1.6194056 -0.19127518 0
0.2958622 2.0247657 -0.19099931 0
0.39443523 2.6993611 -0.19071479 0
0.75169748 5.1443253 -0.24203554 0
1.5048754 10.298781 -0.24199408 0
0.50604761 3.4631927 0.16314015 0
0.50509602 3.4566808 0.24442123 0
0.50414717 3.450187 0.32566234 0
0.22031671 1.5077618 0.17817661 0
0.27621606 1.8903152 0.26858714 0
0.1992624 1.3636743 0.25965846 0
0.10777723 0.8948735 -0.19159071 0
0.12133611 1.0074528 -0.191126 0
0.13873722 1.151934 -0.19069007 0
0.16350345 1.3575679 -0.19216408 0
0.19659577 1.6323332 -0.19215484 0
0.24530822 2.0367923 -0.19148877 0
0.3261337 2.7078857 -0.19067478 0
0.62047172 5.151772 -0.24157219 0
1.2444961 10.333041 -0.24198401 0
0.42421418 3.5222471 0.165365 0
0.42358279 3.5170045 0.24785185 0
0.42297861 3.5119882 0.33038285 0
0.42379799 3.5187914 0.41442987 0
0.22938505 1.9045823 0.2697058 0
0.16469885 1.3674934 0.2595115 0
0.085051946 0.89612329 -0.19133776 0
0.095503137 1.0062389 -0.19037782 0
0.11025804 1.1616993 -0.19178487 0
0.12874098 1.3564391 -0.19148339 0
0.15456386 1.6285137 -0.19118512 0
0.194472 2.0489936 -0.19211324 0
0.25783679 2.7166166 -0.1907706 0
0.49018601 5.1646914 -0.24152096 0
0.98271459 10.354066 -0.2418185 0
0.33958861 3.5779693 0.16752534 0
0.3398062 3.5802619 0.25162521 0
0.33977729 3.5799575 0.33586323 0
0.33986533 3.5808847 0.42059878 0
0.33788469 3.5600164 0.50276226 0
0.17249376 1.8174267 0.30014589 0
0.12999216 1.3696218 0.25921026 0
0.063075989 0.90749663 -0.19336468 0
0.070511661 1.0144763 -0.1915386 0
0.079777524 1.1477875 -0.18909554 0
0.094451562 1.3589081 -0.19143444 0
0.11475974 1.6510891 -0.19343379 0
0.14119689 2.0314498 -0.19007368 0
0.19045812 2.7401884 -0.19202718 0
0.3601245 5.1812391 -0.24179272 0
0.72076213 10.369861 -0.24168557 0
0.2530739 3.6410639 0.17012627 0
0.25114295 3.6132824 0.25341976 0
0.13217695 1.9016767 0.17804119 0
0.13262469 1.9081184 0.22365683 0
0.1332821 1.9175768 0.27024809 0
0.12465247 1.7934192 0.29556739 0
0.094505705 1.3596871 0.25679684 0
0.040310875 0.91223878 -0.19409652 0
0.04496913 1.0176555 -0.19186346 0
0.051166605 1.157905 -0.19048895 0
0.060037069 1.3586444 -0.19112295 0
0.072291039 1.6359527 -0.19138579 0
0.089509211 2.0256016 -0.18925487 0
0.12072944 2.7321184 -0.19118722 0
0.22956604 5.1951003 -0.24209212 0
0.45911476 10.389809 -0.24180344 0
0.16215004 3.6694703 0.1712078 0
0.16193937 3.6647027 0.25665775 0
0.085837834 1.9425181 0.18160422 0
0.0844469 1.911041 0.22367835 0
0.085188121 1.9278148 0.27130157 0
0.076069102 1.7214507 0.28329989 0
0.060479827 1.368664 0.25812179 0
0.016983645 0.897237 -0.19075266 0
0.01941224 1.0255383 -0.19319576 0
0.021969581 1.1606413 -0.19078715 0
0.025760073 1.3608911 -0.19128664 0
0.031105654 1.6432953 -0.19209175 0
0.038540546 2.0360768 -0.19008215 0
0.05201254 2.7477951 -0.19213119 0
0.09827745 5.1919456 -0.24175254 0
0.19694886 10.404704 -0.24195735 0
0.070044398 3.7004085 0.17251387 0
0.069848597 3.6900644 0.25822827 0
0.069796465 3.6873107 0.34444889 0
0.069838308 3.6895211 0.43149734 0
0.031752814 1.6774844 0.2758446 0
0.025797689 1.3628783 0.25682604 0
-0.005646897 0.89531386 -0.19031349 0
-0.0064079515 1.0159788 -0.19136441 0
-0.0072751702 1.1534761 -0.18957913 0
-0.0086043654 1.3642195 -0.19172396 0
-0.010269259 1.628188 -0.1902955 0
-0.012854371 2.0380569 -0.1902367 0
-0.017337104 2.7487929 -0.19217035 0
-0.03273971 5.1908712 -0.24166402 0
-0.065627128 10.405161 -0.24192944 0
-0.023436598 3.7158656 0.17320691 0
-0.023316564 3.6968343 0.25866082 0
-0.023412673 3.7120721 0.34670678 0
-0.023389697 3.7084296 0.43363968 0
-0.010297464 1.6326599 0.26843095 0
-0.0086738551 1.3752371 0.25911373 0
-0.028414968 0.90059853 -0.19152829 0
-0.032322716 1.0244527 -0.19305268 0
-0.036560841 1.158778 -0.19054149 0
-0.043095436 1.3658887 -0.19205023 0
-0.051804639 1.6419227 -0.19199243 0
-0.064802654 2.0538886 -0.19180605 0
-0.086364448 2.7372789 -0.19145682 0
-0.11977178 3.796108 -0.17681444 0
-0.1194388 3.7855542 -0.088059619 0
-0.11964705 3.7921548 0.00010831377 0
-0.119524 3.7882547 0.088338964 0
-0.11826476 3.7483437 0.17480427 0
-0.11741315 3.7213523 0.2605007 0
-0.11757371 3.7264411 0.3482151 0
-0.11760285 3.7273645 0.43606204 0
-0.052193932 1.6542611 0.2721124 0
-0.042894013 1.3595047 0.2562719 0
-0.051156096 0.90007329 -0.19163014 0
-0.057645742 1.0142564 -0.19134448 0
-0.066393115 1.1681633 -0.19229905 0
-0.07708554 1.3562926 -0.19091374 0
-0.093303546 1.6416427 -0.19217384 0
-0.11567808 2.0353148 -0.19028357 0
-0.15605946 2.7458107 -0.19226785 0
-0.21564084 3.7941241 -0.17691919 0
-0.21514928 3.7854753 -0.08815603 0
-0.21482748 3.7798131 0.00010808172 0
-0.21572068 3.7955289 0.088607334 0
-0.21176897 3.7259998 0.17395613 0
-0.21129286 3.717623 0.26052997 0
-0.212176 3.7331614 0.34923226 0
-0.078380406 1.3790753 0.16151714 0
-0.077423096 1.3622319 0.19182919 0
-0.077279866 1.3597118 0.22391097 0
-0.078497499 1.3811357 0.26063988 0
-0.073575854 0.89516622 -0.19091995 0
-0.083477221 1.015632 -0.19194035 0
-0.094253756 1.1467456 -0.18910472 0
-0.11184173 1.360731 -0.19187473 0
-0.13477264 1.6397218 -0.19228593 0
-0.16814256 2.0457191 -0.19159202 0
-0.22377475 2.7225726 -0.19097532 0
-0.42545724 5.1763582 -0.24179618 0
-0.8514483 10.359211 -0.24166846 0
-0.3064945 3.7289889 0.17440128 0
-0.30581102 3.7206731 0.26120144 0
-0.30528688 3.7142963 0.34807742 0
-0.30512685 3.7123489 0.43555313 0
-0.11337224 1.3793521 0.19458103 0
-0.11454851 1.3936633 0.22990482 0
-0.11285348 1.3730406 0.25956705 0
-0.096817516 0.89933366 -0.19226871 0
-0.10849598 1.0078144 -0.19091964 0
-0.12361541 1.1482581 -0.1898082 0
-0.14599964 1.3561842 -0.19169214 0
-0.17692763 1.6434729 -0.19318795 0
-0.21889515 2.0333076 -0.19088623 0
-0.29127604 2.7056501 -0.19024338 0
-0.55627972 5.1672573 -0.24194986 0
-1.1133802 10.34214 -0.24184877 0
-0.40049049 3.7201385 0.17440456 0
-0.40022829 3.7177029 0.26161876 0
-0.39863858 3.7029362 0.34784493 0
-0.39877251 3.70418 0.43563682 0
-0.1493762 1.3875489 0.19620669 0
-0.14980783 1.3915583 0.23010804 0
-0.14690161 1.3645626 0.25858292 0
-0.11968809 0.89818299 -0.19260719 0
-0.13318539 0.9994716 -0.18991549 0
-0.15539631 1.1661503 -0.19335255 0
-0.17996192 1.3504996 -0.19146967 0
-0.21624149 1.6227547 -0.19133317 0
-0.27058652 2.0305796 -0.19121037 0
-0.36101824 2.7092121 -0.19107366 0
-0.68578982 5.1464162 -0.24170747 0
