# .PCD v0.7 - Point Cloud Data file format
VERSION 0.7
FIELDS x y z intensity
SIZE 4 4 4 4
TYPE F F F F
COUNT 1 1 1 1
WIDTH 1358
HEIGHT 1
VIEWPOINT 0 0 0 1 0 0 0
POINTS 1358
DATA ascii
0.30783436 -0.85133106 -0.1924275 0
0.34556472 -0.9556762 -0.19140871 0
0.39944667 -1.1046894 -0.19306186 0
0.4587245 -1.2686251 -0.18958318 0
0.56291175 -1.5567601 -0.19347285 0
0.6964792 -1.9261475 -0.19117978 0
0.93280369 -2.5797145 -0.19177431 0
1.3979628 -3.8661349 -0.19139172 0
3.5340044 -9.7734623 -0.24163665 0
0.32774687 -0.83952916 -0.19156863 0
0.37347966 -0.95667452 -0.193435 0
0.42555901 -1.0900766 -0.19232391 0
0.49482685 -1.2675073 -0.19122159 0
0.59736711 -1.530166 -0.19198038 0
0.75192511 -1.9260689 -0.19299418 0
0.99510485 -2.5489779 -0.19129552 0
1.4947499 -3.8288271 -0.19135149 0
3.780515 -9.6838531 -0.24170324 0
0.35067737 -0.83540612 -0.19258609 0
0.39243051 -0.9348731 -0.19096871 0
0.45095789 -1.0743008 -0.19148768 0
0.52855331 -1.2591536 -0.19191276 0
0.63001394 -1.5008596 -0.19023789 0
0.79701644 -1.8987036 -0.19220656 0
1.0640907 -2.5349452 -0.19219673 0
1.5936446 -3.7964826 -0.19168413 0
4.0196376 -9.5758381 -0.24146254 0
0.37294939 -0.8291949 -0.19326264 0
0.41619033 -0.92533439 -0.19110508 0
0.47837377 -1.0635896 -0.19166951 0
0.55487174 -1.2336709 -0.19010276 0
0.66751397 -1.4841133 -0.19019015 0
0.84252441 -1.8732219 -0.19171859 0
1.1248677 -2.5009682 -0.19171211 0
1.6876094 -3.7521369 -0.19153468 0
4.2634802 -9.4791842 -0.24166174 0
0.3916305 -0.81510544 -0.19222133 0
0.43922073 -0.91415554 -0.19102496 0
0.50447094 -1.0499616 -0.19144712 0
0.5866372 -1.2209753 -0.19036736 0
0.70463759 -1.466571 -0.19016062 0
0.88795674 -1.8481154 -0.1913818 0
1.1887629 -2.4741871 -0.19189799 0
1.7813101 -3.707463 -0.19148822 0
4.4991078 -9.364049 -0.24154447 0
0.41299391 -0.80676615 -0.1926515 0
0.46254593 -0.90356398 -0.1911903 0
0.52854013 -1.0324808 -0.19063137 0
0.6172089 -1.2056916 -0.19035259 0
0.74333113 -1.4520659 -0.19065173 0
0.93549979 -1.8274593 -0.19162679 0
1.2510942 -2.4439597 -0.1919415 0
1.8750814 -3.6628926 -0.19156949 0
4.7406945 -9.260747 -0.24188915 0
0.43244246 -0.79466403 -0.19230664 0
0.48330629 -0.88813233 -0.19044548 0
0.5613808 -1.0316036 -0.19302395 0
0.64587426 -1.1868702 -0.18989423 0
0.77964914 -1.4326974 -0.1906316 0
0.98107696 -1.8028448 -0.19158116 0
1.3119831 -2.4109237 -0.19188645 0
1.9704397 -3.6209154 -0.19191396 0
4.9687533 -9.1306715 -0.24169023 0
0.45046681 -0.78022981 -0.19150396 0
0.5113132 -0.88561863 -0.19261239 0
0.58250195 -1.0089209 -0.19146968 0
0.6797058 -1.1772826 -0.19104417 0
0.81261533 -1.4074881 -0.18994579 0
1.0279715 -1.7804953 -0.19190215 0
1.3686063 -2.3704908 -0.19135667 0
2.5982094 -4.5002217 -0.24191712 0
5.1989784 -9.0048761 -0.24175677 0
0.47174954 -0.77146149 -0.192213 0
0.53070998 -0.86788064 -0.19160673 0
0.60562652 -0.99039316 -0.1907936 0
0.70291591 -1.1494924 -0.18935311 0
0.84870094 -1.3878976 -0.19013217 0
1.0669069 -1.7447343 -0.19088928 0
1.4225439 -2.3263144 -0.19062816 0
2.7077391 -4.42802 -0.24163261 0
5.4240813 -8.8701086 -0.24173698 0
0.48978472 -0.75733489 -0.19171222 0
0.55741495 -0.86190885 -0.19333275 0
0.63101363 -0.9757117 -0.19097255 0
0.74002367 -1.1442696 -0.19150847 0
0.8797906 -1.3603858 -0.18934488 0
1.1169767 -1.7271373 -0.19198728 0
1.490253 -2.3043199 -0.19184686 0
2.82145 -4.3626976 -0.2418769 0
5.6452193 -8.728982 -0.24169689 0
0.51180112 -0.7492215 -0.19286686 0
0.57591754 -0.843081 -0.19230871 0
0.66289127 -0.97040111 -0.19314627 0
0.76243109 -1.1161166 -0.1899568 0
0.92173237 -1.3493165 -0.19098133 0
1.1562186 -1.692579 -0.19132869 0
1.5445349 -2.2610321 -0.19142745 0
2.932296 -4.2925644 -0.24201466 0
5.8592205 -8.5772648 -0.24151376 0
0.52858722 -0.73335797 -0.19215631 0
0.59835702 -0.83015609 -0.19274393 0
0.67673451 -0.93889648 -0.19021468 0
0.79943472 -1.1091298 -0.19214049 0
0.95178962 -1.3205059 -0.19024301 0
1.2104491 -1.6793681 -0.19322723 0
1.6027011 -2.2235756 -0.19161993 0
3.035702 -4.2117105 -0.24169888 0
6.0812478 -8.4370775 -0.24181119 0
0.54566276 -0.71813017 -0.19171381 0
0.61244899 -0.80602545 -0.19066952 0
0.70181429 -0.92363638 -0.19065093 0
0.82630068 -1.0874691 -0.19193979 0
0.98811036 -1.300422 -0.19088167 0
1.2446278 -1.6380167 -0.19202261 0
1.6615266 -2.1866844 -0.19199347 0
3.1386857 -4.1307287 -0.24152072 0
6.2907043 -8.2790041 -0.24175419 0
0.56453604 -0.70529312 -0.19202943 0
0.6376484 -0.79663473 -0.19219391 0
0.73072606 -0.9129197 -0.19218451 0
0.84468055 -1.0552868 -0.18996188 0
1.0238301 -1.2791039 -0.19148451 0
1.2909071 -1.612772 -0.19282123 0
1.714046 -2.141413 -0.19175589 0
3.2394879 -4.0471969 -0.24134034 0
6.4947901 -8.114151 -0.24165004 0
0.58057731 -0.68895668 -0.19151013 0
0.65126091 -0.77283514 -0.19035706 0
0.74965966 -0.88960254 -0.19119808 0
0.8750509 -1.0384011 -0.19083713 0
1.0548891 -1.2518107 -0.19132344 0
1.3225873 -1.5694814 -0.19157542 0
1.7664995 -2.096261 -0.19164406 0
3.3437974 -3.9680014 -0.24157342 0
6.7018795 -7.9529543 -0.24180986 0
0.60234374 -0.67924017 -0.19297366 0
0.67711729 -0.76355946 -0.19222054 0
0.77159262 -0.87009579 -0.19113022 0
0.90561259 -1.021225 -0.19182003 0
1.0876075 -1.2264537 -0.19158235 0
1.3669214 -1.5414255 -0.19230074 0
1.8189408 -2.0511506 -0.19165596 0
3.4447331 -3.884495 -0.2417056 0
6.8982534 -7.7788987 -0.2417344 0
0.61804003 -0.66248655 -0.1925842 0
0.70053643 -0.75091565 -0.19342697 0
0.80346406 -0.86124539 -0.19357897 0
0.93366557 -1.0008103 -0.19235046 0
1.1129663 -1.1930056 -0.19068468 0
1.3980424 -1.498583 -0.19129701 0
1.8654335 -1.9995865 -0.19117625 0
3.5390661 -3.7935789 -0.24152951 0
7.0931692 -7.6032758 -0.24176311 0
0.63080823 -0.64286 -0.19144604 0
0.71284813 -0.72646725 -0.19170272 0
0.81788427 -0.83351016 -0.19192368 0
0.9595024 -0.97783393 -0.19252756 0
1.1449766 -1.1668516 -0.19106245 0
1.4377737 -1.4652427 -0.19161227 0
1.912297 -1.9488319 -0.19087739 0
3.6363354 -3.7058086 -0.24170768 0
7.2771487 -7.4161806 -0.24157721 0
0.65105528 -0.63083595 -0.19269738 0
0.73012108 -0.70744634 -0.19148517 0
0.83590508 -0.80994505 -0.19129454 0
0.9773041 -0.94695282 -0.19124299 0
1.1771803 -1.1406217 -0.1915714 0
1.469818 -1.4241711 -0.19103165 0
1.9513698 -1.8907678 -0.18995367 0
3.7379515 -3.621865 -0.24230877 0
7.4713869 -7.2393541 -0.24188274 0
0.66758996 -0.61496872 -0.19293591 0
0.74863732 -0.68962771 -0.19171542 0
0.85795277 -0.7903266 -0.19171421 0
1.0050842 -0.9258607 -0.19204524 0
1.2043031 -1.1093767 -0.19136778 0
1.5109521 -1.3918548 -0.19175106 0
2.5379426 -2.3378952 -0.24123217 0
3.820864 -3.5196931 -0.24184792 0
7.646379 -7.0436707 -0.24171565 0
0.67380065 -0.58996725 -0.19036688 0
0.75958818 -0.6650812 -0.19016056 0
0.87480599 -0.76596379 -0.19109942 0
1.0277364 -0.89986682 -0.19197275 0
1.2339206 -1.0803978 -0.19168003 0
1.5285313 -1.3383535 -0.18963483 0
2.6026783 -2.2788565 -0.24184138 0
3.9124928 -3.4257057 -0.24209788 0
7.8231897 -6.8498387 -0.24176282 0
0.69757199 -0.58034998 -0.19288321 0
0.77249533 -0.64268297 -0.18927075 0
0.90263146 -0.75095057 -0.19297609 0
1.0467662 -0.87086457 -0.19136077 0
1.2503376 -1.0402272 -0.19009134 0
1.5576013 -1.2958574 -0.18912348 0
2.6559839 -2.2096646 -0.2415355 0
3.9945228 -3.3232715 -0.24190663 0
8.0035992 -6.6586509 -0.24206744 0
0.71116173 -0.56190819 -0.19265808 0
0.80064762 -0.63261342 -0.19219519 0
0.91697639 -0.72452796 -0.19207227 0
1.0788887 -0.85245925 -0.19323836 0
1.2725261 -1.0054575 -0.18954629 0
1.5997819 -1.2640311 -0.19031079 0
2.705169 -2.1374273 -0.24102572 0
4.0737929 -3.2188144 -0.24171038 0
8.1628208 -6.4496665 -0.24188271 0
0.72608697 -0.5445165 -0.1929169 0
0.81758243 -0.613132 -0.19248438 0
0.93768489 -0.70320076 -0.19263102 0
1.0957086 -0.82170802 -0.19247513 0
1.3136747 -0.98516786 -0.19191068 0
1.626685 -1.2199047 -0.18978806 0
2.7688162 -2.0764265 -0.24195015 0
4.1518259 -3.113591 -0.24160075 0
8.3192968 -6.238915 -0.24177642 0
0.74137282 -0.52728814 -0.19338077 0
0.82838047 -0.58917069 -0.19146471 0
0.94823951 -0.67441833 -0.19124159 0
1.1026134 -0.78421402 -0.19015063 0
1.3282636 -0.9447037 -0.19049808 0
1.6749496 -1.1912779 -0.19185016 0
2.8273647 -2.0109124 -0.24255407 0
4.2366624 -3.0132501 -0.24203488 0
8.4825802 -6.033083 -0.24201946 0
0.73819184 -0.49746457 -0.18921578 0
0.84409958 -0.56883538 -0.19171852 0
0.97397363 -0.65635699 -0.1930292 0
1.1343381 -0.76442605 -0.19223325 0
1.346756 -0.90757358 -0.1898046 0
1.6927364 -1.1407284 -0.19052906 0
2.8712578 -1.9349293 -0.24205299 0
4.3096151 -2.9042325 -0.24193799 0
8.6269999 -5.8137007 -0.24187644 0
0.75739318 -0.4830721 -0.19095156 0
0.85756534 -0.5469628 -0.1915805 0
0.98142737 -0.62596309 -0.1913144 0
1.1486386 -0.73261195 -0.19146222 0
1.3753802 -0.87722969 -0.19065766 0
1.7247109 -1.100036 -0.1909422 0
2.9080424 -1.8547753 -0.2411308 0
4.3881836 -2.7988224 -0.24230595 0
8.7548723 -5.5839353 -0.24143338 0
0.76170629 -0.45920616 -0.18905675 0
0.87600845 -0.52811497 -0.19266163 0
0.99582541 -0.60034841 -0.19110653 0
1.1713103 -0.70614219 -0.19220933 0
1.4065477 -0.84795856 -0.19195031 0
1.7596639 -1.0608401 -0.19178656 0
2.9608226 -1.7849767 -0.24169472 0
4.4451914 -2.6798511 -0.24164212 0
8.9035616 -5.3676472 -0.24172084 0
0.78601408 -0.44721755 -0.19222724 0
0.88336879 -0.50260937 -0.19142953 0
1.0144491 -0.57718992 -0.19182381 0
1.1886567 -0.67630869 -0.19219358 0
1.4165926 -0.80599713 -0.19048434 0
1.7854724 -1.0158782 -0.19174388 0
3.010998 -1.7131641 -0.24218385 0
4.5130301 -2.5677738 -0.24172987 0
9.0509033 -5.1496825 -0.24211529 0
0.79262775 -0.42487413 -0.19116129 0
0.8945635 -0.47951493 -0.19117191 0
1.0254707 -0.54968542 -0.19122364 0
1.2066274 -0.64679128 -0.1923985 0
1.443764 -0.77390414 -0.19145052 0
1.8131001 -0.97188026 -0.19201548 0
3.0472422 -1.6334202 -0.24170618 0
4.5798206 -2.4549317 -0.24191156 0
9.1619673 -4.9111109 -0.24169357 0
0.80339909 -0.4048931 -0.19123358 0
0.90766048 -0.45743826 -0.19144256 0
1.0391252 -0.5236932 -0.19124424 0
1.2177354 -0.61370832 -0.19163887 0
1.4539694 -0.73276436 -0.19029079 0
1.8333031 -0.92393911 -0.19162442 0
3.086668 -1.5556037 -0.24164225 0
4.629395 -2.3330996 -0.2413429 0
9.2865133 -4.6801715 -0.24178602 0
0.80328339 -0.37973061 -0.1888646 0
0.92909819 -0.43920618 -0.19356447 0
1.0503483 -0.49652389 -0.19094256 0
1.2303764 -0.58162731 -0.1912571 0
1.4735209 -0.69656736 -0.19048806 0
1.8739227 -0.88584656 -0.1934716 0
3.1344635 -1.4817333 -0.24237907 0
4.6947184 -2.2193017 -0.24175128 0
9.3967018 -4.4420381 -0.24165896 0
0.82775241 -0.3660388 -0.19238429 0
0.93514276 -0.4135277 -0.19258805 0
1.0619564 -0.46960568 -0.19083738 0
1.2381401 -0.54751557 -0.1902553 0
1.5047272 -0.66540259 -0.19228996 0
1.8781221 -0.83052075 -0.19167997 0
3.1710832 -1.4022785 -0.2423968 0
4.7461734 -2.0987964 -0.24159627 0
9.5117083 -4.2061543 -0.24180947 0
0.82450491 -0.33999833 -0.1895747 0
0.93978709 -0.38753688 -0.19146918 0
1.084571 -0.44724095 -0.19281143 0
1.2595712 -0.51940525 -0.19147308 0
1.5266144 -0.62952495 -0.19299507 0
1.9016352 -0.78417099 -0.19199863 0
3.1949055 -1.3174727 -0.2415991 0
4.8066564 -1.9821049 -0.24205144 0
9.6198626 -3.9669111 -0.24193667 0
0.84651881 -0.32433528 -0.19269274 0
0.9565044 -0.36647516 -0.19292922 0
1.0779899 -0.41302112 -0.18972786 0
1.2597836 -0.48267359 -0.18959312 0
1.5319667 -0.58695781 -0.19173782 0
1.9199574 -0.73561257 -0.19191287 0
3.2295814 -1.2373821 -0.24178265 0
4.8522305 -1.8590839 -0.24190658 0
9.7144613 -3.7219994 -0.24187623 0
0.84566903 -0.29976705 -0.19071637 0
0.94975007 -0.33666101 -0.18979254 0
1.0988117 -0.38949937 -0.19160132 0
1.2855029 -0.45567641 -0.19167191 0
1.5401678 -0.54594833 -0.19097887 0
1.9294739 -0.68394691 -0.1910778 0
3.2556427 -1.1540383 -0.24147625 0
4.8976331 -1.7360801 -0.24190859 0
9.8056307 -3.4758339 -0.2418849 0
0.85733432 -0.27976093 -0.19169372 0
0.97031039 -0.3166267 -0.19224304 0
1.1024138 -0.359734 -0.19058555 0
1.2926787 -0.42182028 -0.19109359 0
1.5624558 -0.50985253 -0.19208574 0
1.9532247 -0.63736624 -0.19177572 0
3.2916765 -1.074123 -0.24206108 0
4.9374609 -1.611167 -0.24179028 0
9.8778648 -3.223294 -0.24158303 0
0.86553794 -0.25846389 -0.19200826 0
0.98044592 -0.2927773 -0.19272575 0
1.1190766 -0.33417472 -0.19194698 0
1.3056781 -0.38989702 -0.19149956 0
1.550869 -0.46311504 -0.18916406 0
1.9675871 -0.58755392 -0.19166885 0
3.3096242 -0.98830837 -0.2414697 0
4.9778352 -1.4864635 -0.24185318 0
9.9573164 -2.973419 -0.24161384 0
0.86779392 -0.2354607 -0.19112954 0
0.98028421 -0.26598296 -0.19131343 0
1.1211505 -0.30420455 -0.19092499 0
1.3105974 -0.35560769 -0.19084392 0
1.5736878 -0.42699262 -0.19057216 0
1.9497353 -0.52902657 -0.18856913 0
3.3380148 -0.90571189 -0.24179626 0
5.0161972 -1.3610573 -0.24197097 0
10.036945 -2.7233496 -0.24180119 0
0.86732596 -0.2119915 -0.1897876 0
0.98749501 -0.24136318 -0.19147085 0
1.1310042 -0.27643967 -0.19135392 0
1.3185962 -0.32229084 -0.19076344 0
1.5730404 -0.38448197 -0.18925835 0
1.9758762 -0.482943 -0.18985803 0
3.3580923 -0.82078373 -0.24167305 0
5.0404167 -1.231977 -0.24156246 0
10.100574 -2.4687786 -0.24175596 0
0.88523763 -0.19283736 -0.19258069 0
1.0023352 -0.21834551 -0.19321823 0
1.1304493 -0.24625351 -0.19014795 0
1.3265023 -0.28896105 -0.19079137 0
1.6133357 -0.35144395 -0.19297779 0
1.994199 -0.43441001 -0.19050446 0
3.3759401 -0.73540407 -0.24154481 0
5.0760012 -1.10574 -0.24185331 0
10.168397 -2.2150514 -0.24196415 0
0.88782126 -0.17005746 -0.19214784 0
0.99417561 -0.19042908 -0.19065812 0
1.141156 -0.21858238 -0.19096008 0
1.3300946 -0.25477257 -0.19032258 0
1.601799 -0.30681613 -0.19061087 0
2.5572605 -0.48982975 -0.24303493 0
3.3980191 -0.65087259 -0.24187216 0
5.0997152 -0.97682339 -0.24173155 0
10.211215 -1.9559041 -0.24173138 0
0.88561147 -0.14657365 -0.19080818 0
1.0060421 -0.16650558 -0.19206673 0
1.1410412 -0.18884867 -0.19008274 0
1.3371395 -0.22130404 -0.19047076 0
1.6194212 -0.26802325 -0.19184181 0
2.5661337 -0.42470944 -0.24278216 0
3.4200859 -0.56604326 -0.24234879 0
5.1222057 -0.84775364 -0.24170645 0
10.259752 -1.6980462 -0.24178886 0
0.88658893 -0.12384147 -0.19028474 0
1.0039437 -0.14023395 -0.19092961 0
1.1543363 -0.16124125 -0.19155861 0
1.3510487 -0.18871865 -0.19171254 0
1.6198993 -0.22627251 -0.19116102 0
2.5561423 -0.35704985 -0.24090758 0
3.4360683 -0.47996059 -0.24254569 0
5.1445484 -0.71860641 -0.24182791 0
10.296176 -1.4382017 -0.24171484 0
0.90026718 -0.10266829 -0.19260296 0
1.0104041 -0.11522853 -0.19154416 0
1.1671165 -0.13310032 -0.19306049 0
1.3409269 -0.152922 -0.18966818 0
1.6435814 -0.18743734 -0.19333589 0
2.5704885 -0.29314369 -0.24148545 0
3.427676 -0.39089909 -0.24118008 0
5.1694846 -0.58953846 -0.2422235 0
10.320428 -1.1769624 -0.24150988 0
0.89630818 -0.079366423 -0.19126652 0
1.006518 -0.089125298 -0.19032043 0
1.1285915 -0.099934675 -0.18621129 0
1.1301322 -0.1000711 -0.15944418 0
1.6383823 -0.14507569 -0.19223237 0
2.5784135 -0.2283137 -0.24161167 0
3.4479611 -0.30531055 -0.24198814 0
5.1746035 -0.4582015 -0.24184446 0
10.348618 -0.91635084 -0.24155143 0
0.89259595 -0.056383461 -0.19011013 0
1.0170949 -0.064247794 -0.19195263 0
1.1350423 -0.071698301 -0.18691754 0
1.1298684 -0.071371473 -0.15910216 0
1.6393137 -0.1035521 -0.19197388 0
2.5866182 -0.16339138 -0.24191703 0
3.4466739 -0.21771933 -0.24143524 0
5.1903358 -0.32786289 -0.24211589 0
10.364758 -0.65472049 -0.24146554 0
0.9052583 -0.034280833 -0.19256143 0
1.0128942 -0.038356852 -0.19091636 0
1.1440969 -0.043325309 -0.18816863 0
1.1219354 -0.042486086 -0.15778382 0
1.6405538 -0.062125422 -0.19187437 0
2.5942187 -0.098239347 -0.24231882 0
3.4582269 -0.1309581 -0.24193595 0
5.1816397 -0.19622126 -0.24140233 0
10.400191 -0.39384034 -0.2419824 0
0.9082939 -0.011460396 -0.19308414 0
1.016537 -0.012826152 -0.19148098 0
1.122929 -0.014168554 -0.1845696 0
1.1327515 -0.014292489 -0.15920353 0
1.129207 -0.014247767 -0.13198467 0
1.1338758 -0.014306675 -0.10584478 0
1.1168606 -0.014091985 -0.078085303 0
1.1331601 -0.014297645 -0.052758075 0
1.1346741 -0.014316746 -0.026383778 0
1.1291817 -0.014247447 3.2238884e-05 0
1.1313188 -0.014274412 0.026370397 0
1.1342174 -0.014310984 0.052872207 0
1.1265277 -0.01421396 0.078825817 0
1.1381291 -0.014360341 0.10630737 0
1.1311917 -0.014272809 0.13228212 0
1.1173229 -0.014097819 0.15710017 0
1.1214479 -0.014149866 0.18439193 0
1.1309013 -0.014269144 0.2130902 0
0.91962129 0.011603319 -0.1954921 0
1.0351174 0.01306059 -0.1949809 0
1.1329705 0.014295251 -0.18622005 0
1.117216 0.01409647 -0.15702008 0
1.6408418 0.020703316 -0.19178587 0
2.5814712 0.032571707 -0.24097459 0
3.4593592 0.043648452 -0.24186108 0
5.1967015 0.065569364 -0.24194989 0
10.397973 0.13119639 -0.24177676 0
0.90339601 0.034210313 -0.19216529 0
1.0173937 0.038527243 -0.19176446 0
1.1286143 0.042739008 -0.18562225 0
1.1392059 0.043140098 -0.16021268 0
1.6300004 0.06172578 -0.19064008 0
2.5919962 0.098155186 -0.24211122 0
3.4527764 0.1307517 -0.24155465 0
5.1862907 0.19639739 -0.24161902 0
10.387586 0.393363 -0.24168912 0
0.8993538 0.056810342 -0.19154947 0
1.0167239 0.064224362 -0.19188261 0
1.1299675 0.071377732 -0.18608181 0
1.1211683 0.070821904 -0.15787704 0
1.6447927 0.10389818 -0.19261549 0
2.5778177 0.16283548 -0.24109396 0
3.4508893 0.21798563 -0.24173054 0
5.1759186 0.32695219 -0.24144337 0
10.377925 0.65555227 -0.24177231 0
0.89830667 0.079543382 -0.19169298 0
1.0181689 0.090156958 -0.19252346 0
1.1608734 0.10279318 -0.19153763 0
1.3546063 0.11994786 -0.19111399 0
1.6282349 0.14417717 -0.19104177 0
2.5807564 0.22852118 -0.24183123 0
3.4464166 0.30517375 -0.24187973 0
5.1732335 0.4580802 -0.24178043 0
10.359611 0.91732419 -0.241808 0
0.90193111 0.10285804 -0.19295895 0
1.0031762 0.11440423 -0.19017394 0
1.1578822 0.13204722 -0.191533 0
1.349605 0.15391168 -0.19089566 0
1.6315826 0.18606897 -0.19192445 0
2.5665894 0.29269904 -0.24111915 0
3.4327788 0.39148101 -0.24153912 0
5.157475 0.58816886 -0.24166077 0
10.322441 1.177192 -0.24155699 0
0.89616233 0.12517871 -0.19233944 0
1.0129869 0.14149714 -0.19264944 0
1.1463207 0.1601216 -0.19022845 0
1.346226 0.188045 -0.19102819 0
1.6230712 0.22671558 -0.19153534 0
2.5648866 0.35827124 -0.24173167 0
3.4350286 0.47981536 -0.24247231 0
5.137939 0.71768314 -0.2415172 0
10.301394 1.4389304 -0.24183731 0
0.88231611 0.14602824 -0.19009818 0
1.0059485 0.16649009 -0.19204888 0
1.1406703 0.18878728 -0.19002096 0
1.3429261 0.22226177 -0.19129504 0
1.6192763 0.26799923 -0.19182463 0
2.5585971 0.42346209 -0.24206913 0
3.4074986 0.56396002 -0.24145687 0
5.1254907 0.8482973 -0.24186146 0
10.264803 1.6988821 -0.24190788 0
0.89014161 0.17050192 -0.19265002 0
1.0086613 0.19320373 -0.19343612 0
1.1363087 0.2176539 -0.19014893 0
1.327762 0.25432578 -0.18998881 0
1.3543719 0.25942278 -0.16116755 0
1.3471971 0.25804847 -0.12803386 0
1.3436489 0.25736883 -0.095641389 0
1.3470495 0.25802022 -0.063851483 0
1.3521872 0.25900429 -0.032010496 0
1.345138 0.25765404 3.9099636e-05 0
0.89007723 0.1938916 -0.19363353 0
0.99578738 0.21691917 -0.19195603 0
1.1331273 0.24683686 -0.19059838 0
1.2043991 0.26236248 -0.17322922 0
1.2098025 0.26353955 -0.14470951 0
1.2054371 0.26258859 -0.11515457 0
1.207948 0.26313555 -0.086427353 0
1.2158006 0.26484618 -0.057928558 0
1.1992115 0.26123241 -0.028536079 0
1.2058289 0.26267394 3.5231777e-05 0
0.87380332 0.21357471 -0.19120497 0
0.98483849 0.24071388 -0.19095576 0
1.1327062 0.27685565 -0.19164188 0
1.216033 0.29722238 -0.17592546 0
1.1958436 0.29228768 -0.14387639 0
1.200824 0.29350498 -0.1153848 0
1.2019454 0.29377908 -0.086500846 0
1.1998899 0.2932767 -0.057504836 0
1.2136511 0.29664016 -0.029048584 0
1.216512 0.29733944 3.5751793e-05 0
0.88255012 0.23946452 -0.19437954 0
0.99159741 0.26905259 -0.19352134 0
1.1077663 0.30057299 -0.18864574 0
1.2045723 0.32683963 -0.17540498 0
1.1974655 0.32491133 -0.14501199 0
1.2013713 0.3259711 -0.11619093 0
1.2095817 0.32819882 -0.087618642 0
1.197524 0.32492718 -0.05776608 0
1.2058493 0.32718611 -0.029050251 0
1.2134616 0.32925156 3.5894936e-05 0
0.8697114 0.25971016 -0.1929341 0
0.98026907 0.29272452 -0.19269098 0
1.1162102 0.33331874 -0.19145532 0
1.2108915 0.36159214 -0.17759751 0
1.2042437 0.35960701 -0.14688516 0
1.2048529 0.35978895 -0.11736853 0
1.206368 0.36024135 -0.088016428 0
1.2081301 0.36076754 -0.058698229 0
1.20503 0.35984179 -0.029239997 0
1.2092919 0.3611145 3.6029724e-05 0
0.84838307 0.27684 -0.18969229 0
0.96520013 0.31495914 -0.19123057 0
1.0970581 0.35798636 -0.18965966 0
1.2017692 0.39215514 -0.17765465 0
1.2093991 0.39464492 -0.14868154 0
1.1989856 0.39124683 -0.1177214 0
1.207006 0.39386398 -0.088759989 0
1.2014219 0.3920418 -0.058834314 0
1.2139444 0.39612809 -0.02968945 0
1.2032195 0.3926284 3.613254e-05 0
0.84287882 0.298778 -0.19008712 0
0.95467287 0.33840603 -0.1907763 0
1.1028703 0.39093807 -0.19230904 0
1.1981506 0.42471236 -0.17864746 0
1.1999969 0.42536685 -0.14879811 0
1.20904 0.42857239 -0.11973249 0
1.2056308 0.42736387 -0.089423575 0
1.2014924 0.42589694 -0.059345264 0
1.208212 0.42827886 -0.029804125 0
1.2156855 0.43092799 3.6821777e-05 0
0.83872771 0.32135019 -0.19091927 0
0.95053744 0.36418897 -0.19172567 0
1.0942631 0.419256 -0.19259197 0
1.200995 0.46014929 -0.18074563 0
1.2138245 0.46506482 -0.1519198 0
1.2068694 0.46240002 -0.12063486 0
1.1991687 0.45944959 -0.089775778 0
1.2092136 0.46329817 -0.060285002 0
1.2122227 0.46445107 -0.030182615 0
1.2027491 0.46082136 3.6770518e-05 0
0.83610892 0.34478348 -0.19224277 0
0.94669694 0.39038628 -0.19287698 0
1.0743026 0.44300658 -0.19098593 0
1.2096983 0.49883929 -0.18389167 0
1.2021544 0.49572846 -0.15197673 0
1.2059785 0.49730536 -0.12176163 0
1.1961519 0.49325317 -0.090453126 0
1.2056924 0.49718738 -0.06071572 0
1.2040293 0.49650156 -0.030280976 0
1.211373 0.49952987 3.7407699e-05 0
0.81883645 0.3620961 -0.19031206 0
0.93069017 0.41155872 -0.19167106 0
1.0662042 0.47148412 -0.19160074 0
1.2017486 0.53142297 -0.18466331 0
1.203571 0.53222883 -0.15380503 0
1.1995866 0.53046691 -0.12242907 0
1.1967386 0.52920747 -0.0914784 0
1.2030343 0.53199148 -0.061238509 0
1.2105802 0.53532839 -0.030775731 0
1.2014577 0.53129429 3.7503654e-05 0
0.8101294 0.38296688 -0.19047421 0
0.91997743 0.43489456 -0.19166429 0
1.0534668 0.49799806 -0.19150947 0
1.2275903 0.58031029 -0.19082403 0
1.4868256 0.70285684 -0.19220802 0
1.8576492 0.87815374 -0.19179146 0
3.1208053 1.4752768 -0.24132292 0
4.6958051 2.2198157 -0.24180727 0
9.3957443 4.4415855 -0.24163434 0
0.81028682 0.40836436 -0.19287306 0
0.90951061 0.45837069 -0.1918328 0
1.0491605 0.52875072 -0.19309115 0
1.2049989 0.60728937 -0.18963446 0
1.4545825 0.73307329 -0.19037102 0
1.829429 0.92198664 -0.19121949 0
3.0951271 1.5598669 -0.24230447 0
4.63936 2.3381217 -0.24186239 0
9.2914715 4.6826701 -0.24191511 0
0.79868269 0.42811975 -0.19262159 0
0.89770299 0.48119783 -0.19184285 0
1.027287 0.55065906 -0.19156234 0
1.198375 0.64236772 -0.19108264 0
1.4474092 0.7758581 -0.1919339 0
1.8058062 0.96797049 -0.19124302 0
3.0529683 1.6364896 -0.24216038 0
4.569541 2.4494216 -0.24136858 0
9.1635113 4.9119382 -0.2417343 0
0.78437996 0.44628778 -0.1918276 0
0.8792519 0.50026697 -0.19053738 0
1.0111271 0.57529986 -0.19119565 0
1.1839619 0.67363745 -0.19143447 0
1.2067153 0.68658346 -0.16226287 0
1.2296734 0.69964594 -0.13205601 0
3.0064924 1.7106006 -0.24182145 0
4.5030441 2.5620918 -0.24119498 0
9.0438166 5.1456504 -0.24192572 0
0.75771487 0.45679989 -0.18806607 0
0.87812275 0.52938962 -0.19312662 0
0.99899554 0.60225958 -0.1917149 0
1.1684957 0.70444536 -0.19174746 0
1.1435825 0.689426 -0.15606368 0
1.1969688 0.72161078 -0.13045816 0
2.9680943 1.7893606 -0.24228832 0
4.4465032 2.6806419 -0.2417134 0
8.9074707 5.3700037 -0.24182695 0
0.76923233 0.49062321 -0.19393641 0
0.8510775 0.5428248 -0.19013113 0
0.98612362 0.6289584 -0.19222985 0
1.1393636 0.72669625 -0.18991621 0
1.1398916 0.72703302 -0.15801382 0
1.1867164 0.75689828 -0.13138099 0
2.9195251 1.8620992 -0.24208294 0
4.3824821 2.795186 -0.24199115 0
8.7730761 5.5955458 -0.24193537 0
0.74598378 0.50271553 -0.19121304 0
0.83704066 0.56407839 -0.19011524 0
0.96205378 0.64832425 -0.19066682 0
1.1324081 0.76312542 -0.19190618 0
1.1407601 0.76875371 -0.16077264 0
1.1649734 0.78507096 -0.13112572 0
2.8655303 1.9310695 -0.24157013 0
4.3076248 2.9028916 -0.24182628 0
8.622324 5.8105507 -0.24174537 0
0.73766953 0.52465421 -0.19241479 0
0.82396191 0.5860281 -0.19044344 0
0.95171326 0.676889 -0.19194217 0
1.1050899 0.7859754 -0.1905777 0
1.1418537 0.812123 -0.16376339 0
1.1361812 0.80808854 -0.13013917 0
2.8229227 2.0077531 -0.24217302 0
4.2199292 3.001349 -0.24107894 0
8.4708071 6.0247092 -0.24168354 0
0.73056585 0.5478754 -0.19410692 0
0.8110851 0.60825944 -0.1909547 0
0.94020456 0.7050904 -0.19314866 0
1.0820731 0.81148231 -0.19007987 0
1.0951377 0.82127988 -0.15998532 0
1.1061555 0.82954252 -0.12905702 0
1.1064193 0.82974029 -0.096683316 0
1.0965886 0.82236791 -0.063812077 0
1.0940192 0.82044107 -0.031794522 0
1.1032789 0.82738519 3.9369774e-05 0
1.1027524 0.82699043 0.032127071 0
1.1072806 0.83038622 0.06451346 0
1.094381 0.82071233 0.095709845 0
0.70191193 0.55459964 -0.19015226 0
0.80544502 0.63640398 -0.19334681 0
0.9152357 0.72315258 -0.19170767 0
1.0560558 0.83441836 -0.18914878 0
1.0980068 0.86756504 -0.16355115 0
1.0918771 0.86272168 -0.1298902 0
1.1022612 0.8709265 -0.0982095 0
1.0993462 0.8686232 -0.065227509 0
1.1003115 0.86938602 -0.032604702 0
1.1051401 0.87320119 4.0209823e-05 0
1.0959096 0.86590791 0.032554049 0
1.0950087 0.86519611 0.065050013 0
1.1037253 0.87208337 0.098420665 0
0.69622087 0.57922584 -0.19250961 0
0.78190583 0.6505121 -0.19157644 0
0.901402 0.74992776 -0.19271323 0
1.0250361 0.852786 -0.18738826 0
1.106896 0.92088997 -0.16828364 0
1.1011546 0.91611326 -0.13370185 0
1.1029559 0.91761196 -0.10030293 0
1.0925709 0.90897202 -0.066165633 0
1.1048387 0.91917837 -0.033415653 0
1.09755 0.91311455 4.0759202e-05 0
1.0911285 0.907772 0.033082072 0
1.0948385 0.91085869 0.066384457 0
1.1011145 0.91608 0.10021766 0
0.669128 0.58587599 -0.18904673 0
0.76206273 0.66724789 -0.19078006 0
0.87948644 0.77006191 -0.19212186 0
0.98995811 0.86678886 -0.18491606 0
1.102733 0.96553248 -0.17130107 0
1.0966213 0.96018112 -0.13605058 0
1.0962209 0.95983058 -0.10186106 0
1.0932581 0.95723641 -0.067648813 0
1.0974948 0.96094596 -0.033916272 0
1.1068416 0.9691298 4.1999236e-05 0
1.0955712 0.95926166 0.033940013 0
1.1026415 0.96545231 0.068313301 0
1.0987042 0.9620049 0.1021756 0
1.0977182 0.96114159 0.13627072 0
1.0942904 0.95814019 0.2740382 0
0.66138327 0.6092512 -0.19114216 0
0.75300437 0.69365054 -0.19283375 0
0.85624653 0.78875482 -0.19133295 0
0.96434283 0.8883307 -0.18426064 0
1.0588995 0.97543412 -0.16826265 0
1.0949702 1.0086616 -0.13895985 0
1.1035267 1.0165437 -0.10489053 0
1.1000441 1.0133357 -0.069629118 0
1.0973704 1.0108726 -0.034689832 0
1.0900508 1.00413 4.2310287e-05 0
1.1007065 1.0139458 0.034880787 0
1.0961634 1.0097607 0.069468759 0
1.1055981 1.0184518 0.10517365 0
1.0985695 1.0119773 0.13950267 0
1.0306429 0.94940478 0.26401588 0
0.64561057 0.6255604 -0.19108588 0
0.72918653 0.70654082 -0.19124006 0
0.8349185 0.80898911 -0.19106877 0
0.83402783 0.80812609 -0.16320609 0
0.83960044 0.81352568 -0.13663448 0
0.84029788 0.81420141 -0.10921317 0
0.83653587 0.81055629 -0.081431545 0
0.83842665 0.8123883 -0.054350123 0
0.84091085 0.81479543 -0.027224105 0
0.84092963 0.81481355 3.3428245e-05 0
0.84165436 0.81551582 0.027315127 0
0.84648967 0.82020098 0.054940246 0
0.84199911 0.81584984 0.082030624 0
1.0990946 1.064961 0.14293702 0
1.0086166 0.97729278 0.19745211 0
1.0015703 0.97046542 0.22928835 0
0.98655349 0.95591491 0.25881961 0
0.63405222 0.64616597 -0.19243057 0
0.71565598 0.72932875 -0.19245784 0
0.81396234 0.82951331 -0.19100335 0
0.8339901 0.84992367 -0.16734308 0
0.84428328 0.86041349 -0.1408857 0
0.83956808 0.85560822 -0.11188934 0
0.84156901 0.85764742 -0.084001854 0
0.84075105 0.85681379 -0.055884827 0
0.84034598 0.85640103 -0.027896699 0
0.84385681 0.85997891 3.439646e-05 0
0.84798604 0.864187 0.028219491 0
0.83972758 0.85577077 0.055885401 0
0.84075916 0.85682207 0.083989896 0
0.8404476 0.85650456 0.11207566 0
1.1055958 1.1267185 0.18458232 0
0.94657767 0.96466225 0.19001287 0
0.94733912 0.96543831 0.2223807 0
0.96015936 0.97850347 0.25829199 0
0.61268359 0.6567449 -0.19091511 0
0.6980415 0.74824131 -0.19273809 0
0.79921758 0.85669351 -0.19255587 0
0.83454835 0.89456511 -0.1719307 0
0.84337169 0.90402293 -0.14449498 0
0.84197313 0.90252382 -0.11520891 0
0.84605622 0.90690058 -0.086706854 0
0.84419489 0.90490532 -0.057613499 0
0.8376829 0.89792502 -0.028551528 0
0.83874828 0.89906704 3.5101984e-05 0
0.83246011 0.89232665 0.028443232 0
0.83741742 0.89764053 0.057221208 0
0.84114462 0.90163577 0.086274244 0
0.83802825 0.89829528 0.11473988 0
1.0888751 1.1671817 0.1866495 0
0.9310835 0.99804258 0.19189799 0
0.93676901 1.0041369 0.22577672 0
0.92626679 0.99287951 0.25583428 0
0.59858704 0.67500389 -0.19177012 0
0.68335497 0.77059352 -0.1939913 0
0.77318245 0.87188858 -0.19152404 0
0.8531093 0.96201903 -0.18069917 0
0.8359524 0.94267184 -0.14725325 0
0.83269942 0.93900359 -0.11714552 0
0.8405968 0.94790912 -0.08857099 0
0.84538782 0.9533118 -0.059318081 0
0.84088343 0.94823241 -0.029466946 0
0.84182566 0.94929492 3.6221943e-05 0
0.83938581 0.94654357 0.029486736 0
0.8412286 0.94862163 0.059098795 0
0.83511245 0.94172466 0.088065341 0
0.83831292 0.94533372 0.118008 0
1.0987525 1.2390215 0.19364139 0
1.0962001 1.2361432 0.23228502 0
0.57360911 0.68068773 -0.18921161 0
0.65830433 0.78119344 -0.19241579 0
0.72280008 0.8577289 -0.18434763 0
0.85370159 1.0130665 -0.18618113 0
0.83769125 0.99406737 -0.15193065 0
0.83681041 0.99302214 -0.12121115 0
0.83771932 0.99410069 -0.090882525 0
0.83659315 0.99276429 -0.060439866 0
0.83857894 0.99512082 -0.030256685 0
0.84131175 0.99836379 3.7272166e-05 0
0.83436382 0.99011886 0.030178567 0
0.84048665 0.99738467 0.060795788 0
0.83771968 0.99410117 0.09095715 0
0.84073108 0.9976747 0.12185419 0
0.84607887 1.0040208 0.15352789 0
1.0948586 1.2992415 0.23887323 0
0.56659305 0.70786303 -0.19272913 0
0.63932014 0.79872328 -0.19269779 0
0.73047954 0.91261172 -0.19211967 0
0.84796542 1.0593905 -0.19070061 0
0.84896499 1.0606394 -0.15877992 0
0.83816177 1.0471426 -0.12519521 0
0.83838785 1.047425 -0.093793169 0
0.8392908 1.0485531 -0.062526777 0
0.83862728 1.0477241 -0.031202598 0
0.83908093 1.048291 3.8333274e-05 0
0.83597088 1.0444055 0.031180186 0
0.83142096 1.0387211 0.06201661 0
0.83607787 1.0445391 0.093611509 0
0.83597904 1.0444157 0.12494623 0
0.83916968 1.0484017 0.15702565 0
1.0986269 1.37255 0.24717471 0
1.0931883 1.3657554 0.2876164 0
0.53983873 0.71046525 -0.18966757 0
0.61940986 0.81518644 -0.1928366 0
0.70301723 0.92521954 -0.19097772 0
0.72828758 0.95847708 -0.16917251 0
0.72862637 0.95892292 -0.14075494 0
0.72513765 0.95433158 -0.11187506 0
0.71906775 0.94634318 -0.083090052 0
0.7258656 0.9552896 -0.055855092 0
0.72581989 0.9552294 -0.027893538 0
0.72842985 0.9586643 3.4372628e-05 0
0.72901273 0.95943141 0.028085077 0
0.72519177 0.9544028 0.055871829 0
0.73018336 0.96097207 0.084443733 0
0.72725207 0.95711428 0.11227051 0
0.73279691 0.96441162 0.14163069 0
0.72651249 0.956141 0.16883011 0
0.73071343 0.96166962 0.19857232 0
0.72728258 0.95715439 0.22649093 0
0.53499246 0.74224454 -0.19448482 0
0.59023815 0.818892 -0.19012865 0
0.67349499 0.93440199 -0.18930413 0
0.72400093 1.0044734 -0.17401031 0
0.95387971 1.3234056 -0.19066077 0
0.8476553 1.1760306 -0.13531348 0
0.84706587 1.1752129 -0.10127572 0
0.84467769 1.1718996 -0.067252204 0
0.83737659 1.1617701 -0.033296954 0
0.8411296 1.1669769 4.1067371e-05 0
0.83710378 1.1613916 0.033367895 0
0.83714318 1.1614462 0.066734239 0
0.83934128 1.1644958 0.10043452 0
0.84839875 1.177062 0.13551572 0
0.83983815 1.1651852 0.16794935 0
0.83631825 1.1603017 0.20108855 0
1.0975261 1.5226995 0.30859968 0
0.51120079 0.74834269 -0.19264063 0
0.57373804 0.83989042 -0.19158094 0
0.65530622 0.95929742 -0.19093622 0
0.75537288 1.1057842 -0.18819825 0
0.92556214 1.3549229 -0.19177486 0
1.1487802 1.68169 -0.19009779 0
0.84190577 1.2324589 -0.10434461 0
0.83658344 1.2246677 -0.069046728 0
0.84205037 1.2326707 -0.034708843 0
0.84492683 1.2368815 4.276332e-05 0
0.83683211 1.2250316 0.034578502 0
0.83618671 1.2240869 0.069098815 0
0.83793604 1.2266477 0.10393783 0
0.8444671 1.2362086 0.13982692 0
0.83956724 1.2290356 0.174043 0
0.83835089 1.227255 0.20895845 0
1.0974365 1.6065284 0.31987357 0
1.1001316 1.6104736 0.36746806 0
0.48370948 0.74794102 -0.18933423 0
0.54939836 0.84951311 -0.19055229 0
0.62838024 0.97163975 -0.19017556 0
0.73697871 1.1395613 -0.19072048 0
0.88870156 1.3741643 -0.19126266 0
1.1071606 1.711959 -0.19030006 0
1.4775789 2.2847223 -0.19021526 0
0.84949052 1.3135339 -0.072825015 0
0.83818245 1.2960486 -0.035886306 0
0.84354436 1.3043396 4.4345386e-05 0
0.83567953 1.2921785 0.035867058 0
0.83778757 1.2954382 0.071910024 0
0.83755159 1.2950733 0.10791021 0
0.84095198 1.3003311 0.14463301 0
0.83635044 1.293216 0.180085 0
0.83834159 1.2962948 0.21704176 0
0.84984976 1.3140894 0.25729379 0
1.0951309 1.6933581 0.37995237 0
0.47368881 0.77463275 -0.19300313 0
0.5330354 0.87168348 -0.19244631 0
0.60660619 0.99199522 -0.19110222 0
0.70438159 1.1518892 -0.18974793 0
0.85610026 1.3999978 -0.19178984 0
1.0617077 1.7362319 -0.18995905 0
1.4190419 2.3205876 -0.19015887 0
0.85197568 1.3932528 -0.076028414 0
0.84250063 1.3777581 -0.037548032 0
0.83749288 1.3695689 4.5829838e-05 0
0.83860821 1.3713927 0.037466384 0
0.83715928 1.3690233 0.074798048 0
0.83672792 1.3683178 0.11221784 0
0.83659285 1.3680971 0.14977422 0
0.8419534 1.3768632 0.18871395 0
0.84344316 1.3792995 0.2273028 0
0.83868217 1.3715137 0.26430857 0
1.0986841 1.7966999 0.39679173 0
0.45021591 0.77979523 -0.19139728 0
0.5104906 0.88419384 -0.19230251 0
0.58480275 1.012906 -0.19222595 0
0.67619717 1.1712055 -0.19005799 0
0.8189773 1.4185075 -0.19143288 0
1.0243013 1.7741383 -0.19121698 0
1.3691875 2.3714974 -0.19143794 0
1.3745914 2.3808572 -0.12798706 0
0.85316163 1.4777162 -0.039672717 0
0.84284681 1.4598504 4.8123758e-05 0
0.83466476 1.4456788 0.03890796 0
0.83846402 1.4522593 0.078164645 0
0.84213114 1.458611 0.11784227 0
0.83820409 1.451809 0.15657282 0
0.83690482 1.4495587 0.19572024 0
0.83899939 1.4531866 0.23591433 0
0.8389135 1.4530379 0.2758511 0
0.84138781 1.4573234 0.31705144 0
0.42927641 0.78884608 -0.1908987 0
0.48617691 0.89340746 -0.19157664 0
0.55288625 1.0159937 -0.19010319 0
0.64892036 1.1924678 -0.19078983 0
0.78344762 1.4396775 -0.19156034 0
0.98031139 1.801438 -0.19143167 0
1.294668 2.3791051 -0.189354 0
1.2891647 2.3689923 -0.12556016 0
1.292829 2.375726 -0.062885821 0
0.85063267 1.563138 5.0804709e-05 0
0.84063065 1.5447581 0.040990446 0
0.83990043 1.5434161 0.081903927 0
0.8419615 1.5472037 0.12324367 0
0.8399905 1.5435816 0.16413152 0
0.83916289 1.5420609 0.20528486 0
0.83626407 1.536734 0.24597283 0
0.83926952 1.5422568 0.28867555 0
0.83923662 1.5421963 0.33080262 0
0.40841192 0.79781544 -0.1905141 0
0.46431151 0.90701294 -0.1919201 0
0.52924955 1.0338666 -0.19088724 0
0.61734617 1.2059597 -0.19039491 0
0.74867547 1.4625059 -0.19202246 0
0.92987686 1.8164752 -0.19047499 0
1.2486218 2.4391298 -0.19156218 0
1.2443919 2.430867 -0.12713449 0
1.2435367 2.4291964 -0.063450202 0
1.2439411 2.4299865 7.7933561e-05 0
0.84962505 1.6597066 0.043457776 0
0.84042096 1.6417269 0.085967943 0
0.84160256 1.6440351 0.1292237 0
0.83908951 1.6391259 0.17198427 0
0.83941817 1.639768 0.21540304 0
0.83783543 1.6366761 0.25850275 0
0.83716965 1.6353755 0.30205414 0
0.83637017 1.6338137 0.34581658 0
0.39496788 0.82205158 -0.1938594 0
0.44315177 0.92233729 -0.19273464 0
0.50298572 1.0468705 -0.19088349 0
0.58971637 1.2273841 -0.19136658 0
0.70654476 1.4705403 -0.19067529 0
0.8921656 1.8568753 -0.19228894 0
1.1786523 2.4531436 -0.19026586 0
1.7850162 3.7151766 -0.19188662 0
4.5059385 9.3782654 -0.2419112 0
0.8497085 1.7685089 0.091454692 0
0.83717537 1.7424235 0.13525331 0
0.84207076 1.7526124 0.18160395 0
0.83946311 1.747185 0.22665817 0
0.83643562 1.7408838 0.27154094 0
0.84135532 1.7511233 0.31940895 0
0.83867615 1.7455471 0.3648698 0
0.37317988 0.82970738 -0.19338207 0
0.41877323 0.93107706 -0.1922911 0
0.47280297 1.0512037 -0.18943745 0
0.5530045 1.2295195 -0.18946305 0
0.67238927 1.4949528 -0.19157924 0
0.84382725 1.8761185 -0.19201505 0
1.1203262 2.490871 -0.1909381 0
1.689308 3.7559135 -0.19172746 0
4.2725263 9.4992971 -0.24217449 0
1.067538 2.3735046 0.12130879 0
0.85105801 1.892195 0.14516555 0
0.83977139 1.867101 0.19121005 0
0.83908874 1.8655832 0.23919417 0
0.84059101 1.8689233 0.28811142 0
0.83860689 1.8645118 0.33612359 0
0.83623767 1.8592442 0.38410175 0
0.3503345 0.8345893 -0.19239779 0
0.39509958 0.94123155 -0.19226757 0
0.45199102 1.076762 -0.19192638 0
0.52364552 1.2474619 -0.19013077 0
0.63272476 1.5073175 -0.19105646 0
0.79344505 1.8901957 -0.1913453 0
1.0596538 2.524375 -0.19139531 0
1.5937915 3.7968323 -0.19170178 0
4.0226493 9.5830126 -0.24164344 0
0.99885434 2.379535 0.12029021 0
0.85250485 2.0308919 0.15410633 0
0.84375876 2.0100563 0.2036044 0
0.84134209 2.0042992 0.25417599 0
0.83835733 1.9971886 0.30452579 0
0.83864582 1.9978758 0.35623646 0
0.83545989 1.9902862 0.406688 0
0.33119437 0.84836 -0.1935837 0
0.37159383 0.95184386 -0.19245827 0
0.42200178 1.0809647 -0.19071628 0
0.49039537 1.256156 -0.18950908 0
0.59831357 1.5325903 -0.19228455 0
0.74701613 1.9134943 -0.19173419 0
0.99844158 2.5575249 -0.19193695 0
1.4996431 3.841361 -0.19197789 0
3.7835374 9.6915951 -0.24189647 0
0.92533761 2.3702679 0.11860336 0
0.85293943 2.1848187 0.16410071 0
0.83679241 2.1434579 0.2149093 0
0.83802485 2.1466148 0.26945576 0
0.83454967 2.1377132 0.32263818 0
0.83803213 2.1466334 0.378869 0
0.83997208 2.1516025 0.43518031 0
0.30386007 0.84033996 -0.18994316 0
0.34588984 0.95657533 -0.1915888 0
0.39509949 1.092667 -0.19096076 0
0.43334705 1.1984425 -0.1790951 0
0.43306392 1.1976595 -0.14884414 0
0.4338477 1.1998271 -0.11908885 0
0.93163574 2.5764844 -0.19153419 0
1.4008858 3.8742185 -0.19179189 0
3.5353529 9.7771921 -0.24172884 0
0.86085296 2.3807311 0.11800215 0
0.85048765 2.3520653 0.17499453 0
0.83682668 2.3142853 0.22984615 0
0.83628565 2.312789 0.28757384 0
0.84001803 2.3231111 0.34730929 0
0.83918768 2.3208146 0.40574363 0
0.83858722 2.319154 0.46464026 0
0.28812331 0.86442792 -0.19368243 0
0.32376143 0.97134954 -0.19284983 0
0.36452797 1.0936573 -0.1894656 0
0.40295994 1.2089609 -0.1790901 0
0.39967778 1.1991137 -0.14772417 0
0.402731 1.208274 -0.11888051 0
0.86342168 2.5904388 -0.19089077 0
1.305522 3.9168286 -0.1922089 0
3.2850006 9.8556633 -0.24154218 0
0.79039949 2.3713577 0.11651167 0
0.84678823 2.5405352 0.18736699 0
0.83876729 2.5164707 0.24774505 0
0.84385973 2.531749 0.31205189 0
0.84045142 2.5215235 0.37368202 0
0.83926511 2.5179644 0.43636873 0
0.84226811 2.526974 0.50185788 0
0.26401076 0.86418682 -0.19207427 0
0.30031767 0.98303038 -0.1936024 0
0.33758277 1.1050103 -0.18989585 0
0.38099971 1.2471269 -0.18326101 0
0.38382193 1.2563649 -0.15353489 0
0.38135362 1.2482855 -0.12183139 0
0.72636193 2.3776016 -0.17380039 0
0.72441685 2.3712349 -0.11542864 0
0.72647631 2.3779759 -0.057811558 0
0.72698772 2.3796501 7.1034709e-05 0
0.72274232 2.3657537 0.057655733 0
0.72365731 2.3687487 0.11544935 0
0.83972096 2.7486601 0.20108931 0
0.83624119 2.7372696 0.26731959 0
0.83344239 2.7281084 0.33355531 0
0.83805758 2.7432153 0.40327302 0
0.83518195 2.7338026 0.46997121 0
0.24132971 0.86772269 -0.19144541 0
0.2734822 0.98332989 -0.19224077 0
0.31188688 1.1214173 -0.19130173 0
0.36175889 1.3007367 -0.18973665 0
0.44144139 1.5872422 -0.19254707 0
0.55124426 1.9820484 -0.19202688 0
0.65941471 2.3709848 -0.17204535 0
0.66256964 2.3823287 -0.11511798 0
0.65854883 2.3678715 -0.057143629 0
0.66083962 2.3761084 7.0408678e-05 0
0.66058069 2.3751774 0.057460777 0
0.65872926 2.3685203 0.11459141 0
0.81200659 2.9196427 0.21203138 0
0.81378192 2.9260261 0.28365722 0
0.81075203 2.9151318 0.35380742 0
0.81389904 2.9264474 0.42705366 0
0.81240708 2.9210827 0.49848312 0
0.22034521 0.87746119 -0.19230579 0
0.24741483 0.9852581 -0.19133601 0
0.28271332 1.1258242 -0.19077553 0
0.32767704 1.3048792 -0.18907434 0
0.39502043 1.5730547 -0.18955618 0
0.49715295 1.979768 -0.19052963 0
0.59647632 2.3752947 -0.17121117 0
0.598046 2.3815455 -0.11431436 0
0.59382683 2.3647439 -0.056688402 0
0.59662527 2.3758879 6.9933674e-05 0
0.59560639 2.3718305 0.056997988 0
0.59519511 2.3701928 0.11390926 0
0.76870632 3.061151 0.22082874 0
0.76832032 3.0596137 0.2946339 0
0.76665038 3.0529637 0.3680703 0
0.76786816 3.0578134 0.44325447 0
0.19641383 0.87506932 -0.19063443 0
0.21040022 0.93738192 -0.18094963 0
0.20857379 0.92924476 -0.15652245 0
0.20643319 0.91970789 -0.13246667 0
0.20666943 0.92076039 -0.11028976 0
0.21254857 0.94695336 -0.090588115 0
0.55162787 2.4576304 -0.17608631 0
0.55130756 2.4562035 -0.11719273 0
0.55215693 2.4599876 -0.058618873 0
0.54908258 2.4462907 7.1575247e-05 0
0.55005395 2.4506183 0.058539093 0
0.55010122 2.450829 0.11708003 0
0.71250731 3.1743858 0.22762764 0
0.71268129 3.1751611 0.30393189 0
0.71360815 3.1792905 0.38100773 0
0.71067566 3.1662254 0.45622432 0
0.17359751 0.87633932 -0.18989612 0
0.19300972 0.9743343 -0.18708289 0
0.19476902 0.98321539 -0.16473281 0
0.18072888 0.91233921 -0.13070674 0
0.18137714 0.91561168 -0.10908997 0
0.18417208 0.92972088 -0.088466771 0
0.41405126 2.0901761 -0.14896245 0
0.41476038 2.093756 -0.099368177 0
0.41493943 2.0946598 -0.04964814 0
0.41497478 2.0948384 6.0966358e-05 0
0.41397277 2.0897799 0.049654178 0
0.41524959 2.0962255 0.099607661 0
0.41680846 2.1040947 0.15007748 0
0.41487542 2.0943365 0.19940771 0
0.41475967 2.0937524 0.24958232 0
0.40649837 2.0520484 0.29410955 0
0.29561225 1.4922831 0.25011379 0
0.27024189 1.3642106 0.26202565 0
0.15352154 0.89259297 -0.19251724 0
0.17140587 0.99657458 -0.19046195 0
0.19342971 1.1246239 -0.18754743 0
0.19324173 1.123531 -0.16021347 0
0.15572007 0.90537548 -0.10736793 0
0.16115905 0.93699843 -0.088743955 0
0.16761808 0.97455204 -0.069130756 0
0.18668674 1.0854195 -0.051273298 0
1.7641889 10.257209 -0.24198644 0
0.58128792 3.3796787 0.15984628 0
0.58063275 3.3758695 0.23966698 0
0.58059818 3.3756685 0.31990984 0
0.26117933 1.5185285 0.18017055 0
0.27135229 1.5776753 0.22506684 0
0.27150813 1.5785813 0.26334539 0
0.23612814 1.3728778 0.26246211 0
0.12989473 0.88894904 -0.19096339 0
0.14793056 1.0123793 -0.19270755 0
0.16738023 1.1454852 -0.19026126 0
0.19855836 1.3588562 -0.19299434 0
0.12994878 0.88931882 -0.10504138 0
0.13609107 0.93135434 -0.087856106 0
0.14018384 0.95936364 -0.067780793 0
0.14216916 0.9729504 -0.045776378 0
0.14807989 1.0134012 -0.023812244 0
0.15386134 1.0529672 3.0379739e-05 0
0.50591254 3.4622684 0.16309661 0
0.50250357 3.4389391 0.24316671 0
0.50420612 3.4505904 0.32570043 0
0.22139634 1.5151504 0.17904975 0
0.27562708 1.8862845 0.26801443 0
0.19987081 1.367838 0.26045129 0
0.10660418 0.88513368 -0.18950544 0
0.12107293 1.0052676 -0.19071145 0
0.13840774 1.1491984 -0.19023721 0
0.16382794 1.3602622 -0.19254546 0
0.10732584 0.89112562 -0.10490143 0
0.11127301 0.92389894 -0.086860247 0
0.11483136 0.95344388 -0.067136407 0
0.11623003 0.96505708 -0.045252573 0
0.12139586 1.0079489 -0.02360462 0
0.12409134 1.0303295 2.9626808e-05 0
0.42350677 3.5163734 0.16508923 0
0.42550761 3.5329862 0.24897812 0
0.42376432 3.518512 0.33099657 0
0.42386389 3.5193386 0.41449431 0
0.22905831 1.9018694 0.26932162 0
0.16473652 1.3678061 0.25957084 0
0.086163469 0.90783447 -0.19383831 0
0.096471593 1.0164428 -0.19230835 0
0.11006039 1.1596169 -0.19144109 0
0.085788272 0.90388131 -0.12759751 0
0.086646125 0.91291982 -0.10717544 0
0.089626558 0.94432223 -0.088539474 0
0.092090823 0.97028619 -0.06813699 0
0.09341418 0.98422933 -0.046026371 0
0.096491411 1.0166516 -0.023743831 0
0.099489309 1.048238 3.0059988e-05 0
0.34150478 3.5981586 0.16847062 0
0.33959204 3.5780056 0.25146663 0
0.33954304 3.5774894 0.33563167 0
0.33897349 3.5714881 0.41949508 0
0.33875698 3.5692072 0.50406027 0
0.17196088 1.811812 0.29921865 0
0.13044378 1.3743802 0.26011083 0
0.062453914 0.89854658 -0.19145766 0
0.070539251 1.0148733 -0.19161354 0
0.064263292 0.92457879 -0.15232238 0
0.063325055 0.91108006 -0.12834723 0
0.063964501 0.92027998 -0.10781565 0
0.065127462 0.93701184 -0.087672018 0
0.067684844 0.97380584 -0.068242453 0
0.073896758 1.0631789 -0.049615338 0
0.077357337 1.1129675 -0.025939422 0
0.081263997 1.169174 3.345856e-05 0
0.25211415 3.6272557 0.1694811 0
0.25161314 3.6200473 0.25389421 0
0.13198437 1.8989059 0.17778178 0
0.13324873 1.9170969 0.22470923 0
0.13332199 1.9181507 0.27032897 0
0.12324023 1.7731009 0.2922188 0
0.09523645 1.3702005 0.25878248 0
0.039860778 0.90205306 -0.19192931 0
0.041485798 0.9388274 -0.17700163 0
0.04059799 0.91873628 -0.1511429 0
0.040698096 0.92100167 -0.12955897 0
0.040671293 0.92039514 -0.10767459 0
0.041420266 0.93734443 -0.087577432 0
0.048738163 1.1029491 -0.077181786 0
0.22946455 5.1928039 -0.2419851 0
0.45882225 10.383189 -0.24164937 0
0.1622095 3.6708157 0.17127056 0
0.16176216 3.6606925 0.25637689 0
0.085427433 1.9332306 0.18073596 0
0.084538147 1.913106 0.22392005 0
0.085562326 1.9362832 0.2724933 0
0.076013491 1.7201922 0.28309277 0
0.060836423 1.3767338 0.25964367 0
0.017066596 0.90161932 -0.19168432 0
0.01937421 1.0235293 -0.19281729 0
0.021911073 1.1575505 -0.19027907 0
0.021558423 1.1389201 -0.16008642 0
0.021589721 1.1405735 -0.13332647 0
0.038398769 2.0285866 -0.1893829 0
0.052012447 2.7477901 -0.19213085 0
0.098479234 5.2026057 -0.24224891 0
0.19673853 10.393593 -0.24169895 0
0.070064962 3.7014949 0.17256452 0
0.069766566 3.6857309 0.257925 0
0.069978103 3.6969061 0.34534526 0
0.069827572 3.6889536 0.43143097 0
0.031657662 1.6724577 0.27501801 0
0.025877293 1.3670838 0.25761852 0
-0.0056284927 0.89239585 -0.18969321 0
-0.0064162365 1.0172924 -0.19161183 0
-0.00724957 1.1494172 -0.18891202 0
-0.0085892035 1.3618157 -0.19138612 0
-0.010386745 1.6468152 -0.19247256 0
-0.012859883 2.0389307 -0.19031827 0
-0.017367462 2.7536061 -0.19250685 0
-0.032660577 5.1783252 -0.24107993 0
-0.065587804 10.398927 -0.2417845 0
-0.023418447 3.7129877 0.17307276 0
-0.023452256 3.7183483 0.26016611 0
-0.023433262 3.7153368 0.34701169 0
-0.023502262 3.7262766 0.43572658 0
-0.010298574 1.632836 0.26845989 0
-0.0086248284 1.3674639 0.25764915 0
-0.028533848 0.90436631 -0.19232957 0
-0.032169793 1.0196059 -0.19213933 0
-0.036145262 1.1456064 -0.18837565 0
-0.043271877 1.3714809 -0.19283652 0
-0.051773097 1.640923 -0.19187552 0
-0.064734586 2.0517309 -0.19160457 0
-0.08661031 2.7450714 -0.19200188 0
-0.11983998 3.7982695 -0.17691512 0
-0.11978018 3.7963743 -0.088311322 0
-0.11981557 3.7974958 0.00010846633 0
-0.12025028 3.8112741 0.088875756 0
-0.11793684 3.7379506 0.17431958 0
-0.11729944 3.7177482 0.26024839 0
-0.11741396 3.7213781 0.34774199 0
-0.11695419 3.7068059 0.43365687 0
-0.051769644 1.6408136 0.26990038 0
-0.043089483 1.3657001 0.25743973 0
-0.051381357 0.9040367 -0.19247396 0
-0.057646636 1.0142721 -0.19134745 0
-0.067039311 1.1795329 -0.19417068 0
-0.078198202 1.3758696 -0.19366942 0
-0.093153208 1.6389976 -0.19186419 0
-0.11668615 2.0530512 -0.19194178 0
-0.15571035 2.7396684 -0.19183774 0
-0.21556562 3.7928004 -0.17685747 0
-0.21536094 3.7891991 -0.088242754 0
-0.21524553 3.7871687 0.00010829204 0
-0.21457468 3.7753651 0.088136613 0
-0.21227738 3.7349451 0.17437375 0
-0.21200189 3.730098 0.26140422 0
-0.21201703 3.7303643 0.34897059 0
-0.078444704 1.3802067 0.16164964 0
-0.077413358 1.3620605 0.19180508 0
-0.077665716 1.3665006 0.22502893 0
-0.077686869 1.3668728 0.25794825 0
-0.074178666 0.90250039 -0.19248419 0
-0.08393915 1.0212522 -0.19300248 0
-0.094174609 1.1457826 -0.18894592 0
-0.1119913 1.3625507 -0.19213133 0
-0.13512804 1.6440456 -0.19279297 0
-0.1683379 2.0480959 -0.19181462 0
-0.22466218 2.7333696 -0.19173267 0
-0.42537919 5.1754084 -0.24175182 0
-0.85161424 10.36123 -0.24171557 0
-0.30687824 3.7336576 0.17461963 0
-0.3056404 3.7185972 0.26105571 0
-0.30577791 3.7202704 0.34863728 0
-0.30533648 3.7148995 0.43585241 0
-0.1147856 1.3965479 0.19700679 0
-0.11380501 1.3846173 0.22841257 0
-0.11312939 1.3763974 0.26020166 0
