# .PCD v0.7 - Point Cloud Data file format
VERSION 0.7
FIELDS x y z intensity
SIZE 4 4 4 4
TYPE F F F F
COUNT 1 1 1 1
WIDTH 1327
HEIGHT 1
VIEWPOINT 0 0 0 1 0 0 0
POINTS 1327
DATA ascii
-5.0912704 -1.0419773 -0.24193533 0
-10.183308 -2.0841115 -0.24167413 0
-1.245994 -0.25500461 0.20910005 0
-1.2414969 -0.25408426 0.23875906 0
-0.878304 -0.20296927 -0.19161429 0
-0.99616218 -0.23020539 -0.19257298 0
-1.1315384 -0.26148978 -0.19087102 0
-1.185931 -0.2740595 -0.17105678 0
-1.595799 -0.36877683 -0.19142158 0
-2.5306029 -0.58480281 -0.24243248 0
-3.3732831 -0.7795397 -0.24203934 0
-5.0601983 -1.1693728 -0.24178426 0
-10.129061 -2.3407478 -0.24171181 0
-0.87315232 -0.22512935 -0.19166896 0
-0.98653632 -0.25436372 -0.1918921 0
-1.1282964 -0.29091442 -0.19150168 0
-1.3394552 -0.34535861 -0.19439621 0
-1.5866611 -0.40909696 -0.19150302 0
-1.9933065 -0.51394445 -0.19214082 0
-3.3585005 -0.86593944 -0.24246961 0
-5.0293903 -1.2967534 -0.24179904 0
-10.067212 -2.595681 -0.24172226 0
-0.86120051 -0.2453804 -0.19034423 0
-0.98663002 -0.28111884 -0.19322889 0
-1.1044791 -0.31469736 -0.18874724 0
-1.3078499 -0.37264347 -0.19111343 0
-1.5790319 -0.44991091 -0.19189164 0
-1.9758209 -0.5629673 -0.19176388 0
-3.3178892 -0.94536054 -0.24118343 0
-4.9973197 -1.4238778 -0.24190791 0
-10.003586 -2.8503048 -0.24184485 0
-0.86494619 -0.27022129 -0.19261818 0
-0.97154868 -0.30352539 -0.19171451 0
-1.0963787 -0.34252402 -0.18878017 0
-1.2935215 -0.40411422 -0.19044943 0
-1.5604682 -0.48751208 -0.19107012 0
-1.9523344 -0.60993659 -0.19091767 0
-3.3063102 -1.0329375 -0.24215972 0
-4.9432969 -1.5443552 -0.24110286 0
-9.9307976 -3.1025202 -0.24190117 0
-0.85440338 -0.29078472 -0.19184364 0
-0.96211481 -0.32744285 -0.19142278 0
-1.0931062 -0.37202397 -0.18977299 0
-1.2903528 -0.43915427 -0.1915538 0
-1.5678877 -0.53360951 -0.19356599 0
-1.9496115 -0.66352409 -0.19222784 0
-3.2852831 -1.118102 -0.24260926 0
-4.9215989 -1.6750001 -0.24202941 0
-9.8412447 -3.3493354 -0.24170195 0
-0.84311253 -0.31089184 -0.19100946 0
-0.96653217 -0.35640195 -0.19402955 0
-1.0904217 -0.40208536 -0.19100796 0
-1.2758617 -0.47046509 -0.19110444 0
-1.5315554 -0.56475031 -0.19077951 0
-1.925347 -0.7099582 -0.19154115 0
-3.2425542 -1.1956692 -0.24160543 0
-4.881989 -1.8001993 -0.24223875 0
-9.7548771 -3.5970426 -0.24173348 0
-0.83238679 -0.33102617 -0.19041167 0
-0.94126892 -0.37432677 -0.19079384 0
-1.076593 -0.42814291 -0.19041784 0
-1.2544405 -0.49886981 -0.18972139 0
-1.5283091 -0.60778272 -0.19222473 0
-1.9036295 -0.75704134 -0.19122055 0
-3.2151802 -1.2786229 -0.24189328 0
-4.8241396 -1.918479 -0.24169393 0
-9.6607828 -3.8419302 -0.24172767 0
-0.83096159 -0.35499519 -0.19207406 0
-0.93764734 -0.40057242 -0.19204789 0
-1.0617669 -0.45359752 -0.18975995 0
-1.2527945 -0.53520644 -0.19145443 0
-1.5016637 -0.64152592 -0.19084911 0
-1.8897818 -0.80733383 -0.19181527 0
-3.1808569 -1.3588941 -0.24181432 0
-4.7791595 -2.0417051 -0.24194506 0
-9.5604343 -4.0843139 -0.24171914 0
-0.81953913 -0.37484142 -0.19155958 0
-0.92307711 -0.4221977 -0.19118527 0
-1.0513823 -0.48088205 -0.19001265 0
-1.2324587 -0.56370288 -0.19046028 0
-1.4904319 -0.68169487 -0.19154729 0
-1.8796244 -0.85970402 -0.19292523 0
-3.1509497 -1.4411838 -0.24222881 0
-4.7195606 -2.1586361 -0.24160905 0
-9.4635973 -4.3284674 -0.24195583 0
-0.80978036 -0.39538023 -0.19155006 0
-0.9138841 -0.44620952 -0.19155277 0
-1.0317986 -0.50378197 -0.18871118 0
-1.2146051 -0.59303832 -0.18995379 0
-1.474833 -0.72009623 -0.19181721 0
-1.8395698 -0.8981812 -0.19107993 0
-3.1133823 -1.520128 -0.2422131 0
-4.6616139 -2.2760615 -0.24150652 0
-9.3505478 -4.5654621 -0.24193448 0
-0.8004306 -0.41614541 -0.19176181 0
-0.89727962 -0.46649739 -0.19047961 0
-1.0281966 -0.5345614 -0.19045933 0
-1.1986625 -0.62318695 -0.18985987 0
-1.4537348 -0.75579947 -0.19149317 0
-1.8189688 -0.94568533 -0.19135836 0
-3.0675035 -1.5948009 -0.24169831 0
-4.6061087 -2.3947248 -0.24168521 0
-9.2396708 -4.8037229 -0.24212554 0
-0.77515042 -0.42818478 -0.18823446 0
-0.89025825 -0.49176913 -0.19156292 0
-1.0176171 -0.5621208 -0.1910668 0
-1.1878406 -0.65615046 -0.19070812 0
-1.4302014 -0.79002792 -0.19095896 0
-1.8016998 -0.99523968 -0.192123 0
-3.0192666 -1.6678104 -0.24113749 0
-4.5399866 -2.5078399 -0.24146001 0
-9.0991669 -5.0262823 -0.24169099 0
-0.7833572 -0.45888698 -0.1929784 0
-0.87443191 -0.51223814 -0.19087856 0
-0.99350882 -0.58199281 -0.18923797 0
-1.1699032 -0.68532377 -0.19054459 0
-1.4166706 -0.82987899 -0.19188784 0
-1.7747223 -1.0396241 -0.19198313 0
-2.9971204 -1.755699 -0.24283047 0
-4.4766212 -2.6223836 -0.24153312 0
-8.9636106 -5.2508407 -0.24153358 0
-0.76822042 -0.47645336 -0.1921507 0
-0.86828882 -0.53851616 -0.19244319 0
-0.98630244 -0.6117087 -0.19074531 0
-1.1470602 -0.7114113 -0.18968813 0
-1.3845447 -0.8587001 -0.19041133 0
-1.739635 -1.0789286 -0.19107242 0
-2.9380121 -1.8221668 -0.24169064 0
-4.4114499 -2.7359989 -0.24166566 0
-8.8383217 -5.4815621 -0.2418085 0
-0.75720727 -0.49650609 -0.19246913 0
-0.84801888 -0.55605191 -0.19100031 0
-0.97390991 -0.63859957 -0.19140476 0
-1.1351376 -0.74431765 -0.19076234 0
-1.3700863 -0.89837515 -0.19148022 0
-1.7249562 -1.1310658 -0.19253431 0
-2.8892374 -1.8944931 -0.24153475 0
-4.3367481 -2.8436358 -0.24142818 0
-8.6935902 -5.700448 -0.24170807 0
-0.75327355 -0.52157027 -0.19475326 0
-0.83963227 -0.58136553 -0.19235498 0
-0.95402491 -0.66057152 -0.1907126 0
-1.111673 -0.76972783 -0.19002335 0
-1.3493041 -0.93426472 -0.19181015 0
-1.6874083 -1.1683698 -0.19157374 0
-2.8412263 -1.9672791 -0.24159503 0
-4.2742987 -2.9595451 -0.24203287 0
-8.5478077 -5.9185438 -0.24173106 0
-0.72825623 -0.53192437 -0.19169517 0
-0.81296062 -0.59379315 -0.18961765 0
-0.94204581 -0.68807799 -0.19172849 0
-1.0961305 -0.80062276 -0.1907599 0
-1.3248882 -0.9677093 -0.19175024 0
-1.6474468 -1.2033087 -0.19042419 0
-2.7980092 -2.043689 -0.24222904 0
-4.1951246 -3.0641537 -0.24185181 0
-8.3977642 -6.1337957 -0.24178888 0
-0.71274859 -0.5487017 -0.19119762 0
-0.80687982 -0.6211676 -0.19179496 0
-0.91932702 -0.70773387 -0.1906794 0
-1.0818733 -0.83286828 -0.19187585 0
-1.2967254 -0.9982698 -0.19125985 0
-1.6247642 -1.2508069 -0.19139042 0
-2.7377088 -2.1075952 -0.24153689 0
-4.1145477 -3.1675394 -0.24173841 0
-8.2373056 -6.3413997 -0.24170016 0
-0.71141368 -0.57683736 -0.19468299 0
-0.79265416 -0.64270973 -0.19220813 0
-0.90688443 -0.73533142 -0.19188692 0
-1.0559022 -0.85615987 -0.19104132 0
-1.2740296 -1.0330247 -0.19169685 0
-1.5945494 -1.2929126 -0.19161412 0
-2.6814561 -2.1742117 -0.24133848 0
-4.0453472 -3.2800992 -0.24245942 0
-8.0724001 -6.5453644 -0.24163181 0
-0.68510562 -0.5847643 -0.1914615 0
-0.77581972 -0.66219229 -0.19211753 0
-0.89066851 -0.76022023 -0.19245432 0
-1.0419093 -0.88931018 -0.19250929 0
-1.2453176 -1.0629269 -0.19135231 0
-1.5627279 -1.3338491 -0.19177458 0
-2.628793 -2.243777 -0.24161863 0
-3.9454515 -3.3675964 -0.24148943 0
-7.9070611 -6.7489843 -0.24170446 0
-0.67678708 -0.60783988 -0.1933625 0
-0.76172119 -0.68412143 -0.19284062 0
-0.86656147 -0.77828115 -0.1914288 0
-1.0161959 -0.91267163 -0.19195324 0
-1.2217551 -1.0972897 -0.19192612 0
-1.5368408 -1.3802763 -0.19281146 0
-2.5676277 -2.3060524 -0.24126948 0
-3.8630631 -3.4695165 -0.24172941 0
-7.7376447 -6.949378 -0.24181023 0
-0.65401357 -0.61789948 -0.1912507 0
-0.73814303 -0.6973834 -0.19126657 0
-0.84285218 -0.7963106 -0.19057035 0
-0.98845375 -0.93387216 -0.19110431 0
-1.1986878 -1.1324973 -0.19273122 0
-1.4944879 -1.4119636 -0.19190773 0
-1.9894341 -1.8795793 -0.19133569 0
-3.7783167 -3.5696814 -0.24198705 0
-7.5571356 -7.1398368 -0.24172366 0
-0.63925403 -0.63523656 -0.19156203 0
-0.7273044 -0.72273356 -0.19312318 0
-0.82121062 -0.81604958 -0.19027343 0
-0.97273672 -0.96662337 -0.19272101 0
-1.1645197 -1.1572011 -0.19187237 0
-1.4614333 -1.4522487 -0.1923086 0
-1.9319861 -1.9198443 -0.19041014 0
-3.6794639 -3.6563396 -0.24148934 0
-7.3737741 -7.3274326 -0.2416971 0
-0.61798871 -0.64590174 -0.19001415 0
-0.700957 -0.73261756 -0.19097613 0
-0.80060023 -0.83676142 -0.19033067 0
-0.9495663 -0.99245596 -0.19303167 0
-1.1388414 -1.1902801 -0.19252996 0
-1.4088336 -1.4724673 -0.19021681 0
-1.8871617 -1.9724003 -0.19083792 0
-3.5879216 -3.7499795 -0.24161609 0
-7.1865501 -7.5111489 -0.24169715 0
-0.60942286 -0.67000431 -0.19251852 0
-0.68123972 -0.74896032 -0.19069354 0
-0.7865814 -0.86477375 -0.19212553 0
-0.91726607 -1.0084496 -0.19157857 0
-1.1057671 -1.2156891 -0.19206451 0
-1.3804073 -1.5176307 -0.19148943 0
-1.8496845 -2.0335577 -0.19217706 0
-3.49177 -3.8388796 -0.24158885 0
-6.9961147 -7.6915836 -0.24174435 0
-0.59114832 -0.68380737 -0.19213639 0
-0.66390306 -0.76796597 -0.19120538 0
-0.76348579 -0.88315773 -0.19186766 0
-0.89413291 -1.034283 -0.19213793 0
-1.0760146 -1.2446736 -0.19229193 0
-1.3412886 -1.5515277 -0.19143404 0
-1.7958558 -2.0773456 -0.19197062 0
-3.3922529 -3.9239688 -0.24147874 0
-6.8000431 -7.8659105 -0.24175225 0
-0.57006431 -0.69406986 -0.19091645 0
-0.65463316 -0.79703492 -0.19426733 0
-0.74473089 -0.90673149 -0.19284417 0
-0.87064183 -1.0600318 -0.19277772 0
-1.0320094 -1.2565013 -0.19003466 0
-1.2991301 -1.5817286 -0.1910539 0
-1.742897 -2.1220276 -0.19197352 0
-3.2994118 -4.0171299 -0.2420101 0
-6.599009 -8.0344858 -0.24173743 0
-0.55376226 -0.71001631 -0.1913974 0
-0.62073255 -0.79588348 -0.19010758 0
-0.72120357 -0.92470419 -0.19273393 0
-0.83815706 -1.0746583 -0.1915296 0
-1.0132926 -1.2992113 -0.19256492 0
-1.2645235 -1.6213318 -0.19192137 0
-1.6874222 -2.163559 -0.19181676 0
-3.2005706 -4.1036696 -0.24227999 0
-6.3905697 -8.1937847 -0.24160054 0
-0.53620028 -0.72447658 -0.1915863 0
-0.60852677 -0.82219911 -0.19266346 0
-0.70076978 -0.94683152 -0.19359782 0
-0.80843341 -1.0922991 -0.19097631 0
-0.98190486 -1.3266817 -0.19290191 0
-1.223978 -1.6537541 -0.19204137 0
-1.6260079 -2.196949 -0.19107778 0
-3.0839601 -4.1668329 -0.24133685 0
-6.1917043 -8.3658009 -0.24198769 0
-0.52174264 -0.7434637 -0.19306359 0
-0.58358127 -0.83158147 -0.19134966 0
-0.67594719 -0.96319938 -0.19339466 0
-0.78667754 -1.120986 -0.1924592 0
-0.93995148 -1.3393956 -0.19124021 0
-1.1745501 -1.6736898 -0.19085316 0
-1.579288 -2.2504263 -0.19220096 0
-2.9926643 -4.2644343 -0.24253786 0
-5.9761457 -8.5157833 -0.24188611 0
-0.49928486 -0.75107586 -0.19170693 0
-0.56151927 -0.84469527 -0.19104528 0
-0.64714593 -0.97350377 -0.19212297 0
-0.75713462 -1.1389601 -0.19220309 0
-0.90542316 -1.362031 -0.1911484 0
-1.1374655 -1.7110931 -0.19178358 0
-1.520218 -2.2868688 -0.19197531 0
-2.8743894 -4.3239536 -0.24171995 0
-5.7569623 -8.6602173 -0.2417845 0
-0.47856572 -0.76087475 -0.19106421 0
-0.54878861 -0.87252259 -0.19414452 0
-0.62272632 -0.9900766 -0.19223066 0
-0.71892148 -1.1430179 -0.18976541 0
-0.86900103 -1.3816304 -0.1907602 0
-1.0901848 -1.733292 -0.19112684 0
-1.4581603 -2.3183386 -0.19146666 0
-2.7662892 -4.3981409 -0.24188715 0
-5.5355253 -8.8009682 -0.24173653 0
-0.46269837 -0.77856725 -0.19251321 0
-0.52733397 -0.88732749 -0.19441536 0
-0.59211409 -0.99633086 -0.19048274 0
-0.69512099 -1.1696571 -0.19121449 0
-0.83226383 -1.4004229 -0.19039401 0
-1.0437701 -1.7563174 -0.1907002 0
-1.3990229 -2.3540897 -0.19144213 0
-2.6485522 -4.4566317 -0.24135073 0
-5.3115544 -8.9375772 -0.24172962 0
-0.44235355 -0.78900647 -0.19227263 0
-0.4991104 -0.89024115 -0.1922325 0
-0.56858659 -1.0141628 -0.19108748 0
-0.66473365 -1.1856561 -0.19102642 0
-0.79921728 -1.4255285 -0.19100401 0
-1.0063984 -1.7950684 -0.19208863 0
-1.3414358 -2.3926599 -0.1917644 0
-2.5466077 -4.5422716 -0.24243061 0
-5.0834136 -9.0670605 -0.24168465 0
-0.41883641 -0.79334563 -0.19069326 0
-0.47405976 -0.89794779 -0.19125213 0
-0.53819853 -1.0194373 -0.18946154 0
-0.63329923 -1.1995738 -0.19063284 0
-0.76251686 -1.4443334 -0.19088423 0
-0.96276623 -1.8236389 -0.19248439 0
-1.2815084 -2.4273896 -0.1918945 0
-1.9265434 -3.6491926 -0.19210877 0
-4.8515892 -9.1897144 -0.24161318 0
-0.40473929 -0.81586236 -0.19358848 0
-0.45309693 -0.91334039 -0.19203374 0
-0.51579207 -1.0397196 -0.19075085 0
-0.60021335 -1.2098937 -0.189805 0
-0.73305321 -1.4776686 -0.19278327 0
-0.91413236 -1.842683 -0.19199812 0
-1.2205398 -2.4603307 -0.19200221 0
-1.8268149 -3.6824434 -0.19137102 0
-4.6178532 -9.3085413 -0.24159609 0
-0.37579617 -0.80811822 -0.18944007 0
-0.42713559 -0.91851944 -0.19079524 0
-0.4891589 -1.0518954 -0.19065891 0
-0.57160455 -1.2291877 -0.1905079 0
-0.68760222 -1.4786311 -0.19058402 0
-0.86521149 -1.8605651 -0.19152504 0
-1.1578381 -2.4898341 -0.19196297 0
-1.7393621 -3.7403529 -0.19203793 0
-4.3840652 -9.4275665 -0.24173649 0
-0.3642416 -0.83794308 -0.19421475 0
-0.40663639 -0.93547291 -0.19212379 0
-0.46211037 -1.0630916 -0.19051361 0
-0.54079175 -1.2440993 -0.19064286 0
-0.64872748 -1.492407 -0.19018866 0
-0.82322222 -1.8938347 -0.1927496 0
-1.0935327 -2.5156879 -0.19176729 0
-1.64026 -3.7734418 -0.19155028 0
-4.1421208 -9.5290089 -0.24158005 0
-0.34240204 -0.84543073 -0.19388548 0
-0.38388219 -0.94785011 -0.19261459 0
-0.43743542 -1.0800793 -0.19151841 0
-0.50902462 -1.2568414 -0.19056608 0
-0.61544526 -1.5196065 -0.19161436 0
-0.7748487 -1.9131923 -0.19266802 0
-1.0292946 -2.5414488 -0.19168968 0
-1.5454495 -3.8158958 -0.19166429 0
-3.9040592 -9.6395798 -0.24180819 0
-0.31422281 -0.83587366 -0.18981451 0
-0.35765254 -0.95140243 -0.19144113 0
-0.40751663 -1.0840473 -0.19033763 0
-0.47808596 -1.271771 -0.19093938 0
-0.57642865 -1.5333754 -0.1914551 0
-0.71894252 -1.9124808 -0.19070831 0
-0.96500313 -2.567034 -0.19172136 0
-1.4471394 -3.8495793 -0.19146064 0
-3.6560357 -9.7255316 -0.24157265 0
-0.29511437 -0.8495276 -0.19116281 0
-0.33410129 -0.96175683 -0.19176681 0
-0.38384452 -1.1049496 -0.19224545 0
-0.44707572 -1.2869694 -0.19146614 0
-0.53561002 -1.5418276 -0.1907618 0
-0.67436403 -1.9412502 -0.19181882 0
-0.90189415 -2.5962272 -0.19214043 0
-1.3538694 -3.8973005 -0.19207343 0
-3.4134693 -9.8261442 -0.2418548 0
-0.27318734 -0.8554548 -0.19088425 0
-0.30866 -0.96653336 -0.19110504 0
-0.35422045 -1.1092006 -0.19136865 0
-0.41248882 -1.2916614 -0.19055465 0
-0.4987604 -1.561811 -0.19161575 0
-0.62212217 -1.9481041 -0.19088376 0
-0.8307094 -2.6012709 -0.19090125 0
-1.254438 -3.9281285 -0.19197126 0
-3.1619613 -9.9013186 -0.24166387 0
-0.25186625 -0.86327434 -0.19114976 0
-0.28547683 -0.97847492 -0.19198039 0
-0.3275609 -1.1227186 -0.19221333 0
-0.37492427 -1.2850571 -0.18812442 0
-0.46187979 -1.5830979 -0.19273581 0
-0.57311404 -1.9643546 -0.1909979 0
-0.76861399 -2.6344328 -0.19185016 0
-1.153852 -3.9548399 -0.19179237 0
-2.9113533 -9.9786949 -0.24168202 0
-0.23173197 -0.87588245 -0.19258513 0
-0.26244462 -0.99196774 -0.19326657 0
-0.29605427 -1.1190028 -0.19023734 0
-0.34752479 -1.3135471 -0.19095035 0
-0.41870743 -1.5825977 -0.19132739 0
-0.52273506 -1.9757934 -0.19076654 0
-0.70200431 -2.6533811 -0.19187868 0
-1.0515431 -3.9745407 -0.19139975 0
-2.6604328 -10.055697 -0.2418437 0
-0.20967108 -0.8819226 -0.1926883 0
-0.23406121 -0.98451287 -0.19060247 0
-0.26957855 -1.1339065 -0.19155335 0
-0.3113535 -1.3096212 -0.18917704 0
-0.38075894 -1.6015557 -0.19239625 0
-0.475454 -1.999864 -0.19187088 0
-0.63515025 -2.6715815 -0.19197445 0
-0.94790804 -3.9871092 -0.19079214 0
-2.4065952 -10.122667 -0.24191651 0
-0.18591329 -0.88011855 -0.19120803 0
-0.20957233 -0.99212098 -0.19099055 0
-0.23799817 -1.1266898 -0.18925919 0
-0.28225142 -1.3361858 -0.19192417 0
-0.33736587 -1.5970991 -0.19077723 0
-0.42303684 -2.0026679 -0.19105467 0
-0.56796443 -2.6887589 -0.19211751 0
-0.84726387 -4.0109696 -0.19084987 0
-2.1499262 -10.177808 -0.24186048 0
-0.16134652 -0.87209022 -0.18851914 0
-0.18412711 -0.99522096 -0.190632 0
-0.21049453 -1.1377389 -0.19016226 0
-0.24567868 -1.327912 -0.18978468 0
-0.29864126 -1.6141788 -0.19185598 0
-0.37252295 -2.0135148 -0.19113165 0
-0.49740732 -2.6885242 -0.19114287 0
-0.94428217 -5.1039166 -0.24164349 0
-1.8892468 -10.211522 -0.24145165 0
-0.13979092 -0.87902415 -0.1891951 0
-0.15911371 -1.0005285 -0.19081862 0
-0.18272522 -1.1490008 -0.19121283 0
-0.21267538 -1.3373314 -0.19030315 0
-0.25740013 -1.6185666 -0.19154435 0
-0.32030934 -2.0141482 -0.19036376 0
-0.43036219 -2.7061756 -0.19156456 0
-0.81543022 -5.1275349 -0.24171032 0
-1.6315197 -10.259215 -0.24152878 0
-0.11903667 -0.89329445 -0.1915589 0
-0.13456452 -1.0098211 -0.19188207 0
-0.15311375 -1.1490213 -0.19051248 0
-0.17917602 -1.344602 -0.19063352 0
-0.21616454 -1.6221774 -0.19126509 0
-0.26987821 -2.025264 -0.19070986 0
-0.36263427 -2.7213395 -0.19192897 0
-0.68527728 -5.1425695 -0.24152681 0
-1.3725082 -10.2998 -0.24159178 0
-0.095966451 -0.89142817 -0.19057859 0
-0.10784633 -1.0017799 -0.18977647 0
-0.12433508 -1.1549431 -0.19091323 0
-0.14539523 -1.3505698 -0.19089858 0
-0.17568354 -1.6319166 -0.19182953 0
-0.21886858 -2.0330606 -0.19086306 0
-0.29358557 -2.7271035 -0.19175184 0
-0.55544204 -5.1594768 -0.24158552 0
-1.1117964 -10.327428 -0.24150471 0
-0.073918715 -0.89933771 -0.19180964 0
-0.083706185 -1.0184177 -0.19246681 0
-0.09534014 -1.1599631 -0.19128437 0
-0.11064275 -1.3461435 -0.18981776 0
-0.13455734 -1.6371021 -0.19197872 0
-0.16709036 -2.0329175 -0.19039309 0
-0.22460568 -2.7326822 -0.19168445 0
-0.42530099 -5.1744571 -0.24170738 0
-0.8515172 -10.360049 -0.24168803 0
-0.050810684 -0.89399594 -0.19033624 0
-0.057902388 -1.0187719 -0.19219637 0
-0.066140972 -1.1637269 -0.19156875 0
-0.076857597 -1.3522822 -0.19034921 0
-0.081436165 -1.4328405 -0.16773105 0
-0.08190465 -1.4410832 -0.13472828 0
-0.082118973 -1.4448541 -0.10117194 0
-0.081929371 -1.4415182 -0.067217685 0
-0.08206784 -1.4439545 -0.033626765 0
-0.082186393 -1.4460404 4.1348743e-05 0
-0.028255947 -0.89555842 -0.19045642 0
-0.031853016 -1.0095658 -0.19024733 0
-0.03661032 -1.1603462 -0.19079936 0
-0.041805342 -1.3249998 -0.18630107 0
-0.041596539 -1.3183819 -0.15416032 0
-0.041916333 -1.3285177 -0.124066 0
-0.041598793 -1.3184534 -0.09221819 0
-0.042190816 -1.3372172 -0.062284667 0
-0.041869894 -1.3270458 -0.030869761 0
-0.041580919 -1.3178868 3.7642265e-05 0
-0.0056454698 -0.89508754 -0.19026537 0
-0.0064383196 -1.0207937 -0.19227131 0
-0.0072772815 -1.1538107 -0.18963413 0
-0.0076778028 -1.2173134 -0.17107813 0
-0.0076709082 -1.2162203 -0.1421465 0
-0.0077014947 -1.2210697 -0.11397733 0
-0.0076918951 -1.2195477 -0.085259579 0
-0.0077130203 -1.2228971 -0.056932684 0
-0.0076937582 -1.2198431 -0.02836246 0
-0.0077287196 -1.2253863 3.4983495e-05 0
0.01709193 -0.90295762 -0.19196886 0
0.019264169 -1.0177159 -0.19172212 0
0.022059083 -1.1653697 -0.19156441 0
0.023044949 -1.2174525 -0.17112494 0
0.022935042 -1.2116462 -0.14163445 0
0.023044998 -1.2174551 -0.11365803 0
0.02292137 -1.2109239 -0.084670164 0
0.022829659 -1.2060788 -0.056158639 0
0.023009513 -1.2155805 -0.028267851 0
0.022857495 -1.2075495 3.4479763e-05 0
0.039796341 -0.90059483 -0.19161904 0
0.044907399 -1.0162585 -0.19160008 0
0.051252145 -1.1598407 -0.1908074 0
0.052939609 -1.1980282 -0.16852878 0
0.05354416 -1.2117093 -0.14175466 0
0.053809416 -1.217712 -0.11377258 0
0.053480681 -1.2102728 -0.084692046 0
0.053412389 -1.2087272 -0.056326792 0
0.053804848 -1.2176087 -0.02833757 0
0.053376261 -1.2079097 3.4517525e-05 0
0.06294702 -0.90564108 -0.19296931 0
0.071122304 -1.0232618 -0.19319735 0
0.080132924 -1.1529008 -0.18993793 0
0.084631018 -1.2176164 -0.17153016 0
0.084506474 -1.2158246 -0.14244026 0
0.084575824 -1.2168224 -0.11385264 0
0.084767431 -1.2195791 -0.085465774 0
0.084012903 -1.2087234 -0.056407463 0
0.08345744 -1.2007318 -0.027984904 0
0.084016874 -1.2087805 3.4591991e-05 0
0.085114188 -0.89677906 -0.19147779 0
0.096238397 -1.0139859 -0.19184351 0
0.10989986 -1.1579255 -0.19116186 0
0.11489587 -1.2105645 -0.17089081 0
0.11441964 -1.2055469 -0.14152941 0
0.11476149 -1.2091485 -0.11336953 0
0.11522248 -1.2140056 -0.085251838 0
0.11490072 -1.2106155 -0.056613065 0
0.11454367 -1.2068536 -0.028185984 0
0.1143536 -1.204851 3.4551129e-05 0
0.10819388 -0.89833301 -0.19233139 0
0.12255237 -1.0175514 -0.19304183 0
0.1389623 -1.1538029 -0.19099945 0
0.14673956 -1.2183774 -0.17246163 0
0.14692284 -1.2198992 -0.14360397 0
0.14533526 -1.2067175 -0.11344939 0
0.1446799 -1.2012761 -0.084587418 0
0.14630979 -1.2148092 -0.056963719 0
0.1456769 -1.2095541 -0.028325904 0
0.14594471 -1.2117778 3.4844303e-05 0
0.13145804 -0.89964765 -0.19326165 0
0.14729634 -1.0080388 -0.19188134 0
0.16768347 -1.1475604 -0.19060594 0
0.17633817 -1.2067897 -0.17139681 0
0.17703973 -1.211591 -0.14310637 0
0.17515947 -1.1987233 -0.11307743 0
0.17615658 -1.2055471 -0.085174099 0
0.17603965 -1.2047468 -0.056682177 0
0.1771746 -1.212514 -0.028490867 0
0.17633955 -1.2067993 3.4818033e-05 0
0.15227291 -0.88533324 -0.19095144 0
0.1743007 -1.0134056 -0.19367863 0
0.19701882 -1.1454914 -0.19102739 0
0.20656848 -1.2010144 -0.17126247 0
0.20738626 -1.2057689 -0.14299141 0
0.20961826 -1.2187461 -0.11542853 0
0.2068917 -1.2028936 -0.085328378 0
0.20762303 -1.2071457 -0.057023425 0
0.20835575 -1.2114058 -0.028579291 0
0.20824608 -1.2107681 3.5073012e-05 0
0.17641072 -0.89054072 -0.19297345 0
0.19719611 -0.9954676 -0.19114071 0
0.22679037 -1.1448627 -0.19181602 0
0.24002005 -1.2116475 -0.17358731 0
0.23892501 -1.2061197 -0.14370236 0
0.23829992 -1.2029642 -0.11446699 0
0.23679897 -1.1953871 -0.085192725 0
0.24103327 -1.2167624 -0.057746686 0
0.23938078 -1.2084204 -0.028642276 0
0.24061826 -1.2146674 3.5350629e-05 0
0.20004699 -0.89125586 -0.19416067 0
0.22063069 -0.98296106 -0.18974811 0
0.25242472 -1.1246109 -0.18943001 0
0.272248 -1.2129282 -0.17469956 0
0.27171427 -1.2105502 -0.14500113 0
0.27213401 -1.2124202 -0.1159834 0
0.27151534 -1.209664 -0.086670987 0
0.27217174 -1.2125884 -0.05785618 0
0.27386719 -1.220142 -0.029074678 0
0.27495205 -1.2249753 3.5841167e-05 0
0.21843494 -0.86985409 -0.1906386 0
0.2466999 -0.98241109 -0.19078313 0
0.28699514 -1.1428753 -0.19366491 0
0.30257276 -1.2049086 -0.1745888 0
0.30460274 -1.2129924 -0.14616796 0
0.30461469 -1.2130401 -0.11674099 0
0.30548912 -1.2165222 -0.087686881 0
0.30173981 -1.2015916 -0.05767649 0
0.30609804 -1.2189471 -0.029220993 0
0.30268979 -1.2053747 3.5479905e-05 0
0.23956229 -0.86136776 -0.19004332 0
0.27082106 -0.97376156 -0.19037017 0
0.31024811 -1.115525 -0.19029658 0
0.33776352 -1.2144591 -0.17715146 0
0.33718979 -1.2123963 -0.14707482 0
0.33667204 -1.2105346 -0.11728027 0
0.33445227 -1.2025533 -0.087260649 0
0.33670023 -1.2106359 -0.058499891 0
0.33457926 -1.2030098 -0.029032126 0
0.33763543 -1.2139986 3.5973124e-05 0
0.26095411 -0.85418153 -0.18985049 0
0.29765558 -0.97431654 -0.19188626 0
0.33986998 -1.112497 -0.19118246 0
0.36718464 -1.2019061 -0.17661594 0
0.37233499 -1.2187647 -0.14893991 0
0.37301394 -1.2209872 -0.11916711 0
0.36779997 -1.2039202 -0.088005409 0
0.36907795 -1.2081035 -0.058808915 0
0.3660787 -1.1982861 -0.029131826 0
0.3695783 -1.2097412 3.6111873e-05 0
0.28297806 -0.8489911 -0.19022369 0
0.31606209 -0.94824994 -0.18826367 0
0.3700631 -1.1102637 -0.1923425 0
0.42968455 -1.2891402 -0.19096749 0
0.51635212 -1.5491602 -0.19084795 0
0.65184844 -1.9556766 -0.19241647 0
0.86425394 -2.5929358 -0.19107476 0
1.3027089 -3.9083891 -0.19179475 0
3.2882342 -9.865365 -0.24177994 0
0.30676174 -0.84836465 -0.19175699 0
0.34668389 -0.95877135 -0.19202863 0
0.39586121 -1.0947737 -0.19132893 0
0.45820719 -1.2671944 -0.18936938 0
0.55763048 -1.5421544 -0.19165768 0
0.69829637 -1.931173 -0.19167858 0
0.93385816 -2.5826304 -0.19199109 0
1.4020325 -3.8773897 -0.19194889 0
3.533437 -9.7718935 -0.24159785 0
0.32759476 -0.83913946 -0.19147971 0
0.36881644 -0.94472957 -0.19101979 0
0.42497438 -1.0885791 -0.1920597 0
0.49542317 -1.2690349 -0.19145204 0
0.59358555 -1.5204793 -0.19076505 0
0.74519747 -1.9088359 -0.19126742 0
0.99726582 -2.5545132 -0.19171095 0
1.497108 -3.8348675 -0.19165337 0
3.7799883 -9.6825037 -0.24166957 0
0.34920651 -0.83190215 -0.19177832 0
0.39399707 -0.93860513 -0.19173105 0
0.45261425 -1.0782467 -0.192191 0
0.52719176 -1.25591 -0.19141838 0
0.63164395 -1.5047427 -0.19073009 0
0.79362476 -1.8906237 -0.19138864 0
1.0626482 -2.5315087 -0.19193618 0
1.5894481 -3.7864852 -0.19117936 0
4.0260372 -9.5910835 -0.24184696 0
0.37289375 -0.82907122 -0.1932338 0
0.41756657 -0.92839426 -0.19173701 0
0.4817251 -1.0710407 -0.19301228 0
0.55988324 -1.2448132 -0.19181973 0
0.67079222 -1.491402 -0.1911242 0
0.84267265 -1.8735514 -0.19175233 0
1.1292819 -2.5107827 -0.19246444 0
1.6993854 -3.7783189 -0.19287118 0
4.2678194 -9.4888325 -0.2419077 0
0.39235812 -0.81661987 -0.19257846 0
0.44103011 -0.91792148 -0.1918119 0
0.50291234 -1.0467178 -0.19085565 0
0.59109271 -1.2302487 -0.1918132 0
0.70416147 -1.46558 -0.19003211 0
0.89267981 -1.8579457 -0.19239977 0
1.1900837 -2.4769361 -0.19211121 0
1.7795551 -3.7038102 -0.19129956 0
4.5003695 -9.3666744 -0.24161221 0
0.41229331 -0.80539757 -0.19232468 0
0.46129152 -0.90111351 -0.1906718 0
0.53176647 -1.0387833 -0.19179502 0
0.61920285 -1.2095866 -0.19096753 0
0.74147773 -1.4484454 -0.19017637 0
0.93306106 -1.8226954 -0.19112723 0
1.2519141 -2.4455614 -0.1920673 0
1.879042 -3.6706293 -0.19197413 0
4.7377548 -9.2550039 -0.24173915 0
0.43403089 -0.79758304 -0.19301303 0
0.48617119 -0.89339697 -0.19157439 0
0.55694723 -1.0234563 -0.19149952 0
0.64672273 -1.1884294 -0.19014369 0
0.77962673 -1.4326562 -0.19062611 0
0.98806119 -1.8156791 -0.19294502 0
1.3106359 -2.4084482 -0.19168943 0
1.9667511 -3.6141374 -0.19155473 0
4.9687819 -9.130724 -0.24169162 0
0.45144972 -0.78193229 -0.19192182 0
0.5089485 -0.88152289 -0.1917216 0
0.5814063 -1.0070232 -0.19110954 0
0.67927498 -1.1765364 -0.19092308 0
0.8132109 -1.4085197 -0.19008499 0
1.0246333 -1.7747133 -0.19127895 0
1.3693197 -2.3717265 -0.19145642 0
2.5999298 -4.5032015 -0.24207731 0
5.2005553 -9.0076075 -0.2418301 0
0.47019541 -0.76891994 -0.19157976 0
0.52672809 -0.86136901 -0.19016913 0
0.60755116 -0.99354059 -0.19139993 0
0.70670104 -1.1556823 -0.19037277 0
0.8551693 -1.3984754 -0.19158126 0
1.0678055 -1.7462038 -0.19105007 0
1.4254963 -2.3311427 -0.1910238 0
2.7069502 -4.4267297 -0.2415622 0
5.4256153 -8.8726168 -0.24180536 0
0.48560715 -0.75087529 -0.19007702 0
0.56108046 -0.86757672 -0.19460408 0
0.63481796 -0.98159415 -0.19212392 0
0.74058187 -1.1451328 -0.19165294 0
0.8854745 -1.3691745 -0.19056815 0
1.1098934 -1.7161847 -0.19076979 0
1.4881589 -2.3010819 -0.19157729 0
2.8140609 -4.3512721 -0.24124345 0
5.6419711 -8.723959 -0.24155781 0
0.51311785 -0.75114906 -0.19336307 0
0.57221246 -0.83765715 -0.19107153 0
0.65683275 -0.96153212 -0.19138101 0
0.77103716 -1.128715 -0.19210096 0
0.91988951 -1.3466188 -0.19059949 0
1.1560301 -1.6923029 -0.19129749 0
1.5510505 -2.27057 -0.19223499 0
2.927408 -4.2854085 -0.24161123 0
5.8644557 -8.5849285 -0.24172957 0
0.52802515 -0.73257816 -0.19195199 0
0.5965637 -0.82766807 -0.19216625 0
0.68316388 -0.94781649 -0.19202182 0
0.80055368 -1.1106822 -0.19240941 0
0.95277339 -1.3218707 -0.19043964 0
1.2027081 -1.6686283 -0.19199152 0
1.6006917 -2.2207878 -0.19137968 0
3.03392 -4.2092381 -0.241557 0
6.073822 -8.426775 -0.2415159 0
0.54117322 -0.71222156 -0.19013643 0
0.6177454 -0.81299591 -0.19231841 0
0.70654696 -0.92986488 -0.19193658 0
0.82558596 -1.0865285 -0.19177377 0
0.98171574 -1.2920061 -0.18964636 0
1.2433574 -1.6363449 -0.19182661 0
1.6636938 -2.1895368 -0.19224392 0
3.1413369 -4.1342177 -0.24172471 0
6.2887821 -8.276474 -0.24168032 0
0.55910385 -0.69850653 -0.19018164 0
0.64216638 -0.80227917 -0.19355568 0
0.72565657 -0.90658623 -0.1908512 0
0.85050595 -1.0625645 -0.19127195 0
1.0144515 -1.267387 -0.18973047 0
1.2786585 -1.5974694 -0.19099168 0
1.713897 -2.1412268 -0.19173922 0
3.2388833 -4.0464416 -0.24129532 0
6.4921155 -8.1108093 -0.24155053 0
0.58374876 -0.69272012 -0.19255628 0
0.6621061 -0.78570485 -0.193527 0
0.74835742 -0.88805717 -0.19086595 0
0.88528591 -1.0505468 -0.19306925 0
1.0509924 -1.2471865 -0.19061671 0
1.3188093 -1.5649981 -0.19102819 0
1.7605504 -2.0892015 -0.19099866 0
3.3440757 -3.9683316 -0.24159354 0
6.7030091 -7.9542942 -0.24185061 0
0.59322381 -0.66895598 -0.1900519 0
0.67053831 -0.75614059 -0.19035289 0
0.77273649 -0.87138563 -0.19141357 0
0.90944654 -1.0255483 -0.19263209 0
1.0808045 -1.2187822 -0.190384 0
1.3679172 -1.5425483 -0.19244082 0
1.8214673 -2.0539997 -0.19192217 0
3.4496384 -3.8900266 -0.24204978 0
6.9007754 -7.781743 -0.24182278 0
0.61284971 -0.65692294 -0.19096687 0
0.69640267 -0.74648464 -0.1922856 0
0.80416363 -0.86199522 -0.19374752 0
0.93091112 -0.99785781 -0.191783 0
1.111104 -1.1910093 -0.1903656 0
1.4044043 -1.5054023 -0.19216751 0
1.8605957 -1.9944009 -0.19068046 0
3.5376422 -3.7920527 -0.24143235 0
7.0897512 -7.5996127 -0.24164663 0
0.63218635 -0.64426446 -0.19186428 0
0.70520151 -0.71867454 -0.18964636 0
0.81285918 -0.82838905 -0.19074449 0
0.95210332 -0.97029352 -0.19104293 0
1.1452705 -1.1671512 -0.19111149 0
1.4378461 -1.4653165 -0.19162193 0
1.910171 -1.9466653 -0.19066519 0
3.6298103 -3.6991589 -0.24127395 0
7.2828288 -7.4219689 -0.24176575 0
0.65370077 -0.63339931 -0.19348039 0
0.73544371 -0.71260369 -0.19288111 0
0.84305543 -0.81687331 -0.19293088 0
0.96597731 -0.93597776 -0.18902652 0
1.1697986 -1.1334692 -0.19037011 0
1.4844612 -1.4383595 -0.19293481 0
1.9626899 -1.9017363 -0.19105561 0
3.7348442 -3.6188543 -0.24210733 0
7.4674778 -7.2355666 -0.24175619 0
0.66391373 -0.61158228 -0.19187348 0
0.75580508 -0.69623041 -0.19355097 0
0.86178213 -0.79385412 -0.19256991 0
1.0025756 -0.92354983 -0.19156592 0
1.2058467 -1.1107986 -0.19161305 0
1.5017294 -1.383359 -0.19058062 0
2.5422802 -2.3418908 -0.24164446 0
3.8143675 -3.5137086 -0.2414367 0
7.6471386 -7.0443702 -0.24173966 0
0.67553645 -0.59148711 -0.19085729 0
0.7606858 -0.66604233 -0.19043535 0
0.8756547 -0.76670694 -0.19128484 0
1.0213997 -0.89431852 -0.1907891 0
1.2203404 -1.0685073 -0.18957047 0
1.5349429 -1.3439673 -0.19043025 0
2.6047392 -2.2806609 -0.24203287 0
3.9008749 -3.4155331 -0.24137899 0
7.8203177 -6.8473239 -0.24167407 0
0.68831712 -0.57265031 -0.19032417 0
0.7715981 -0.64193648 -0.18905093 0
0.90185851 -0.75030756 -0.19281085 0
1.0571278 -0.87948501 -0.19325501 0
1.2436719 -1.0346816 -0.18907796 0
1.5677018 -1.3042606 -0.19034989 0
2.6642807 -2.2165673 -0.24229001 0
3.9854577 -3.3157296 -0.24135765 0
7.9948754 -6.6513934 -0.2418036 0
0.70899093 -0.56019294 -0.19206999 0
0.79636329 -0.62922829 -0.19116676 0
0.91581535 -0.72361058 -0.19182909 0
1.0743577 -0.84887922 -0.19242683 0
1.269443 -1.0030214 -0.18908703 0
1.6022099 -1.2659496 -0.19059964 0
2.7215495 -2.1503701 -0.2424852 0
4.081346 -3.2247822 -0.24215852 0
8.151639 -6.4408312 -0.24155134 0
0.71572703 -0.53674728 -0.19016433 0
0.81728578 -0.61290956 -0.19241454 0
0.93508482 -0.70125091 -0.19209689 0
1.0936205 -0.82014209 -0.19210832 0
1.3166664 -0.9874115 -0.19234774 0
1.6260892 -1.2194579 -0.18971854 0
2.7618663 -2.0712147 -0.24134286 0
4.1579609 -3.1181917 -0.24195774 0
8.3294945 -6.246562 -0.24207278 0
0.72902751 -0.51850772 -0.1901606 0
0.82816029 -0.58901411 -0.19141382 0
0.94304901 -0.67072672 -0.19019477 0
1.117368 -0.79470789 -0.1926951 0
1.3151318 -0.93536389 -0.18861474 0
1.6674629 -1.185953 -0.19099262 0
2.8166604 -2.0032992 -0.24163578 0
4.2311382 -3.009321 -0.24171929 0
8.4781685 -6.0299449 -0.24189357 0
0.75197941 -0.50675595 -0.19274986 0
0.85559475 -0.57658195 -0.1943294 0
0.9649623 -0.65028429 -0.19124326 0
1.1277721 -0.76000118 -0.19112052 0
1.3468601 -0.90764368 -0.18981928 0
1.6924629 -1.1405441 -0.19049828 0
2.8744683 -1.9370929 -0.24232364 0
4.3058648 -2.9017053 -0.24172746 0
8.6263371 -5.8132544 -0.24185786 0
0.76085532 -0.48528031 -0.19182444 0
0.87033808 -0.55510938 -0.19443394 0
0.98542345 -0.62851185 -0.19209337 0
1.1510442 -0.73414624 -0.19186321 0
1.36423 -0.87011802 -0.18911201 0
1.7353593 -1.1068276 -0.19212107 0
2.9097493 -1.855864 -0.24127235 0
4.3649364 -2.7839954 -0.2410223 0
8.7651539 -5.5904932 -0.24171692 0
0.78244179 -0.4717069 -0.19420333 0
0.86953491 -0.5242123 -0.1912379 0
0.99082673 -0.59733492 -0.19014724 0
1.1649473 -0.70230615 -0.19116516 0
1.4006126 -0.8443805 -0.19114034 0
1.7619281 -1.0622051 -0.19203332 0
2.9557765 -1.7819346 -0.24128279 0
4.4448438 -2.6796415 -0.24162321 0
8.9077568 -5.3701763 -0.24183473 0
0.78650361 -0.44749609 -0.19234696 0
0.88261098 -0.50217819 -0.19126531 0
1.0181913 -0.57931918 -0.19253145 0
1.1846576 -0.67403328 -0.19154696 0
1.4121665 -0.80347878 -0.18988918 0
1.7926053 -1.0199366 -0.19250989 0
3.006963 -1.7108685 -0.24185932 0
4.5112462 -2.5667586 -0.24163431 0
9.041502 -5.1443334 -0.2418638 0
0.79352683 -0.42535603 -0.19137813 0
0.89152426 -0.47788581 -0.19052242 0
1.0287461 -0.55144119 -0.19183443 0
1.1993552 -0.6428932 -0.19123895 0
1.4421076 -0.77301627 -0.19123088 0
1.8137352 -0.97222072 -0.19208273 0
3.04408 -1.6317253 -0.24145536 0
4.5782962 -2.4541147 -0.24183103 0
9.1661863 -4.913372 -0.24180485 0
0.81332618 -0.40989614 -0.19359653 0
0.9117263 -0.45948732 -0.19230013 0
1.0507541 -0.52955389 -0.19338445 0
1.2180154 -0.6138494 -0.19168293 0
1.4485552 -0.73003572 -0.1895822 0
1.8403003 -0.9274655 -0.1923558 0
3.0942307 -1.5594151 -0.24223429 0
4.6460614 -2.3414991 -0.24221176 0
9.2864895 -4.6801591 -0.24178538 0
0.81282389 -0.38424066 -0.19110774 0
0.92245805 -0.43606725 -0.1921811 0
1.0527368 -0.49765298 -0.19137676 0
1.2254238 -0.57928616 -0.19048727 0
1.4812051 -0.7001999 -0.19148144 0
1.856715 -0.87771207 -0.19169499 0
3.1279211 -1.4786407 -0.24187317 0
4.6904368 -2.2172778 -0.24153082 0
9.4111624 -4.448874 -0.24203084 0
0.8298158 -0.36695126 -0.19286385 0
0.92902166 -0.4108209 -0.19132742 0
1.0628649 -0.47000745 -0.19100066 0
1.2476121 -0.55170417 -0.1917108 0
1.5003952 -0.66348684 -0.19173636 0
1.8773851 -0.83019489 -0.19160475 0
3.1642599 -1.3992614 -0.24187525 0
4.7443995 -2.0980117 -0.24150595 0
9.5068884 -4.2040229 -0.24168694 0
0.83318931 -0.3435795 -0.19157146 0
0.94709164 -0.39054906 -0.19295739 0
1.0807496 -0.44566518 -0.1921321 0
1.2588491 -0.51910746 -0.19136332 0
1.513971 -0.62431121 -0.19139667 0
1.8927895 -0.78052336 -0.19110551 0
3.2027791 -1.3207194 -0.24219449 0
4.8093467 -1.9832145 -0.24218695 0
9.611311 -3.9633844 -0.24172159 0
0.84648126 -0.32432088 -0.1926842 0
0.9461664 -0.36251426 -0.19084401 0
1.0807791 -0.41408974 -0.19021875 0
1.2670985 -0.48547623 -0.19069399 0
1.5203896 -0.58252215 -0.19028884 0
1.9113737 -0.73232388 -0.1910549 0
3.2334144 -1.2388506 -0.2420696 0
4.8413939 -1.854932 -0.24136633 0
9.6952677 -3.7146454 -0.24139832 0
0.84579504 -0.29981172 -0.19074479 0
0.96341825 -0.341506 -0.19252391 0
1.0938358 -0.38773558 -0.19073367 0
1.2821008 -0.45447046 -0.19116464 0
1.5409485 -0.54622501 -0.19107567 0
1.9432967 -0.68884671 -0.19244668 0
3.2680779 -1.1584462 -0.24239857 0
4.9043927 -1.738476 -0.24224246 0
9.8063307 -3.4760821 -0.24190217 0
0.85244846 -0.27816659 -0.19060129 0
0.96793014 -0.31584999 -0.19177145 0
1.1171863 -0.36455446 -0.19313942 0
1.291795 -0.42153192 -0.19096296 0
1.5676265 -0.51153982 -0.19272141 0
1.9570981 -0.63863021 -0.19215605 0
3.2915113 -1.074069 -0.24204893 0
4.9410219 -1.6123289 -0.24196465 0
9.8836966 -3.2251968 -0.24172565 0
0.86623365 -0.25867164 -0.19216259 0
0.97438866 -0.29096851 -0.19153507 0
1.1164627 -0.33339414 -0.19149864 0
1.3077855 -0.39052632 -0.19180866 0
1.542883 -0.46073031 -0.18818998 0
1.9559783 -0.58408737 -0.190538 0
3.3076441 -0.98771703 -0.24132523 0
4.9760885 -1.485942 -0.24176832 0
9.9669657 -2.9763002 -0.24184798 0
0.86065423 -0.23352346 -0.18955703 0
0.98529643 -0.26734293 -0.19229162 0
1.1187463 -0.30355221 -0.19051556 0
1.3050394 -0.35409957 -0.19003458 0
1.5700933 -0.42601734 -0.19013688 0
1.9629529 -0.53261286 -0.18984747 0
3.3413675 -0.90662158 -0.24203911 0
5.0106721 -1.3595581 -0.24170445 0
10.030963 -2.7217262 -0.24165705 0
0.87873834 -0.21478093 -0.19228485 0
0.98806053 -0.24150142 -0.1915805 0
1.1210061 -0.27399594 -0.18966234 0
1.3285867 -0.32473272 -0.19220878 0
1.5879334 -0.38812214 -0.19105019 0
1.9746606 -0.48264587 -0.18974124 0
3.3481846 -0.81836212 -0.24096003 0
5.0496869 -1.2342427 -0.24200672 0
10.10592 -2.4700854 -0.24188392 0
0.88472015 -0.19272463 -0.19246811 0
0.99074173 -0.21582003 -0.19098338 0
1.1329545 -0.24679922 -0.19056933 0
1.3293145 -0.28957367 -0.19119585 0
1.6003504 -0.34861526 -0.19142455 0
1.9898357 -0.43345949 -0.19008763 0
3.3850605 -0.73739088 -0.24219738 0
5.0684733 -1.1041002 -0.24149466 0
10.156803 -2.2125258 -0.24168828 0
0.89309549 -0.17106771 -0.19328931 0
0.9977603 -0.19111571 -0.19134557 0
1.1400554 -0.21837159 -0.19077593 0
1.329672 -0.25469163 -0.19026211 0
1.6036055 -0.30716214 -0.19082583 0
2.543648 -0.48722231 -0.24174123 0
3.3948298 -0.6502617 -0.24164514 0
5.1021848 -0.97729647 -0.24184862 0
10.211966 -1.9560479 -0.24174915 0
0.88570809 -0.14658964 -0.19082899 0
1.0009229 -0.16565832 -0.19108942 0
1.1495413 -0.19025548 -0.19149876 0
1.3416231 -0.22204609 -0.19110942 0
1.6083542 -0.2661916 -0.19053078 0
2.5609698 -0.4238548 -0.24229361 0
3.411931 -0.56469357 -0.24177094 0
5.1129379 -0.84621972 -0.24126911 0
10.245614 -1.6957061 -0.24145566 0
0.90036726 -0.12576607 -0.19324192 0
1.0052876 -0.14042167 -0.19118519 0
1.1525279 -0.16098866 -0.19125852 0
1.3549507 -0.18926369 -0.19226623 0
1.6278684 -0.22738568 -0.19210146 0
2.5612421 -0.35776219 -0.24138822 0
3.4237604 -0.47824138 -0.2416769 0
5.1463466 -0.71885759 -0.24191242 0
10.292241 -1.437652 -0.24162246 0
0.903786 -0.10306958 -0.19335578 0
1.007957 -0.11494945 -0.19108026 0
1.1564484 -0.13188371 -0.1912958 0
1.3444513 -0.15332393 -0.1901667 0
1.6263137 -0.18546809 -0.19130467 0
2.5709105 -0.29319182 -0.2415251 0
3.4269552 -0.3908169 -0.24112937 0
5.1610584 -0.58857757 -0.24182868 0
10.328272 -1.1778569 -0.24169345 0
0.91117787 -0.080683105 -0.1944396 0
1.0048293 -0.088975765 -0.19000112 0
1.1353532 -0.1005334 -0.18732692 0
1.1306251 -0.10011475 -0.15951373 0
1.6289901 -0.14424403 -0.19113037 0
2.5870512 -0.22907856 -0.24242108 0
3.4344103 -0.30411065 -0.2410371 0
5.1578274 -0.456716 -0.24106041 0
10.356296 -0.91703069 -0.24173065 0
0.90378177 -0.057090044 -0.19249256 0
1.0244477 -0.064712264 -0.1933403 0
1.1261476 -0.071136437 -0.18545277 0
1.1335605 -0.071604699 -0.15962206 0
1.6348304 -0.10326888 -0.19144884 0
2.5810626 -0.16304044 -0.24139744 0
3.4507463 -0.21797659 -0.24172051 0
5.1855307 -0.32755935 -0.24189174 0
10.385221 -0.65601319 -0.2419423 0
0.91194838 -0.034534179 -0.19398451 0
1.0092467 -0.038218729 -0.19022886 0
1.1274873 -0.042696331 -0.18543689 0
1.1366993 -0.043045174 -0.15986015 0
1.6304713 -0.061743613 -0.19069515 0
2.5939605 -0.098229572 -0.24229471 0
3.4600673 -0.1310278 -0.24206471 0
5.1757188 -0.19599706 -0.24112649 0
10.393208 -0.39357588 -0.24181992 0
0.90056914 -0.011362929 -0.19144201 0
1.0201911 -0.012872258 -0.19216929 0
1.1183083 -0.014110251 -0.18381011 0
1.1371851 -0.014348429 -0.15982665 0
1.1392369 -0.014374318 -0.13315699 0
1.1243728 -0.014186771 -0.1049577 0
1.1156152 -0.014076272 -0.077998236 0
1.125271 -0.014198102 -0.052390769 0
1.1329572 -0.014295083 -0.026343858 0
1.1337482 -0.014305064 3.2369258e-05 0
1.1308305 -0.01426825 0.026359014 0
1.1252471 -0.014197802 0.052454054 0
1.1244893 -0.014188239 0.078683183 0
1.1395173 -0.014377856 0.10643703 0
1.1417565 -0.014406109 0.13351756 0
1.1319324 -0.014282153 0.15915431 0
1.1290375 -0.014245627 0.18563983 0
1.1301531 -0.014259703 0.21294922 0
0.89454502 0.011286919 -0.19016141 0
1.0155058 0.012813141 -0.19128673 0
1.1394918 0.014377534 -0.18729194 0
1.128846 0.014243212 -0.15865463 0
1.6464015 0.020773467 -0.19243571 0
2.5874834 0.032647565 -0.24153583 0
3.4533751 0.043572947 -0.2414427 0
5.1940227 0.06553556 -0.24182518 0
10.399763 0.13121897 -0.24181837 0
0.90454197 0.034253709 -0.19240907 0
1.0196517 0.038612749 -0.19219005 0
1.1323795 0.042881593 -0.18624151 0
1.1319528 0.042865429 -0.15919262 0
1.6266016 0.061597075 -0.19024256 0
2.5943544 0.098244481 -0.24233149 0
3.4566474 0.13089828 -0.24182545 0
5.1974792 0.19682109 -0.24214028 0
10.384619 0.39325064 -0.24162008 0
0.90867698 0.057399265 -0.19353516 0
1.0144013 0.064077653 -0.19144429 0
1.1284674 0.071282983 -0.18583481 0
1.1320022 0.071506269 -0.15940264 0
1.633201 0.10316596 -0.19125803 0
2.5915968 0.16370587 -0.24238268 0
3.4586539 0.21847609 -0.24227443 0
5.1821342 0.32734481 -0.2417333 0
10.379561 0.65565562 -0.24181043 0
0.89999664 0.079693027 -0.1920536 0
1.011142 0.089534737 -0.19119476 0
1.1521556 0.10202124 -0.19009925 0
1.344206 0.11902694 -0.18964669 0
1.6377931 0.14502352 -0.19216323 0
2.5820961 0.2286398 -0.24195676 0
3.4373171 0.30436805 -0.24124111 0
5.1598425 0.45689443 -0.24115457 0
10.359664 0.91732889 -0.24180925 0
0.89536631 0.10210938 -0.19155447 0
1.0082178 0.1149792 -0.1911297 0
1.1400512 0.13001375 -0.18858345 0
1.340947 0.1529243 -0.18967104 0
1.6269523 0.18554093 -0.19137979 0
2.5701463 0.29310465 -0.2414533 0
3.4441614 0.39277911 -0.24234003 0
5.1693425 0.58952224 -0.24221684 0
10.324304 1.1774044 -0.24160059 0
0.90006763 0.12572421 -0.19317761 0
1.0073526 0.1407101 -0.1915779 0
1.1450889 0.15994956 -0.19002403 0
1.3493397 0.18847993 -0.19147003 0
1.6226771 0.22666053 -0.19148883 0
2.5690846 0.35885766 -0.24212734 0
3.4188602 0.47755691 -0.24133101 0
5.1419063 0.71823728 -0.2417037 0
10.29649 1.4382454 -0.2417222 0
0.89067769 0.14741212 -0.1918997 0
1.0086943 0.16694453 -0.19257307 0
1.1512476 0.1905379 -0.19178301 0
1.3410162 0.22194566 -0.19102296 0
1.6075279 0.26605484 -0.19043289 0
2.5516207 0.42230743 -0.24140908 0
3.4141264 0.56505698 -0.24192652 0
5.1282434 0.84875292 -0.24199136 0
10.264922 1.6989018 -0.24191068 0
0.89119792 0.17070425 -0.19287863 0
1.0045115 0.19240884 -0.19264027 0
1.1414207 0.21863309 -0.1910044 0
1.3494651 0.2584829 -0.1930943 0
1.3389088 0.25646091 -0.15932746 0
1.3483497 0.25826925 -0.1281434 0
1.3549752 0.25953832 -0.096447594 0
1.3381805 0.2563214 -0.063431084 0
1.3500214 0.25858945 -0.031959224 0
1.352911 0.25914294 3.9325576e-05 0
0.87828022 0.19132178 -0.19106713 0
0.98791528 0.21520433 -0.19043854 0
1.1261358 0.24531385 -0.18942238 0
1.2031786 0.26209661 -0.17305367 0
1.2049606 0.26248479 -0.14413033 0
1.2021881 0.26188084 -0.1148442 0
1.21082 0.26376119 -0.086632848 0
1.2104152 0.26367304 -0.057671964 0
1.2052548 0.26254889 -0.028679885 0
1.2059889 0.26270878 3.5236448e-05 0
0.87309587 0.21340179 -0.19105017 0
0.98249155 0.24014024 -0.19050071 0
1.1276647 0.27562341 -0.19078891 0
1.1940758 0.2918556 -0.17274888 0
1.2011528 0.29358536 -0.14451517 0
1.1980089 0.29281694 -0.11511431 0
1.2148292 0.29692814 -0.087428063 0
1.2046497 0.29444006 -0.057732951 0
1.1980135 0.29281807 -0.028674304 0
1.1927315 0.29152703 3.5052915e-05 0
0.87946832 0.23862833 -0.19370079 0
0.98100501 0.26617855 -0.1914541 0
1.1207327 0.30409119 -0.19085382 0
1.2081118 0.32780001 -0.17592038 0
1.204264 0.32675597 -0.14583528 0
1.2172118 0.3302691 -0.11772294 0
1.1999931 0.32559714 -0.086924076 0
1.2122736 0.32892925 -0.058477573 0
1.1944418 0.32409087 -0.028775431 0
1.2104234 0.3284272 3.5805064e-05 0
0.87326336 0.26077083 -0.19372205 0
0.97683406 0.29169875 -0.19201575 0
1.110304 0.33155507 -0.19044229 0
1.210927 0.36160275 -0.17760272 0
1.2029269 0.3592138 -0.14672454 0
1.2096894 0.3612332 -0.11783966 0
1.2047334 0.35975325 -0.087897174 0
1.1999487 0.35832447 -0.05830073 0
1.2021077 0.35896915 -0.029169088 0
1.2125833 0.36209735 3.6127785e-05 0
0.84280461 0.27501968 -0.18844499 0
0.9666971 0.31544763 -0.19152716 0
1.0995713 0.35880649 -0.19009416 0
1.210988 0.39516342 -0.17901745 0
1.2212607 0.39851549 -0.15013976 0
1.2090081 0.39451733 -0.11870545 0
1.2081296 0.39423066 -0.088842615 0
1.1984138 0.39106026 -0.058687013 0
1.2116686 0.39538547 -0.02963379 0
1.2074696 0.39401525 3.6260168e-05 0
0.84452569 0.29936177 -0.19045852 0
0.96988195 0.34379721 -0.19381559 0
1.0927562 0.38735282 -0.1905454 0
1.2004962 0.42554381 -0.17899719 0
1.2205755 0.43266135 -0.15134981 0
1.2101166 0.42895398 -0.1198391 0
1.1997927 0.42529443 -0.088990554 0
1.209178 0.42862126 -0.059724875 0
1.2177356 0.43165472 -0.030039053 0
1.2169143 0.43136358 3.6858997e-05 0
0.84278905 0.32290626 -0.19184375 0
0.95460361 0.36574689 -0.19254582 0
1.0877452 0.41675878 -0.19144481 0
1.1996404 0.45963028 -0.18054175 0
1.2122763 0.46447161 -0.15172602 0
1.2113203 0.46410534 -0.12107976 0
1.2013729 0.46029407 -0.089940786 0
1.1971703 0.45868391 -0.059684586 0
1.2035527 0.46112925 -0.029966742 0
1.2040418 0.46131667 3.6810041e-05 0
0.82993931 0.34223932 -0.19082421 0
0.94727814 0.39062595 -0.19299538 0
1.0887513 0.44896477 -0.19355461 0
1.2043946 0.49665222 -0.18308543 0
1.2028595 0.49601921 -0.15206587 0
1.2131035 0.50024348 -0.12248102 0
1.1945156 0.49257845 -0.090329394 0
1.2085547 0.49836773 -0.060859859 0
1.2046511 0.49675798 -0.030296614 0
1.1984771 0.49421206 3.7009471e-05 0
0.83307272 0.36839148 -0.1936208 0
0.92840415 0.41054782 -0.19120026 0
1.0630229 0.47007731 -0.19102904 0
1.2186215 0.53888428 -0.18725604 0
1.2141417 0.53690332 -0.15515587 0
1.2127987 0.53630936 -0.12377747 0
1.2098805 0.53501892 -0.092482962 0
1.2043236 0.53256166 -0.061304145 0
1.2049388 0.53283364 -0.030632311 0
1.2221611 0.5404495 3.8149909e-05 0
0.81182015 0.38376614 -0.19087173 0
0.92006981 0.43493825 -0.19168353 0
1.0560675 0.49922749 -0.19198227 0
1.231722 0.58226341 -0.19146627 0
1.4823732 0.70075208 -0.19163243 0
1.8518716 0.87542248 -0.19119495 0
3.1365678 1.482728 -0.24254179 0
4.7029195 2.2231786 -0.2421736 0
9.4047403 4.445838 -0.24186569 0
0.80702829 0.40672216 -0.19209744 0
0.9046852 0.45593879 -0.19081502 0
1.0405895 0.52443117 -0.19151372 0
1.2195222 0.61460882 -0.19192006 0
1.4639232 0.73778081 -0.19159351 0
1.8262439 0.92038137 -0.19088656 0
3.0879869 1.5562685 -0.24174549 0
4.6413398 2.3391197 -0.24196562 0
9.284914 4.6793656 -0.24174438 0
0.79722333 0.42733747 -0.19226962 0
0.90139431 0.4831765 -0.19263171 0
1.0298297 0.55202198 -0.19203648 0
1.1893381 0.63752365 -0.1896417 0
1.4295545 0.76628745 -0.18956628 0
1.8123139 0.97145885 -0.19193222 0
3.0482841 1.6339787 -0.24178883 0
4.5778394 2.4538698 -0.24180691 0
9.1599779 4.9100442 -0.24164107 0
0.78457671 0.44639975 -0.19187573 0
0.88968569 0.50620347 -0.19279842 0
1.0112063 0.57534492 -0.19121063 0
1.1852121 0.67434883 -0.19163664 0
1.2176766 0.69282007 -0.16373679 0
1.2153214 0.69148004 -0.13051473 0
3.0048263 1.7096527 -0.24168745 0
4.5105023 2.5663354 -0.24159448 0
9.0424862 5.1448932 -0.24189012 0
0.77669585 0.46824288 -0.19277719 0
0.87692451 0.52866721 -0.19286309 0
1.0040697 0.60531867 -0.19268867 0
1.1650202 0.70235008 -0.19117713 0
1.1367921 0.68533236 -0.155137 0
1.1980728 0.72227639 -0.13057849 0
2.9593503 1.7840892 -0.24157454 0
4.4518881 2.6838882 -0.24200614 0
8.9030046 5.367311 -0.24170572 0
0.75607795 0.48223326 -0.19061998 0
0.86202598 0.54980785 -0.192577 0
0.98912489 0.63087267 -0.19281492 0
1.141933 0.72833496 -0.19034447 0
1.1387464 0.72630262 -0.15785508 0
1.177744 0.75117564 -0.13038766 0
2.9101543 1.8561224 -0.24130592 0
4.3845992 2.7965364 -0.24210805 0
8.7731972 5.5956235 -0.24193874 0
0.74860245 0.50448024 -0.19188426 0
0.85236412 0.57440484 -0.19359563 0
0.9732008 0.65583616 -0.19287601 0
1.1243923 0.75772351 -0.19054775 0
1.1407093 0.76871949 -0.16076548 0
1.155645 0.77878463 -0.13007575 0
2.8719621 1.9354039 -0.24211235 0
4.3067331 2.9022906 -0.24177621 0
8.6162624 5.8064651 -0.24157539 0
0.73262364 0.52106541 -0.19109862 0
0.82931358 0.58983439 -0.19168039 0
0.95726395 0.6808368 -0.19306165 0
1.1040113 0.78520823 -0.1903917 0
1.1396775 0.81057519 -0.16345127 0
1.1451949 0.81449932 -0.1311716 0
2.8106797 1.9990455 -0.24112271 0
4.2274642 3.0067079 -0.24150939 0
8.470829 6.0247254 -0.24168418 0
0.71469414 0.53597271 -0.18988991 0
0.81382787 0.61031634 -0.19160043 0
0.93137747 0.69847065 -0.19133528 0
1.0819647 0.81140095 -0.19006081 0
1.0945084 0.82080787 -0.15989336 0
1.0891565 0.81679434 -0.12707372 0
1.1082033 0.83107817 -0.096839204 0
1.1089995 0.83167529 -0.064534284 0
1.1039252 0.82786989 -0.032082409 0
1.0983289 0.82367307 3.9193139e-05 0
1.099053 0.82421613 0.032019295 0
1.0994488 0.8245129 0.064057156 0
1.1042424 0.82810783 0.096572287 0
0.70953465 0.56062257 -0.19221731 0
0.7899586 0.62416774 -0.18962932 0
0.91209841 0.72067368 -0.19105051 0
1.0559822 0.83436024 -0.18913563 0
1.0998337 0.86900848 -0.16382328 0
1.0861411 0.85818958 -0.12920785 0
1.0896014 0.86092359 -0.097081535 0
