# .PCD v0.7 - Point Cloud Data file format
VERSION 0.7
FIELDS x y z intensity
SIZE 4 4 4 4
TYPE F F F F
COUNT 1 1 1 1
WIDTH 1358
HEIGHT 1
VIEWPOINT 0 0 0 1 0 0 0
POINTS 1358
DATA ascii
0.69352686 -0.743402 -0.19149156 0
0.79669976 -0.85399461 -0.19194925 0
0.93590045 -1.0032059 -0.19281089 0
1.1118551 -1.1918145 -0.1904943 0
1.3912603 -1.491313 -0.19036898 0
1.8600428 -1.9938082 -0.1906238 0
3.5442746 -3.7991619 -0.24188498 0
7.0901489 -7.6000385 -0.24166018 0
0.63399953 -0.64611226 -0.19241457 0
0.71833968 -0.73206371 -0.19317955 0
0.81490529 -0.83047426 -0.19122462 0
0.9517774 -0.96996135 -0.19097753 0
1.139514 -1.1612847 -0.19015089 0
1.4307834 -1.4581188 -0.19068067 0
1.9102778 -1.9467741 -0.19067584 0
3.6310031 -3.7003744 -0.24135324 0
7.2861919 -7.4253964 -0.24187741 0
0.64765036 -0.62753683 -0.19168961 0
0.72740233 -0.70481199 -0.19077212 0
0.83966947 -0.81359261 -0.19215603 0
0.98547339 -0.95486838 -0.19284159 0
1.1726331 -1.1362156 -0.19083138 0
1.4743938 -1.4286048 -0.19162637 0
1.9622375 -1.9012978 -0.19101156 0
3.7267499 -3.6110113 -0.24158262 0
7.4702444 -7.2382474 -0.24184576 0
0.66508031 -0.61265689 -0.19221063 0
0.74602211 -0.68721861 -0.19104569 0
0.86180204 -0.79387242 -0.19257435 0
1.0027248 -0.92368728 -0.19159444 0
1.2081584 -1.112928 -0.19198039 0
1.5043759 -1.3857969 -0.19091648 0
2.5508599 -2.3497941 -0.24245995 0
3.8172307 -3.5163462 -0.24161795 0
7.6463189 -7.0436153 -0.24171376 0
0.68069661 -0.59600526 -0.19231518 0
0.76155263 -0.66680127 -0.19065234 0
0.87365848 -0.76495904 -0.19084875 0
1.0281595 -0.90023732 -0.19205178 0
1.2285982 -1.0757376 -0.19085324 0
1.5329541 -1.342226 -0.19018354 0
2.6076605 -2.2832189 -0.24230431 0
3.9139879 -3.4270148 -0.24219042 0
7.828917 -6.8548536 -0.24193983 0
0.67838472 -0.56438696 -0.1875778 0
0.77755427 -0.64689177 -0.19051026 0
0.89535874 -0.74490005 -0.19142124 0
1.050765 -0.8741914 -0.19209181 0
1.2448549 -1.0356659 -0.18925782 0
1.5635216 -1.3007828 -0.18984231 0
2.6592045 -2.2123439 -0.24182838 0
3.9814842 -3.3124239 -0.24111702 0
7.9901056 -6.6474247 -0.24165934 0
0.7093482 -0.56047529 -0.19216679 0
0.80182433 -0.63354313 -0.19247767 0
0.91067612 -0.71954989 -0.1907526 0
1.0647955 -0.84132379 -0.19071415 0
1.2714624 -1.004617 -0.18938784 0
1.5974752 -1.2622086 -0.19003639 0
2.7106729 -2.1417761 -0.2415161 0
4.0777926 -3.2219746 -0.2419477 0
8.1518183 -6.4409723 -0.24155666 0
0.72495359 -0.5436666 -0.19261578 0
0.81163102 -0.60866886 -0.19108322 0
0.93431854 -0.70067626 -0.19193947 0
1.0899396 -0.81738162 -0.19146171 0
1.3098724 -0.98231643 -0.19135523 0
1.6342994 -1.2256149 -0.19067644 0
2.7728765 -2.0794713 -0.24230497 0
4.1533914 -3.1147649 -0.24169183 0
8.3182306 -6.2381148 -0.24174543 0
0.73077643 -0.51975161 -0.19061679 0
0.83187592 -0.5916568 -0.19227262 0
0.94298363 -0.67068017 -0.19018158 0
1.113423 -0.79190207 -0.19201477 0
1.3234483 -0.94127882 -0.18980746 0
1.6727751 -1.1897314 -0.1916011 0
2.8150833 -2.0021775 -0.24150048 0
4.2318006 -3.0097921 -0.24175714 0
8.4765816 -6.0288162 -0.24184829 0
0.73647064 -0.49630466 -0.1887746 0
0.84311646 -0.56817287 -0.19149522 0
0.97846025 -0.6593805 -0.19391838 0
1.1286148 -0.76056904 -0.19126332 0
1.3386914 -0.90213889 -0.18866801 0
1.6860747 -1.1362392 -0.18977925 0
2.8658168 -1.9312627 -0.2415943 0
4.3079624 -2.9031188 -0.24184522 0
8.6231327 -5.8110952 -0.24176802 0
0.76837516 -0.49007651 -0.19372031 0
0.84754908 -0.54057437 -0.18934287 0
0.99077457 -0.63192481 -0.19313648 0
1.1539799 -0.7360186 -0.19235253 0
1.3693233 -0.87336653 -0.18981805 0
1.7296225 -1.1031686 -0.19148596 0
2.9135447 -1.8582847 -0.24158704 0
4.3790975 -2.7930274 -0.24180424 0
8.7688789 -5.5928693 -0.24181965 0
0.76512718 -0.46126851 -0.18990582 0
0.86546528 -0.52175885 -0.19034286 0
0.99691015 -0.6010024 -0.1913147 0
1.1719921 -0.70655322 -0.19232121 0
1.4072045 -0.84835458 -0.19203995 0
1.7588984 -1.0603786 -0.19170313 0
2.9699724 -1.7904929 -0.24244164 0
4.4511819 -2.6834626 -0.24196775 0
8.9011898 -5.3662176 -0.24165647 0
0.77658302 -0.44185156 -0.18992078 0
0.87871218 -0.49995986 -0.19042042 0
1.0136027 -0.57670838 -0.19166377 0
1.1894923 -0.6767841 -0.19232869 0
1.3994062 -0.79621863 -0.18817335 0
1.7946626 -1.0211072 -0.19273081 0
2.9991384 -1.7064164 -0.24122995 0
4.5103016 -2.5662212 -0.24158373 0
9.0391636 -5.143003 -0.24180125 0
0.79415083 -0.42569053 -0.19152862 0
0.89577872 -0.48016635 -0.19143161 0
1.0248828 -0.54937029 -0.19111402 0
1.2016222 -0.64410836 -0.19160043 0
1.447189 -0.77574009 -0.19190471 0
1.8092932 -0.96983957 -0.19161229 0
3.0512037 -1.6355438 -0.24202041 0
4.5800924 -2.4550776 -0.24192591 0
9.1634016 -4.9118791 -0.24173139 0
0.80677402 -0.40659401 -0.19203691 0
0.91607052 -0.46167672 -0.1932164 0
1.0384483 -0.52335203 -0.19111966 0
1.2195485 -0.614622 -0.19192418 0
1.4449735 -0.72823066 -0.18911344 0
1.8380539 -0.92633337 -0.192121 0
3.0875983 -1.5560726 -0.24171507 0
4.6426511 -2.3397806 -0.24203397 0
9.2932243 -4.6835537 -0.24196075 0
0.81305039 -0.38434771 -0.19116098 0
0.91596764 -0.43299907 -0.1908289 0
1.0494537 -0.49610102 -0.19077995 0
1.2272574 -0.58015293 -0.19077228 0
1.4757397 -0.69761628 -0.1907749 0
1.8560177 -0.87738246 -0.19162302 0
3.1260402 -1.4777515 -0.24172772 0
4.6969342 -2.2203493 -0.24186538 0
9.3968105 -4.4420896 -0.24166176 0
0.82866776 -0.36644357 -0.19259702 0
0.93122846 -0.41179675 -0.19178191 0
1.0588888 -0.4682492 -0.19028614 0
1.2450244 -0.55055988 -0.19131316 0
1.499691 -0.66317552 -0.19164638 0
1.8797425 -0.83123732 -0.19184534 0
3.1596448 -1.3972205 -0.24152246 0
4.759943 -2.1048853 -0.24229719 0
9.5098381 -4.2053275 -0.24176194 0
0.84034103 -0.34652865 -0.19321583 0
0.9419356 -0.38842285 -0.19190691 0
1.0683022 -0.44053221 -0.1899192 0
1.2522937 -0.51640421 -0.19036677 0
1.5122423 -0.62359834 -0.19117814 0
1.9039377 -0.78512049 -0.1922311 0
3.2032092 -1.3208967 -0.24222702 0
4.8025579 -1.9804149 -0.24184506 0
9.6120892 -3.9637053 -0.24174115 0
0.83814526 -0.32112703 -0.19078667 0
0.95744574 -0.36683583 -0.19311909 0
1.081388 -0.41432303 -0.19032593 0
1.2683588 -0.48595905 -0.19088365 0
1.5363322 -0.58863044 -0.1922842 0
1.9175093 -0.73467463 -0.19166818 0
3.2304614 -1.2377192 -0.24184853 0
4.8472962 -1.8571934 -0.24166058 0
9.7118073 -3.7209823 -0.24181013 0
0.8529284 -0.30234033 -0.19235352 0
0.96104282 -0.340664 -0.19204924 0
1.0897862 -0.38630006 -0.19002752 0
1.2819903 -0.4544313 -0.19114816 0
1.5430955 -0.5469861 -0.19134189 0
1.9342552 -0.68564177 -0.19155131 0
3.2499783 -1.1520305 -0.24105611 0
4.8896384 -1.7332461 -0.2415137 0
9.807622 -3.4765396 -0.24193402 0
0.85233635 -0.27812999 -0.19057621 0
0.97180748 -0.31711522 -0.19253965 0
1.0958432 -0.3575899 -0.18944962 0
1.2976048 -0.42342773 -0.1918218 0
1.5582682 -0.50848609 -0.19157092 0
1.957785 -0.63885432 -0.19222349 0
3.2914248 -1.0740408 -0.24204256 0
4.9288073 -1.608343 -0.24136651 0
9.8909531 -3.2275651 -0.24190314 0
0.86561447 -0.25848675 -0.19202524 0
0.97911704 -0.29238048 -0.19246453 0
1.108973 -0.33115759 -0.19021398 0
1.3072362 -0.39036226 -0.19172807 0
1.5559868 -0.46464327 -0.18978828 0
1.9537158 -0.58341175 -0.19031762 0
3.3139961 -0.98961383 -0.24178866 0
4.9788628 -1.4867705 -0.24190311 0
9.9661283 -2.9760501 -0.24182765 0
0.86721438 -0.23530343 -0.19100188 0
0.99329656 -0.26951364 -0.19385295 0
1.1288267 -0.30628735 -0.19223219 0
1.2988538 -0.35242125 -0.18913387 0
1.5663422 -0.42499954 -0.18968262 0
1.9578593 -0.53123081 -0.18935484 0
3.3319867 -0.90407622 -0.24135959 0
5.0175266 -1.361418 -0.24203509 0
10.028705 -2.7211134 -0.24160264 0
0.8765955 -0.21425718 -0.19181596 0
0.98237419 -0.24011156 -0.19047795 0
1.1332966 -0.27699995 -0.19174176 0
1.317372 -0.32199162 -0.19058633 0
1.5758812 -0.38517636 -0.18960014 0
1.9769794 -0.48321262 -0.18996404 0
3.3613269 -0.82157433 -0.24190584 0
5.0534186 -1.2351549 -0.24218556 0
10.099887 -2.4686108 -0.24173953 0
0.88015431 -0.19173002 -0.19147484 0
0.99189198 -0.21607061 -0.19120511 0
1.1399462 -0.24832228 -0.19174537 0
1.3270024 -0.28907001 -0.19086331 0
1.5985897 -0.3482317 -0.19121395 0
1.9829931 -0.43196896 -0.18943396 0
3.3822248 -0.73677313 -0.24199449 0
5.0791078 -1.1064167 -0.24200134 0
10.16513 -2.2143397 -0.24188642 0
0.87720311 -0.16802362 -0.18984978 0
1.0084732 -0.19316769 -0.19340004 0
1.1344635 -0.21730047 -0.18984018 0
1.335335 -0.25577635 -0.19107243 0
1.6147279 -0.30929258 -0.19214937 0
2.5474849 -0.48795727 -0.24210589 0
3.3882697 -0.64900512 -0.2411782 0
5.1022863 -0.97731596 -0.24185343 0
10.230096 -1.9595207 -0.24217835 0
0.89392006 -0.14794876 -0.19259828 0
1.0021622 -0.16586344 -0.19132602 0
1.13498 -0.18784551 -0.18907303 0
1.3472743 -0.22298141 -0.19191441 0
1.6151992 -0.26732448 -0.19134165 0
2.5653832 -0.42458522 -0.24271116 0
3.4096062 -0.56430882 -0.24160621 0
5.1224842 -0.84779966 -0.24171957 0
10.255488 -1.6973405 -0.24168837 0
0.89144909 -0.12452035 -0.19132785 0
1.0085769 -0.14088112 -0.19181073 0
1.1464183 -0.16013525 -0.19024464 0
1.3422401 -0.18748823 -0.1904626 0
1.6250137 -0.22698693 -0.19176458 0
2.5668693 -0.35854819 -0.24191855 0
3.4268513 -0.47867313 -0.24189508 0
5.1381869 -0.71771777 -0.24152885 0
10.300829 -1.4388515 -0.24182406 0
0.89813197 -0.10242478 -0.19214615 0
1.0073351 -0.11487852 -0.19096236 0
1.1551821 -0.1317393 -0.19108635 0
1.3476176 -0.15368503 -0.19061457 0
1.635381 -0.18650214 -0.19237125 0
2.5547469 -0.29134849 -0.2400066 0
3.4333308 -0.39154395 -0.24157795 0
5.1568379 -0.5880962 -0.24163091 0
10.334001 -1.1785102 -0.2418275 0
0.90355223 -0.080007866 -0.19281234 0
1.0116587 -0.089580499 -0.19129248 0
1.1318606 -0.10022414 -0.18675067 0
1.1226014 -0.099404261 -0.1583817 0
1.6501838 -0.1461207 -0.19361705 0
2.5812998 -0.22856928 -0.24188213 0
3.4459279 -0.30513048 -0.24184543 0
5.1727295 -0.45803556 -0.24175687 0
10.357217 -0.91711229 -0.24175215 0
0.90691829 -0.057288174 -0.19316058 0
1.0076905 -0.063653752 -0.1901778 0
1.1411283 -0.072082743 -0.18791978 0
1.140676 -0.07205417 -0.16062403 0
1.6454628 -0.10394052 -0.19269396 0
2.592134 -0.1637398 -0.24243292 0
3.4589171 -0.21849272 -0.24229288 0
5.1948285 -0.3281467 -0.24232547 0
10.379159 -0.65563023 -0.24180107 0
0.90354621 -0.034216002 -0.19219725 0
1.0257401 -0.038843311 -0.19333765 0
1.1340396 -0.042944457 -0.18651454 0
1.1315775 -0.042851217 -0.15913984 0
1.6372385 -0.061999876 -0.19148661 0
2.586174 -0.097934708 -0.2415674 0
3.4486353 -0.13059488 -0.24126494 0
5.1813989 -0.19621216 -0.24139112 0
10.379369 -0.39305183 -0.24149793 0
0.89950967 -0.011349561 -0.1912168 0
1.0236253 -0.012915589 -0.19281618 0
1.1387839 -0.014368603 -0.18717557 0
1.1292632 -0.014248474 -0.15871325 0
1.1422719 -0.014412612 -0.13351171 0
1.1323748 -0.014287734 -0.10570466 0
1.1270413 -0.01422044 -0.078797087 0
1.1325688 -0.014290184 -0.052730549 0
1.1350299 -0.014321237 -0.026392054 0
1.1342921 -0.014311927 3.2384789e-05 0
1.1266514 -0.014215522 0.026261603 0
1.1303849 -0.014262629 0.052693557 0
1.1274153 -0.01422516 0.078887925 0
1.1340437 -0.014308793 0.10592578 0
1.1322067 -0.014285615 0.13240081 0
1.1279199 -0.014231525 0.15859014 0
1.1306916 -0.014266498 0.1859118 0
1.120858 -0.014142422 0.21119778 0
0.9025777 0.011388271 -0.19186899 0
1.0062252 0.012696044 -0.18953858 0
1.1233468 0.014173825 -0.18463826 0
1.1374345 0.014351577 -0.1598617 0
1.651454 0.020837216 -0.19302624 0
2.5808773 0.032564212 -0.24091916 0
3.447588 0.043499928 -0.24103808 0
5.1886988 0.065468393 -0.24157731 0
10.395733 0.13116813 -0.24172467 0
0.89813799 0.0340112 -0.19104683 0
1.0024832 0.037962608 -0.18895404 0
1.1335738 0.042926818 -0.18643792 0
1.1248139 0.042595092 -0.15818866 0
1.6291374 0.061693102 -0.19053914 0
2.5825427 0.097797193 -0.24122819 0
3.4564929 0.13089244 -0.24181464 0
5.1944647 0.19670694 -0.24199983 0
10.401892 0.39390472 -0.24202196 0
0.89763474 0.05670175 -0.19118333 0
1.0157766 0.064164534 -0.19170386 0
1.1248312 0.071053281 -0.18523599 0
1.1233813 0.070961691 -0.15818867 0
1.6404806 0.1036258 -0.19211052 0
2.5806777 0.16301613 -0.24136145 0
3.4558539 0.21829922 -0.2420783 0
5.1853414 0.3275474 -0.24188292 0
10.383401 0.65589815 -0.24189986 0
0.90286362 0.07994689 -0.1926654 0
1.0203973 0.090354279 -0.19294482 0
1.1620475 0.10289714 -0.19173135 0
1.3462039 0.11920385 -0.18992856 0
1.6394423 0.14516956 -0.19235674 0
2.5868368 0.22905958 -0.24240099 0
3.4622302 0.30657405 -0.24298958 0
5.1794457 0.45863026 -0.24207076 0
10.353786 0.91680843 -0.24167205 0
0.90327686 0.10301152 -0.19324686 0
1.0051017 0.11462382 -0.19053897 0
1.1422681 0.13026656 -0.18895015 0
1.3572272 0.15478092 -0.19197378 0
1.6283376 0.18569891 -0.19154274 0
2.5787754 0.29408875 -0.24226397 0
3.4327319 0.39147568 -0.24153583 0
5.1561418 0.58801681 -0.24159829 0
10.332331 1.1783198 -0.24178842 0
0.88536382 0.12367035 -0.1900218 0
1.0137179 0.14159924 -0.19278845 0
1.1562296 0.16150571 -0.19187281 0
1.3429521 0.18758769 -0.19056365 0
1.6262829 0.22716421 -0.19191435 0
2.5602229 0.35761982 -0.24129216 0
3.4274223 0.47875291 -0.2419354 0
5.1491237 0.71924549 -0.24204297 0
10.294801 1.4380095 -0.24168254 0
0.88338172 0.14620461 -0.19032776 0
1.0092437 0.16703546 -0.19267796 0
1.1469896 0.18983318 -0.19107369 0
1.3427243 0.22222836 -0.19126628 0
1.6150696 0.26730302 -0.19132631 0
2.5508025 0.42217204 -0.24133168 0
3.414176 0.56506515 -0.24193002 0
5.1107922 0.84586465 -0.24116787 0
10.257442 1.6976639 -0.24173442 0
0.89315605 0.17107932 -0.19330242 0
0.9943133 0.19045545 -0.19068453 0
1.1390737 0.21818353 -0.19061165 0
1.3358376 0.25587264 -0.19114435 0
1.3428023 0.25720668 -0.15979078 0
1.3449652 0.25762099 -0.12782176 0
1.3350875 0.25572896 -0.095031992 0
1.3448457 0.25759807 -0.063747019 0
1.3481663 0.25823411 -0.031915311 0
1.347975 0.25819749 3.9182101e-05 0
0.88057315 0.19182126 -0.19156595 0
0.9917556 0.21604091 -0.19117883 0
1.1334645 0.24691029 -0.1906551 0
1.2143025 0.26451981 -0.17465362 0
1.2026404 0.26197937 -0.14385282 0
1.2017025 0.26177505 -0.1147978 0
1.2038171 0.2622357 -0.086131796 0
1.2042959 0.26234001 -0.057380401 0
1.2100129 0.26358539 -0.02879311 0
1.2010764 0.26163867 3.5092915e-05 0
0.87352037 0.21350555 -0.19114305 0
0.98449677 0.24063036 -0.19088949 0
1.1254011 0.27507016 -0.19040594 0
1.2156966 0.29714015 -0.17587678 0
1.2128209 0.29643726 -0.145919 0
1.2015593 0.29368472 -0.11545546 0
1.2146226 0.29687765 -0.087413192 0
1.2063628 0.29485881 -0.057815053 0
1.210395 0.29584432 -0.028970651 0
1.2132016 0.29653034 3.5654506e-05 0
0.87693191 0.23794012 -0.19314215 0
0.97678626 0.26503384 -0.19063076 0
1.1145926 0.30242518 -0.18980819 0
1.2073644 0.3275972 -0.17581154 0
1.2045773 0.326841 -0.14587322 0
1.2014984 0.32600555 -0.11620321 0
1.2101758 0.32835999 -0.087661669 0
1.2005289 0.32574248 -0.057911027 0
1.2041436 0.32672331 -0.029009162 0
1.2062007 0.32728145 3.5680154e-05 0
0.85741609 0.25603858 -0.19020653 0
0.9707613 0.28988531 -0.19082204 0
1.1116227 0.33194885 -0.19066846 0
1.2043215 0.35963023 -0.17663391 0
1.2133327 0.36232114 -0.14799376 0
1.1981943 0.35780057 -0.11671988 0
1.2053663 0.35994223 -0.087943345 0
1.1958718 0.35710704 -0.058102649 0
1.2123352 0.36202326 -0.029417258 0
1.2001103 0.35837275 3.5756166e-05 0
0.86074799 0.28087485 -0.19245699 0
0.97795898 0.31912255 -0.19375843 0
1.0969534 0.35795221 -0.18964157 0
1.2127951 0.39575306 -0.17928459 0
1.2037855 0.39281312 -0.1479914 0
1.2164723 0.39695299 -0.11943831 0
1.202522 0.3924008 -0.088430248 0
1.2104163 0.39497682 -0.059274778 0
1.204362 0.39300123 -0.029455094 0
1.2049514 0.39319354 3.6184549e-05 0
0.84029728 0.29786292 -0.18950494 0
0.95712531 0.33927533 -0.19126637 0
1.1091293 0.39315671 -0.19340041 0
1.205413 0.42728668 -0.1797303 0
1.1981688 0.4247188 -0.14857142 0
1.2033772 0.42656508 -0.1191717 0
1.2103852 0.42904922 -0.089776218 0
1.2057276 0.42739818 -0.05955445 0
1.2113434 0.42938885 -0.029881371 0
1.2101082 0.428951 3.6652844e-05 0
0.84428751 0.32348037 -0.19218485 0
0.9606691 0.36807081 -0.19376925 0
1.0845312 0.41552731 -0.19087914 0
1.2017387 0.46043426 -0.18085757 0
1.2262597 0.4698292 -0.15347615 0
1.2010992 0.46018919 -0.12005808 0
1.1993084 0.45950311 -0.089786239 0
1.2032316 0.46100619 -0.059986766 0
1.2098687 0.46354914 -0.030124001 0
1.2077155 0.46272421 3.6922353e-05 0
0.83377761 0.34382209 -0.19170673 0
0.94496495 0.38967207 -0.19252411 0
1.0818878 0.44613454 -0.19233444 0
1.2056534 0.49717131 -0.18327679 0
1.2042096 0.49657589 -0.15223654 0
1.1977128 0.49389684 -0.12092709 0
1.2002673 0.49495026 -0.090764344 0
1.21035 0.49910802 -0.060950264 0
1.2059997 0.4973141 -0.030330531 0
1.2138711 0.50055999 3.7484839e-05 0
0.83493674 0.36921579 -0.19405404 0
0.92487341 0.40898651 -0.19047312 0
1.0637494 0.4703986 -0.19115961 0
1.2014014 0.53126937 -0.18460993 0
1.2137074 0.53671128 -0.15510038 0
1.2091674 0.53470355 -0.12340686 0
1.2030321 0.53199053 -0.091959476 0
1.2041081 0.53246635 -0.061293174 0
1.2086521 0.53447574 -0.030726714 0
1.2041318 0.53247684 3.7587128e-05 0
0.82171327 0.38844284 -0.19319776 0
0.92392921 0.43676269 -0.1924876 0
1.0514908 0.49706402 -0.19115028 0
1.2231063 0.57819062 -0.19012702 0
1.4787148 0.69902265 -0.1911595 0
1.8646673 0.88147134 -0.19251603 0
3.1348765 1.4819286 -0.24241102 0
4.6921382 2.2180822 -0.24161842 0
9.3950596 4.4412618 -0.24161673 0
0.80459923 0.40549794 -0.19151925 0
0.91217834 0.45971513 -0.19239546 0
1.0400273 0.52414781 -0.19141026 0
1.2118342 0.61073422 -0.19071016 0
1.4542114 0.73288625 -0.19032246 0
1.8245931 0.91954941 -0.19071402 0
3.0804312 1.5524606 -0.24115399 0
4.6320014 2.3344133 -0.24147879 0
9.2913408 4.6826038 -0.24191169 0
0.80425113 0.4311046 -0.19396456 0
0.90367752 0.48440036 -0.19311963 0
1.0372969 0.55602467 -0.19342893 0
1.206946 0.64696211 -0.19244932 0
1.4358268 0.76964957 -0.19039801 0
1.8144056 0.97258002 -0.19215372 0
3.0482373 1.6339537 -0.24178512 0
4.5821967 2.4562054 -0.24203706 0
9.1636963 4.9120374 -0.24173917 0
0.78302765 0.44551837 -0.19149688 0
0.89834285 0.51112914 -0.19467446 0
1.0178556 0.57912821 -0.19246797 0
1.1740694 0.66800892 -0.18983497 0
1.2122135 0.68971175 -0.16300218 0
1.2165924 0.69220328 -0.13065122 0
3.0113735 1.7133777 -0.24221405 0
4.5098367 2.5659568 -0.24155882 0
9.03298 5.1394844 -0.24163581 0
0.77461404 0.46698782 -0.19226047 0
0.86990732 0.52443683 -0.19131979 0
1.0004405 0.6031307 -0.19199219 0
1.1689141 0.70469761 -0.19181612 0
1.1416736 0.68827522 -0.15580317 0
1.2082359 0.72840327 -0.13168617 0
2.9631805 1.7863984 -0.24188721 0
4.4419293 2.6778843 -0.24146476 0
8.9104023 5.3717713 -0.24190657 0
0.75978571 0.48459807 -0.19155475 0
0.84752089 0.54055637 -0.18933657 0
0.98170125 0.62613779 -0.19136779 0
1.1491761 0.7329548 -0.19155182 0
1.1453362 0.73050559 -0.15876855 0
1.1784413 0.75162035 -0.13046485 0
2.9121344 1.8573853 -0.24147011 0
4.3757529 2.790894 -0.24161956 0
8.7639503 5.5897255 -0.24168374 0
0.75053525 0.50578278 -0.1923797 0
0.84335184 0.56833148 -0.19154869 0
0.970043 0.65370816 -0.19225019 0
1.1306536 0.76194304 -0.19160885 0
1.1479442 0.77359509 -0.16178514 0
1.1613857 0.78265321 -0.1307219 0
2.8687997 1.9332728 -0.24184576 0
4.304687 2.9009116 -0.24166134 0
8.6231136 5.8110824 -0.2417675 0
0.73442382 0.52234578 -0.19156818 0
0.8281303 0.58899283 -0.19140689 0
0.94324458 0.67086577 -0.1902342 0
1.1024973 0.78413141 -0.19013059 0
1.1438935 0.81357366 -0.16405591 0
1.1395221 0.81046462 -0.13052182 0
2.8148651 2.0020223 -0.24148177 0
4.2256675 3.00543 -0.24140675 0
8.4791479 6.030642 -0.24192153 0
0.72895861 0.54667008 -0.19367988 0
0.8115254 0.60858965 -0.19105837 0
0.92417479 0.6930691 -0.18985561 0
1.0901116 0.8175106 -0.19149193 0
1.0959296 0.82187372 -0.160101 0
1.0941335 0.82052672 -0.12765437 0
1.0924093 0.81923372 -0.095459059 0
1.1016304 0.82614899 -0.064105473 0
1.1020525 0.82646543 -0.032027982 0
1.1002575 0.82511932 3.9261955e-05 0
1.0930494 0.81971377 0.031844389 0
1.1024201 0.8267411 0.064230263 0
1.0946172 0.82088959 0.095730513 0
0.70422268 0.55642545 -0.19077824 0
0.80208379 0.63374817 -0.19253996 0
0.92119455 0.72786081 -0.19295582 0
1.0410997 0.82260108 -0.18647002 0
1.1047778 0.87291491 -0.16455971 0
1.1016667 0.87045676 -0.13105477 0
1.1030542 0.871553 -0.098280154 0
1.1036359 0.87201273 -0.065482035 0
1.0918801 0.86272413 -0.032354858 0
1.1056828 0.87363005 4.022957e-05 0
1.1036901 0.87205553 0.032785174 0
1.0989569 0.8683157 0.065284558 0
1.0997344 0.86893004 0.098064788 0
0.69215536 0.57584351 -0.19138546 0
0.78868079 0.65614855 -0.19323638 0
0.89949787 0.74834359 -0.19230616 0
1.022519 0.85069191 -0.18692811 0
1.1074215 0.92132717 -0.16836354 0
1.1029036 0.91756845 -0.13391422 0
1.1025603 0.91728276 -0.10026696 0
1.0931225 0.90943098 -0.066199042 0
1.094986 0.9109813 -0.033117656 0
1.1038159 0.91832745 4.0991894e-05 0
1.1001791 0.91530174 0.03335648 0
1.0933644 0.90963215 0.066295065 0
1.1015235 0.91642028 0.10025489 0
0.68175423 0.59693128 -0.19261399 0
0.76063585 0.66599852 -0.19042283 0
0.87582076 0.76685232 -0.1913211 0
0.99454582 0.87080574 -0.18577302 0
1.1009721 0.96399063 -0.17102751 0
1.1052345 0.96772265 -0.13711917 0
1.0931172 0.95711303 -0.10157266 0
1.1090374 0.97105247 -0.068625204 0
1.0965017 0.96007639 -0.033885583 0
1.099188 0.96242845 4.1708819e-05 0
1.0924436 0.95652318 0.033843122 0
1.0988734 0.96215296 0.068079844 0
1.0936588 0.95758724 0.10170639 0
1.1025662 0.96538645 0.13687254 0
1.0832188 0.94844609 0.2712656 0
0.66282374 0.61057818 -0.19155847 0
0.75046563 0.6913119 -0.19218361 0
0.84967446 0.78270078 -0.18986438 0
0.9703477 0.89386225 -0.18540803 0
1.0612698 0.97761756 -0.16863929 0
1.1013837 1.0145696 -0.13977377 0
1.099099 1.012465 -0.10446967 0
1.1035966 1.016608 -0.069853969 0
1.1047791 1.0176975 -0.034924034 0
1.1015016 1.0146782 4.2754749e-05 0
1.1008755 1.0141015 0.034886144 0
1.1020223 1.0151579 0.069840066 0
1.1005844 1.0138333 0.10469671 0
1.1012183 1.0144173 0.13983902 0
1.035561 0.95393521 0.26527575 0
0.65226281 0.63200605 -0.1930548 0
0.73281127 0.71005297 -0.19219071 0
0.82995152 0.80417639 -0.18993209 0
0.83403659 0.80813462 -0.1632078 0
0.84065825 0.81455064 -0.13680662 0
0.83510733 0.80917209 -0.10853855 0
0.83738923 0.81138319 -0.081514612 0
0.83543158 0.80948627 -0.054155968 0
0.84429699 0.81807637 -0.027333729 0
0.84352386 0.81732726 3.3531371e-05 0
0.83091742 0.8051123 0.026966667 0
0.83947462 0.81340373 0.054484941 0
0.83396131 0.80806166 0.081247553 0
1.0998503 1.0656931 0.14303529 0
1.0110228 0.97962433 0.19792318 0
1.0070426 0.97576779 0.23054114 0
0.98781925 0.95714134 0.25915167 0
0.6325081 0.64459234 -0.19196194 0
0.71528655 0.72895229 -0.19235849 0
0.81511593 0.83068895 -0.19127406 0
0.83838594 0.85440356 -0.16822512 0
0.83968258 0.85572493 -0.14011799 0
0.83584034 0.85180932 -0.11139254 0
0.8463431 0.86251271 -0.084478386 0
0.83861977 0.8546418 -0.055743162 0
0.83813477 0.85414749 -0.027823294 0
0.84124351 0.85731566 3.428994e-05 0
0.83329403 0.84921432 0.027730567 0
0.84370643 0.85982567 0.056150205 0
0.84161156 0.85769075 0.084075049 0
0.83248049 0.84838521 0.11101323 0
1.1056439 1.1267674 0.18459034 0
0.9466958 0.96478266 0.19003658 0
0.94283628 0.9608494 0.22132368 0
0.96220529 0.9805885 0.25884235 0
0.62375706 0.66861469 -0.19436567 0
0.69847316 0.74870402 -0.19285728 0
0.79829395 0.85570347 -0.19233334 0
0.84504032 0.90581155 -0.1740922 0
0.8316648 0.89147413 -0.14248924 0
0.84177929 0.90231603 -0.11518238 0
0.85156822 0.91280895 -0.087271743 0
0.84035969 0.90079433 -0.057351757 0
0.84307045 0.90370005 -0.028735159 0
0.83730119 0.89751589 3.5041423e-05 0
0.83799535 0.89826 0.02863236 0
0.84089732 0.90137064 0.057458986 0
0.83982038 0.90021622 0.086138412 0
0.84327275 0.9039169 0.11545794 0
1.0987986 1.177819 0.18835056 0
0.92814028 0.99488771 0.19129139 0
0.93214917 0.99918491 0.22466327 0
0.92912817 0.99594665 0.25662458 0
0.59741515 0.67368245 -0.19139469 0
0.6743716 0.76046324 -0.19144109 0
0.77997583 0.87954915 -0.19320682 0
0.84567839 0.95363951 -0.17912522 0
0.84017414 0.94743252 -0.1479969 0
0.83442104 0.94094497 -0.11738772 0
0.84161329 0.94905543 -0.088678092 0
0.84088755 0.948237 -0.059002314 0
0.83614904 0.94289356 -0.029301038 0
0.84304768 0.95067286 3.6274523e-05 0
0.83805424 0.94504201 0.02943996 0
0.84232783 0.94986117 0.059176017 0
0.83471024 0.94127113 0.088022925 0
0.84183335 0.94930357 0.11850357 0
1.1019555 1.2426335 0.1942059 0
1.1100763 1.251791 0.23522539 0
0.58182722 0.69043988 -0.19192243 0
0.66258818 0.78627694 -0.19366792 0
0.72224462 0.85706979 -0.18420596 0
0.85146439 1.0104116 -0.18569322 0
0.84124959 0.99829 -0.15257601 0
0.83986932 0.99665207 -0.12165422 0
0.83563709 0.99162978 -0.090656631 0
0.84038216 0.99726063 -0.060713604 0
0.84532458 1.0031257 -0.030500073 0
0.83659488 0.99276638 3.7063197e-05 0
0.83413303 0.98984492 0.030170219 0
0.84283698 1.0001737 0.060965795 0
0.83999747 0.99680418 0.091204464 0
0.83814436 0.99460506 0.12147927 0
0.8410781 0.99808645 0.15262045 0
1.0969168 1.3016839 0.23932227 0
0.57176912 0.71432966 -0.19448979 0
0.63610125 0.79470181 -0.19172759 0
0.73026836 0.91234785 -0.19206412 0
0.85293752 1.0656024 -0.1918188 0
0.85073131 1.0628461 -0.15911026 0
0.83672976 1.0453535 -0.12498131 0
0.83901447 1.0482079 -0.093863264 0
0.83725184 1.0460058 -0.062374879 0
0.83993632 1.0493596 -0.031251304 0
0.83974981 1.0491266 3.8363833e-05 0
0.84040171 1.0499411 0.031345449 0
0.83262479 1.040225 0.062106404 0
0.8409211 1.0505899 0.094153784 0
0.84203047 1.0519758 0.12585068 0
0.8418138 1.0517051 0.15752041 0
1.0985248 1.3724225 0.24715175 0
1.1006643 1.3750954 0.28958333 0
0.54588377 0.71842098 -0.19179145 0
0.60951221 0.80216044 -0.18975523 0
0.70791888 0.93167049 -0.19230928 0
0.73155975 0.96278346 -0.1699326 0
0.73205918 0.96344078 -0.14141808 0
0.7299338 0.96064359 -0.11261501 0
0.72759736 0.95756865 -0.08407566 0
0.73601007 0.96864039 -0.056635704 0
0.72781003 0.95784861 -0.02797002 0
0.72997785 0.96070158 3.4445675e-05 0
0.72736275 0.95725995 0.028021514 0
0.71756738 0.94436854 0.055284411 0
0.72766834 0.95766217 0.084152877 0
0.73262167 0.96418101 0.11309945 0
0.72702181 0.95681125 0.14051452 0
0.72199059 0.95018977 0.16777928 0
0.72720146 0.95704764 0.19761795 0
0.72904235 0.95947039 0.22703896 0
0.52300394 0.72561181 -0.19012664 0
0.59524655 0.82584059 -0.19174196 0
0.679178 0.94228655 -0.19090149 0
0.72783989 1.0097996 -0.17493299 0
0.95320743 1.3224729 -0.1905264 0
0.84479326 1.1720599 -0.13485661 0
0.84023637 1.1657377 -0.10045918 0
0.83664638 1.1607569 -0.066612758 0
0.83772039 1.1622471 -0.033310626 0
0.83270878 1.1552939 4.0656232e-05 0
0.83612448 1.1600329 0.033328857 0
0.83718795 1.1615083 0.066737808 0
0.83875239 1.1636789 0.10036406 0
0.83179832 1.1540308 0.13286412 0
0.83933914 1.1644928 0.16784956 0
0.83862853 1.163507 0.20164403 0
1.0996765 1.525683 0.30920434 0
0.51863086 0.75921947 -0.19544058 0
0.57411021 0.84043527 -0.19170521 0
0.64845008 0.94926077 -0.18893856 0
0.76076049 1.1136711 -0.18954057 0
0.92043257 1.3474138 -0.19071202 0
1.1510655 1.6850353 -0.19047597 0
0.84588695 1.238287 -0.10483802 0
0.83732295 1.2257502 -0.069107771 0
0.84527516 1.2373914 -0.034841765 0
0.83579606 1.223515 4.2301199e-05 0
0.83959031 1.2290694 0.034692474 0
0.84215307 1.232821 0.06959185 0
0.83742142 1.2258943 0.103874 0
0.84091854 1.2310138 0.13923934 0
0.83929658 1.2286395 0.1739869 0
0.83482695 1.2220963 0.20808011 0
1.0987605 1.6084665 0.32025948 0
1.0982453 1.6077123 0.36683798 0
0.4876821 0.75408369 -0.19088919 0
0.5509451 0.85190487 -0.19108877 0
0.62551707 0.9672125 -0.18930905 0
0.73673791 1.1391889 -0.19065817 0
0.88850921 1.373867 -0.19122127 0
1.1108112 1.7176038 -0.19092754 0
1.4800863 2.2885995 -0.19053805 0
0.84774637 1.3108369 -0.072675489 0
0.83937871 1.2978984 -0.035937525 0
0.83533835 1.291651 4.3913995e-05 0
0.83754808 1.2950678 0.035947256 0
0.84051257 1.2996517 0.07214392 0
0.83860433 1.2967011 0.10804585 0
0.83805758 1.2958556 0.14413521 0
0.83953065 1.2981334 0.18076977 0
0.83875597 1.2969356 0.21714905 0
0.83828175 1.2962023 0.25379154 0
1.1034638 1.7062427 0.38284343 0
0.47082782 0.76995414 -0.19183743 0
0.53072035 0.86789763 -0.19161049 0
0.61065423 0.99861509 -0.19237751 0
0.71132529 1.1632445 -0.19161846 0
0.84852117 1.3876036 -0.19009191 0
1.0692229 1.7485217 -0.19130367 0
1.4266809 2.3330798 -0.19118254 0
0.85057867 1.3909683 -0.075903751 0
0.85375082 1.3961557 -0.038049418 0
0.84221983 1.377299 4.6088509e-05 0
0.84025413 1.3740844 0.037539922 0
0.83826989 1.3708395 0.074897282 0
0.83352828 1.3630855 0.11178873 0
0.84109735 1.3754634 0.15058064 0
0.83807641 1.3705231 0.18784496 0
0.83725387 1.3691781 0.22563484 0
0.8384968 1.3712106 0.26425013 0
1.1018007 1.8017968 0.39791733 0
0.45380029 0.78600353 -0.19292109 0
0.50815916 0.88015568 -0.19142425 0
0.57721126 0.99975723 -0.18973061 0
0.68048543 1.178633 -0.19126329 0
0.81694955 1.4149952 -0.19095889 0
1.0277911 1.780183 -0.19186847 0
1.3619579 2.3589756 -0.19042711 0
1.3723195 2.3769221 -0.12777552 0
0.84955108 1.4714626 -0.039504822 0
0.84162283 1.4577305 4.8053877e-05 0
0.84125346 1.4570907 0.039215095 0
0.84028274 1.4554094 0.07833419 0
0.83785176 1.4511988 0.11724344 0
0.83950883 1.454069 0.15681656 0
0.84735835 1.4676647 0.19816492 0
0.83902752 1.4532353 0.23592225 0
0.83736372 1.4503535 0.27534151 0
0.83815825 1.4517297 0.31583449 0
0.4260152 0.78285325 -0.18944846 0
0.48517326 0.89156318 -0.19118117 0
0.55653149 1.0226923 -0.19135657 0
0.6527586 1.1995209 -0.1919183 0
0.78221154 1.4374061 -0.19125812 0
0.98111206 1.8029093 -0.19158803 0
1.2864394 2.3639843 -0.18815053 0
1.2933018 2.3765948 -0.12596309 0
1.2885609 2.3678827 -0.062678203 0
0.84749669 1.5573752 5.0617411e-05 0
0.8418566 1.5470109 0.041050225 0
0.8394509 1.5425901 0.081860088 0
0.84480494 1.5524288 0.12365989 0
0.83882761 1.5414447 0.16390429 0
0.83773702 1.5394406 0.20493606 0
0.83965695 1.5429688 0.24697079 0
0.83872479 1.5412558 0.28848818 0
0.83663988 1.5374246 0.32977909 0
0.4118723 0.80457515 -0.1921283 0
0.46174151 0.90199256 -0.1908578 0
0.52737558 1.030206 -0.19021134 0
0.62284845 1.2167082 -0.19209187 0
0.75269777 1.4703634 -0.19305412 0
0.93611377 1.8286588 -0.19175255 0
1.2452277 2.4324996 -0.19104145 0
1.2418981 2.4259953 -0.12687971 0
1.2439178 2.4299409 -0.063469648 0
1.2448434 2.4317489 7.7990087e-05 0
0.84561038 1.6518642 0.043252427 0
0.84279495 1.6463643 0.086210787 0
0.83831918 1.6376212 0.12871957 0
0.83795238 1.6369045 0.17175117 0
0.83634669 1.633768 0.21461485 0
0.84143358 1.643705 0.25961295 0
0.84242767 1.6456468 0.30395126 0
0.84244359 1.6456779 0.34832779 0
0.38873744 0.80908412 -0.19080134 0
0.43513283 0.9056474 -0.18924707 0
0.5053826 1.051859 -0.1917931 0
0.59292912 1.2340708 -0.19240914 0
0.71031964 1.4783971 -0.19169404 0
0.89132482 1.8551254 -0.19210772 0
1.1799488 2.455842 -0.19047517 0
1.79197 3.7296495 -0.19263415 0
4.4969873 9.3596354 -0.24143064 0
0.84913182 1.7673087 0.091392621 0
0.84014899 1.7486126 0.13573374 0
0.83822232 1.7446026 0.18077399 0
0.83625776 1.7405137 0.22579272 0
0.8386119 1.7454134 0.27224746 0
0.84196985 1.7524023 0.31964225 0
0.84216398 1.7528063 0.36638719 0
0.36942753 0.82136464 -0.1914376 0
0.41872111 0.93096125 -0.19226716 0
0.47268543 1.0509424 -0.18939035 0
0.55748767 1.2394871 -0.19099899 0
0.67473781 1.5001745 -0.1922484 0
0.83904624 1.8654886 -0.19092713 0
1.1213222 2.4930854 -0.19110785 0
1.6863308 3.749294 -0.19138956 0
4.2631721 9.4784994 -0.24164428 0
1.0683644 2.3753419 0.1214027 0
0.84955019 1.8888426 0.14490837 0
0.83877468 1.864885 0.19098312 0
0.83595663 1.8586195 0.23830131 0
0.84148031 1.8709005 0.28841624 0
0.84017271 1.8679932 0.33675119 0
0.84026551 1.8681996 0.38595182 0
0.35220858 0.83905387 -0.19342701 0
0.39072743 0.93081594 -0.19013993 0
0.44698611 1.0648389 -0.18980116 0
0.52424729 1.2488955 -0.19034928 0
0.63561022 1.5141915 -0.19192775 0
0.79705071 1.8987854 -0.19221485 0
1.0627092 2.5316541 -0.19194721 0
1.5923196 3.7933259 -0.19152474 0
4.0267997 9.5929003 -0.24189276 0
0.99343747 2.3666303 0.11963787 0
0.8471626 2.0181651 0.15314062 0
0.83998388 2.0010633 0.20269349 0
0.83849102 1.9975071 0.25331464 0
0.83533156 1.9899805 0.30342671 0
0.84270757 2.0075519 0.35796177 0
0.83858973 1.9977422 0.40821156 0
0.32885665 0.84237188 -0.19221731 0
0.36930665 0.94598526 -0.19127369 0
0.4194614 1.0744574 -0.18956819 0
0.49326551 1.263508 -0.19061823 0
0.59602505 1.5267283 -0.19154908 0
0.74867827 1.917752 -0.19216082 0
0.99677843 2.5532649 -0.19161724 0
1.4994795 3.8409421 -0.19195695 0
3.7839577 9.6926718 -0.24192333 0
0.92818099 2.3775513 0.1189678 0
0.84658295 2.1685364 0.16287775 0
0.83509332 2.1391056 0.21447293 0
0.83920068 2.1496267 0.2698338 0
0.84039479 2.1526854 0.32489792 0
0.83797389 2.1464844 0.37884268 0
0.84022266 2.1522446 0.43531016 0
0.31142458 0.86126 -0.19467175 0
0.34551427 0.95553666 -0.19138077 0
0.39641303 1.0962996 -0.19159563 0
0.43051547 1.1906116 -0.17792486 0
0.43584687 1.2053559 -0.14980063 0
0.43344992 1.198727 -0.11897966 0
0.93629646 2.5893738 -0.19249238 0
1.3982443 3.8669131 -0.19143024 0
3.5374768 9.7830658 -0.24187405 0
0.85564065 2.3663163 0.11728768 0
0.84732771 2.3433263 0.17434435 0
0.83409953 2.3067431 0.22909708 0
0.83968234 2.3221829 0.28874189 0
0.84170002 2.3277626 0.3480047 0
0.83659381 2.3136413 0.40448952 0
0.84045851 2.3243291 0.46567708 0
0.28708774 0.86132097 -0.19298629 0
0.32400447 0.97207868 -0.19299458 0
0.36642212 1.0993401 -0.1904501 0
0.40150988 1.2046105 -0.17844564 0
0.40481168 1.2145165 -0.1496217 0
0.40272769 1.2082641 -0.11887953 0
0.86644077 2.5994966 -0.19155824 0
1.3013887 3.9044285 -0.1916004 0
3.2849224 9.8554287 -0.24153642 0
0.79166663 2.3751593 0.11669847 0
0.85198408 2.556124 0.18851668 0
0.84126627 2.5239682 0.24848317 0
0.84008986 2.5204387 0.31065783 0
0.83947706 2.5186002 0.37324882 0
0.84082144 2.5226336 0.43717793 0
0.84173369 2.5253706 0.50153953 0
0.26055208 0.85286558 -0.189558 0
0.30077711 0.98453426 -0.19389859 0
0.33792311 1.1061243 -0.19008732 0
0.38025296 1.2446827 -0.18290181 0
0.38097113 1.2470335 -0.15239452 0
0.38294166 1.2534835 -0.12233873 0
0.72267509 2.3655336 -0.17291823 0
0.72719187 2.3803184 -0.11587082 0
0.7262392 2.3772001 -0.057792693 0
0.72485387 2.3726654 7.0826209e-05 0
0.72100884 2.3600795 0.05751745 0
0.72631413 2.3774452 0.1158732 0
0.84414291 2.7631342 0.20214823 0
0.83585852 2.736017 0.26719725 0
0.83443224 2.7313483 0.33395147 0
0.83394891 2.7297664 0.40129593 0
0.8360275 2.7365701 0.470447 0
0.23933256 0.86054176 -0.18986107 0
0.27223471 0.97884434 -0.19136386 0
0.3099499 1.1144527 -0.19011366 0
0.36332339 1.306362 -0.19055721 0
0.43916422 1.5790545 -0.19155382 0
0.55342931 1.9899049 -0.19278803 0
0.66034842 2.3743422 -0.17228895 0
0.66004181 2.3732398 -0.11467879 0
0.6589092 2.3691673 -0.057174899 0
0.65860784 2.3680837 7.0170892e-05 0
0.66274589 2.3829625 0.057649117 0
0.66051906 2.3749559 0.11490276 0
0.81168795 2.9184971 0.21194817 0
0.81306088 2.9234335 0.2834059 0
0.81395531 2.9266496 0.3552053 0
0.80943668 2.9104023 0.42471224 0
0.81335551 2.9244928 0.49906504 0
0.21974581 0.87507421 -0.19178265 0
0.24853212 0.98970735 -0.19220005 0
0.28141814 1.1206665 -0.18990155 0
0.32837996 1.3076783 -0.18947992 0
0.39432696 1.5702933 -0.18922342 0
0.49715933 1.9797934 -0.19053207 0
0.59585267 2.3728111 -0.17103215 0
0.59555548 2.3716278 -0.11383832 0
0.59654373 2.3755631 -0.056947764 0
0.59377491 2.3645372 6.959957e-05 0
0.5955109 2.3714502 0.05698885 0
0.59350914 2.3634789 0.1135866 0
0.76627117 3.0514536 0.22012918 0
0.7665323 3.0524936 0.29394823 0
0.7688365 3.0616693 0.36911988 0
0.76847494 3.0602293 0.44360471 0
0.19879968 0.88569885 -0.19295008 0
0.22429632 0.99929225 -0.19290064 0
0.25517511 1.1368644 -0.19149402 0
0.29794502 1.3274144 -0.19118914 0
0.35276172 1.5716355 -0.18825234 0
0.44708177 1.9918534 -0.19054607 0
0.55007958 2.4507325 -0.17559208 0
0.54738444 2.438725 -0.11635879 0
0.54979688 2.4494729 -0.058368322 0
0.55083615 2.454103 7.1803835e-05 0
0.55075717 2.4537513 0.058613934 0
0.55153114 2.4571996 0.11738437 0
0.71236008 3.1737299 0.22758059 0
0.7110346 3.1678245 0.30322963 0
0.71387661 3.1804864 0.38115105 0
0.71260661 3.1748283 0.45746392 0
0.17559461 0.88642091 -0.19208072 0
0.19749451 0.99697393 -0.19142994 0
0.22327584 1.127121 -0.18884347 0
0.26370209 1.331197 -0.19071463 0
0.31846595 1.6076511 -0.19154257 0
0.39577931 1.9979374 -0.19011196 0
0.41267422 2.0832248 -0.14846705 0
0.41223827 2.0810239 -0.098763928 0
0.41502953 2.0951145 -0.049658917 0
0.41095817 2.0745621 6.0376256e-05 0
0.41583568 2.099184 0.049877625 0
0.41542244 2.0970979 0.099649124 0
0.41597968 2.0999112 0.14977907 0
0.41344917 2.0871367 0.1987222 0
0.41490537 2.0944879 0.24967 0
0.4041329 2.0401073 0.2923981 0
0.29586747 1.4935715 0.2503297 0
0.27060172 1.3660272 0.26237455 0
0.15415835 0.89629543 -0.1933158 0
0.17269772 1.0040857 -0.19189744 0
0.19599298 1.1395271 -0.19003275 0
0.2314278 1.3455495 -0.19187291 0
0.27918068 1.6231905 -0.19249317 0
0.34593761 2.0113235 -0.19049422 0
0.36650118 2.1308825 -0.15115614 0
0.87945253 5.1132441 -0.24154063 0
1.7619619 10.244262 -0.24168098 0
0.58050883 3.375149 0.15963204 0
0.58030826 3.3739829 0.23953305 0
0.57982594 3.3711786 0.31948435 0
0.26373866 1.5334086 0.18193606 0
0.27048221 1.5726165 0.22434516 0
0.27065802 1.5736387 0.26252082 0
0.23561716 1.3699069 0.26189414 0
0.13075738 0.89485264 -0.1922316 0
0.14709577 1.0066662 -0.19162007 0
0.16692878 1.1423957 -0.18974811 0
0.19529991 1.3365566 -0.1898272 0
0.23615287 1.6161383 -0.19088925 0
0.29515538 2.0199285 -0.19054301 0
0.39409864 2.6970577 -0.19055206 0
0.75120956 5.140986 -0.24187842 0
1.5026784 10.283746 -0.24164081 0
0.50699413 3.4696705 0.16344529 0
0.50331539 3.4444947 0.24355955 0
0.50392604 3.4486737 0.3255195 0
0.2203178 1.5077692 0.17817749 0
0.2748622 1.8810499 0.26727065 0
0.20018424 1.3699831 0.26085973 0
0.10772116 0.89440805 -0.19149105 0
0.12027211 0.99861842 -0.18945003 0
0.1384984 1.1499511 -0.19036181 0
0.16325064 1.3554689 -0.19186695 0
0.19650207 1.6315552 -0.19206326 0
0.24435577 2.0288842 -0.19074529 0
0.3270286 2.7153158 -0.19119798 0
0.61979938 5.1461897 -0.24131042 0
1.2448659 10.336112 -0.24205591 0
0.42436936 3.5235355 0.16542548 0
0.42203525 3.5041554 0.24694633 0
0.4245168 3.5247598 0.33158433 0
0.42471418 3.5263984 0.41532579 0
0.22880183 1.8997399 0.26902005 0
0.16435277 1.3646199 0.25896621 0
0.084848709 0.89398193 -0.19088055 0
0.09635146 1.015177 -0.19206887 0
0.1095371 1.1541034 -0.19053087 0
0.12900938 1.3592671 -0.1918826 0
0.15460041 1.628899 -0.19123034 0
0.19329557 2.0365984 -0.19095108 0
0.25703871 2.7082081 -0.19018012 0
0.49043652 5.1673312 -0.2416444 0
0.98105109 10.336538 -0.24140915 0
0.34083852 3.5911386 0.16814195 0
0.33836842 3.5651131 0.25056052 0
0.33832428 3.5646482 0.33442697 0
0.33880106 3.5696714 0.41928169 0
0.3398813 3.5810533 0.50573319 0
0.17257102 1.8182406 0.30028033 0
0.12957843 1.3652626 0.25838527 0
0.062096421 0.89340323 -0.19036172 0
0.07012336 1.0088897 -0.19048381 0
0.079291046 1.1407883 -0.18794245 0
0.094188578 1.3551245 -0.19090141 0
0.11290263 1.6243701 -0.19030352 0
0.14121574 2.0317209 -0.19009906 0
0.15883897 2.2852726 -0.16014755 0
0.36023688 5.1828556 -0.24186818 0
0.72121644 10.376397 -0.24183792 0
0.25221905 3.6287649 0.16955161 0
0.25154147 3.6190162 0.25382191 0
0.13226639 1.9029634 0.17816165 0
0.13244554 1.9055411 0.22335473 0
0.13281563 1.9108657 0.26930228 0
0.12361325 1.7784677 0.29310328 0
0.095645681 1.3760884 0.25989446 0
0.039753512 0.8996256 -0.19141282 0
0.045110013 1.0208437 -0.19246456 0
0.050990958 1.1539301 -0.18983503 0
0.06044675 1.3679155 -0.19242714 0
0.072612315 1.6432233 -0.19223635 0
0.090121999 2.039469 -0.19055051 0
0.10879513 2.4620438 -0.17228805 0
0.099969082 2.2623096 -0.10542382 0
0.45907483 10.388906 -0.24178241 0
0.16228032 3.6724186 0.17134535 0
0.1619036 3.6638935 0.25660107 0
0.085706808 1.9395529 0.18132702 0
0.084930703 1.9219896 0.22495982 0
0.085401863 1.9326519 0.27198228 0
0.075601809 1.7108757 0.28155956 0
0.060445063 1.3678774 0.2579734 0
0.016828477 0.88903958 -0.18900989 0
0.019400977 1.0249434 -0.19308367 0
0.022139816 1.1696348 -0.1922655 0
0.025611917 1.3530641 -0.19018646 0
0.030814998 1.6279401 -0.19029681 0
0.038545642 2.036346 -0.19010729 0
0.051751263 2.7339919 -0.19116604 0
0.04260464 2.2507808 -0.10480309 0
0.04385167 2.3166606 -0.053873044 0
0.045120452 2.3836896 6.8062684e-05 0
0.070148684 3.7059178 0.17277072 0
0.069859587 3.6906452 0.25826892 0
0.069576725 3.6757016 0.34336445 0
0.069702446 3.6823435 0.43065789 0
0.031601314 1.6694808 0.2745285 0
0.026002683 1.373708 0.25886685 0
-0.0056531341 0.89630276 -0.19052368 0
-0.0063179103 1.0017028 -0.18867546 0
-0.0072768396 1.1537408 -0.18962263 0
-0.0085890917 1.3617979 -0.19138363 0
-0.010350003 1.6409899 -0.19179173 0
-0.012877707 2.0417566 -0.19058205 0
-0.014209759 2.2529531 -0.1575058 0
-0.01420972 2.2529469 -0.10488725 0
-0.015158611 2.4033933 -0.055881076 0
-0.023385471 3.7077594 0.17282905 0
-0.023455776 3.7189064 0.26020518 0
-0.02336362 3.7042952 0.34598041 0
-0.023453463 3.7185397 0.43482187 0
-0.010320356 1.6362894 0.26902768 0
-0.008664798 1.3738011 0.25884315 0
-0.028607354 0.90669608 -0.19282503 0
-0.032204773 1.0207146 -0.19234826 0
-0.036213242 1.147761 -0.18872994 0
-0.042622648 1.350904 -0.18994331 0
-0.051782031 1.6412061 -0.19190863 0
-0.064653449 2.0491593 -0.19136441 0
-0.086416565 2.7389307 -0.19157235 0
-0.11996057 3.8020916 -0.17709315 0
-0.12006209 3.8053093 -0.088519163 0
-0.1197245 3.7946093 0.00010838388 0
-0.1196535 3.7923591 0.088434674 0
-0.11793031 3.7377434 0.17430992 0
-0.11727801 3.7170691 0.26020086 0
-0.11745701 3.7227426 0.34786949 0
-0.11739393 3.7207434 0.43528742 0
-0.051513243 1.6326871 0.26856363 0
-0.043460131 1.3774476 0.25965419 0
-0.051589608 0.90770084 -0.19325408 0
-0.057604901 1.0135378 -0.19120891 0
-0.065698907 1.1559489 -0.19028836 0
-0.078191303 1.3757482 -0.19365232 0
-0.0932023 1.6398613 -0.19196533 0
-0.1162871 2.0460303 -0.19128536 0
-0.15587898 2.742635 -0.19204548 0
-0.21518226 3.7860556 -0.17654295 0
-0.21514799 3.7854524 -0.088155493 0
-0.2147439 3.7783425 0.00010803966 0
-0.2145845 3.775538 0.088140644 0
-0.21243249 3.7376742 0.17450117 0
-0.21141718 3.7198102 0.26068324 0
-0.21216109 3.732899 0.34920773 0
-0.078712173 1.3849127 0.16220082 0
-0.077964552 1.3717586 0.19317076 0
-0.077373222 1.3613544 0.22418147 0
-0.078237467 1.3765604 0.25977647 0
-0.07380911 0.89800417 -0.19152524 0
-0.08355277 1.0165511 -0.19211406 0
-0.09460406 1.1510075 -0.18980755 0
-0.11208957 1.3637464 -0.19229992 0
-0.13455731 1.6371018 -0.19197869 0
-0.16829272 2.0475461 -0.19176313 0
-0.22435278 2.7296052 -0.19146863 0
-0.42446458 5.1642809 -0.24123202 0
-0.8515746 10.360747 -0.24170431 0
-0.30722976 3.7379346 0.17481966 0
-0.30639011 3.7277188 0.26169607 0
-0.30603188 3.7233605 0.34892684 0
-0.3056182 3.7183273 0.43625456 0
-0.11395825 1.3864818 0.1955868 0
-0.11480817 1.3968225 0.23042597 0
-0.11255271 1.3693812 0.25887528 0
-0.096725017 0.8984744 -0.19208503 0
-0.1095784 1.0178689 -0.19282436 0
-0.12420531 1.1537375 -0.19071396 0
-0.14502734 1.3471526 -0.19041556 0
-0.17646725 1.6391966 -0.19268528 0
-0.21881233 2.0325382 -0.190814 0
-0.29121816 2.7051127 -0.19020559 0
-0.55641973 5.1685581 -0.24201076 0
-1.1137227 10.345321 -0.24192314 0
-0.39878023 3.704252 0.17365979 0
-0.39818496 3.6987224 0.26028308 0
-0.39993584 3.7149863 0.34897691 0
-0.39988276 3.7144933 0.43684974 0
-0.14908966 1.3848873 0.19583033 0
-0.14986931 1.3921293 0.23020245 0
-0.14660403 1.3617984 0.25805908 0
-0.11926018 0.89497167 -0.19191857 0
-0.13384451 1.0044179 -0.19085537 0
-0.15378191 1.1540352 -0.19134381 0
-0.18027446 1.352845 -0.19180219 0
-0.21629955 1.6231904 -0.19138454 0
-0.27146155 2.0371461 -0.19182873 0
-0.36013219 2.7025628 -0.19060472 0
-0.68767023 5.1605272 -0.24237022 0
-1.3729795 10.303337 -0.24167475 0
-0.49147475 3.6882052 0.1734338 0
-0.49114037 3.6856956 0.26015586 0
-0.2417592 1.8142489 0.17094493 0
-0.24337158 1.8263487 0.21544485 0
-0.18634281 1.3983841 0.19834073 0
-0.1868149 1.4019269 0.23252821 0
-0.18198866 1.3657091 0.25958791 0
-0.1419986 0.89290631 -0.19218299 0
-0.16005905 1.0064729 -0.19195235 0
-0.1808853 1.1374311 -0.18928745 0
-0.21563767 1.3559587 -0.19295382 0
-0.26021746 1.6362824 -0.19364087 0
-0.32132685 2.0205464 -0.19096848 0
-0.42915183 2.6985645 -0.19102579 0
-0.81548291 5.1278663 -0.24172594 0
-1.6311744 10.257045 -0.24147767 0
-0.58297712 3.6658387 0.17301883 0
-0.58141786 3.6560338 0.25901544 0
-0.27951568 1.7576321 0.16622208 0
-0.28042582 1.7633553 0.20878226 0
-0.28030553 1.7625989 0.25092289 0
-0.21717176 1.3656052 0.26052704 0
-0.16499537 0.8918125 -0.19278249 0
-0.18552695 1.0027872 -0.1920813 0
-0.20961025 1.1329594 -0.18936338 0
-0.24863686 1.3439012 -0.19206984 0
-0.29845223 1.6131569 -0.19173454 0
-0.37213922 2.0114408 -0.19093476 0
-0.49629375 2.6825054 -0.19071496 0
-0.94439602 5.1045322 -0.24167262 0
-1.8943534 10.239123 -0.24210429 0
-0.66961074 3.6192968 0.17156519 0
-0.66784132 3.6097331 0.25684759 0
-0.67081672 3.6258154 0.34439066 0
-0.66749215 3.6078458 0.42902905 0
-0.29170147 1.5766686 0.26361918 0
-0.25274405 1.3661007 0.2617552 0
-0.18647033 0.88275552 -0.19178094 0
-0.20973599 0.99289578 -0.19113971 0
-0.23715045 1.1226765 -0.18858506 0
-0.27871707 1.3194541 -0.1895209 0
-0.33751753 1.5978171 -0.190863 0
-0.42129549 1.9944242 -0.19026823 0
-0.56477559 2.6736629 -0.19103888 0
-0.6181643 2.9264064 -0.1392442 0
-0.6187607 2.9292297 -0.069608793 0
-0.61986983 2.9344804 8.5623338e-05 0
-0.75524706 3.5753598 0.17033179 0
-0.75527507 3.5754926 0.25568619 0
-0.75292861 3.5643842 0.34025237 0
-0.75305814 3.5649974 0.4260582 0
-0.28760621 1.3615355 0.26218784 0
-0.20883147 0.87839103 -0.19191669 0
-0.23524398 0.98948783 -0.19156562 0
-0.26936224 1.1329968 -0.19139966 0
-0.31614596 1.3297793 -0.19208889 0
-0.37460586 1.5756745 -0.18928713 0
-0.47370398 1.9925029 -0.19116466 0
-0.52592719 2.2121651 -0.15896171 0
-0.61562735 2.5894637 -0.12391166 0
-0.61953598 2.6059043 -0.06227719 0
-0.61836261 2.6009691 7.63231e-05 0
-0.83689052 3.5201452 0.16865389 0
-0.83527374 3.5133448 0.25266904 0
-0.83523476 3.513181 0.33726948 0
-0.8347742 3.5112436 0.42201757 0
-0.83338362 3.5053945 0.50657004 0
-0.2332733 0.88170826 -0.19386609 0
-0.26141852 0.98808938 -0.19251095 0
-0.2958734 1.1183193 -0.19012113 0
-0.35079724 1.3259161 -0.19274841 0
-0.41462147 1.5671539 -0.18946032 0
-0.52263594 1.9754187 -0.19073038 0
-0.57952935 2.19046 -0.15840262 0
-0.64661038 2.4440074 -0.11769471 0
-0.64891416 2.4527154 -0.058988824 0
-0.64568013 2.4404914 7.2069277e-05 0
-0.91534388 3.4597454 0.16681382 0
-0.91148257 3.4451509 0.24933979 0
-0.91205376 3.44731 0.3330496 0
-0.90949631 3.4376433 0.41579807 0
-0.91122311 3.4441702 0.50088644 0
-0.25317457 0.86775863 -0.19214268 0
-0.28364375 0.97219199 -0.19074766 0
-0.32611203 1.1177524 -0.19136311 0
-0.34739047 1.1906846 -0.17430887 0
-0.46031845 1.5777465 -0.19208428 0
-0.57026857 1.9546016 -0.1900496 0
-0.71630615 2.455147 -0.17879383 0
-0.7121278 2.4408257 -0.11836933 0
-0.71570903 2.4531004 -0.059413608 0
-0.71406174 2.4474545 7.2783929e-05 0
-0.98442346 3.3741221 0.16383122 0
-0.98152804 3.364198 0.24519572 0
-0.98406041 3.3728776 0.32815361 0
-0.98546255 3.3776834 0.41142303 0
-0.98380703 3.3720093 0.49384585 0
-0.27191398 0.85146737 -0.18999451 0
-0.30884293 0.9671061 -0.19121829 0
-0.35044783 1.0973871 -0.18933049 0
-0.37797377 1.1835814 -0.17460996 0
-0.39305675 1.230812 -0.15100609 0
-0.39916971 1.2499541 -0.12247596 0
-0.39680126 1.2425376 -0.091186956 0
-0.39896998 1.2493286 -0.061055839 0
-0.40051219 1.2541579 -0.030610535 0
-0.40084305 1.2551939 3.7616624e-05 0
-0.39826867 1.2471327 0.030513858 0
-0.39636436 1.2411695 0.060731649 0
-0.40020245 1.253188 0.092044041 0
-0.39718169 1.2437289 0.12194118 0
-0.39644045 1.2414076 0.15238148 0
-0.39424819 1.2345428 0.18220361 0
-0.39857054 1.2480778 0.21540575 0
-0.40079448 1.2550418 0.24822746 0
-0.29634389 0.85306692 -0.19195925 0
-0.33672878 0.96932042 -0.19327495 0
-0.38102165 1.0968236 -0.19083163 0
-0.43092766 1.240485 -0.18455051 0
-0.42774248 1.231316 -0.15234393 0
-0.42789525 1.2317557 -0.12171225 0
-0.43263179 1.2453905 -0.092168309 0
-0.43353447 1.2479889 -0.061505526 0
