# .PCD v0.7 - Point Cloud Data file format
VERSION 0.7
FIELDS x y z intensity
SIZE 4 4 4 4
TYPE F F F F
COUNT 1 1 1 1
WIDTH 1359
HEIGHT 1
VIEWPOINT 0 0 0 1 0 0 0
POINTS 1359
DATA ascii
1.1227977 -0.27443382 -0.18996547 0
1.3072833 -0.31952572 -0.18912677 0
1.5833161 -0.38699359 -0.19049466 0
1.9841756 -0.48497149 -0.1906555 0
3.3500075 -0.81880766 -0.24109122 0
5.0522442 -1.2348678 -0.24212928 0
10.096858 -2.4678707 -0.24166705 0
0.88127977 -0.19197519 -0.19171967 0
0.999695 -0.2177704 -0.1927093 0
1.1280181 -0.24572389 -0.18973899 0
1.3245137 -0.28852788 -0.19050534 0
1.5979521 -0.34809282 -0.19113769 0
1.9802241 -0.43136576 -0.18916945 0
3.385148 -0.73740989 -0.24220364 0
5.0839143 -1.1074637 -0.24223036 0
10.162475 -2.2137613 -0.24182323 0
0.89166468 -0.17079365 -0.19297965 0
1.0003573 -0.19161314 -0.1918436 0
1.1301341 -0.21647121 -0.1891157 0
1.3302293 -0.25479838 -0.19034185 0
1.6234359 -0.31096053 -0.19318561 0
2.5467618 -0.48781872 -0.24203715 0
3.4004617 -0.65134043 -0.24204603 0
5.10748 -0.97831076 -0.24209963 0
10.201535 -1.9540502 -0.24150224 0
0.89834404 -0.14868096 -0.19355145 0
1.0151168 -0.16800749 -0.19379921 0
1.1400819 -0.18868992 -0.18992296 0
1.3480874 -0.22311598 -0.19203024 0
1.6121075 -0.26681277 -0.1909754 0
2.5454378 -0.42128414 -0.24082412 0
3.4049413 -0.56353676 -0.24127564 0
5.1243143 -0.84810263 -0.24180596 0
10.252664 -1.6968731 -0.24162181 0
0.90104079 -0.12586015 -0.19338648 0
1.0036557 -0.14019372 -0.19087484 0
1.1631657 -0.16247457 -0.19302382 0
1.3421893 -0.18748114 -0.19045539 0
1.6230621 -0.22671433 -0.19153428 0
2.5709846 -0.35912305 -0.24230641 0
3.4259131 -0.47854209 -0.24182886 0
5.144649 -0.71862048 -0.24183264 0
10.294493 -1.4379665 -0.2416753 0
0.89999449 -0.10263719 -0.19254462 0
1.018268 -0.11612534 -0.19303493 0
1.1479883 -0.13091891 -0.18989636 0
1.3554702 -0.15458056 -0.19172527 0
1.6249766 -0.18531562 -0.19114739 0
2.5706019 -0.29315662 -0.24149612 0
3.4372656 -0.39199272 -0.24185483 0
5.1603303 -0.58849448 -0.24179456 0
10.326467 -1.1776512 -0.24165121 0
0.90283763 -0.079944588 -0.19265985 0
1.0075076 -0.089212917 -0.19050753 0
1.1322505 -0.10025867 -0.18681501 0
1.1250262 -0.099618979 -0.15872382 0
1.6295137 -0.1442904 -0.19119182 0
2.5735741 -0.22788519 -0.2411582 0
3.4453561 -0.30507985 -0.2418053 0
5.1679111 -0.45760888 -0.24153167 0
10.348606 -0.91634983 -0.24155116 0
0.89889878 -0.056781594 -0.19145255 0
1.0231981 -0.064633332 -0.19310449 0
1.1255815 -0.071100682 -0.18535955 0
1.1297964 -0.071366929 -0.15909201 0
1.6433047 -0.1038042 -0.19244125 0
2.5801854 -0.16298504 -0.24131541 0
3.4526768 -0.21809852 -0.24185576 0
5.1805668 -0.3272458 -0.24166019 0
10.377575 -0.65553021 -0.24176416 0
0.90823472 -0.034393549 -0.19319455 0
1.0203668 -0.038639829 -0.19232483 0
1.1262341 -0.04264887 -0.18523076 0
1.1259308 -0.042637389 -0.15834573 0
1.6349869 -0.061914612 -0.19122328 0
2.5896235 -0.098065332 -0.2418896 0
3.4582086 -0.13095741 -0.24193467 0
5.1860847 -0.1963896 -0.24160942 0
10.388409 -0.39339417 -0.24170826 0
0.89823413 -0.011333467 -0.19094564 0
1.0195166 -0.012863748 -0.19204225 0
1.135308 -0.014324746 -0.18660426 0
1.1302524 -0.014260955 -0.15885228 0
1.1331747 -0.014297827 -0.13244841 0
1.1376903 -0.014354804 -0.10620085 0
1.1366353 -0.014341492 -0.079467848 0
1.1273992 -0.014224956 -0.052489858 0
1.1200047 -0.014131655 -0.026042679 0
1.1381905 -0.014361114 3.2496089e-05 0
1.1326354 -0.014291023 0.026401084 0
1.1329973 -0.014295589 0.052815329 0
1.1303406 -0.014262068 0.079092614 0
1.1281781 -0.014234783 0.1053779 0
1.1254437 -0.014200282 0.13160993 0
1.1312261 -0.01427324 0.15905499 0
1.1302408 -0.01426081 0.18583767 0
1.1296923 -0.014253889 0.21286239 0
0.90660381 0.01143907 -0.19272485 0
1.0236866 0.012916363 -0.19282773 0
1.1250528 0.01419535 -0.18491867 0
1.1277354 0.014229198 -0.15849854 0
1.6416149 0.02071307 -0.19187623 0
2.5789163 0.032539468 -0.2407361 0
3.4535296 0.043574896 -0.24145348 0
5.187026 0.065447286 -0.24149942 0
10.404125 0.13127401 -0.24191982 0
0.89331055 0.033828393 -0.19001997 0
1.0265588 0.03887431 -0.19349194 0
1.1321558 0.042873118 -0.1862047 0
1.128436 0.042732254 -0.15869804 0
1.6292487 0.061697315 -0.19055216 0
2.5808656 0.097733691 -0.24107155 0
3.4586642 0.13097467 -0.24196655 0
5.1969104 0.19679956 -0.24211378 0
10.401569 0.39389256 -0.24201448 0
0.89349073 0.056439981 -0.1903007 0
1.021729 0.064540528 -0.19282721 0
1.1274208 0.071216859 -0.18566243 0
1.1266924 0.071170852 -0.15865493 0
1.6416249 0.10369808 -0.19224453 0
2.584739 0.16327268 -0.24174128 0
3.4500299 0.21793132 -0.24167033 0
5.1799521 0.32720697 -0.24163151 0
10.369107 0.65499526 -0.24156687 0
0.90890181 0.080481566 -0.19395392 0
1.0139658 0.089784786 -0.19172873 0
1.1539425 0.10217945 -0.19039406 0
1.3472999 0.1193009 -0.19008319 0
1.6396263 0.14518584 -0.19237833 0
2.5856099 0.22895095 -0.24228603 0
3.4472437 0.30524701 -0.24193779 0
5.166461 0.45748049 -0.2414639 0
10.363022 0.91762632 -0.24188764 0
0.89971048 0.1026048 -0.19248386 0
1.0029104 0.11437391 -0.19012354 0
1.158808 0.1321528 -0.19168612 0
1.3469764 0.15361191 -0.19052386 0
1.6230583 0.18509685 -0.19092172 0
2.5731299 0.29344493 -0.24173361 0
3.449348 0.3933706 -0.24270499 0
5.1591725 0.58836246 -0.24174032 0
10.328309 1.1778612 -0.24169432 0
0.89429885 0.12491842 -0.19193949 0
1.0055619 0.14045998 -0.19123736 0
1.1517069 0.16087398 -0.19112228 0
1.3500628 0.18858093 -0.19157264 0
1.6257006 0.22708286 -0.19184563 0
2.5562441 0.35706407 -0.24091718 0
3.4296455 0.47906345 -0.24209233 0
5.1482973 0.71913004 -0.24200411 0
10.305236 1.4394672 -0.24192752 0
0.89954931 0.14888042 -0.19381113 0
0.99539435 0.16474332 -0.19003394 0
1.1499772 0.19032763 -0.19157137 0
1.3306473 0.22022955 -0.18954596 0
1.623348 0.26867315 -0.19230698 0
2.557919 0.42334986 -0.24200498 0
3.4124629 0.56478161 -0.24180862 0
5.128067 0.84872371 -0.24198303 0
10.251043 1.6966048 -0.24158362 0
0.89426285 0.17129132 -0.19354196 0
1.0048285 0.19246957 -0.19270107 0
1.1386269 0.21809795 -0.19053687 0
1.3290139 0.2545656 -0.19016795 0
1.3418244 0.25701937 -0.15967441 0
1.3529729 0.2591548 -0.12858278 0
1.336991 0.25609353 -0.095167473 0
1.3345721 0.25563022 -0.063260041 0
1.3419873 0.25705054 -0.031769034 0
1.3383909 0.25636169 3.8903519e-05 0
0.8877672 0.19338839 -0.19313098 0
1.0018028 0.21822953 -0.19311561 0
1.1356308 0.24738224 -0.19101951 0
1.2041895 0.26231682 -0.17319907 0
1.2065881 0.26283932 -0.14432502 0
1.215205 0.26471642 -0.1160877 0
1.1986686 0.26111415 -0.085763425 0
1.2084908 0.26325381 -0.05758027 0
1.2118735 0.2639907 -0.028837385 0
1.2158113 0.26484847 3.5523437e-05 0
0.86923212 0.21245742 -0.19020469 0
0.97777921 0.23898846 -0.189587 0
1.1268371 0.27542114 -0.1906489 0
1.2034906 0.29415676 -0.17411092 0
1.2039764 0.29427549 -0.14485489 0
1.2070707 0.29503182 -0.11598504 0
1.2086267 0.29541215 -0.086981691 0
1.1982244 0.2928696 -0.057425018 0
1.2077736 0.2952036 -0.02890791 0
1.2060734 0.29478803 3.5445013e-05 0
0.86153829 0.23376332 -0.18975173 0
0.98024499 0.26597232 -0.19130579 0
1.130849 0.30683607 -0.19257657 0
1.1949216 0.32422107 -0.17399968 0
1.2037158 0.3266072 -0.1457689 0
1.2090499 0.32805455 -0.11693356 0
1.2049292 0.32693645 -0.087281629 0
1.2088622 0.32800362 -0.058313012 0
1.2062346 0.32729062 -0.029059533 0
1.2116448 0.3287586 3.5841193e-05 0
0.8714298 0.2602233 -0.1933153 0
0.98447353 0.29398003 -0.19351745 0
1.1074532 0.33070379 -0.18995331 0
1.2077311 0.36064842 -0.17713399 0
1.2076972 0.36063829 -0.14730638 0
1.2046213 0.35971978 -0.11734595 0
1.2065189 0.36028641 -0.08802744 0
1.1889905 0.35505214 -0.057768311 0
1.207564 0.3605985 -0.029301485 0
1.1970229 0.35745078 3.5664179e-05 0
0.84847814 0.27687103 -0.18971355 0
0.96426517 0.31465405 -0.19104533 0
1.0946656 0.35720566 -0.18924604 0
1.2068578 0.39381564 -0.17840689 0
1.2138844 0.39610848 -0.14923294 0
1.1953174 0.39004982 -0.11736123 0
1.2093458 0.39462751 -0.088932052 0
1.1992859 0.39134482 -0.058729712 0
1.2117455 0.39541057 -0.029635672 0
1.2105391 0.39501688 3.6352347e-05 0
0.84230065 0.29857308 -0.18995674 0
0.96497864 0.34205914 -0.19283573 0
1.0923066 0.38719347 -0.19046701 0
1.2100358 0.42892534 -0.18041956 0
1.2024051 0.42622045 -0.1490967 0
1.2042637 0.42687929 -0.11925948 0
1.196707 0.42420065 -0.088761687 0
1.2019353 0.42605391 -0.059367139 0
1.1939789 0.4232336 -0.029453024 0
1.2016033 0.42593625 3.6395246e-05 0
0.84518951 0.32382596 -0.19239017 0
0.93850785 0.35957995 -0.18929927 0
1.0734909 0.41129735 -0.18893602 0
1.1930819 0.45711747 -0.17955473 0
1.2028706 0.46086791 -0.15054883 0
1.2087442 0.46311831 -0.12082226 0
1.2141681 0.46519643 -0.090898708 0
1.1988184 0.45931539 -0.059766755 0
1.2075107 0.46264571 -0.030065291 0
1.2019122 0.46050069 3.6744932e-05 0
0.82692093 0.34099463 -0.1901302 0
0.93838763 0.38695979 -0.19118406 0
1.0664233 0.43975744 -0.18958519 0
1.2109696 0.49936351 -0.18408492 0
1.2064133 0.49748465 -0.15251514 0
1.2000817 0.49487373 -0.12116627 0
1.2013297 0.49538836 -0.090844683 0
1.2004895 0.49504191 -0.060453717 0
1.2131237 0.50025177 -0.030509697 0
1.1961154 0.49323812 3.6936537e-05 0
0.82413197 0.36443782 -0.19154283 0
0.93492723 0.41343239 -0.19254366 0
1.0704459 0.47335982 -0.19236299 0
1.2023128 0.53167248 -0.18475001 0
1.2010673 0.53112167 -0.15348507 0
1.208232 0.53428996 -0.1233114 0
1.2045518 0.53266257 -0.092075646 0
1.2094196 0.53481513 -0.061563544 0
1.2168238 0.53808933 -0.030934457 0
1.2150716 0.53731441 3.792861e-05 0
0.81709206 0.38625827 -0.19211122 0
0.91476363 0.43242991 -0.19057807 0
1.0480367 0.49543118 -0.19052236 0
1.216404 0.57502228 -0.18908517 0
1.4737784 0.69668907 -0.19052134 0
1.8555526 0.87716258 -0.19157499 0
3.1132946 1.4717263 -0.24074215 0
4.6957049 2.219768 -0.24180208 0
9.3959332 4.4416747 -0.2416392 0
0.81031847 0.4083803 -0.19288059 0
0.91179007 0.45951948 -0.19231357 0
1.0475688 0.52794856 -0.19279823 0
1.2184023 0.61404437 -0.19174381 0
1.4556041 0.73358816 -0.19050473 0
1.8358696 0.92523247 -0.19189267 0
3.0863261 1.5554315 -0.24161549 0
4.6392531 2.338068 -0.24185683 0
9.280057 4.6769176 -0.2416179 0
0.79646814 0.42693269 -0.1920875 0
0.89758646 0.48113537 -0.19181795 0
1.0272797 0.55065519 -0.19156098 0
1.1931893 0.639588 -0.19025578 0
1.4307331 0.76691914 -0.18972257 0
1.8116288 0.97109163 -0.19185966 0
3.0452578 1.6323566 -0.24154879 0
4.5772548 2.4535565 -0.24177603 0
9.166153 4.9133544 -0.24180397 0
0.78866613 0.44872648 -0.19287582 0
0.87718374 0.49909025 -0.1900892 0
1.0148696 0.57742923 -0.19190332 0
1.184221 0.67378497 -0.19147639 0
1.2086323 0.68767422 -0.16252065 0
1.2182219 0.69313031 -0.13082622 0
3.0052624 1.7099009 -0.24172254 0
4.5157866 2.5693421 -0.24187751 0
9.0399485 5.1434493 -0.24182223 0
0.76680899 0.46228245 -0.19032326 0
0.87413996 0.52698851 -0.19225068 0
0.99893707 0.60222435 -0.19170368 0
1.1656715 0.7027427 -0.191284 0
1.1326783 0.68285227 -0.1545756 0
1.1952834 0.7205947 -0.13027447 0
2.9624643 1.7859666 -0.24182875 0
4.4530602 2.6845949 -0.24206986 0
8.9097319 5.371367 -0.24188836 0
0.75274062 0.48010466 -0.18977857 0
0.85449141 0.54500222 -0.19089378 0
0.99275291 0.63318664 -0.19352214 0
1.1515212 0.73445046 -0.19194271 0
1.135123 0.72399151 -0.15735279 0
1.1820339 0.75391173 -0.13086259 0
2.9097192 1.8558447 -0.24126984 0
4.3759155 2.7909977 -0.24162853 0
8.7598305 5.5870981 -0.24157013 0
0.7481938 0.50420487 -0.19177952 0
0.83787912 0.56464344 -0.19030568 0
0.97568977 0.6575135 -0.19336931 0
1.1349101 0.76481146 -0.19233018 0
1.1416515 0.76935446 -0.16089827 0
1.1806083 0.79560727 -0.13288553 0
2.8678563 1.9326371 -0.24176623 0
4.3054852 2.9014497 -0.24170616 0
8.61831 5.8078451 -0.2416328 0
0.73299283 0.52132803 -0.19119492 0
0.833947 0.59312981 -0.1927513 0
0.94255656 0.67037642 -0.19009544 0
1.0964435 0.77982581 -0.1890866 0
1.1418536 0.81212282 -0.16376336 0
1.148214 0.81664658 -0.13151741 0
2.8108716 1.999182 -0.24113917 0
4.2320662 3.0099812 -0.24177232 0
8.4830742 6.0334339 -0.24203353 0
0.72294825 0.54216272 -0.19208297 0
0.82400286 0.61794692 -0.19399594 0
0.93475276 0.70100188 -0.19202867 0
1.0823776 0.8117106 -0.19013335 0
1.092486 0.81929129 -0.15959793 0
1.1016003 0.8261264 -0.12852556 0
1.1088972 0.83159858 -0.096899845 0
1.1005219 0.82531762 -0.064040959 0
1.0919271 0.81887203 -0.031733718 0
1.1028757 0.82708287 3.9355389e-05 0
1.0950785 0.82123542 0.031903502 0
1.0991974 0.82432437 0.064042509 0
1.101009 0.82568294 0.096289508 0
0.70568335 0.55757958 -0.19117396 0
0.79878998 0.63114566 -0.19174927 0
0.91457438 0.72263002 -0.19156915 0
1.0551949 0.83373809 -0.18899459 0
1.1014031 0.87024844 -0.16405703 0
1.1001623 0.86926806 -0.13087581 0
1.10256 0.87116259 -0.098236129 0
1.1057706 0.87369937 -0.065608695 0
1.0975394 0.86719573 -0.032522555 0
1.098327 0.867818 3.9961935e-05 0
1.1069468 0.87462872 0.032881912 0
1.0900763 0.86129886 0.064756997 0
1.102085 0.87078726 0.098274387 0
0.69543421 0.57857138 -0.19229209 0
0.7789138 0.64802283 -0.19084336 0
0.90145552 0.74997228 -0.19272467 0
1.0270833 0.85448915 -0.1877625 0
1.0995777 0.91480142 -0.16717102 0
1.0997654 0.91495764 -0.13353319 0
1.0977865 0.9133113 -0.09983284 0
1.0955418 0.91144377 -0.06634555 0
1.0994728 0.9147141 -0.033253357 0
1.1003757 0.91546524 4.0864132e-05 0
1.0943341 0.91043901 0.033179268 0
1.1022995 0.91706586 0.066836841 0
1.0888658 0.90588951 0.099102847 0
0.68289083 0.5979265 -0.19293511 0
0.75806832 0.66375047 -0.18978007 0
0.88426095 0.7742424 -0.19316486 0
0.99691015 0.87287593 -0.18621464 0
1.0978137 0.96122521 -0.17053689 0
1.100585 0.96365166 -0.13654234 0
1.0997921 0.96295744 -0.10219289 0
1.1033733 0.96609306 -0.068274722 0
1.1025565 0.96537781 -0.034072693 0
1.0967884 0.96032739 4.1617765e-05 0
1.1030008 0.96576685 0.034170177 0
1.0952913 0.95901656 0.067857921 0
1.0990807 0.96233451 0.1022106 0
1.1094447 0.97140914 0.13772644 0
1.0914202 0.9556272 0.27331945 0
0.66661286 0.61406863 -0.19265352 0
0.74361396 0.6850003 -0.190429 0
0.85081625 0.78375262 -0.19011953 0
0.96988219 0.89343345 -0.18531908 0
1.0636522 0.9798122 -0.16901787 0
1.0966039 1.0101665 -0.13916717 0
1.0983413 1.0117671 -0.10439765 0
1.0998502 1.013157 -0.069616839 0
1.1014501 1.0146308 -0.034818798 0
1.105572 1.0184278 4.2912743e-05 0
1.1076393 1.0203322 0.035100482 0
1.0957797 1.0094074 0.06944444 0
1.1020066 1.0151434 0.10483201 0
1.0939175 1.007692 0.13891192 0
1.0346944 0.95313692 0.26505375 0
0.64388657 0.62388986 -0.19057561 0
0.73429197 0.71148771 -0.19257905 0
0.84776998 0.82144147 -0.1940098 0
0.83548915 0.80954206 -0.16349204 0
0.84837508 0.8220278 -0.13806245 0
0.83977115 0.81369108 -0.10914471 0
0.83243513 0.80658293 -0.081032366 0
0.83331192 0.80743247 -0.054018565 0
0.84170687 0.81556666 -0.027249875 0
0.84476805 0.81853282 3.3580829e-05 0
0.83728218 0.81127942 0.02717323 0
0.84786528 0.82153386 0.055029526 0
0.83104599 0.80523688 0.08096353 0
1.0969877 1.0629195 0.14266302 0
1.0061405 0.97489363 0.19696739 0
0.99475694 0.96386361 0.22772858 0
0.97966737 0.94924265 0.25701305 0
0.63572156 0.6478672 -0.1929372 0
0.71569675 0.72937036 -0.19246881 0
0.81626177 0.83185667 -0.19154294 0
0.83805835 0.85406965 -0.1681594 0
0.84306079 0.8591677 -0.14068171 0
0.84098423 0.85705149 -0.11207807 0
0.83519357 0.85115016 -0.083365485 0
0.8415606 0.85763884 -0.055938639 0
0.83793193 0.85394084 -0.027816562 0
0.83845812 0.85447705 3.4176403e-05 0
0.83536524 0.85132509 0.027799493 0
0.83271235 0.84862155 0.055418529 0
0.84379244 0.85991329 0.084292911 0
0.84049195 0.8565498 0.11208158 0
1.1007864 1.1218174 0.1837794 0
0.94765311 0.96575826 0.19022876 0
0.93922371 0.9571678 0.22047566 0
0.95641226 0.97468472 0.25728396 0
0.61074972 0.65467191 -0.1903125 0
0.68986595 0.73947781 -0.19048072 0
0.79681742 0.85412067 -0.19197759 0
0.83590287 0.89601701 -0.17220974 0
0.83884954 0.89917558 -0.14372019 0
0.83318716 0.89310598 -0.1140067 0
0.83845532 0.89875305 -0.085927881 0
0.83293748 0.89283836 -0.056845218 0
0.83393747 0.89391029 -0.02842387 0
0.82917434 0.88880461 3.4701308e-05 0
0.84277147 0.90337956 0.028795548 0
0.84117657 0.90166992 0.057478067 0
0.83305448 0.89296383 0.085444458 0
0.83241892 0.89228249 0.11397187 0
1.1012841 1.1804832 0.1887766 0
0.93371141 1.0008595 0.1924396 0
0.93363136 1.0007737 0.22502048 0
0.92267597 0.98903042 0.25484249 0
0.6047973 0.68200701 -0.19375972 0
0.67829919 0.76489228 -0.19255607 0
0.78008562 0.879673 -0.19323401 0
0.84868294 0.95702761 -0.17976162 0
0.8367762 0.94360083 -0.14739837 0
0.84094709 0.94830412 -0.11830581 0
0.84879529 0.95715427 -0.08943484 0
0.83337152 0.93976146 -0.058474936 0
0.83943307 0.9465968 -0.02941612 0
0.83849603 0.94554019 3.6078676e-05 0
0.84143019 0.94884896 0.029558554 0
0.83849812 0.94554257 0.058906969 0
0.8366645 0.94347483 0.088229008 0
0.83262384 0.93891835 0.11720715 0
1.1009368 1.2414846 0.19402635 0
1.100287 1.2407519 0.23315102 0
0.58034283 0.68867844 -0.1914328 0
0.65700036 0.77964604 -0.19203465 0
0.72634035 0.86193001 -0.18525057 0
0.84462845 1.0022997 -0.18420239 0
0.83576143 0.99177736 -0.15158065 0
0.84454918 1.0022055 -0.1223321 0
0.83719867 0.99348283 -0.090826035 0
0.84083641 0.99779963 -0.06074642 0
0.83960593 0.9963395 -0.030293738 0
0.84210116 0.99930054 3.7307138e-05 0
0.83475113 0.99057847 0.030192578 0
0.84257442 0.99986213 0.060946804 0
0.83834833 0.99484718 0.091025412 0
0.83359528 0.98920685 0.12081994 0
0.84099418 0.99798691 0.15260524 0
1.0946023 1.2989374 0.23881733 0
0.5638696 0.7044605 -0.19180273 0
0.63336015 0.79127735 -0.1909014 0
0.72898042 0.91073883 -0.19172539 0
0.84185058 1.0517511 -0.18932542 0
0.84431565 1.0548308 -0.15791036 0
0.83563173 1.0439818 -0.1248173 0
0.84227216 1.0522778 -0.094227716 0
0.84032327 1.049843 -0.062603697 0
0.84319532 1.0534312 -0.031372558 0
0.83788341 1.0467948 3.8278566e-05 0
0.8353883 1.0436776 0.031158457 0
0.83776265 1.046644 0.062489644 0
0.8355875 1.0439265 0.093556605 0
0.83680713 1.0454502 0.12507001 0
0.84022677 1.0497224 0.15722345 0
1.0991745 1.3732343 0.24729793 0
1.0939152 1.3666637 0.28780767 0
0.55011928 0.72399521 -0.19327955 0
0.61202615 0.80546898 -0.19053787 0
0.703605 0.92599308 -0.19113737 0
0.72858047 0.95886254 -0.16924055 0
0.73420149 0.96626025 -0.14183193 0
0.73235577 0.96383107 -0.11298868 0
0.729303 0.95981348 -0.084272757 0
0.72869492 0.95901316 -0.056072805 0
0.7231673 0.95173842 -0.027791599 0
0.72239786 0.95072585 3.4087996e-05 0
0.72901267 0.95943135 0.028085075 0
0.72272331 0.95115411 0.05568165 0
0.72890681 0.95929199 0.0842961 0
0.72993296 0.96064246 0.11268437 0
0.73495442 0.96725106 0.14204769 0
0.72327268 0.95187712 0.16807722 0
0.73007017 0.96082312 0.19839753 0
0.71817327 0.94516593 0.22365409 0
0.52983654 0.73509127 -0.19261049 0
0.59852505 0.8303892 -0.19279805 0
0.68029064 0.94383019 -0.19121422 0
0.72775781 1.0096858 -0.17491327 0
0.95584041 1.3261259 -0.19105266 0
0.85166377 1.181592 -0.13595337 0
0.83439934 1.1576395 -0.0997613 0
0.84170586 1.1677765 -0.067015588 0
0.84133774 1.1672658 -0.033454463 0
0.8358863 1.1597024 4.081137e-05 0
0.84491163 1.1722242 0.033679124 0
0.8380307 1.1626775 0.06680499 0
0.83953333 1.1647623 0.1004575 0
0.83902574 1.1640581 0.13401857 0
0.83991015 1.1652851 0.16796374 0
0.83343184 1.1562971 0.20039453 0
1.1003898 1.5266726 0.30940488 0
0.50506967 0.73936737 -0.19033019 0
0.57411599 0.84044367 -0.19170713 0
0.65543753 0.95948958 -0.19097447 0
0.76511103 1.1200398 -0.19062449 0
0.91945279 1.3459795 -0.19050901 0
1.1503327 1.6839627 -0.1903547 0
0.85203207 1.2472827 -0.10559964 0
0.84179771 1.2323008 -0.069477089 0
0.84136218 1.2316632 -0.034680475 0
0.83937997 1.2287616 4.2482585e-05 0
0.84349853 1.2347906 0.034853961 0
0.83973056 1.2292746 0.06939166 0
0.8377431 1.2263653 0.1039139 0
0.83983409 1.2294263 0.13905978 0
0.83181381 1.2176855 0.17243572 0
0.83583981 1.223579 0.20833257 0
1.091745 1.5981966 0.31821465 0
1.0973408 1.6063882 0.36653587 0
0.49433455 0.76437014 -0.19349311 0
0.55451781 0.85742915 -0.19232792 0
0.62642437 0.96861547 -0.18958364 0
0.73826861 1.1415558 -0.19105428 0
0.88322198 1.3656915 -0.19008337 0
1.10958 1.7157001 -0.19071592 0
1.4828405 2.2928584 -0.19089262 0
0.84770298 1.3107699 -0.072671771 0
0.83630705 1.2931488 -0.035806015 0
0.83820444 1.2960827 4.4064665e-05 0
0.83233947 1.2870139 0.035723705 0
0.84024411 1.2992365 0.072120875 0
0.83840978 1.2964002 0.10802078 0
0.84130359 1.3008748 0.14469348 0
0.83383423 1.2893252 0.17954321 0
0.8353135 1.2916125 0.2162578 0
0.8349995 1.291127 0.25279784 0
1.0994377 1.7000175 0.3814466 0
0.47042704 0.76929873 -0.19167413 0
0.52833706 0.86400014 -0.19075002 0
0.60056311 0.98211288 -0.18919845 0
0.70767999 1.1572832 -0.19063647 0
0.85076761 1.3912772 -0.19059516 0
1.0695207 1.7490087 -0.19135694 0
1.4258986 2.3318005 -0.19107769 0
0.85193348 1.3931838 -0.076024644 0
0.84825265 1.3871645 -0.03780438 0
0.83303249 1.3622746 4.5585752e-05 0
0.8399654 1.3736122 0.037527021 0
0.83819306 1.3707138 0.074890412 0
0.8421219 1.3771387 0.11294126 0
0.83795774 1.370329 0.15001857 0
0.83739561 1.3694098 0.18769237 0
0.83780921 1.3700861 0.22578448 0
0.84358108 1.3795251 0.26585245 0
1.0938004 1.7887136 0.395028 0
0.4544079 0.78705597 -0.19317941 0
0.50803697 0.87994409 -0.19137824 0
0.57708073 0.99953109 -0.1896877 0
0.68169194 1.1807226 -0.19160239 0
0.81673884 1.4146303 -0.19090964 0
1.0267582 1.7783939 -0.19167563 0
1.3708415 2.3743622 -0.1916692 0
1.3706875 2.3740954 -0.12762357 0
0.84708661 1.4671941 -0.039390221 0
0.84280711 1.4597818 4.8121492e-05 0
0.83876693 1.4527839 0.039099187 0
0.83596057 1.4479232 0.077931255 0
0.84033602 1.4555018 0.11759108 0
0.84072644 1.4561779 0.15704399 0
0.83302039 1.4428307 0.19481182 0
0.83671206 1.4492248 0.23527119 0
0.84225065 1.4588178 0.27694842 0
0.84028316 1.4554101 0.31663519 0
0.43346828 0.79654914 -0.19276282 0
0.48671249 0.89439166 -0.19178769 0
0.55420542 1.0184178 -0.19055678 0
0.6485402 1.1917692 -0.19067805 0
0.77761328 1.4289562 -0.1901338 0
0.98126549 1.8031912 -0.19161798 0
1.2914044 2.3731079 -0.18887669 0
1.2939458 2.3777781 -0.12602583 0
1.2932613 2.3765202 -0.062906846 0
0.84533721 1.553407 5.0488434e-05 0
0.83752048 1.5390427 0.040838789 0
0.84157151 1.546487 0.082066886 0
0.83848941 1.5408233 0.12273543 0
0.83643967 1.5370567 0.16343771 0
0.83930075 1.5423143 0.2053186 0
0.84009236 1.5437689 0.24709886 0
0.84172463 1.5467684 0.28952003 0
0.83717334 1.5384049 0.32998934 0
0.40937015 0.79968733 -0.19096111 0
0.45919779 0.89702344 -0.18980637 0
0.53265733 1.0405235 -0.19211634 0
0.61952633 1.2102185 -0.19106729 0
0.75360453 1.4721346 -0.19328669 0
0.9309848 1.8186394 -0.19070193 0
1.2425202 2.4272108 -0.19062608 0
1.2425561 2.4272809 -0.12694694 0
1.2432202 2.4285781 -0.063434049 0
1.2450235 2.4321008 7.8001365e-05 0
0.8494854 1.659434 0.043450635 0
0.84006238 1.6410264 0.085931271 0
0.83810174 1.6371963 0.12868617 0
0.8388834 1.6387234 0.17194201 0
0.84268892 1.6461573 0.21624234 0
0.84034956 1.6415874 0.25927848 0
0.84038979 1.6416659 0.30321598 0
0.83830237 1.6375884 0.34661552 0
0.39179209 0.81544173 -0.19230063 0
0.44125986 0.91839963 -0.19191183 0
0.50743234 1.0561253 -0.192571 0
0.59143782 1.2309669 -0.1919252 0
0.70730752 1.4721279 -0.19088113 0
0.89032137 1.853037 -0.19189145 0
1.1779276 2.4516354 -0.19014888 0
1.7911754 3.7279956 -0.19254872 0
4.5044107 9.3750858 -0.24182919 0
0.84561026 1.7599792 0.091013595 0
0.83914274 1.7465181 0.13557115 0
0.84007829 1.7484654 0.18117426 0
0.83870763 1.7456126 0.22645418 0
0.84349483 1.7555764 0.27383265 0
0.83661854 1.7412646 0.31761071 0
0.83871865 1.7456355 0.36488828 0
0.36825219 0.81875145 -0.19082855 0
0.42218423 0.93866092 -0.19385734 0
0.4732714 1.0522453 -0.18962514 0
0.55714893 1.2387339 -0.19088295 0
0.67214185 1.4944028 -0.19150876 0
0.85027844 1.8904618 -0.19348305 0
1.1201059 2.490381 -0.19090055 0
1.689419 3.75616 -0.19174005 0
4.2671251 9.4872885 -0.24186836 0
1.0679246 2.3743641 0.12135272 0
0.84969795 1.8891711 0.14493357 0
0.83878833 1.8649154 0.19098623 0
0.8417269 1.8714486 0.23994622 0
0.84095687 1.8697368 0.28823683 0
0.83918911 1.8658063 0.33635697 0
0.83841902 1.8640943 0.3851037 0
0.34769502 0.82830143 -0.19094825 0
0.39492109 0.94080639 -0.19218071 0
0.45035991 1.0728762 -0.19123377 0
0.52575147 1.252479 -0.19089544 0
0.63721198 1.5180072 -0.19241141 0
0.79407275 1.891691 -0.19149667 0
1.0585747 2.5218043 -0.19120041 0
1.5931346 3.7952673 -0.19162278 0
4.0266352 9.5925083 -0.24188289 0
0.99433094 2.3687589 0.11974547 0
0.85070962 2.0266149 0.1537818 0
0.83767372 1.9955602 0.20213604 0
0.8388027 1.9982497 0.25340882 0
0.83586878 1.9912602 0.30362186 0
0.83903468 1.9988022 0.35640162 0
0.83813256 1.9966532 0.40798903 0
0.3320117 0.85045362 -0.19406143 0
0.37134138 0.95119721 -0.19232751 0
0.42616513 1.0916291 -0.19259784 0
0.4933376 1.2636926 -0.19064608 0
0.59573287 1.5259799 -0.19145517 0
0.75014049 1.9214975 -0.19253612 0
0.99368876 2.5453506 -0.19102329 0
1.5020565 3.847543 -0.19228685 0
3.7798173 9.682066 -0.24165863 0
0.92710274 2.3747892 0.1188296 0
0.84729803 2.1703682 0.16301532 0
0.83677346 2.1434093 0.21490444 0
0.84373987 2.1612539 0.27129331 0
0.83965641 2.150794 0.32461244 0
0.83885342 2.1487372 0.3792403 0
0.83979338 2.151145 0.43508774 0
0.30534005 0.84443289 -0.1908683 0
0.3461996 0.95743203 -0.19176038 0
0.39345461 1.0881181 -0.19016577 0
0.4356319 1.2047614 -0.18003939 0
0.43582451 1.2052941 -0.14979295 0
0.43223155 1.1953576 -0.11864522 0
0.93078524 2.5741322 -0.19135933 0
1.4002715 3.8725197 -0.19170779 0
3.5360012 9.778985 -0.24177317 0
0.8581239 2.3731837 0.11762808 0
0.84501177 2.3369215 0.17386782 0
0.84089011 2.3255229 0.23096222 0
0.83595335 2.3118701 0.28745958 0
0.83949012 2.321651 0.34709099 0
0.83587611 2.3116565 0.4041425 0
0.84071887 2.3250492 0.46582136 0
0.28466895 0.85406417 -0.19136034 0
0.32211667 0.96641487 -0.19187011 0
0.36815131 1.1045281 -0.19134885 0
0.40116423 1.2035735 -0.17829202 0
0.40323636 1.2097902 -0.14903945 0
0.40338603 1.2102393 -0.11907387 0
0.86799574 2.604162 -0.19190203 0
1.3026419 3.9081879 -0.19178487 0
3.2893484 9.8687067 -0.24186186 0
0.79154444 2.3747928 0.11668046 0
0.84596413 2.5380628 0.18718465 0
0.83851486 2.5157135 0.2476705 0
0.84304303 2.5292988 0.31174991 0
0.83767277 2.5131869 0.3724466 0
0.84057611 2.5218976 0.43705037 0
0.8372125 2.511806 0.49884558 0
0.26482844 0.86686337 -0.19266915 0
0.29915997 0.97924083 -0.19285607 0
0.34188324 1.119087 -0.19231495 0
0.38018519 1.2444608 -0.18286921 0
0.38137326 1.2483498 -0.15255538 0
0.37863195 1.2393765 -0.1209619 0
0.72220504 2.3639951 -0.17280576 0
0.72599167 2.3763897 -0.11567958 0
0.7271781 2.3802733 -0.057867408 0
0.72227949 2.3642387 7.0574664e-05 0
0.7266078 2.3784065 0.057964098 0
0.72206861 2.3635483 0.11519589 0
0.84172106 2.7552071 0.20156828 0
0.83424783 2.7307446 0.26668236 0
0.83450574 2.7315891 0.33398089 0
0.83357036 2.7285273 0.40111375 0
0.83304793 2.7268171 0.46877035 0
0.24058221 0.865035 -0.19085242 0
0.27353904 0.98353422 -0.19228072 0
0.31163681 1.1205182 -0.19114836 0
0.3634721 1.3068967 -0.1906352 0
0.43886214 1.5779682 -0.19142206 0
0.55024534 1.9784567 -0.19167891 0
0.65896964 2.3693845 -0.17192923 0
0.65866423 2.3682864 -0.11443944 0
0.65995109 2.3729136 -0.057265308 0
0.66075194 2.375793 7.0399336e-05 0
0.65910995 2.3698893 0.057332844 0
0.65968698 2.371964 0.11475801 0
0.80743444 2.9032032 0.2108375 0
0.81339794 2.9246454 0.28352338 0
0.81112301 2.9164658 0.35396931 0
0.80917656 2.9094672 0.42457578 0
0.80813104 2.9057081 0.49585941 0
0.22230452 0.88526356 -0.19401577 0
0.24867941 0.99029392 -0.19231397 0
0.2845557 1.1331609 -0.19201876 0
0.3292715 1.3112286 -0.18999435 0
0.39705482 1.5811561 -0.19053242 0
0.49743992 1.9809109 -0.19063962 0
0.59518123 2.3701375 -0.17083943 0
0.5955205 2.3714883 -0.11383162 0
0.59545541 2.3712292 -0.056843869 0
0.59520364 2.3702266 6.9767033e-05 0
0.59937334 2.3868313 0.057358474 0
0.59874231 2.3843184 0.11458813 0
0.76921529 3.0631778 0.22097495 0
0.77013153 3.0668266 0.29532847 0
0.76649904 3.052361 0.36799765 0
0.76744658 3.0561342 0.44301111 0
0.19859676 0.88479477 -0.19275312 0
0.22362345 0.9962945 -0.19232196 0
0.25441092 1.1334599 -0.19092056 0
0.29812214 1.3282034 -0.19130279 0
0.35756433 1.5930322 -0.19081528 0
0.45020279 2.005758 -0.19187625 0
0.5502789 2.4516206 -0.17565569 0
0.54877478 2.4449191 -0.11665433 0
0.55136442 2.4564567 -0.058534734 0
0.55374175 2.4670484 7.2182593e-05 0
0.55180997 2.458442 0.058725979 0
0.55337042 2.4653938 0.11777582 0
0.71070337 3.1663489 0.22705133 0
0.71270949 3.1752865 0.30394393 0
0.71237946 3.1738162 0.38035169 0
0.71127921 3.1689143 0.45661175 0
0.17545751 0.88572878 -0.19193074 0
0.19758028 0.9974069 -0.19151308 0
0.22338547 1.1276743 -0.18893619 0
0.2662054 1.3438342 -0.19252507 0
0.31827554 1.6066898 -0.19142804 0
0.39690575 2.0036237 -0.19065304 0
0.41607609 2.1003978 -0.14969093 0
0.41447777 2.0923293 -0.099300474 0
0.41644463 2.1022582 -0.049828239 0
0.41408172 2.0903301 6.0835155e-05 0
0.41478977 2.0939043 0.049752176 0
0.41216746 2.0806665 0.09886834 0
0.41537464 2.0968568 0.14956121 0
0.41294894 2.0846117 0.19848177 0
0.41303283 2.0850351 0.2485432 0
0.40863377 2.0628281 0.29565457 0
0.29461735 1.4872607 0.24927199 0
0.26976612 1.361809 0.26156437 0
0.15303451 0.88976133 -0.1919065 0
0.17110954 0.99485177 -0.19013269 0
0.19612761 1.1403098 -0.19016328 0
0.23160911 1.3466036 -0.19202323 0
0.27794862 1.6160271 -0.19164367 0
0.34552869 2.0089459 -0.19026907 0
0.3673048 2.135555 -0.15148759 0
0.88095868 5.1220012 -0.24195428 0
1.7630143 10.250381 -0.24182534 0
0.57994801 3.3718886 0.15947783 0
0.57879841 3.3652043 0.23890983 0
0.58094251 3.3776708 0.32009959 0
0.26275221 1.5276735 0.18125558 0
0.27270412 1.585535 0.22618809 0
0.27073726 1.5740994 0.26259768 0
0.23434652 1.3625193 0.2604818 0
0.13021533 0.89114308 -0.19143471 0
0.14726801 1.007845 -0.19184446 0
0.16745974 1.1460294 -0.19035165 0
0.19747493 1.3514416 -0.19194128 0
0.23674898 1.6202179 -0.19137111 0
0.29514086 2.019829 -0.19053364 0
0.39488336 2.7024281 -0.19093148 0
0.75068909 5.137424 -0.24171084 0
1.5029755 10.285779 -0.24168858 0
0.50486839 3.4551229 0.16276 0
0.50396174 3.4489181 0.24387234 0
0.50492555 3.4555137 0.32616514 0
0.22041935 1.5084642 0.17825963 0
0.27570745 1.8868345 0.26809257 0
0.20011617 1.3695172 0.26077101 0
0.10740652 0.89179552 -0.19093172 0
0.121452 1.008415 -0.19130856 0
0.13680226 1.1358681 -0.18803051 0
0.16402827 1.3619255 -0.1927809 0
0.19682799 1.6342613 -0.1923818 0
0.2454491 2.037962 -0.19159874 0
0.32523325 2.7004092 -0.19014832 0
0.62071282 5.1537738 -0.24166605 0
1.2433858 10.323823 -0.24176811 0
0.42434198 3.5233083 0.16541481 0
0.42344511 3.5158613 0.24777128 0
0.42339107 3.5154128 0.33070502 0
0.42373124 3.5182371 0.41436461 0
0.22962692 1.9065906 0.26999021 0
0.16476853 1.3680718 0.25962126 0
0.083945394 0.88446444 -0.18884841 0
0.096687309 1.0187156 -0.19273837 0
0.11029067 1.1620432 -0.19184165 0
0.12931255 1.3624613 -0.1923335 0
0.15530121 1.6362827 -0.19209717 0
0.19315602 2.0351281 -0.19081323 0
0.25808859 2.7192698 -0.19095691 0
0.49076822 5.170826 -0.24180783 0
0.98321033 10.359288 -0.24194048 0
0.3402389 3.584821 0.16784614 0
0.33949018 3.5769322 0.2513912 0
0.34036827 3.5861838 0.33644739 0
0.33966219 3.5787446 0.42034739 0
0.33827671 3.5641468 0.50334561 0
0.17254002 1.8179141 0.30022642 0
0.12997088 1.3693975 0.25916782 0
0.062509991 0.89935344 -0.19162957 0
0.070225805 1.0103636 -0.19076209 0
0.080870755 1.1635163 -0.19168682 0
0.094937265 1.3658961 -0.19241886 0
0.11367171 1.6354352 -0.19159986 0
0.140918 2.0274372 -0.18969825 0
0.1903948 2.7392776 -0.19196334 0
0.35994664 5.1786799 -0.24167332 0
0.72103071 10.373724 -0.24177562 0
0.25245041 3.6320937 0.16970715 0
0.25172129 3.6216035 0.25400335 0
0.13257679 1.9074295 0.17857978 0
0.13284895 1.9113449 0.22403502 0
0.13288262 1.9118295 0.26943812 0
0.1245039 1.7912818 0.29521516 0
0.095354818 1.3719037 0.2591041 0
0.039547224 0.8949573 -0.19041955 0
0.044685945 1.011247 -0.19065523 0
0.051052161 1.155315 -0.19006288 0
0.060266014 1.3638254 -0.19185178 0
0.072376125 1.6378783 -0.19161104 0
0.089979395 2.036242 -0.190249 0
0.1210045 2.7383428 -0.19162279 0
0.22903064 5.1829844 -0.2415275 0
0.45933017 10.394684 -0.24191688 0
0.16210499 3.6684508 0.17116024 0
0.16195159 3.6649792 0.25667712 0
0.085388973 1.9323602 0.18065459 0
0.085258 1.9293963 0.22582674 0
0.085524149 1.9354193 0.27237174 0
0.07590685 1.7177789 0.28269562 0
0.060321476 1.3650806 0.25744596 0
0.017137548 0.90536761 -0.19248122 0
0.019349616 1.02223 -0.19257252 0
0.022089832 1.1669942 -0.19183142 0
0.025906889 1.3686473 -0.19237684 0
0.03110259 1.6431334 -0.19207282 0
0.03840661 2.029001 -0.18942156 0
0.052052766 2.7499201 -0.19227979 0
0.098301649 5.193224 -0.24181207 0
0.19709668 10.412514 -0.24213895 0
0.070063621 3.7014241 0.17256123 0
0.069873877 3.6914001 0.25832173 0
0.070024595 3.6993625 0.34557471 0
0.069849439 3.6901093 0.43156612 0
0.031831741 1.6816541 0.27653027 0
0.025896741 1.3681111 0.25781214 0
-0.0056675514 0.8985886 -0.19100958 0
-0.006429303 1.019364 -0.19200204 0
-0.0072543677 1.1501778 -0.18903704 0
-0.0085388217 1.3538277 -0.19026351 0
-0.010394903 1.6481087 -0.19262373 0
-0.012839369 2.0356781 -0.19001466 0
-0.017340383 2.7493126 -0.1922067 0
-0.032693062 5.183475 -0.24131969 0
-0.065587617 10.398897 -0.24178381 0
-0.023507535 3.7271128 0.17373116 0
-0.023384156 3.707551 0.25941065 0
-0.023391161 3.7086616 0.34638822 0
-0.023469245 3.7210419 0.43511447 0
-0.010288552 1.6312469 0.26819861 0
-0.0086371861 1.3694233 0.25801831 0
-0.028545436 0.9047336 -0.19240768 0
-0.032225154 1.0213605 -0.19246998 0
-0.036559191 1.1587257 -0.19053291 0
-0.04277312 1.3556731 -0.19061387 0
-0.051727299 1.6394714 -0.19170579 0
-0.064749807 2.0522137 -0.19164965 0
-0.086513788 2.7420123 -0.1917879 0
-0.12003284 3.8043821 -0.17719983 0
-0.11994798 3.8016927 -0.088435039 0
-0.1196725 3.7929614 0.00010833681 0
-0.11973452 3.7949271 0.088494562 0
-0.11782093 3.7342768 0.17414826 0
-0.11745137 3.7225635 0.26058549 0
-0.11752614 3.7249336 0.34807426 0
-0.11734964 3.7193394 0.43512315 0
-0.051713903 1.6390469 0.26960978 0
-0.043352179 1.3740262 0.25900924 0
-0.051893909 0.91305488 -0.19439398 0
-0.057478763 1.0113184 -0.19079022 0
-0.066400088 1.168286 -0.19231924 0
-0.078155629 1.3751205 -0.19356398 0
-0.093811348 1.6505773 -0.19321974 0
-0.11629444 2.0461595 -0.19129744 0
-0.15613312 2.7471066 -0.19235858 0
-0.21454006 3.7747562 -0.17601608 0
-0.21542804 3.79038 -0.088270247 0
-0.21439624 3.7722256 0.00010786475 0
-0.2150985 3.7845817 0.088351771 0
-0.2119564 3.7292974 0.17411007 0
-0.21166112 3.724102 0.26098403 0
-0.21173558 3.7254121 0.34850734 0
-0.07891228 1.3884335 0.16261317 0
-0.077314511 1.3603214 0.19156016 0
-0.077177174 1.357905 0.22361344 0
-0.077976786 1.3719739 0.25891089 0
-0.074615106 0.90781039 -0.19361669 0
-0.083076738 1.0107595 -0.19101952 0
-0.094491884 1.1496427 -0.18958248 0
-0.11187429 1.361127 -0.19193058 0
-0.13422719 1.6330854 -0.1915077 0
-0.16834146 2.0481393 -0.19181867 0
-0.22426604 2.72855 -0.1913946 0
-0.4255046 5.1769342 -0.24182309 0
-0.85168928 10.362143 -0.24173686 0
-0.30704001 3.7356257 0.17471169 0
-0.30614674 3.7247579 0.2614882 0
-0.30542895 3.7160249 0.34823939 0
-0.3056576 3.7188065 0.43631077 0
-0.11397835 1.3867264 0.1956213 0
-0.11457622 1.3940004 0.22996044 0
-0.11217343 1.3647666 0.25800291 0
-0.096630007 0.89759183 -0.19189633 0
-0.1093355 1.0156127 -0.19239694 0
-0.12415443 1.153265 -0.19063585 0
-0.14704101 1.3658574 -0.19305941 0
-0.17646933 1.6392157 -0.19268753 0
-0.21854097 2.0300174 -0.19057736 0
-0.29255089 2.7174923 -0.19107606 0
-0.55614179 5.165977 -0.24188989 0
-1.1134356 10.342654 -0.24186078 0
-0.39891094 3.7054663 0.17371671 0
-0.39924291 3.7085497 0.26097465 0
-0.39896375 3.7059567 0.34812868 0
-0.39858204 3.7024109 0.43542877 0
-0.14977841 1.3912851 0.19673501 0
-0.14968765 1.390442 0.22992344 0
-0.14868745 1.3811512 0.26172641 0
-0.11956436 0.89725441 -0.19240807 0
-0.13392317 1.0050082 -0.19096754 0
-0.15300998 1.1482426 -0.19038336 0
-0.17904277 1.3436019 -0.19049175 0
-0.21765426 1.6333567 -0.1925832 0
-0.27275342 2.0468407 -0.19274162 0
-0.36080724 2.7076287 -0.19096199 0
-0.6841085 5.1337986 -0.24111488 0
-1.3739934 10.310946 -0.24185322 0
-0.49406952 3.7076771 0.17434944 0
-0.4903307 3.6796198 0.25972697 0
-0.24370331 1.8288382 0.17231959 0
-0.24273768 1.8215917 0.2148837 0
-0.18645133 1.3991985 0.19845624 0
-0.18526824 1.3903202 0.23060308 0
-0.18271042 1.3711255 0.26061743 0
-0.14192156 0.8924219 -0.19207874 0
-0.16061004 1.0099375 -0.19261312 0
-0.18174365 1.1428286 -0.19018568 0
-0.21371163 1.3438475 -0.19123039 0
-0.25731379 1.6180238 -0.1914801 0
-0.32108325 2.0190148 -0.1908237 0
-0.42799744 2.6913054 -0.19051194 0
-0.81436825 5.1208572 -0.24139553 0
-1.6337806 10.273433 -0.24186349 0
-0.58315665 3.6669676 0.17307211 0
-0.58130771 3.6553411 0.25896639 0
-0.27735478 1.7440442 0.16493705 0
-0.27946344 1.7573037 0.20806576 0
-0.27842396 1.7507674 0.24923857 0
-0.21804762 1.3711127 0.26157776 0
-0.16366525 0.88462311 -0.19122836 0
-0.18494377 0.9996351 -0.19147751 0
-0.21019395 1.1361142 -0.1898907 0
-0.25004745 1.3515254 -0.19315951 0
-0.29812917 1.6114109 -0.19152699 0
-0.37312949 2.0167933 -0.19144286 0
-0.49688184 2.6856842 -0.19094095 0
-0.94631058 5.1148806 -0.24216256 0
-1.8925309 10.229274 -0.24187137 0
-0.66949916 3.6186938 0.17153661 0
-0.66841644 3.6128416 0.25706878 0
-0.67096508 3.6266172 0.34446681 0
-0.6703968 3.6235456 0.43089601 0
-0.28892675 1.5616709 0.26111159 0
-0.2522665 1.3635197 0.26126063 0
-0.18683967 0.88450402 -0.1921608 0
-0.21204834 1.0038425 -0.19324702 0
-0.23763087 1.1249509 -0.18896711 0
-0.27930957 1.3222589 -0.18992378 0
-0.34045416 1.6117191 -0.19252363 0
-0.42362252 2.0054405 -0.19131918 0
-0.5635674 2.6679432 -0.1906302 0
-0.61930287 2.9317966 -0.13950066 0
-0.62104952 2.9400651 -0.069866277 0
-0.61672759 2.919605 8.5189298e-05 0
-0.75709099 3.584089 0.17074765 0
-0.75217837 3.5608325 0.25463784 0
-0.75176752 3.5588877 0.33972767 0
-0.75218946 3.5608852 0.42556673 0
-0.28847757 1.3656605 0.26298219 0
-0.20616962 0.86719471 -0.18947044 0
-0.23563132 0.99111712 -0.19188105 0
-0.26792702 1.1269599 -0.19037986 0
-0.31464207 1.3234535 -0.19117513 0
-0.37425867 1.5742141 -0.18911168 0
-0.47220308 1.9861898 -0.19055896 0
-0.52623183 2.2134466 -0.15905379 0
-0.61661023 2.5935981 -0.1241095 0
-0.61692321 2.5949144 -0.06201455 0
-0.61844963 2.6013348 7.6333832e-05 0
-0.83761084 3.5231752 0.16879907 0
-0.83453619 3.5102425 0.25244594 0
-0.83188671 3.4990983 0.3359175 0
-0.83274233 3.5026972 0.42099038 0
-0.83169252 3.4982815 0.5055421 0
-0.23065951 0.87182891 -0.19169386 0
-0.25990668 0.98237509 -0.19139762 0
-0.29807547 1.1266425 -0.19153611 0
-0.34760591 1.3138537 -0.19099492 0
-0.41601744 1.5724304 -0.19009821 0
-0.52443713 1.9822265 -0.19138768 0
-0.58242536 2.201406 -0.15919419 0
-0.64656639 2.4438415 -0.11768671 0
-0.64815134 2.449832 -0.058919478 0
-0.6503554 2.4581625 7.2591116e-05 0
-0.9150641 3.458688 0.16676283 0
-0.91275215 3.4499495 0.24968709 0
-0.91248888 3.4489546 0.33320847 0
-0.91290069 3.450511 0.41735443 0
-0.9127143 3.4498067 0.50170612 0
-0.25122783 0.86108601 -0.19066522 0
-0.28229237 0.96756011 -0.18983887 0
-0.32431883 1.1116062 -0.19031087 0
-0.3442874 1.1800487 -0.17275184 0
-0.45837387 1.5710814 -0.19127284 0
-0.57276148 1.9631462 -0.1908804 0
-0.71689004 2.4571483 -0.1789396 0
-0.71126294 2.4378614 -0.11822557 0
-0.71339685 2.4451754 -0.059221666 0
-0.7155332 2.4524977 7.2933915e-05 0
-0.9838078 3.3720119 0.16372876 0
-0.98677367 3.3821776 0.24650614 0
-0.98058504 3.3609657 0.32699469 0
-0.98350936 3.3709891 0.41060761 0
-0.98350555 3.3709757 0.49369451 0
-0.27520472 0.86177194 -0.19229385 0
-0.31096727 0.97375828 -0.19253357 0
-0.35237327 1.1034164 -0.19037071 0
-0.38158587 1.1948923 -0.17627862 0
-0.39541781 1.2382054 -0.15191317 0
-0.39740798 1.2444375 -0.12193542 0
-0.39969334 1.2515937 -0.091851562 0
-0.39613354 1.2404467 -0.060621772 0
-0.39613125 1.2404395 -0.030275706 0
-0.39669144 1.2421936 3.7227022e-05 0
-0.39525419 1.2376931 0.0302829 0
-0.39755562 1.2448997 0.060914174 0
-0.39949778 1.2509813 0.091881968 0
-0.39745954 1.2445989 0.12202649 0
-0.39830652 1.247251 0.15309875 0
-0.39938557 1.25063 0.18457787 0
-0.39782226 1.2457347 0.21500134 0
-0.39879858 1.2487919 0.24699132 0
-0.29560518 0.85094047 -0.19148074 0
-0.33433789 0.96243787 -0.19190261 0
-0.38053599 1.0954255 -0.19058838 0
-0.42995635 1.2376889 -0.18413453 0
-0.42927745 1.2357346 -0.15289061 0
-0.43232742 1.2445143 -0.12297294 0
-0.43709871 1.2582492 -0.093119942 0
-0.43272007 1.2456446 -0.06138999 0
-0.43157253 1.2423413 -0.030578241 0
-0.43181384 1.2430359 3.7566915e-05 0
-0.43260056 1.2453007 0.030726392 0
-0.43261349 1.2453378 0.061450306 0
-0.42992344 1.2375941 0.091666482 0
-0.42922264 1.2355767 0.12216515 0
-0.43253589 1.2451144 0.15412742 0
-0.42994195 1.2376475 0.18420467 0
-0.43204316 1.2436961 0.21646255 0
-0.4323588 1.2446047 0.24824238 0
-0.31754547 0.84471238 -0.19182163 0
-0.3613604 0.9612658 -0.19342585 0
-0.41098404 1.0932711 -0.19195715 0
-0.4758341 1.2657807 -0.19004002 0
-0.48524937 1.2908266 -0.1611708 0
-0.51168168 1.36114 -0.13572983 0
-0.51387113 1.3669642 -0.10209301 0
-0.51305097 1.3647826 -0.067878097 0
-0.51548183 1.3712488 -0.034060474 0
-0.51357597 1.3661791 4.1667008e-05 0
-1.2019835 3.1974328 0.079616234 0
-1.1964455 3.1827009 0.15848769 0
-1.1623473 3.0919952 0.23111811 0
-1.1594427 3.0842686 0.30774611 0
-1.1567968 3.0772302 0.38440892 0
-1.1603926 3.0867956 0.463633 0
-0.3368063 0.8316142 -0.19071688 0
-0.38116121 0.94113165 -0.19124931 0
-0.43563184 1.075626 -0.19072877 0
-0.50580019 1.2488799 -0.18935892 0
-0.51295847 1.2665545 -0.15970585 0
-0.51142353 1.2627646 -0.1271667 0
-0.51554114 1.2729315 -0.096011311 0
-0.51097739 1.261663 -0.063370638 0
-0.51339799 1.2676399 -0.031798657 0
-0.5106833 1.2609369 3.883797e-05 0
-1.2708097 3.1377778 0.15779759 0
-1.1997886 2.9624186 0.22362486 0
-1.2015184 2.9666896 0.2989448 0
-1.1959108 2.9528439 0.37252244 0
-1.1981037 2.9582584 0.44872582 0
-0.36227697 0.83342344 -0.19316719 0
-0.40731761 0.93704009 -0.19244565 0
-0.46468669 1.0690185 -0.19157575 0
-0.51055861 1.1745474 -0.17998491 0
-0.51481247 1.1843336 -0.15092856 0
-0.5120303 1.1779331 -0.11988699 0
-0.50977629 1.1727477 -0.089396887 0
-0.5168103 1.1889296 -0.060353335 0
-0.51370978 1.1817968 -0.02996099 0
-0.51330882 1.1808743 3.6759306e-05 0
-1.3554821 3.1183062 0.15848836 0
-1.2276071 2.8241282 0.21545593 0
-1.2285221 2.8262327 0.28782415 0
-1.2286745 2.8265834 0.36039123 0
-1.2255756 2.8194544 0.43222558 0
-1.23043 2.830622 0.50744867 0
-0.38161868 0.82063907 -0.19237521 0
-0.43072918 0.92624712 -0.19240044 0
-0.49322897 1.0606477 -0.19224532 0
-0.51404321 1.105407 -0.17132352 0
-0.51692063 1.1115947 -0.14327589 0
-0.50782561 1.0920366 -0.11241335 0
-0.51288283 1.1029117 -0.085033059 0
-0.51036209 1.097491 -0.056347594 0
-0.50899184 1.0945444 -0.028065709 0
-0.51017088 1.0970799 3.4540699e-05 0
-1.4307874 3.0767889 0.15816325 0
-1.2482438 2.6842442 0.20712158 0
-1.2432965 2.6736052 0.27538857 0
-1.2427615 2.6724548 0.34462917 0
-1.2417078 2.6701889 0.41401556 0
-1.2475414 2.6827335 0.48642632 0
-0.40318975 0.81273884 -0.19284733 0
-0.45234045 0.91181546 -0.19171311 0
-0.51125383 1.0305716 -0.18907252 0
-0.51497811 1.0380788 -0.16285113 0
-0.51170391 1.0314788 -0.13457134 0
-0.51093948 1.0299379 -0.10731424 0
-0.51356679 1.0352339 -0.080788806 0
-0.51368755 1.0354773 -0.053812187 0
-0.51039761 1.0288455 -0.026702901 0
-0.51018441 1.0284157 3.2773834e-05 0
-1.2521181 2.5239854 0.19713141 0
-1.2432451 2.5060995 0.26128384 0
-1.2411492 2.5018744 0.32656741 0
-1.2380929 2.4957139 0.39168337 0
-1.2391639 2.4978726 0.45843259 0
-0.41922006 0.79407233 -0.19086793 0
-0.47210681 0.8942486 -0.19046423 0
-0.53945214 1.0218118 -0.18990286 0
-0.53117627 1.0061359 -0.15989225 0
-0.53505874 1.01349 -0.13394363 0
-0.53195453 1.0076101 -0.10635286 0
-0.53359795 1.010723 -0.079901546 0
-0.53609866 1.0154597 -0.053458046 0
-0.53663725 1.01648 -0.026724981 0
-0.53641492 1.0160588 3.2801046e-05 0
-1.2484176 2.3647101 0.18709286 0
-1.2399787 2.3487251 0.24806002 0
-1.2422624 2.3530509 0.31113505 0
-1.2431946 2.3548167 0.37437579 0
-1.2375844 2.3441899 0.43582112 0
-1.2445844 2.3574493 0.50226605 0
-0.44083983 0.7863065 -0.19161467 0
-0.49997211 0.89177811 -0.19256438 0
-0.56446517 1.0068116 -0.18970238 0
-0.56154084 1.0015956 -0.1613716 0
-0.56075782 1.000199 -0.13401486 0
-0.56068933 1.0000768 -0.1070173 0
-0.56329614 1.0047264 -0.080525763 0
-0.55648595 0.9925794 -0.052976053 0
-0.5600422 0.99892247 -0.026626516 0
-0.55695069 0.99340832 3.2513268e-05 0
-1.291901 2.3043065 0.061572757 0
-1.3008349 2.3202417 0.1239884 0
-1.2484543 2.2268128 0.17861874 0
-1.2406744 2.2129362 0.23695038 0
-1.2468293 2.2239141 0.29812583 0
-1.2426023 2.2163749 0.35723817 0
-1.2379363 2.2080522 0.41618729 0
-1.2406616 2.2129133 0.47799116 0
-0.45912948 0.77256203 -0.19102831 0
-0.51796824 0.87156808 -0.19096245 0
-0.58763379 0.98879194 -0.18904142 0
-0.58719391 0.98805183 -0.16152583 0
-0.59106487 0.99456531 -0.13521579 0
-0.58956158 0.99203575 -0.10771483 0
-0.59156728 0.99541068 -0.080949992 0
-0.58263856 0.98038667 -0.053093247 0
-0.58647215 0.98683733 -0.026690435 0
-0.58625519 0.98647225 3.2760101e-05 0
-1.3535917 2.2776439 0.061753515 0
-1.3525175 2.2758365 0.12340035 0
-1.248498 2.1008062 0.17098454 0
-1.2388117 2.0845077 0.22647463 0
-1.2403903 2.0871639 0.28390017 0
-1.2369403 2.0813584 0.34039959 0
-1.2447168 2.0944438 0.4005675 0
-1.2437072 2.0927451 0.45866889 0
-0.48906785 0.77757215 -0.19525713 0
-0.54467487 0.86598206 -0.19268918 0
-0.61500007 0.97779256 -0.18984562 0
-0.61141717 0.97209615 -0.16138874 0
-0.60860693 0.96762806 -0.13359936 0
-0.61202788 0.9730671 -0.10729828 0
-0.61156386 0.97232938 -0.080302618 0
-0.61432469 0.97671884 -0.053717181 0
-0.61522275 0.97814661 -0.026866792 0
-0.61608666 0.9795202 3.3035092e-05 0
-1.2556072 1.9962981 0.16500534 0
-1.2395049 1.9706968 0.21743912 0
-1.241444 1.9737798 0.27265257 0
-1.2412597 1.9734868 0.32777673 0
-1.2426634 1.9757185 0.38373715 0
-1.2394745 1.9706485 0.43862554 0
-0.49656191 0.74697971 -0.19066142 0
-0.56287247 0.84673089 -0.19150567 0
-0.63903648 0.96130466 -0.18971545 0
-0.63821393 0.96006727 -0.16201435 0
-0.63618475 0.9570148 -0.13430814 0
-0.64030784 0.9632172 -0.10795978 0
-0.64175951 0.96540087 -0.081042312 0
-0.63898724 0.96123058 -0.053735223 0
-0.64679801 0.97298032 -0.027164625 0
-0.63475358 0.95486188 3.2733355e-05 0
-1.2525158 1.8841637 0.15829931 0
-1.2400447 1.8654034 0.20920806 0
-1.2383071 1.8627894 0.26155466 0
-1.2425518 1.8691747 0.31555977 0
-1.2426771 1.8693632 0.36905429 0
-1.2426401 1.8693075 0.42291522 0
-0.51434022 0.73291552 -0.19032444 0
-0.59041059 0.84131294 -0.1935889 0
-0.66624558 0.94937497 -0.19061895 0
-0.66499758 0.94759667 -0.16269043 0
-0.66821116 0.95217586 -0.13595259 0
-0.6645633 0.94697779 -0.10798519 0
-0.66451418 0.94690782 -0.080872051 0
-0.6654551 0.94824857 -0.053931229 0
-0.66836345 0.95239288 -0.02705219 0
-0.6611166 0.94206643 3.285626e-05 0
-1.2994491 1.8516662 0.15827407 0
-1.2453086 1.7745181 0.20247561 0
-1.240075 1.7670604 0.25242755 0
-1.2382548 1.7644668 0.30306223 0
-1.2387624 1.76519 0.35454771 0
-1.241006 1.7683871 0.40703946 0
-0.53712618 0.72572756 -0.19191712 0
-0.60153192 0.81274819 -0.19044885 0
-0.69343919 0.9369269 -0.19157262 0
-0.68834883 0.93004918 -0.16260873 0
-0.68887162 0.9307555 -0.13533352 0
-0.69235545 0.93546265 -0.10863013 0
-0.6911065 0.93377513 -0.081214301 0
-0.68949711 0.93160063 -0.053956944 0
-0.69576663 0.94007158 -0.027192347 0
-0.6901595 0.93249559 3.3119428e-05 0
-1.3522633 1.8270843 0.15903953 0
-1.2532938 1.6933635 0.19676232 0
-1.2383038 1.6731101 0.2433937 0
-1.2372713 1.671715 0.29240182 0
-1.2423756 1.6786116 0.34334671 0
-1.2432928 1.6798509 0.39375803 0
-0.55666488 0.71373796 -0.19240063 0
-0.62133086 0.79665059 -0.19029081 0
-0.71208471 0.91301227 -0.19029701 0
-0.72429025 0.92866182 -0.16550958 0
-0.71071082 0.91125077 -0.13506265 0
-0.72641778 0.93138975 -0.11025109 0
