# .PCD v0.7 - Point Cloud Data file format
VERSION 0.7
FIELDS x y z intensity
SIZE 4 4 4 4
TYPE F F F F
COUNT 1 1 1 1
WIDTH 1326
HEIGHT 1
VIEWPOINT 0 0 0 1 0 0 0
POINTS 1326
DATA ascii
-0.97939754 -0.2790581 -0.19181243 0
-1.1152518 -0.31776682 -0.19058822 0
-1.3029295 -0.37124148 -0.19039442 0
-1.5845076 -0.45147109 -0.19255708 0
-1.974124 -0.56248379 -0.19159918 0
-3.3129175 -0.94394398 -0.24082202 0
-4.991775 -1.4222981 -0.24163951 0
-9.9990444 -2.8490109 -0.24173506 0
-0.86643481 -0.27068636 -0.19294968 0
-0.96272337 -0.30076826 -0.18997304 0
-1.1089647 -0.34645608 -0.19094731 0
-1.3058366 -0.40796161 -0.1922626 0
-1.5578759 -0.4867022 -0.1907527 0
-1.9680187 -0.61483657 -0.19245143 0
-3.2957351 -1.0296338 -0.24138518 0
-4.954319 -1.5477986 -0.24164043 0
-9.9159145 -3.0978703 -0.24153863 0
-0.85841292 -0.29214931 -0.19274393 0
-0.9742223 -0.33156347 -0.19383168 0
-1.0970995 -0.37338307 -0.19046628 0
-1.2902253 -0.43911085 -0.19153486 0
-1.5657774 -0.53289127 -0.19330548 0
-1.9475452 -0.66282082 -0.1920241 0
-3.2778897 -1.1155858 -0.24206328 0
-4.9182858 -1.6738725 -0.24186648 0
-9.8474522 -3.3514481 -0.2418544 0
-0.84449458 -0.31140146 -0.19132257 0
-0.95634758 -0.35264647 -0.19198503 0
-1.0891007 -0.40159827 -0.19077657 0
-1.2722102 -0.4691186 -0.19055749 0
-1.5356723 -0.56626838 -0.19129233 0
-1.9292654 -0.71140307 -0.19193098 0
-3.2351701 -1.1929463 -0.24105525 0
-4.8708858 -1.796105 -0.24168782 0
-9.7600021 -3.5989323 -0.24186048 0
-0.8400259 -0.33406413 -0.19215913 0
-0.94863027 -0.37725425 -0.19228598 0
-1.0816191 -0.43014169 -0.1913068 0
-1.2626333 -0.50212801 -0.19096048 0
-1.5165405 -0.60310256 -0.19074452 0
-1.9043303 -0.75731999 -0.19129094 0
-3.2065711 -1.2751992 -0.24124558 0
-4.8220696 -1.9176557 -0.2415902 0
-9.6620922 -3.8424511 -0.24176043 0
-0.82547331 -0.35265052 -0.19080545 0
-0.93142879 -0.39791578 -0.19077422 0
-1.0709792 -0.45753315 -0.1914064 0
-1.2401932 -0.52982306 -0.18952869 0
-1.5119946 -0.64593935 -0.19216207 0
-1.8898946 -0.80738205 -0.19182672 0
-3.1796339 -1.3583716 -0.24172133 0
-4.7812185 -2.0425847 -0.24204929 0
-9.5559454 -4.082396 -0.24160564 0
-0.81218958 -0.37147987 -0.18984169 0
-0.92761654 -0.42427394 -0.19212547 0
-1.0559002 -0.48294842 -0.19082914 0
-1.2298573 -0.56251305 -0.19005826 0
-1.4856043 -0.67948681 -0.19092686 0
-1.8704236 -0.85549575 -0.19198085 0
-3.1370769 -1.4348385 -0.24116233 0
-4.7182307 -2.1580279 -0.24154098 0
-9.4564896 -4.3252163 -0.24177411 0
-0.81327379 -0.39708591 -0.19237642 0
-0.9063502 -0.44253102 -0.18997364 0
-1.0518923 -0.51359284 -0.19238624 0
-1.2200778 -0.5957104 -0.19080968 0
-1.4781305 -0.72170627 -0.19224609 0
-1.8449368 -0.90080172 -0.19163743 0
-3.1085773 -1.5177819 -0.24183929 0
-4.6693716 -2.2798491 -0.2419084 0
-9.3386393 -4.5596476 -0.24162635 0
-0.80302596 -0.41749474 -0.19238359 0
-0.90077329 -0.46831375 -0.19122127 0
-1.0350256 -0.53811181 -0.19172432 0
-1.2099633 -0.62906229 -0.19164985 0
-1.4534614 -0.75565737 -0.19145717 0
-1.8163943 -0.9443469 -0.19108753 0
-3.0680528 -1.5950866 -0.2417416 0
-4.6096144 -2.3965473 -0.24186917 0
-9.2276793 -4.7974882 -0.24181131 0
-0.78055936 -0.43117264 -0.18954796 0
-0.8974303 -0.49573088 -0.19310617 0
-1.0160708 -0.56126666 -0.19077648 0
-1.18961 -0.65712786 -0.19099219 0
-1.4292163 -0.78948379 -0.19082743 0
-1.8079488 -0.99869156 -0.19278936 0
-3.0322976 -1.6750087 -0.24217823 0
-4.5307894 -2.5027597 -0.24097086 0
-9.0945168 -5.0237136 -0.24156746 0
-0.77282816 -0.45271912 -0.1903846 0
-0.8836171 -0.51761878 -0.19288358 0
-1.0066491 -0.58969039 -0.19174087 0
-1.1660004 -0.68303758 -0.18990894 0
-1.4098202 -0.8258661 -0.19095996 0
-1.7768975 -1.0408982 -0.19221844 0
-2.9920583 -1.7527337 -0.24242033 0
-4.4812822 -2.6251142 -0.24178462 0
-8.9717646 -5.2556181 -0.24175331 0
-0.77037889 -0.47779205 -0.19269057 0
-0.8711797 -0.54030913 -0.19308393 0
-0.98676127 -0.61199325 -0.19083405 0
-1.1564397 -0.71722847 -0.19123921 0
-1.3916759 -0.863123 -0.19139206 0
-1.741123 -1.0798514 -0.19123584 0
-2.9446316 -1.8262722 -0.24223517 0
-4.4226866 -2.7429676 -0.2422812 0
-8.8360081 -5.4801273 -0.2417452 0
-0.7494368 -0.49141097 -0.19049402 0
-0.84895164 -0.55666351 -0.1912104 0
-0.9778887 -0.64120847 -0.19218673 0
-1.1423527 -0.74904865 -0.19197485 0
-1.3746291 -0.90135396 -0.19211513 0
-1.7109522 -1.1218833 -0.19097123 0
-2.890239 -1.8951499 -0.2416185 0
-4.3374658 -2.8441064 -0.24146813 0
-8.6987095 -5.703805 -0.24185041 0
-0.73227561 -0.5070312 -0.18932441 0
-0.82701653 -0.57263029 -0.18946478 0
-0.95389634 -0.66048253 -0.19068691 0
-1.1252613 -0.77913648 -0.19234605 0
-1.3472625 -0.93285114 -0.19151992 0
-1.6887231 -1.1692802 -0.19172302 0
-2.8543646 -1.9763761 -0.24271221 0
-4.2658 -2.9536607 -0.24155164 0
-8.5447531 -5.916429 -0.24164468 0
-0.72305179 -0.52812296 -0.19032523 0
-0.82603091 -0.60333979 -0.1926662 0
-0.93748486 -0.68474662 -0.19080022 0
-1.1006324 -0.80391097 -0.19154337 0
-1.3276237 -0.96970731 -0.19214614 0
-1.666337 -1.2171062 -0.19260767 0
-2.7850056 -2.0341911 -0.24110332 0
-4.1904812 -3.0607619 -0.24158411 0
-8.406765 -6.1403704 -0.24204804 0
-0.71576494 -0.55102384 -0.19200677 0
-0.80359775 -0.61864096 -0.19101483 0
-0.92293519 -0.71051151 -0.19142777 0
-1.0738869 -0.82672012 -0.19045943 0
-1.2983431 -0.99951518 -0.19149844 0
-1.630161 -1.2549616 -0.19202615 0
-2.7403581 -2.1096346 -0.24177063 0
-4.1124139 -3.1658967 -0.24161305 0
-8.2441587 -6.3466754 -0.24190125 0
-0.70258552 -0.5696792 -0.19226709 0
-0.79196489 -0.64215094 -0.19204101 0
-0.91258174 -0.73995095 -0.19309241 0
-1.0512314 -0.85237265 -0.19019625 0
-1.2712458 -1.0307674 -0.191278 0
-1.5933094 -1.2919071 -0.19146511 0
-2.6875048 -2.1791162 -0.24188288 0
-4.0323691 -3.2695761 -0.24168156 0
-8.0787735 -6.5505323 -0.24182259 0
-0.68599468 -0.58552313 -0.19170995 0
-0.77259994 -0.65944409 -0.19132021 0
-0.88094735 -0.75192279 -0.19035378 0
-1.0366119 -0.88478857 -0.1915305 0
-1.2497554 -1.0667149 -0.19203421 0
-1.5660671 -1.3366991 -0.19218436 0
-2.6227126 -2.2385871 -0.24105978 0
-3.9575775 -3.3779464 -0.24223162 0
-7.9040918 -6.7464499 -0.2416137 0
-0.67697257 -0.60800648 -0.19341551 0
-0.75014305 -0.6737228 -0.18990944 0
-0.86966079 -0.78106475 -0.19211344 0
-1.0231178 -0.91888845 -0.19326077 0
-1.2237952 -1.0991219 -0.1922466 0
-1.5351114 -1.3787231 -0.1925945 0
-2.5683556 -2.3067062 -0.24133787 0
-3.8640754 -3.4704256 -0.24179277 0
-7.735661 -6.9475961 -0.24174823 0
-0.65078455 -0.61484879 -0.19030645 0
-0.74485493 -0.70372468 -0.19300576 0
-0.84718466 -0.80040389 -0.19154996 0
-0.99909872 -0.94392937 -0.19316238 0
-1.1869053 -1.1213653 -0.19083676 0
-1.5030105 -1.4200156 -0.19300212 0
-1.9841652 -1.8746014 -0.19082895 0
-3.7760148 -3.5675066 -0.24183962 0
-7.5548158 -7.1376452 -0.24164946 0
-0.64265144 -0.63861263 -0.1925801 0
-0.71709758 -0.71259087 -0.19041294 0
-0.82493287 -0.81974846 -0.19113587 0
-0.97290689 -0.96679252 -0.19275475 0
-1.1700751 -1.1627216 -0.19278772 0
-1.4598352 -1.4506606 -0.1920983 0
-1.9423153 -1.9301085 -0.19142814 0
-3.6822224 -3.6590807 -0.24167037 0
-7.3681521 -7.321846 -0.24151282 0
-0.61581051 -0.64362514 -0.18934441 0
-0.69874561 -0.73030627 -0.19037363 0
-0.80248743 -0.83873379 -0.19077931 0
-0.946266 -0.98900658 -0.19236076 0
-1.130684 -1.1817542 -0.1911509 0
-1.4175029 -1.481528 -0.19138731 0
-1.8852979 -1.9704523 -0.19064943 0
-3.5857835 -3.7477446 -0.2414721 0
-7.1784573 -7.5026908 -0.24142498 0
-0.60067767 -0.66038978 -0.18975589 0
-0.68307728 -0.75098056 -0.19120792 0
-0.78413182 -0.86208069 -0.19152722 0
-0.918549 -1.00986 -0.19184652 0
-1.1088982 -1.2191314 -0.19260836 0
-1.3743064 -1.5109233 -0.1906431 0
-1.8466375 -2.0302079 -0.19186048 0
-3.5026622 -3.8508544 -0.24234246 0
-6.9986115 -7.6943288 -0.24183063 0
-0.58836222 -0.68058455 -0.19123083 0
-0.66652775 -0.77100211 -0.1919613 0
-0.76178461 -0.88118994 -0.19144017 0
-0.89293104 -1.0328928 -0.19187966 0
-1.0738293 -1.2421458 -0.1919014 0
-1.3376435 -1.5473113 -0.1909138 0
-1.7910115 -2.0717421 -0.19145279 0
-3.3965943 -3.9289906 -0.24178778 0
-6.7977486 -7.863256 -0.24167067 0
-0.57663864 -0.70207435 -0.19311821 0
-0.64307636 -0.78296417 -0.19083776 0
-0.73405629 -0.89373487 -0.19008005 0
-0.86676335 -1.0553095 -0.19191895 0
-1.0399179 -1.2661303 -0.19149095 0
-1.3013572 -1.5844401 -0.19138141 0
-1.7404475 -2.1190455 -0.19170372 0
-3.2948575 -4.0115848 -0.24167605 0
-6.5941777 -8.0286026 -0.24156043 0
-0.56154597 -0.71999633 -0.19408768 0
-0.62299782 -0.79878789 -0.19080135 0
-0.71251881 -0.91356891 -0.19041303 0
-0.84179813 -1.0793267 -0.19236164 0
-1.0089353 -1.2936246 -0.19173689 0
-1.2594543 -1.6148322 -0.19115199 0
-1.6819813 -2.1565828 -0.19119827 0
-3.1948929 -4.0963898 -0.24185018 0
-6.4015455 -8.2078571 -0.2420155 0
-0.53401881 -0.72152919 -0.19080687 0
-0.60812122 -0.82165122 -0.19253507 0
-0.69101632 -0.93365324 -0.19090328 0
-0.81588364 -1.1023654 -0.19273628 0
-0.9764629 -1.3193289 -0.1918328 0
-1.2225825 -1.6518685 -0.19182241 0
-1.6301166 -2.2025003 -0.19156061 0
-3.0924439 -4.1782956 -0.24200077 0
-6.1845112 -8.3560829 -0.24170658 0
-0.51527798 -0.7342518 -0.19067143 0
-0.58299738 -0.83074945 -0.19115822 0
-0.67566913 -0.96280318 -0.1933151 0
-0.7797401 -1.1111004 -0.19076197 0
-0.94693315 -1.3493443 -0.19266067 0
-1.1758386 -1.6755259 -0.19106254 0
-1.5781319 -2.2487788 -0.19206025 0
-2.9836504 -4.2515898 -0.24180734 0
-5.9700761 -8.5071344 -0.24164043 0
-0.49726215 -0.74803311 -0.19093028 0
-0.56575811 -0.85107183 -0.19248746 0
-0.6487968 -0.97598714 -0.19261307 0
-0.74892157 -1.1266052 -0.19011815 0
-0.90842706 -1.3665498 -0.19178258 0
-1.1412698 -1.7168158 -0.19242498 0
-1.5206987 -2.2875919 -0.192036 0
-2.8745673 -4.3242211 -0.24173489 0
-5.7541904 -8.6560478 -0.24166809 0
-0.48595244 -0.77261895 -0.19401331 0
-0.5377298 -0.85494012 -0.19023225 0
-0.62087584 -0.98713446 -0.19165942 0
-0.7273975 -1.156494 -0.19200273 0
-0.87683845 -1.3940911 -0.19248064 0
-1.0929804 -1.7377366 -0.19161694 0
-1.4590806 -2.3198018 -0.19158751 0
-2.7672274 -4.3996329 -0.24196921 0
-5.5347538 -8.7997408 -0.24170284 0
-0.46154562 -0.7766276 -0.19203359 0
-0.52156252 -0.87761599 -0.19228756 0
-0.59634531 -1.0034505 -0.19184391 0
-0.69886184 -1.1759517 -0.19224352 0
-0.82980263 -1.3962816 -0.18983097 0
-1.0486676 -1.7645582 -0.19159499 0
-1.3962996 -2.3495073 -0.19106947 0
-2.6455851 -4.4516387 -0.24108033 0
-5.3160853 -8.9452009 -0.24193583 0
-0.44313708 -0.79040402 -0.19261318 0
-0.50030035 -0.89236361 -0.19269082 0
-0.56927937 -1.0153985 -0.1913203 0
-0.65933675 -1.1760298 -0.18947551 0
-0.80131412 -1.4292686 -0.19150513 0
-1.007521 -1.7970707 -0.1923029 0
-1.3360645 -2.3830793 -0.19099653 0
-2.5400922 -4.5306501 -0.24181037 0
-5.0823388 -9.0651436 -0.24163355 0
-0.42172179 -0.79881102 -0.19200695 0
-0.47757858 -0.90461302 -0.19267173 0
-0.54201353 -1.0266634 -0.19080453 0
-0.63179755 -1.1967293 -0.19018079 0
-0.76354623 -1.4462832 -0.19114192 0
-0.95656186 -1.8118868 -0.19124396 0
-1.276425 -2.4177606 -0.19113328 0
-1.9199677 -3.6367371 -0.19145305 0
-4.8511949 -9.1889677 -0.24159352 0
-0.39940104 -0.80510169 -0.19103517 0
-0.45135263 -0.90982425 -0.19129445 0
-0.51684111 -1.0418341 -0.19113879 0
-0.602557 -1.2146178 -0.19054613 0
-0.7294054 -1.4703155 -0.19182394 0
-0.91588527 -1.8462164 -0.19236629 0
-1.2155981 -2.4503696 -0.19122484 0
-1.8311309 -3.6911435 -0.19182314 0
-4.6208448 -9.3145733 -0.24175264 0
-0.3799912 -0.81713933 -0.1915548 0
-0.42990404 -0.92447275 -0.19203188 0
-0.4900462 -1.0538034 -0.19100477 0
-0.57258707 -1.2313007 -0.19083539 0
-0.68756455 -1.4785502 -0.19057359 0
-0.86773956 -1.8660014 -0.19208466 0
-1.1536251 -2.4807744 -0.1912645 0
-1.7343868 -3.7296538 -0.19148861 0
-4.3842864 -9.4280415 -0.24174868 0
-0.36183444 -0.83240539 -0.19293123 0
-0.40532359 -0.9324528 -0.19150354 0
-0.45862916 -1.055083 -0.18907842 0
-0.53899258 -1.2399603 -0.19000861 0
-0.64951414 -1.4942168 -0.1904193 0
-0.81592137 -1.8770388 -0.19104017 0
-1.0956177 -2.5204842 -0.19213292 0
-1.6373746 -3.766804 -0.19121334 0
-4.1458502 -9.5375881 -0.24179755 0
-0.3405624 -0.8408885 -0.19284378 0
-0.3799541 -0.93815118 -0.19064364 0
-0.43691295 -1.0787892 -0.19128966 0
-0.51244527 -1.2652874 -0.19184667 0
-0.61747926 -1.5246286 -0.19224764 0
-0.76973701 -1.9005709 -0.19139697 0
-1.0332741 -2.5512745 -0.19243079 0
-1.5471106 -3.8199973 -0.19187032 0
-3.904608 -9.6409349 -0.24184218 0
-0.3173593 -0.84421706 -0.19170918 0
-0.35611027 -0.94729972 -0.19061559 0
-0.40967542 -1.08979 -0.19134593 0
-0.47714895 -1.2692784 -0.19056515 0
-0.57860422 -1.5391626 -0.19217768 0
-0.72210598 -1.9208959 -0.19154744 0
-0.96066946 -2.555506 -0.19086038 0
-1.4474221 -3.8503315 -0.19149806 0
-3.6578944 -9.7304754 -0.24169546 0
-0.29506668 -0.84939033 -0.19113192 0
-0.33313629 -0.95897895 -0.19121292 0
-0.38319409 -1.1030772 -0.19191967 0
-0.44496056 -1.2808806 -0.19056028 0
-0.53825653 -1.549446 -0.19170439 0
-0.67263049 -1.93626 -0.19132572 0
-0.89949369 -2.5893171 -0.19162904 0
-1.3522862 -3.8927431 -0.19184883 0
-3.4100533 -9.8163109 -0.24161278 0
-0.27008429 -0.84573793 -0.18871605 0
-0.31059766 -0.97260094 -0.19230473 0
-0.35158736 -1.1009554 -0.18994612 0
-0.41190392 -1.2898297 -0.19028445 0
-0.50184673 -1.5714754 -0.19280146 0
-0.62879258 -1.9689918 -0.19293042 0
-0.82845956 -2.5942259 -0.19038422 0
-1.2527735 -3.9229164 -0.19171654 0
-3.1626992 -9.9036293 -0.24172027 0
-0.25382426 -0.86998534 -0.19263574 0
-0.2829245 -0.9697268 -0.19026399 0
-0.32617491 -1.117968 -0.19140001 0
-0.37922174 -1.2997866 -0.19028074 0
-0.45972785 -1.5757222 -0.19183785 0
-0.57663673 -1.9764286 -0.19217187 0
-0.76521045 -2.6227672 -0.19100063 0
-1.1547306 -3.9578514 -0.1919384 0
-2.9109831 -9.9774256 -0.24165128 0
-0.23145521 -0.87483639 -0.19235513 0
-0.26024467 -0.98365259 -0.19164652 0
-0.29740909 -1.1241237 -0.19110793 0
-0.3464942 -1.3096517 -0.19038408 0
-0.42063841 -1.5898963 -0.19220977 0
-0.52314842 -1.9773557 -0.1909174 0
-0.7015242 -2.6515665 -0.19174746 0
-1.0531119 -3.9804704 -0.1916853 0
-2.6606071 -10.056356 -0.24185956 0
-0.20808846 -0.87526572 -0.19123386 0
-0.23644701 -0.99454802 -0.19254528 0
-0.27046877 -1.1376511 -0.19218594 0
-0.31394938 -1.32054 -0.19075426 0
-0.37895846 -1.5939825 -0.19148648 0
-0.47368401 -1.992419 -0.1911566 0
-0.63384503 -2.6660914 -0.19157994 0
-0.94928163 -3.992887 -0.19106862 0
-2.4030671 -10.107828 -0.24156186 0
-0.1884436 -0.89209706 -0.1938104 0
-0.21022491 -0.99521035 -0.19158527 0
-0.24096324 -1.1407264 -0.19161706 0
-0.28165451 -1.3333601 -0.19151829 0
-0.33993536 -1.6092631 -0.19223025 0
-0.42573434 -2.0154378 -0.19227293 0
-0.56877238 -2.6925838 -0.19239081 0
-0.84470361 -3.9988496 -0.19027317 0
-2.1486778 -10.171899 -0.24172005 0
-0.1631204 -0.88167816 -0.19059175 0
-0.18420562 -0.9956454 -0.1907133 0
-0.2105995 -1.1383063 -0.19025707 0
-0.24574895 -1.3282918 -0.18983895 0
-0.29823476 -1.6119815 -0.19159482 0
-0.37279204 -2.0149693 -0.19126971 0
-0.49745628 -2.6887889 -0.19116169 0
-0.94480902 -5.1067643 -0.2417783 0
-1.891488 -10.223637 -0.24173808 0
-0.14099842 -0.886617 -0.19082934 0
-0.1594709 -1.0027745 -0.191247 0
-0.18269444 -1.1488072 -0.19118063 0
-0.21265982 -1.3372335 -0.19028921 0
-0.25712231 -1.6168196 -0.19133762 0
-0.32083938 -2.0174811 -0.19067876 0
-0.43172157 -2.7147233 -0.19216964 0
-0.81582713 -5.1300306 -0.24182796 0
-1.6325585 -10.265747 -0.24168256 0
-0.11948489 -0.896658 -0.19228019 0
-0.13467695 -1.0106648 -0.19204238 0
-0.15413772 -1.1567055 -0.19178654 0
-0.17863688 -1.340556 -0.1900599 0
-0.21783774 -1.6347334 -0.19274555 0
-0.26914689 -2.0197761 -0.19019307 0
-0.36203074 -2.7168102 -0.19160955 0
-0.68560266 -5.1450119 -0.24164151 0
-1.3735659 -10.307737 -0.24177796 0
-0.096634418 -0.89763284 -0.1919051 0
-0.10971785 -1.0191643 -0.19306976 0
-0.12469254 -1.1582636 -0.1914621 0
-0.14507316 -1.3475782 -0.19047572 0
-0.17565444 -1.6316464 -0.19179775 0
-0.21884367 -2.0328293 -0.19084133 0
-0.29297075 -2.7213922 -0.19135025 0
-0.55605119 -5.1651354 -0.24185048 0
-1.1128484 -10.337199 -0.24173322 0
-0.07437776 -0.90492272 -0.19300081 0
-0.083195411 -1.0122033 -0.19129238 0
-0.094809882 -1.1535118 -0.1902205 0
-0.11127304 -1.3538119 -0.19089907 0
-0.13462196 -1.6378884 -0.19207095 0
-0.16718999 -2.0341296 -0.19050661 0
-0.22530545 -2.7411959 -0.19228166 0
-0.42432126 -5.1625371 -0.24115059 0
-0.85172164 -10.362536 -0.24174605 0
-0.050914764 -0.89582723 -0.19072612 0
-0.057859972 -1.0180256 -0.19205558 0
-0.06586232 -1.1588241 -0.19076167 0
-0.076921746 -1.3534107 -0.19050808 0
-0.081804357 -1.4393187 -0.1684894 0
-0.08226572 -1.4474361 -0.13532221 0
-0.081796549 -1.4391813 -0.10077471 0
-0.081949189 -1.4418668 -0.067233942 0
-0.082332507 -1.4486113 -0.033735212 0
-0.082081854 -1.4442011 4.1296149e-05 0
-0.028424945 -0.90091473 -0.19159552 0
-0.03189877 -1.0110159 -0.1905206 0
-0.03707391 -1.1750395 -0.19321543 0
-0.041779295 -1.3241743 -0.186185 0
-0.041899525 -1.3279849 -0.15528321 0
-0.041713886 -1.3221012 -0.12346679 0
-0.041641604 -1.3198103 -0.092313096 0
-0.041445807 -1.3136046 -0.061184838 0
-0.041890506 -1.3276992 -0.030884959 0
-0.041575931 -1.3177289 3.7637754e-05 0
-0.005727753 -0.90813357 -0.19303852 0
-0.0064008823 -1.0148579 -0.19115329 0
-0.007297358 -1.156994 -0.19015729 0
-0.0077734073 -1.2324715 -0.1732084 0
-0.007746987 -1.2282825 -0.14355628 0
-0.0076692556 -1.2159581 -0.11350021 0
-0.0077068554 -1.2219197 -0.085425399 0
-0.0076948069 -1.2200093 -0.056798242 0
-0.0077324542 -1.2259784 -0.028505111 0
-0.0076987837 -1.2206398 3.4847992e-05 0
0.017071037 -0.9018538 -0.19173419 0
0.018979875 -1.0026968 -0.18889277 0
0.022022784 -1.163452 -0.19124918 0
0.022880448 -1.208762 -0.1699034 0
0.022900607 -1.2098271 -0.14142181 0
0.023130396 -1.2219666 -0.11407922 0
0.022840129 -1.206632 -0.084370062 0
0.022843624 -1.2068166 -0.05619299 0
0.023108158 -1.2207918 -0.028389039 0
0.022796853 -1.2043457 3.4388286e-05 0
0.039814275 -0.90100068 -0.19170539 0
0.044839706 -1.0147266 -0.19131128 0
0.051258281 -1.1599796 -0.19083026 0
0.053710129 -1.2154652 -0.17098168 0
0.05343397 -1.2092156 -0.14146294 0
0.053405866 -1.2085797 -0.11291932 0
0.053782687 -1.2171071 -0.085170291 0
0.053957582 -1.221065 -0.056901734 0
0.053998712 -1.2219958 -0.028439673 0
0.05364003 -1.2138788 3.4688099e-05 0
0.062658399 -0.9014886 -0.19208452 0
0.070560656 -1.0151812 -0.19167168 0
0.081047609 -1.1660607 -0.19210602 0
0.083889112 -1.2069423 -0.17002645 0
0.084040321 -1.2091179 -0.14165454 0
0.084235676 -1.2119285 -0.11339474 0
0.084069334 -1.2095354 -0.084761932 0
0.084624916 -1.2175287 -0.056818377 0
0.084566936 -1.2166945 -0.02835694 0
0.084655672 -1.2179712 3.4855002e-05 0
0.086020008 -0.90632296 -0.19351558 0
0.096225426 -1.0138491 -0.19181764 0
0.10958523 -1.1546105 -0.19061458 0
0.11497553 -1.2114038 -0.1710093 0
0.11457892 -1.207225 -0.14172643 0
0.1151153 -1.2128763 -0.11371905 0
0.11426832 -1.2039524 -0.084545873 0
0.11506164 -1.212311 -0.056692354 0
0.11479843 -1.2095377 -0.028248673 0
0.11403166 -1.2014589 3.4453857e-05 0
0.10801335 -0.89683396 -0.19201045 0
0.12182117 -1.0114802 -0.19189005 0
0.13899359 -1.1540627 -0.19104245 0
0.14533512 -1.2067164 -0.17081101 0
0.14620972 -1.2139782 -0.14290696 0
0.1464925 -1.216326 -0.11435274 0
0.14547293 -1.2078606 -0.085051067 0
0.1461236 -1.2132632 -0.056891225 0
0.14513609 -1.2050638 -0.02822075 0
0.1455607 -1.2085893 3.4752618e-05 0
0.12993245 -0.88920712 -0.19101883 0
0.14718911 -1.007305 -0.19174168 0
0.16676064 -1.1412449 -0.18955697 0
0.17766324 -1.2158581 -0.17268474 0
0.17710437 -1.2120334 -0.14315863 0
0.17638654 -1.2071208 -0.11386959 0
0.17866315 -1.2227011 -0.086386062 0
0.17873085 -1.2231644 -0.057548705 0
0.17733884 -1.2136379 -0.02851728 0
0.17616898 -1.205632 3.4784352e-05 0
0.15351623 -0.89256215 -0.19251059 0
0.17324841 -1.0072874 -0.19250935 0
0.19519596 -1.1348932 -0.18925998 0
0.20700456 -1.2035497 -0.17162402 0
0.20698182 -1.2034175 -0.14271256 0
0.20566234 -1.1957459 -0.11325017 0
0.21057548 -1.2243115 -0.086847678 0
0.20746416 -1.2062219 -0.05697979 0
0.2086738 -1.2132549 -0.028622918 0
0.20999888 -1.2209591 3.5368219e-05 0
0.17468706 -0.88183945 -0.19108796 0
0.19645165 -0.99170947 -0.19041911 0
0.22432798 -1.1324323 -0.18973336 0
0.23936363 -1.2083338 -0.17311256 0
0.24156135 -1.2194282 -0.14528801 0
0.24005659 -1.211832 -0.1153108 0
0.23973538 -1.2102104 -0.08624915 0
0.23903464 -1.206673 -0.057267852 0
0.24188836 -1.221079 -0.028942311 0
0.23914696 -1.2072401 3.5134472e-05 0
0.19665422 -0.8761403 -0.19086774 0
0.22232226 -0.99049735 -0.19120289 0
0.25494948 -1.1358593 -0.19132471 0
0.27252367 -1.2141564 -0.17487645 0
0.27215624 -1.2125194 -0.145237 0
0.27145541 -1.209397 -0.11569418 0
0.27129081 -1.2086637 -0.086599313 0
0.2721158 -1.2123392 -0.057844285 0
0.27134234 -1.2088933 -0.028806632 0
0.27306074 -1.2165492 3.5594629e-05 0
0.21840757 -0.86974508 -0.19061472 0
0.24641749 -0.98128653 -0.19056474 0
0.28241321 -1.1246291 -0.19057302 0
0.30393311 -1.2103258 -0.17537375 0
0.3020156 -1.2026899 -0.1449265 0
0.30426461 -1.211646 -0.11660682 0
0.3014662 -1.200502 -0.086532146 0
0.30506477 -1.2148323 -0.058312044 0
0.3050864 -1.2149185 -0.029124418 0
0.30324346 -1.2075795 3.5544803e-05 0
0.24054629 -0.86490583 -0.19082393 0
0.27469552 -0.98769248 -0.19309366 0
0.31032443 -1.1157994 -0.19034338 0
0.33842754 -1.2168467 -0.17749974 0
0.33639926 -1.2095538 -0.14672999 0
0.3361735 -1.2087421 -0.11710662 0
0.33911252 -1.2193096 -0.088476531 0
0.33691502 -1.2114083 -0.058537208 0
0.33747318 -1.2134151 -0.029283239 0
0.33643124 -1.2096688 3.584482e-05 0
0.26297525 -0.86079729 -0.1913209 0
0.29943022 -0.98012543 -0.1930303 0
0.33959854 -1.1116085 -0.19102977 0
0.36931995 -1.2088957 -0.17764303 0
0.36906812 -1.2080714 -0.14763312 0
0.37048861 -1.212721 -0.11836034 0
0.37213334 -1.2181047 -0.089042284 0
0.36919564 -1.2084887 -0.058827665 0
0.37230143 -1.2186549 -0.029627018 0
0.36842719 -1.2059734 3.5999397e-05 0
0.28657308 -0.85977697 -0.19264035 0
0.32173115 -0.96525818 -0.19164047 0
0.36990684 -1.1097951 -0.19226131 0
0.42877793 -1.2864201 -0.19056456 0
0.51635033 -1.549155 -0.19084731 0
0.65123725 -1.9538428 -0.19223605 0
0.86545646 -2.5965436 -0.19134063 0
1.3018785 -3.9058974 -0.19167247 0
3.2887375 -9.8668747 -0.24181694 0
0.3047536 -0.84281099 -0.1905017 0
0.34374177 -0.95063478 -0.19039898 0
0.39712784 -1.0982765 -0.19194111 0
0.45973563 -1.2714214 -0.19000106 0
0.56171805 -1.5534589 -0.19306259 0
0.69644976 -1.9260659 -0.19117169 0
0.93576753 -2.5879111 -0.19238365 0
1.4003721 -3.8727977 -0.19172156 0
3.5353091 -9.777071 -0.24172585 0
0.32620367 -0.83557624 -0.19066663 0
0.37194386 -0.95274049 -0.19263956 0
0.42483708 -1.0882274 -0.19199765 0
0.49354494 -1.2642237 -0.19072621 0
0.59832728 -1.5326254 -0.19228895 0
0.74696809 -1.9133713 -0.19172187 0
0.99724603 -2.5544624 -0.19170713 0
1.4963303 -3.8328753 -0.1915538 0
3.7776058 -9.6764011 -0.24151725 0
0.34764865 -0.82819086 -0.19092277 0
0.39280871 -0.93577409 -0.19115275 0
0.45227697 -1.0774432 -0.1920478 0
0.52694392 -1.2553196 -0.19132841 0
0.63029397 -1.5015267 -0.19032246 0
0.79801011 -1.9010708 -0.1924462 0
1.0596052 -2.5242596 -0.19138655 0
1.5913726 -3.79107 -0.19141085 0
4.0216465 -9.5806246 -0.24158323 0
0.36608511 -0.81393325 -0.18970555 0
0.42036757 -0.93462187 -0.19302318 0
0.47906089 -1.0651174 -0.19194481 0
0.55359179 -1.2308252 -0.18966424 0
0.67124367 -1.4924058 -0.19125283 0
0.84524125 -1.8792623 -0.19233683 0
1.1235487 -2.4980357 -0.19148733 0
1.6916291 -3.7610738 -0.19199088 0
4.2652798 -9.4831858 -0.24176374 0
0.3867518 -0.80495131 -0.18982674 0
0.43606174 -0.90758073 -0.18965107 0
0.50398344 -1.048947 -0.19126213 0
0.59052491 -1.2290668 -0.19162895 0
0.71089447 -1.4795935 -0.19184916 0
0.88704193 -1.8462113 -0.19118463 0
1.1851571 -2.4666822 -0.1913159 0
1.7829888 -3.7109568 -0.19166867 0
4.5032163 -9.3726006 -0.24176505 0
0.4104628 -0.80182177 -0.19147079 0
0.4630211 -0.90449214 -0.19138671 0
0.52883536 -1.0330576 -0.19073784 0
0.62074721 -1.2126034 -0.19144382 0
0.74532801 -1.4559668 -0.1911639 0
0.93562639 -1.8277066 -0.19165272 0
1.2489277 -2.4397275 -0.19160911 0
1.8714324 -3.6557643 -0.19119669 0
4.7386179 -9.25669 -0.2417832 0
0.43247262 -0.79471952 -0.19232005 0
0.4882018 -0.89712846 -0.19237454 0
0.56452173 -1.0373753 -0.19410391 0
0.64552903 -1.1862358 -0.18979272 0
0.77885944 -1.4312462 -0.19043849 0
0.98463243 -1.8093783 -0.19227546 0
1.3130616 -2.4129057 -0.1920442 0
1.9700737 -3.6202428 -0.19187832 0
4.9683843 -9.1299925 -0.24167226 0
0.44786498 -0.77572328 -0.19039786 0
0.50989258 -0.88315803 -0.19207723 0
0.58417171 -1.011813 -0.19201852 0
0.67778981 -1.173964 -0.19050564 0
0.81756443 -1.4160602 -0.19110261 0
1.0264667 -1.7778889 -0.19162123 0
1.373147 -2.3783555 -0.19199154 0
2.5927131 -4.4907017 -0.24140535 0
5.1961555 -8.9999866 -0.2416255 0
0.47078672 -0.76988691 -0.1918207 0
0.5286777 -0.86455721 -0.190873 0
0.60984892 -0.99729812 -0.19212379 0
0.70542234 -1.1535913 -0.19002829 0
0.85425228 -1.3969759 -0.19137584 0
1.0757376 -1.7591751 -0.19246924 0
1.4242204 -2.3290563 -0.19085282 0
2.7089121 -4.4299378 -0.24173728 0
5.4253592 -8.8721991 -0.24179395 0
0.48932973 -0.75663137 -0.19153412 0
0.54995608 -0.85037553 -0.19074573 0
0.63275921 -0.97841078 -0.19150084 0
0.73892915 -1.1425772 -0.19122523 0
0.88860631 -1.3740171 -0.19124216 0
1.1140339 -1.7225871 -0.19148147 0
1.4926443 -2.3080175 -0.19215471 0
2.8166277 -4.3552413 -0.24146351 0
5.6407385 -8.7220535 -0.24150504 0
0.50715536 -0.74242055 -0.19111614 0
0.57477194 -0.84140396 -0.19192618 0
0.65996593 -0.96611875 -0.19229393 0
0.76478404 -1.1195611 -0.19054301 0
0.91827017 -1.3442482 -0.19026397 0
1.1521037 -1.6865551 -0.19064775 0
1.5515275 -2.2712684 -0.19229412 0
2.9350967 -4.2966642 -0.24224582 0
5.8617535 -8.5809727 -0.24161817 0
0.5274561 -0.73178869 -0.19174515 0
0.59436834 -0.82462221 -0.19145907 0
0.68030745 -0.9438535 -0.19121894 0
0.80092001 -1.1111904 -0.19249746 0
0.95574087 -1.3259878 -0.19103278 0
1.1993113 -1.6639156 -0.19144927 0
1.60648 -2.2288184 -0.19207175 0
3.0312154 -4.2054858 -0.24134167 0
6.0800505 -8.4354172 -0.24176359 0
0.54290038 -0.71449465 -0.19074325 0
0.6151492 -0.80957907 -0.19151014 0
0.69923395 -0.92024052 -0.18994997 0
0.82392812 -1.0843467 -0.19138868 0
0.99045366 -1.3035059 -0.19133434 0
1.2438389 -1.6369785 -0.19190088 0
1.6615162 -2.1866708 -0.19199228 0
3.1373942 -4.1290288 -0.24142133 0
6.2927999 -8.2817621 -0.24183472 0
0.56612098 -0.70727324 -0.19256856 0
0.63765246 -0.7966398 -0.19219513 0
0.73169523 -0.91413045 -0.19243939 0
0.85483229 -1.0679696 -0.19224492 0
1.0226558 -1.277637 -0.19126491 0
1.2852472 -1.6057009 -0.19197582 0
1.7189528 -2.1475432 -0.19230482 0
3.2493467 -4.0595136 -0.24207483 0
6.491703 -8.1102943 -0.24153519 0
0.58318812 -0.69205487 -0.19237134 0
0.65601182 -0.7784729 -0.1917457 0
0.75283921 -0.89337564 -0.19200902 0
0.88299763 -1.0478313 -0.19257021 0
1.0569404 -1.2542449 -0.1916955 0
1.3259147 -1.5734301 -0.19205742 0
1.7695462 -2.0998764 -0.19197458 0
3.3446693 -3.9690359 -0.24163641 0
6.7022762 -7.9534245 -0.24182416 0
0.60089767 -0.6776095 -0.19251038 0
0.68104684 -0.76799071 -0.19333607 0
0.76930779 -0.8675192 -0.19056424 0
0.90369844 -1.0190665 -0.19141458 0
1.0860633 -1.2247125 -0.19131036 0
1.3670517 -1.5415725 -0.19231907 0
1.8223879 -2.0550377 -0.19201916 0
3.4412866 -3.8806086 -0.24146377 0
6.8942924 -7.7744322 -0.2415956 0
0.61861742 -0.66310543 -0.19276413 0
0.70037109 -0.75073844 -0.19338132 0
0.79399472 -0.85109508 -0.19129753 0
0.9287259 -0.99551541 -0.1913328 0
1.1110615 -1.1909637 -0.19035831 0
1.4080418 -1.5093014 -0.19266525 0
1.8639436 -1.9979894 -0.19102356 0
3.5518415 -3.8072729 -0.24240139 0
7.0911446 -7.6011062 -0.24169411 0
0.62789029 -0.63988626 -0.19056046 0
0.71701074 -0.73070943 -0.19282216 0
0.81412995 -0.82968408 -0.19104268 0
0.95904934 -0.97737223 -0.19243667 0
1.1414347 -1.163242 -0.1904714 0
1.4413317 -1.4688687 -0.19208646 0
1.9140738 -1.9506427 -0.19105475 0
3.6471312 -3.7168107 -0.24242528 0
7.2916698 -7.4309788 -0.24205925 0
0.64765638 -0.62754261 -0.19169138 0
0.72988701 -0.70721948 -0.19142376 0
0.83808708 -0.81205928 -0.19179389 0
0.98313427 -0.95260191 -0.19238387 0
1.1713659 -1.1349877 -0.19062516 0
1.4711545 -1.4254661 -0.19120534 0
1.95781 -1.8970079 -0.19058058 0
3.7241242 -3.6084671 -0.24141242 0
7.4683166 -7.2363791 -0.24178334 0
0.67017925 -0.61735392 -0.19368424 0
0.75841957 -0.69863892 -0.19422051 0
0.85347193 -0.78619891 -0.19071294 0
1.0093156 -0.92975861 -0.19285376 0
1.2071714 -1.1120189 -0.19182356 0
1.5070885 -1.3882958 -0.19126074 0
2.5406287 -2.3403692 -0.24148746 0
3.8142092 -3.5135629 -0.24142669 0
7.6468115 -7.0440688 -0.24172933 0
0.6788255 -0.59436697 -0.19178654 0
0.76691252 -0.67149431 -0.19199419 0
0.88202262 -0.77228254 -0.19267589 0
1.0282089 -0.90028054 -0.19206099 0
1.2283227 -1.0754966 -0.19081047 0
1.5278599 -1.3377656 -0.18955152 0
2.6034286 -2.2795134 -0.24191108 0
3.9103217 -3.4238048 -0.24196357 0
7.8224459 -6.8491879 -0.24173984 0
0.6965782 -0.57952315 -0.19260842 0
0.78124422 -0.64996165 -0.19141433 0
0.89123541 -0.74146962 -0.1905397 0
1.0479774 -0.87187225 -0.1915822 0
1.2411845 -1.0326122 -0.18869978 0
1.563616 -1.3008615 -0.18985379 0
2.6550319 -2.2088726 -0.24144892 0
3.9962142 -3.3246787 -0.24200906 0
7.9974294 -6.6535177 -0.24188083 0
0.71023196 -0.56117356 -0.19240621 0
0.80951971 -0.63962346 -0.19432494 0
0.92067194 -0.72744793 -0.19284636 0
1.0731066 -0.84789068 -0.19220275 0
1.2721399 -1.0051522 -0.18948875 0
1.6049266 -1.2680961 -0.19092281 0
2.7140512 -2.1444457 -0.24181713 0
4.074563 -3.2194231 -0.24175608 0
8.1528883 -6.4418182 -0.24158837 0
0.7296437 -0.54718387 -0.19386192 0
0.81215006 -0.60905808 -0.19120541 0
0.93099022 -0.69818026 -0.19125573 0
1.0863224 -0.81466895 -0.19082631 0
1.3127437 -0.98446971 -0.19177468 0
1.622898 -1.2170647 -0.18934622 0
2.7699037 -2.0772419 -0.24204518 0
4.1559081 -3.1166525 -0.24183829 0
8.3189106 -6.2386255 -0.24176522 0
0.73132867 -0.5201444 -0.19076084 0
0.81410944 -0.57902074 -0.18816623 0
0.95150965 -0.67674416 -0.1919011 0
1.1054813 -0.78625375 -0.1906452 0
1.3217546 -0.94007421 -0.18956456 0
1.6813538 -1.1958327 -0.19258368 0
2.8145444 -2.0017943 -0.24145426 0
4.2184067 -3.0002658 -0.24099195 0
8.470993 -6.0248413 -0.24168885 0
0.74003309 -0.49870539 -0.18968773 0
0.84507954 -0.56949574 -0.1919411 0
0.96396524 -0.64961237 -0.19104566 0
1.1368992 -0.76615191 -0.19266726 0
1.3489156 -0.90902889 -0.19010897 0
1.6912755 -1.1397438 -0.19036461 0
2.8546524 -1.9237391 -0.24065311 0
4.3168344 -2.9090977 -0.24234329 0
8.6228828 -5.8109269 -0.24176103 0
0.75387341 -0.48082718 -0.19006418 0
0.86202526 -0.54980737 -0.19257686 0
0.98652685 -0.6292156 -0.19230846 0
1.1403282 -0.72731143 -0.19007698 0
1.3728161 -0.87559432 -0.19030224 0
1.730719 -1.103868 -0.19160736 0
2.9205379 -1.8627452 -0.24216692 0
4.3748555 -2.7903216 -0.24157001 0
8.7746964 -5.5965796 -0.24198008 0
0.77174073 -0.46525559 -0.19154732 0
0.87780488 -0.52919799 -0.19305672 0
0.99969751 -0.60268277 -0.1918496 0
1.1751812 -0.70847583 -0.19284454 0
1.397011 -0.84220928 -0.19064885 0
1.7600427 -1.0610684 -0.19182783 0
2.9656918 -1.7879122 -0.24209221 0
4.452167 -2.6840565 -0.24202131 0
8.8983946 -5.364532 -0.24158056 0
0.78297144 -0.4454864 -0.19148314 0
0.88258201 -0.50216168 -0.19125903 0
1.0169052 -0.57858741 -0.19228825 0
1.188659 -0.67630994 -0.19219396 0
1.4098717 -0.80217308 -0.18958059 0
1.7900465 -1.0184807 -0.1922351 0
3.0074055 -1.7111201 -0.24189492 0
4.5124564 -2.5674472 -0.24169913 0
9.0359564 -5.1411777 -0.24171543 0
0.80121487 -0.4294771 -0.19323228 0
0.89586598 -0.48021314 -0.19145027 0
1.0222733 -0.54797155 -0.19062741 0
1.2045672 -0.64568692 -0.19207001 0
1.4418825 -0.77289563 -0.19120103 0
1.8124245 -0.9715181 -0.19194393 0
3.0503554 -1.6350892 -0.24195313 0
4.5756836 -2.4527144 -0.24169305 0
9.1698265 -4.9153237 -0.24190089 0
0.80807012 -0.40724719 -0.19234543 0
0.90809727 -0.45765838 -0.19153468 0
1.039219 -0.52374053 -0.19126152 0
1.2127751 -0.61120844 -0.19085824 0
1.4528462 -0.73219824 -0.19014379 0
1.8436354 -0.92914635 -0.19270439 0
3.0855722 -1.5550516 -0.24155647 0
4.6371202 -2.336993 -0.24174564 0
9.2793818 -4.6765776 -0.24160035 0
0.81257337 -0.38412222 -0.19104883 0
0.92885733 -0.43909234 -0.1935143 0
1.0554831 -0.49895123 -0.19187602 0
1.2162014 -0.5749265 -0.18905367 0
1.4757519 -0.697622 -0.19077648 0
1.8498627 -0.8744728 -0.19098754 0
3.1340029 -1.4815155 -0.24234346 0
4.6948633 -2.2193704 -0.24175876 0
9.3923006 -4.4399576 -0.24154577 0
0.82791805 -0.36611205 -0.19242278 0
0.9333654 -0.41274172 -0.192222 0
1.0621331 -0.46968383 -0.19086914 0
1.2354465 -0.54632443 -0.18984139 0
1.500703 -0.66362298 -0.19177571 0
1.8708483 -0.82730424 -0.19093761 0
3.1581089 -1.3965412 -0.24140505 0
4.75318 -2.1018946 -0.24195293 0
9.5021944 -4.2019472 -0.24156763 0
0.82348228 -0.33957666 -0.18933958 0
0.9406594 -0.3878966 -0.1916469 0
1.0698175 -0.44115713 -0.19018862 0
1.2585016 -0.51896417 -0.1913105 0
1.5116987 -0.62337422 -0.19110942 0
1.8997382 -0.78338879 -0.19180711 0
3.1984026 -1.3189147 -0.24186353 0
4.8037834 -1.9809202 -0.24190678 0
9.6192436 -3.9666555 -0.24192108 0
0.83607256 -0.32033288 -0.19031487 0
0.95866472 -0.36730286 -0.19336496 0
1.0817399 -0.41445789 -0.19038787 0
1.2604637 -0.48293415 -0.18969548 0
1.5268372 -0.58499253 -0.19109583 0
1.9170089 -0.73448288 -0.19161814 0
3.2238867 -1.2352002 -0.24135631 0
4.8474736 -1.8572612 -0.24166942 0
9.7060137 -3.7187626 -0.24166587 0
0.84019554 -0.29782686 -0.18948199 0
0.95487231 -0.33847672 -0.19081615 0
1.0963185 -0.38861558 -0.19116656 0
1.2804642 -0.45389032 -0.19092062 0
1.556587 -0.55176848 -0.19301483 0
1.9319481 -0.68482393 -0.19132282 0
3.2590172 -1.1552345 -0.24172655 0
4.8950872 -1.7351776 -0.24178284 0
9.8021603 -3.4746039 -0.24179929 0
0.85933918 -0.28041515 -0.19214199 0
0.96310455 -0.31427532 -0.19081539 0
1.1095552 -0.36206436 -0.19182017 0
1.293516 -0.42209351 -0.19121738 0
1.5550456 -0.50743449 -0.19117475 0
1.9471726 -0.63539135 -0.19118151 0
3.2858112 -1.072209 -0.24162975 0
4.9373188 -1.6111205 -0.24178331 0
9.8937111 -3.2284651 -0.2419706 0
0.86086297 -0.25706789 -0.1909712 0
0.97972751 -0.29256278 -0.19258451 0
1.1076388 -0.3307592 -0.18998514 0
1.2947227 -0.38662553 -0.18989277 0
1.5609478 -0.46612474 -0.1903934 0
1.9617453 -0.58580947 -0.19109978 0
3.3127475 -0.989241 -0.24169756 0
4.9693003 -1.483915 -0.24143851 0
9.9604845 -2.9743648 -0.24169071 0
0.86805743 -0.23553219 -0.19118758 0
0.973373 -0.2641077 -0.18996462 0
1.1260313 -0.30552888 -0.19175616 0
1.3125926 -0.35614902 -0.19113445 0
1.5725818 -0.42669255 -0.19043823 0
1.9626344 -0.53252649 -0.18981668 0
3.3383534 -0.90580374 -0.24182078 0
5.0148034 -1.3606791 -0.24190374 0
10.03919 -2.7239585 -0.24185526 0
0.87382001 -0.21357878 -0.19120862 0
0.98674738 -0.24118046 -0.19132589 0
1.1357981 -0.2776114 -0.192165 0
1.3278348 -0.32454896 -0.19210002 0
1.5772353 -0.38550735 -0.18976307 0
1.9723628 -0.48208421 -0.18952043 0
3.3539329 -0.81976712 -0.24137372 0
5.0453668 -1.2331868 -0.24179967 0
10.111111 -2.4713542 -0.24200816 0
0.88592023 -0.19298606 -0.19272918 0
0.99253273 -0.21621019 -0.19132864 0
1.127866 -0.24569078 -0.18971343 0
1.3318177 -0.29011893 -0.19155589 0
1.5910378 -0.34658661 -0.19031063 0
1.9869101 -0.4328222 -0.18980815 0
3.3817003 -0.73665887 -0.24195695 0
5.084444 -1.1075792 -0.24225561 0
10.160583 -2.2133493 -0.24177822 0
0.87846327 -0.16826499 -0.19012251 0
0.99142814 -0.18990281 -0.19013123 0
1.1423229 -0.21880591 -0.19115536 0
1.3305465 -0.25485912 -0.19038723 0
1.6155758 -0.30945498 -0.19225028 0
2.5393167 -0.48639265 -0.24132958 0
3.3966963 -0.65061921 -0.24177802 0
5.0973358 -0.97636765 -0.24161877 0
10.214419 -1.9565181 -0.24180725 0
0.88586819 -0.14661612 -0.19086348 0
1.0047612 -0.16629358 -0.19182219 0
1.1566451 -0.19143121 -0.19268215 0
1.3350494 -0.22095813 -0.19017303 0
1.6167177 -0.2675758 -0.19152154 0
2.5508666 -0.42218265 -0.24133776 0
3.4100318 -0.56437927 -0.24163637 0
5.1229634 -0.84787905 -0.24174221 0
10.26169 -1.698367 -0.24183452 0
0.90224314 -0.12602809 -0.19364452 0
1.0124522 -0.14142245 -0.19254775 0
1.1507424 -0.16073924 -0.19096221 0
1.3490191 -0.18843514 -0.19142453 0
1.624048 -0.22685203 -0.19165061 0
2.5691533 -0.35886726 -0.24213381 0
3.4367034 -0.48004934 -0.24259053 0
5.1507034 -0.71946615 -0.24211723 0
10.292962 -1.4377526 -0.24163936 0
0.8904255 -0.10154592 -0.19049743 0
1.017897 -0.11608303 -0.1929646 0
1.1481006 -0.13093172 -0.18991496 0
1.3527465 -0.15426993 -0.19134001 0
1.6385958 -0.18686877 -0.19274943 0
2.564894 -0.29250568 -0.24095988 0
3.4268224 -0.39080176 -0.24112003 0
5.1672435 -0.58928287 -0.24211849 0
10.328175 -1.177846 -0.24169119 0
0.90827316 -0.080425896 -0.19381976 0
1.0044897 -0.088945687 -0.18993688 0
1.1220958 -0.099359497 -0.18513955 0
1.1233782 -0.099473044 -0.1584913 0
1.6363978 -0.14489998 -0.19199952 0
2.5873201 -0.22910237 -0.24244627 0
3.4361513 -0.30426478 -0.24115929 0
5.1641235 -0.45727351 -0.24135466 0
10.353354 -0.91677016 -0.24166197 0
0.891895 -0.056339178 -0.18996084 0
1.0077332 -0.063656449 -0.19018586 0
1.1233135 -0.070957422 -0.18498607 0
1.1300974 -0.071385942 -0.1591344 0
1.6344663 -0.10324589 -0.19140621 0
2.5813606 -0.16305926 -0.24142532 0
3.4573274 -0.2183923 -0.24218151 0
5.1844172 -0.32748902 -0.24183981 0
10.383638 -0.65591317 -0.24190541 0
0.91096938 -0.034497105 -0.19377626 0
1.0099865 -0.038246743 -0.19036829 0
1.1318278 -0.042860698 -0.18615076 0
1.1355631 -0.043002151 -0.15970038 0
1.6490976 -0.062448964 -0.19287363 0
2.5928955 -0.098189235 -0.24219522 0
3.4537158 -0.13078727 -0.24162035 0
5.1845312 -0.19633077 -0.24153705 0
10.389795 -0.39344665 -0.24174052 0
0.91182309 -0.011504925 -0.19383436 0
1.0144249 -0.012799503 -0.19108313 0
1.1284961 -0.014238794 -0.1854846 0
1.1321933 -0.014285446 -0.15912507 0
1.1217226 -0.014153332 -0.13110986 0
1.1329439 -0.014294916 -0.10575779 0
1.1369964 -0.014346048 -0.079493098 0
1.13402 -0.014308494 -0.052798111 0
1.1238037 -0.014179589 -0.026131017 0
1.1333467 -0.014299999 3.2357795e-05 0
1.1369588 -0.014345574 0.02650186 0
1.1410986 -0.014397807 0.053192977 0
1.1273987 -0.01422495 0.07888677 0
1.1333274 -0.014299755 0.10585886 0
1.1429396 -0.014421036 0.13365591 0
1.1287636 -0.014242171 0.15870877 0
1.1205356 -0.014138355 0.18424192 0
1.1273079 -0.014223804 0.2124131 0
0.89757907 0.011325201 -0.19080639 0
1.025817 0.012943243 -0.19322902 0
1.1410955 0.014397769 -0.18755552 0
1.1286397 0.014240608 -0.15862562 0
1.6398134 0.020690341 -0.19166566 0
2.5840044 0.03260367 -0.24121106 0
3.4504986 0.043536656 -0.24124159 0
5.1880932 0.065460749 -0.2415491 0
10.399329 0.1312135 -0.2418083 0
0.90409577 0.034236811 -0.19231415 0
1.0073607 0.038147308 -0.18987337 0
1.1252728 0.042612467 -0.18507265 0
1.1342479 0.042952344 -0.15951541 0
1.6344545 0.06189445 -0.19116101 0
2.5840888 0.097855739 -0.24137262 0
3.4580271 0.13095054 -0.24192198 0
5.1906705 0.19656326 -0.24182308 0
10.401801 0.39390132 -0.24201988 0
0.90319484 0.05705297 -0.19236754 0
1.0185212 0.064337902 -0.19222182 0
1.12191 0.070868753 -0.18475492 0
1.1270845 0.071195625 -0.15871014 0
1.6352942 0.10329819 -0.19150317 0
2.5870762 0.1634203 -0.24195987 0
3.4416063 0.21739922 -0.24108027 0
5.1768894 0.32701352 -0.24148865 0
10.364458 0.65470159 -0.24145858 0
0.89378315 0.079142839 -0.1907277 0
1.0109785 0.089520261 -0.19116384 0
1.1624265 0.10293069 -0.19179387 0
1.3554254 0.1200204 -0.19122957 0
1.6298133 0.14431693 -0.19122696 0
2.5794911 0.22840913 -0.24171264 0
3.4473476 0.30525622 -0.24194509 0
5.1635599 0.45722359 -0.24132831 0
10.348461 0.91633695 -0.24154776 0
0.91134781 0.10393195 -0.19497356 0
1.0123321 0.1154484 -0.19190966 0
1.152793 0.13146685 -0.19069116 0
1.3459176 0.15349115 -0.19037409 0
1.6378465 0.18678331 -0.19266129 0
2.5694211 0.29302198 -0.24138518 0
3.4304786 0.39121869 -0.24137728 0
5.1593547 0.58838326 -0.24174885 0
10.335441 1.1786745 -0.24186121 0
0.88644105 0.12382081 -0.19025299 0
1.0093652 0.14099124 -0.19196066 0
1.1564624 0.16153823 -0.19191143 0
1.3548944 0.18925582 -0.19225824 0
1.6118339 0.22514594 -0.19020925 0
2.5638232 0.35812271 -0.24163146 0
3.4214466 0.47791818 -0.24151357 0
5.1357079 0.71737146 -0.24141233 0
10.289892 1.4373238 -0.2415673 0
0.89281267 0.14776547 -0.19235969 0
1.0038608 0.16614456 -0.1916503 0
1.1411723 0.18887037 -0.19010459 0
1.3482251 0.22313878 -0.19204986 0
1.6284143 0.26951164 -0.19290715 0
2.5647473 0.42447999 -0.24265102 0
3.4044564 0.56345654 -0.24124129 0
5.1311336 0.84923124 -0.24212775 0
10.252493 1.6968447 -0.24161777 0
0.88351578 0.16923277 -0.19121601 0
1.0030352 0.19212607 -0.19235717 0
1.1416869 0.21868408 -0.19104894 0
1.3336771 0.25545877 -0.19083519 0
1.3427433 0.25719535 -0.15978375 0
1.3540051 0.25935251 -0.12868088 0
1.3454038 0.25770497 -0.095766298 0
1.3480303 0.25820807 -0.063897975 0
1.3382879 0.25634196 -0.031681459 0
1.3391429 0.25650573 3.8925376e-05 0
0.87435853 0.19046749 -0.19021398 0
0.98988849 0.21563417 -0.19081891 0
1.1356179 0.24737939 -0.19101731 0
1.2146158 0.26458806 -0.17469868 0
1.2026877 0.26198968 -0.14385848 0
1.1995668 0.26130983 -0.11459379 0
1.2151234 0.26469862 -0.08694075 0
1.2077473 0.26309183 -0.057544846 0
1.1932398 0.25993159 -0.028393982 0
1.2056129 0.26262689 3.5225465e-05 0
0.87485892 0.21383272 -0.19143596 0
0.98834723 0.24157149 -0.19163609 0
1.1401792 0.2786822 -0.19290623 0
1.1988708 0.29302758 -0.17344257 0
1.2131171 0.29650965 -0.14595464 0
1.2078946 0.29523316 -0.1160642 0
1.2054955 0.2946468 -0.086756341 0
1.2141523 0.2967627 -0.058188364 0
1.1990362 0.29306802 -0.028698783 0
1.2051975 0.29457393 3.5419271e-05 0
0.85992831 0.23332648 -0.18939714 0
0.98035455 0.26600206 -0.19132715 0
1.1191941 0.30367374 -0.19059183 0
1.2004803 0.32572931 -0.17480911 0
1.2019156 0.32611877 -0.14555089 0
1.2009265 0.3258504 -0.11614791 0
1.2080451 0.32778192 -0.087507337 0
1.2132852 0.3292037 -0.058526367 0
1.2175378 0.33035755 -0.029331839 0
1.1987861 0.32526964 3.5460827e-05 0
0.86143845 0.25723973 -0.19109884 0
0.96736908 0.28887236 -0.19015524 0
1.1033466 0.32947746 -0.18924892 0
1.2080286 0.36073723 -0.17717761 0
1.1932682 0.35632953 -0.14554644 0
1.2119881 0.36191961 -0.11806357 0
1.208709 0.36094043 -0.088187233 0
1.2025797 0.35911015 -0.058428559 0
1.2116517 0.36181915 -0.029400673 0
1.2080349 0.36073911 3.5992271e-05 0
0.85339224 0.27847457 -0.19081229 0
0.96376878 0.31449208 -0.19094698 0
1.1112227 0.36260849 -0.19210845 0
1.2017838 0.39215991 -0.17765681 0
1.2073146 0.39396471 -0.14842527 0
1.2070861 0.39389011 -0.11851674 0
1.2120515 0.39551041 -0.08913102 0
1.2083566 0.39430469 -0.059173912 0
1.2027407 0.39247215 -0.02941544 0
1.200629 0.39178306 3.6054746e-05 0
1.0944182 0.38794199 -0.19083521 0
1.2094933 0.42873302 -0.029835733 0
1.2039167 0.42675629 3.6465313e-05 0
0.84901321 0.32529098 -0.19326055 0
0.95406204 0.36553937 -0.19243659 0
0.83558279 0.34456649 -0.19212179 0
0.93524706 0.38566473 -0.19054422 0
0.82500964 0.36482593 -0.19174682 0
1.0985438 0.82383418 -0.031926014 0
1.0911518 0.81829065 3.8937025e-05 0
1.1052582 0.82886958 0.032200076 0
1.1002949 0.82514745 0.064106449 0
1.0978163 0.82328868 0.09601029 0
1.0942056 0.86456162 -0.032423768 0
1.102132 0.87082434 4.0100371e-05 0
1.0896965 0.86099881 0.032369491 0
1.0998091 0.86898899 0.065335184 0
1.0920877 0.86288816 0.097382918 0
1.090842 0.90753376 -0.066060938 0
1.0930208 0.90934634 -0.033058219 0
1.0979744 0.91346759 4.0774961e-05 0
1.1006199 0.91566849 0.033369847 0
1.0970894 0.91273123 0.066520929 0
1.0973426 0.91294193 0.099874362 0
1.1028631 0.96564627 -0.10247825 0
1.1072154 0.96945709 -0.068512462 0
1.0974849 0.96093738 -0.03391597 0
1.100885 0.96391433 4.1773212e-05 0
1.0962234 0.95983273 0.033960219 0
1.0925157 0.95658636 0.067685962 0
1.0957335 0.95940381 0.10189933 0
1.0982237 0.96158421 0.13633347 0
1.0881007 0.95272058 0.27248815 0
1.0989214 1.0123014 -0.13946129 0
1.0988172 1.0122055 -0.10444289 0
1.0973388 1.0108435 -0.069457874 0
1.0943191 1.0080619 -0.034593374 0
1.0964729 1.0100459 4.2559561e-05 0
1.0991913 1.01255 0.034832768 0
1.0879102 1.002158 0.068945713 0
1.1005237 1.0137774 0.10469094 0
1.0979968 1.0114497 0.13942994 0
1.0355823 0.95395488 0.2652812 0
0.84367555 0.81747425 -0.13729766 0
0.84172612 0.81558532 -0.1093988 0
0.84312403 0.81693983 -0.082072861 0
0.83143079 0.80560976 -0.053896625 0
0.83535433 0.80941141 -0.027044214 0
0.83797371 0.81194949 3.3310742e-05 0
0.83726674 0.81126446 0.027172729 0
0.83494955 0.80901921 0.054191247 0
0.84309107 0.81690788 0.082137004 0
1.0998662 1.0657085 0.14303735 0
1.0093613 0.97801435 0.19759791 0
1.0048052 0.97359985 0.23002891 0
0.98718345 0.95652533 0.25898486 0
0.84203857 0.85812598 -0.14051113 0
0.83372295 0.84965146 -0.11111036 0
0.84564072 0.86179692 -0.084408283 0
0.84261769 0.85871613 -0.056008905 0
0.8412686 0.85734129 -0.027927328 0
0.84006256 0.85611218 3.4241802e-05 0
0.83533186 0.85129106 0.027798381 0
0.83548141 0.85144353 0.055602815 0
0.84232748 0.85842037 0.084146567 0
0.83660436 0.85258788 0.11156316 0
1.0954245 1.1163529 0.1828842 0
0.94042259 0.95838964 0.18877733 0
0.94933033 0.96746755 0.22284812 0
0.94748795 0.96558994 0.25488326 0
0.83752978 0.89776087 -0.17254491 0
0.83314347 0.89305913 -0.14274257 0
0.83674878 0.89692372 -0.11449405 0
0.84063876 0.90109348 -0.086151652 0
0.83540696 0.89548546 -0.057013754 0
0.83678377 0.89696127 -0.028520884 0
0.84119427 0.90168893 3.520435e-05 0
0.84325409 0.90389693 0.028812038 0
0.84585071 0.90668023 0.057797454 0
0.84401321 0.90471065 0.086568467 0
0.82664788 0.88609642 0.11318171 0
1.0920725 1.1706091 0.18719758 0
0.92880207 0.99559706 0.19142778 0
0.92864913 0.99543315 0.2238197 0
0.92887866 0.9956792 0.25655568 0
0.84825581 0.95654589 -0.17967114 0
0.84143263 0.9488517 -0.14821859 0
0.83572012 0.94240993 -0.11757047 0
0.83669484 0.94350904 -0.088159852 0
0.83683187 0.9436636 -0.058717739 0
0.83444101 0.9409675 -0.029241184 0
0.83658606 0.94338638 3.5996494e-05 0
0.83491534 0.94150239 0.029329693 0
0.83614582 0.94288993 0.058741715 0
0.84492224 0.9527868 0.089099817 0
0.8368687 0.94370508 0.1178047 0
1.0946877 1.2344378 0.19292504 0
1.0974164 1.2375149 0.23254275 0
0.65301818 0.77492046 -0.1908707 0
0.73086697 0.8673017 -0.18640506 0
0.84686518 1.0049539 -0.18469019 0
0.83356023 0.98916519 -0.15118141 0
0.84191 0.99907368 -0.12194982 0
0.8345083 0.99029028 -0.090534166 0
0.83519077 0.99110019 -0.060338553 0
0.83614147 0.99222833 -0.030168738 0
0.83738762 0.99370706 3.7098318e-05 0
0.84581959 1.0037131 0.030592918 0
0.83948559 0.99619669 0.060723376 0
0.84274286 1.000062 0.091502547 0
0.83940333 0.99609905 0.12166175 0
0.83830875 0.99480021 0.15211794 0
1.1003655 1.3057765 0.24007472 0
0.56071258 0.70051634 -0.19072886 0
0.63467664 0.79292202 -0.1912982 0
0.7233848 0.90374804 -0.19025372 0
0.84019601 1.049684 -0.18895334 0
0.84603184 1.0569749 -0.15823135 0
0.83562714 1.0439759 -0.12481661 0
0.85032642 1.0623403 -0.095128775 0
0.83862859 1.0477258 -0.062477443 0
0.84170043 1.0515636 -0.03131694 0
0.84081787 1.0504609 3.8412625e-05 0
0.84016585 1.0496464 0.03133665 0
0.83577126 1.0441561 0.062341105 0
0.83220959 1.0397063 0.093178399 0
0.83210307 1.0395732 0.12436692 0
0.83607954 1.0445412 0.15644743 0
1.0962862 1.3696258 0.2466481 0
1.0910907 1.3631349 0.28706455 0
0.54386318 0.71576172 -0.19108154 0
0.61970454 0.81557423 -0.19292833 0
0.69455874 0.91408759 -0.18867993 0
0.72475225 0.95382434 -0.16835129 0
0.72723222 0.95708817 -0.14048563 0
0.73149759 0.96270168 -0.11285628 0
0.72830093 0.95849466 -0.08415696 0
0.7269066 0.95665956 -0.055935193 0
0.72891891 0.95930797 -0.028012635 0
0.72403574 0.9528814 3.4165285e-05 0
0.72333848 0.95196378 0.027866479 0
0.72167295 0.94977176 0.055600721 0
0.72814626 0.95829111 0.084208146 0
0.72643697 0.95604151 0.11214468 0
0.73351252 0.96535349 0.14176902 0
0.73526663 0.96766198 0.17086442 0
0.7236411 0.952362 0.19665043 0
0.72668225 0.95636433 0.22630396 0
0.52710271 0.73129839 -0.19161667 0
0.59588277 0.82672334 -0.19194691 0
0.67760742 0.94010752 -0.19046003 0
0.72971267 1.012398 -0.17538311 0
0.95357543 1.3229835 -0.19059995 0
0.85241199 1.1826301 -0.1360728 0
