# .PCD v0.7 - Point Cloud Data file format
VERSION 0.7
FIELDS x y z intensity
SIZE 4 4 4 4
TYPE F F F F
COUNT 1 1 1 1
WIDTH 1354
HEIGHT 1
VIEWPOINT 0 0 0 1 0 0 0
POINTS 1354
DATA ascii
0.72685361 0.95658982 -0.16883942 0
0.72804707 0.95816058 -0.14064303 0
0.73436612 0.96647686 -0.11329884 0
0.728293 0.95848423 -0.084156051 0
0.7305997 0.96151996 -0.056219377 0
0.72660291 0.95625997 -0.027923631 0
0.72686738 0.956608 3.4298901e-05 0
0.72992241 0.96062863 0.028120123 0
0.7245717 0.95358676 0.055824056 0
0.72169709 0.94980353 0.083462313 0
0.7275241 0.95747232 0.11231251 0
0.73092151 0.96194351 0.14126824 0
0.7271924 0.95703578 0.16898811 0
0.72832364 0.95852453 0.1979229 0
0.72629845 0.95585924 0.22618446 0
0.53257602 0.73889202 -0.19360636 0
0.59538269 0.82602954 -0.19178583 0
0.67915094 0.94224894 -0.19089387 0
0.73286366 1.0167696 -0.17614043 0
0.9585529 1.3298892 -0.19159484 0
0.85366386 1.1843669 -0.13627265 0
0.84092635 1.1666949 -0.10054167 0
0.83854669 1.1633935 -0.066764064 0
0.84210283 1.1683272 -0.033484887 0
0.8398416 1.16519 4.1004485e-05 0
0.83580476 1.1595893 0.033316113 0
0.83570367 1.1594491 0.066619486 0
0.84230304 1.168605 0.10078892 0
0.83519816 1.1587478 0.13340719 0
0.83618104 1.1601114 0.16721801 0
0.84023619 1.1657374 0.20203058 0
1.1027009 1.5298791 0.31005472 0
0.51420045 0.75273383 -0.19377102 0
0.56822044 0.83181322 -0.1897385 0
0.65065193 0.95248401 -0.1895801 0
0.76317483 1.1172054 -0.1901421 0
0.92169571 1.3492628 -0.19097374 0
1.1473807 1.6796414 -0.18986623 0
0.85240978 1.2478356 -0.10564645 0
0.8359983 1.223811 -0.068998434 0
0.8411864 1.2314059 -0.034673229 0
0.83786368 1.2265419 4.2405845e-05 0
0.83637708 1.2243656 0.034559697 0
0.84402126 1.2355558 0.069746226 0
0.84744084 1.2405617 0.10511681 0
0.84301823 1.2340875 0.13958701 0
0.84031397 1.2301288 0.17419779 0
0.84014559 1.2298822 0.20940578 0
1.1071781 1.6207889 0.32271299 0
1.0996051 1.6097028 0.36729217 0
0.49259809 0.76168513 -0.19281343 0
0.54988885 0.85027158 -0.19072242 0
0.63220388 0.97755206 -0.19133277 0
0.73710519 1.1397569 -0.19075322 0
0.88386697 1.3666888 -0.19022219 0
1.1034342 1.706197 -0.18965957 0
1.4847786 2.295855 -0.19114211 0
0.84857959 1.3121253 -0.072746918 0
0.84315389 1.3037359 -0.036099158 0
0.83490217 1.2909765 4.3891065e-05 0
0.83707827 1.2943413 0.035927095 0
0.84367073 1.3045349 0.072414987 0
0.83899993 1.2973127 0.10809682 0
0.83746296 1.2949362 0.14403294 0
0.83681089 1.2939279 0.18018416 0
0.84017283 1.2991263 0.21751586 0
0.83651578 1.2934716 0.25325689 0
1.1032732 1.7059481 0.3827773 0
0.46703583 0.76375306 -0.1902924 0
0.53375685 0.87286329 -0.19270678 0
0.6060254 0.99104548 -0.19091925 0
0.70489842 1.1527344 -0.18988717 0
0.8507936 1.3913198 -0.19060099 0
1.0678194 1.7462263 -0.19105254 0
1.4275131 2.3344407 -0.19129404 0
0.84537542 1.3824593 -0.075439423 0
0.84996253 1.3899608 -0.037880588 0
0.83509111 1.3656412 4.5698409e-05 0
0.83201677 1.3606137 0.0371719 0
0.83505863 1.3655881 0.07461036 0
0.84330314 1.3790704 0.11309968 0
0.84333378 1.3791206 0.15098104 0
0.83902395 1.3720726 0.18805735 0
0.84020144 1.3739982 0.22642918 0
0.83461249 1.3648585 0.26302603 0
1.09946 1.7979689 0.39707199 0
0.44735387 0.77483803 -0.19018057 0
0.51023769 0.88375586 -0.19220726 0
0.57837611 1.0017748 -0.1901135 0
0.68084562 1.1792568 -0.19136453 0
0.81577629 1.412963 -0.19068465 0
1.0253932 1.7760297 -0.19142082 0
1.3675792 2.3687117 -0.19121306 0
1.3683743 2.3700891 -0.12740819 0
0.85211819 1.475909 -0.039624196 0
0.83916026 1.4534652 4.7913272e-05 0
0.83590412 1.4478254 0.038965736 0
0.83874655 1.4527487 0.078190975 0
0.83580691 1.4476571 0.1169573 0
0.83939648 1.4538743 0.15679556 0
0.83679104 1.4493617 0.19569363 0
0.8383823 1.4521178 0.23574081 0
0.84461689 1.4629164 0.27772647 0
0.84024769 1.4553487 0.31662181 0
0.43283334 0.79538238 -0.19248047 0
0.49203306 0.90416884 -0.19388424 0
0.55486828 1.0196359 -0.19078469 0
0.64533544 1.1858801 -0.18973581 0
0.78028435 1.4338646 -0.1907869 0
0.97702831 1.7954049 -0.19079056 0
1.2954817 2.3806007 -0.18947302 0
1.2881385 2.3671067 -0.12546021 0
1.2946442 2.3790617 -0.062974118 0
0.84256798 1.5483181 5.032304e-05 0
0.83918339 1.5420985 0.040919874 0
0.8409555 1.545355 0.082006812 0
0.84272569 1.5486079 0.12335552 0
0.83665854 1.5374588 0.16348046 0
0.83855063 1.5409358 0.20513509 0
0.83593273 1.5361251 0.24587536 0
0.83777678 1.5395137 0.28816211 0
0.83654797 1.5372556 0.32974285 0
0.41448075 0.80967063 -0.19334507 0
0.46527475 0.90889454 -0.19231825 0
0.53216457 1.039561 -0.19193862 0
0.61611688 1.2035583 -0.19001579 0
0.74923861 1.463606 -0.19216691 0
0.93464494 1.8257895 -0.19145167 0
1.2448128 2.4316893 -0.19097781 0
1.2405082 2.4232805 -0.12673771 0
1.244401 2.4308848 -0.063494302 0
1.2484955 2.4388831 7.8218894e-05 0
0.85030109 1.6610272 0.043492354 0
0.83939421 1.6397212 0.08586292 0
0.84094745 1.6427553 0.12912312 0
0.84262037 1.6460234 0.17270796 0
0.83909541 1.6391374 0.2153202 0
0.83921313 1.6393675 0.25892785 0
0.83946234 1.6398542 0.30288136 0
0.84171063 1.6442461 0.34802473 0
0.39171135 0.81527376 -0.19226101 0
0.44379091 0.92366761 -0.19301264 0
0.50378609 1.0485363 -0.19118723 0
0.58617681 1.2200171 -0.19021796 0
0.71075767 1.4793087 -0.19181223 0
0.88902384 1.8503364 -0.1916118 0
1.1829441 2.4620762 -0.19095868 0
1.7827318 3.7104218 -0.19164105 0
4.5022454 9.3705797 -0.24171293 0
0.84375417 1.7561162 0.090813823 0
0.83713132 1.7423319 0.1352462 0
0.83932066 1.7468885 0.18101086 0
0.83789533 1.743922 0.22623487 0
0.84002554 1.7483556 0.27270636 0
0.84435546 1.7573676 0.32054791 0
0.84117764 1.7507535 0.36595806 0
0.37049836 0.82374543 -0.19199251 0
0.42066577 0.93528485 -0.1931601 0
0.47778735 1.0622858 -0.19143453 0
0.55931503 1.2435499 -0.19162507 0
0.67113012 1.4921534 -0.19122049 0
0.84426665 1.8770955 -0.19211505 0
1.1186421 2.4871264 -0.19065107 0
1.6877 3.7523384 -0.19154496 0
4.2618017 9.4754524 -0.2415666 0
1.0722637 2.3840115 0.12184579 0
0.84841532 1.8863194 0.14471479 0
0.84350348 1.8753986 0.19205981 0
0.83851713 1.8643123 0.23903123 0
0.8405894 1.8689197 0.28811088 0
0.8364926 1.8598111 0.33527616 0
0.83853936 1.8643618 0.38515896 0
0.35147524 0.83730686 -0.19302428 0
0.39278767 0.93572396 -0.19114251 0
0.45002595 1.0720807 -0.19109195 0
0.52387363 1.2480054 -0.19021361 0
0.63138145 1.5041175 -0.19065084 0
0.79632789 1.8970634 -0.19204053 0
1.0634018 2.5333042 -0.1920723 0
1.593488 3.7961092 -0.19166528 0
4.0214972 9.5802679 -0.24157424 0
0.99217039 2.3636119 0.11948528 0
0.84508723 2.013221 0.15276545 0
0.84080285 2.0030146 0.20289111 0
0.83567572 1.9908004 0.25246415 0
0.83694673 1.9938282 0.3040134 0
0.8399772 2.0010476 0.35680199 0
0.83566481 1.9907743 0.40678775 0
0.32579976 0.83454162 -0.19043054 0
0.37470084 0.95980257 -0.19406748 0
0.4239693 1.0860045 -0.19160548 0
0.49382135 1.2649317 -0.19083302 0
0.59934628 1.5352355 -0.19261643 0
0.74900562 1.9185905 -0.19224483 0
1.0017195 2.5659215 -0.1925671 0
1.4986268 3.838758 -0.1918478 0
3.7793195 9.6807909 -0.24162681 0
0.92667818 2.3737018 0.11877518 0
0.85228097 2.1831322 0.16397402 0
0.83931899 2.1499298 0.21555819 0
0.84264684 2.1584542 0.27094188 0
0.83981633 2.1512036 0.32467428 0
0.8422398 2.1574116 0.38077128 0
0.83846319 2.1477377 0.43439859 0
0.30587745 0.84591907 -0.19120422 0
0.3455964 0.95576382 -0.19142625 0
0.39598942 1.0951282 -0.19139089 0
0.43795022 1.2111728 -0.18099752 0
0.43419018 1.2007743 -0.14923124 0
0.43516096 1.203459 -0.11944933 0
0.93159878 2.5763822 -0.19152659 0
1.4008069 3.8740003 -0.19178109 0
3.5369716 9.7816687 -0.24183953 0
0.86161065 2.3828266 0.11810602 0
0.85323751 2.3596702 0.17556033 0
0.83798742 2.3174953 0.23016496 0
0.83917493 2.3207796 0.28856739 0
0.84147096 2.3271291 0.34790999 0
0.84193248 2.3284056 0.40707073 0
0.84125137 2.3265219 0.4661164 0
0.28454545 0.8536936 -0.19127733 0
0.32376102 0.97134817 -0.19284956 0
0.36508849 1.0953389 -0.18975693 0
0.40313491 1.2094859 -0.17916787 0
0.40760687 1.2229027 -0.15065482 0
0.40322557 1.2097579 -0.1190265 0
0.86486983 2.5947835 -0.19121094 0
1.3024057 3.9074793 -0.19175011 0
3.2890434 9.8677931 -0.24183945 0
0.78979212 2.3695354 0.11642215 0
0.84931058 2.5481026 0.1879251 0
0.83923066 2.5178609 0.24788192 0
0.83471006 2.5042982 0.30866843 0
0.83855128 2.5158226 0.37283719 0
0.83854771 2.5158119 0.4359957 0
0.84128636 2.5240285 0.50127292 0
0.26393387 0.86393511 -0.19201833 0
0.29390174 0.96202904 -0.18946631 0
0.34129372 1.1171573 -0.19198333 0
0.38019916 1.2445066 -0.18287595 0
0.37630606 1.2317632 -0.15052842 0
0.37816957 1.2378631 -0.12081418 0
0.72529393 2.3741059 -0.17354485 0
0.72342235 2.3679795 -0.11527018 0
0.72621906 2.3771341 -0.057791092 0
0.72770935 2.3820121 7.110522e-05 0
0.72579199 2.3757362 0.057899017 0
0.72558326 2.3750529 0.1157566 0
0.84277475 2.758656 0.2018206 0
0.83712506 2.7401628 0.26760215 0
0.83735281 2.7409084 0.33512032 0
0.83948249 2.7478795 0.40395868 0
0.8357116 2.7355363 0.47026926 0
0.2433238 0.87489265 -0.19302732 0
0.27010611 0.97119087 -0.1898676 0
0.31075749 1.1173564 -0.19060901 0
0.35973001 1.2934415 -0.18867253 0
0.44117001 1.5862664 -0.19242869 0
0.54968345 1.9764363 -0.19148317 0
0.65976918 2.3722594 -0.17213783 0
0.6599589 2.3729417 -0.11466439 0
0.65868932 2.3683767 -0.057155818 0
0.65969503 2.3719928 7.0286726e-05 0
0.65862679 2.3681519 0.057290819 0
0.66165608 2.3790441 0.11510056 0
0.81020933 2.9131806 0.21156208 0
0.81088197 2.9155991 0.28264642 0
0.81015331 2.9129791 0.35354614 0
0.8114875 2.9177763 0.42578831 0
0.81287831 2.9227772 0.49877226 0
0.22068499 0.87881428 -0.19260234 0
0.2484245 0.98927885 -0.19211683 0
0.28392103 1.1306335 -0.19159049 0
0.33043036 1.3158435 -0.19066302 0
0.39534959 1.5743656 -0.18971415 0
0.49899971 1.9871223 -0.19123739 0
0.59687471 2.3768811 -0.1713255 0
0.59789395 2.38094 -0.1142853 0
0.59720403 2.3781927 -0.0570108 0
0.5970732 2.3776717 6.9986178e-05 0
0.59548932 2.3713644 0.056986786 0
0.59521818 2.3702846 0.11391367 0
0.76830411 3.0595491 0.2207132 0
0.76832026 3.0596135 0.29463387 0
0.76981521 3.0655668 0.36958978 0
0.76841444 3.0599885 0.44356981 0
0.19766806 0.8806572 -0.19185175 0
0.22038232 0.9818545 -0.1895345 0
0.25557998 1.1386683 -0.19179785 0
0.29738933 1.3249387 -0.19083257 0
0.35875019 1.5983156 -0.19144812 0
0.45083514 2.0085754 -0.19214575 0
0.55037409 2.4520447 -0.17568609 0
0.55187786 2.458744 -0.11731396 0
0.55098414 2.4547625 -0.058494363 0
0.55286831 2.4631567 7.2068731e-05 0
0.55074304 2.4536884 0.058612429 0
0.55187339 2.4587245 0.1174572 0
0.71296841 3.17644 0.22777495 0
0.71182263 3.1713355 0.30356571 0
0.70841646 3.1561601 0.37823579 0
0.71386099 3.1804168 0.45826918 0
0.17496565 0.88324577 -0.1913927 0
0.1967873 0.99340385 -0.19074444 0
0.22300866 1.1257722 -0.1886175 0
0.26432505 1.3343419 -0.19116518 0
0.31919366 1.6113245 -0.19198024 0
0.39744663 2.0063541 -0.19091286 0
0.41316688 2.0857117 -0.14864428 0
0.41309437 2.0853457 -0.098969035 0
0.41301909 2.0849657 -0.049418367 0
0.413093 2.0853388 6.0689894e-05 0
0.41348183 2.0873017 0.049595296 0
0.41394797 2.0896549 0.099295437 0
0.41444376 2.0921576 0.14922604 0
0.41360539 2.0879254 0.19879727 0
0.41358593 2.0878272 0.24887604 0
0.40501624 2.0445664 0.29303721 0
0.27263054 1.3762689 0.26434168 0
0.15255797 0.88699067 -0.1913089 0
0.17197546 0.99988627 -0.19109488 0
0.19756365 1.1486591 -0.19155565 0
0.23074102 1.3415564 -0.19130352 0
0.27676967 1.6091726 -0.19083081 0
0.3461073 2.01231 -0.19058768 0
0.36806467 2.1399729 -0.15180098 0
0.87875956 5.1092153 -0.24135031 0
1.7607306 10.237103 -0.2415121 0
0.5812363 3.3793786 0.15983209 0
0.5795238 3.3694222 0.23920926 0
0.57936716 3.3685114 0.31923157 0
0.26117158 1.5184834 0.1801652 0
0.27230003 1.5831856 0.22585292 0
0.27047533 1.5725765 0.26234365 0
0.23741752 1.3803743 0.26389527 0
0.13051978 0.89322662 -0.1918823 0
0.14812382 1.0137018 -0.19295929 0
0.16742967 1.1458235 -0.19031747 0
0.19774134 1.3532648 -0.19220021 0
0.23814936 1.6298016 -0.19250308 0
0.29510421 2.0195785 -0.19050997 0
0.39490995 2.70261 -0.19094433 0
0.75280738 5.1519208 -0.2423929 0
1.5035924 10.290001 -0.24178778 0
0.50592065 3.4623239 0.16309923 0
0.50258338 3.4394851 0.24320534 0
0.50495243 3.455698 0.32618251 0
0.21967328 1.5033584 0.17765625 0
0.27551129 1.8854922 0.26790184 0
0.2006309 1.3730398 0.26144177 0
0.10703183 0.88868445 -0.19026566 0
0.1218035 1.0113335 -0.19186223 0
0.13829653 1.148275 -0.19008437 0
0.16304901 1.3537947 -0.19162998 0
0.19606838 1.6279542 -0.19163935 0
0.24617811 2.0440149 -0.1921678 0
0.32655463 2.7113805 -0.19092087 0
0.62113786 5.1573029 -0.24183153 0
1.2431964 10.322249 -0.24173127 0
0.42446342 3.5243165 0.16546215 0
0.42405486 3.5209243 0.24812807 0
0.42388734 3.5195334 0.33109269 0
0.42126632 3.497771 0.41195416 0
0.23067813 1.9153187 0.27122617 0
0.16562004 1.375142 0.26096299 0
0.086277463 0.90903556 -0.19409476 0
0.096596718 1.0177611 -0.19255778 0
0.11017872 1.1608636 -0.19164692 0
0.12870909 1.3561032 -0.19143596 0
0.15545289 1.6378808 -0.19228479 0
0.19430406 2.047224 -0.19194734 0
0.25812852 2.7196906 -0.19098647 0
0.49062935 5.169363 -0.24173941 0
0.98251414 10.351954 -0.24176918 0
0.34066442 3.5893042 0.16805606 0
0.33967701 3.5789008 0.25152954 0
0.33928555 3.5747762 0.33537716 0
0.33966497 3.5787737 0.42035082 0
0.34014046 3.5837839 0.50611883 0
0.17241281 1.8165737 0.30000505 0
0.13133267 1.3837457 0.26188329 0
0.062524848 0.89956713 -0.19167511 0
0.070546493 1.0149775 -0.19163322 0
0.080150001 1.1531465 -0.18997844 0
0.093971521 1.3520017 -0.1904615 0
0.11428323 1.6442335 -0.19263062 0
0.14104462 2.029259 -0.1898687 0
0.18974462 2.7299232 -0.19130781 0
0.3605859 5.1878772 -0.2421025 0
0.72110027 10.374725 -0.24179895 0
0.2525506 3.6335351 0.1697745 0
0.25145942 3.6178358 0.25373909 0
0.13147046 1.8915122 0.17708956 0
0.13296266 1.9129808 0.22422677 0
0.13240908 1.9050163 0.26847792 0
0.12383595 1.7816718 0.29363135 0
0.095605753 1.3755138 0.25978595 0
0.040184539 0.90937984 -0.19348823 0
0.045181502 1.0224615 -0.19276956 0
0.051002868 1.1541996 -0.18987937 0
0.060520396 1.3695821 -0.19266158 0
0.072976843 1.6514726 -0.19320141 0
0.089913838 2.0347583 -0.19011039 0
0.12147179 2.7489176 -0.19236279 0
0.22867051 5.1748347 -0.24114773 0
0.45892468 10.385508 -0.24170332 0
0.161935 3.6646039 0.17098075 0
0.16209976 3.6683323 0.25691196 0
0.086344019 1.9539731 0.18267514 0
0.084753528 1.9179802 0.22449054 0
0.085938193 1.9447892 0.27369034 0
0.07601466 1.7202188 0.28309715 0
0.060737204 1.3744885 0.25922024 0
0.016744869 0.88462257 -0.18807082 0
0.019277781 1.018435 -0.19185761 0
0.021942746 1.1592238 -0.19055411 0
0.025824722 1.3643064 -0.19176669 0
0.031014318 1.6384701 -0.19152771 0
0.038530193 2.0355299 -0.1900311 0
0.051891554 2.7414033 -0.19168428 0
0.098217405 5.1887736 -0.24160483 0
0.19677374 10.395453 -0.24174222 0
0.070137955 3.7053514 0.1727443 0
0.069796145 3.6872935 0.25803435 0
0.069850743 3.6901777 0.34471673 0
0.069768682 3.6858425 0.43106711 0
0.031615913 1.6702521 0.27465531 0
0.025819743 1.3640434 0.2570456 0
-0.0056209029 0.8911925 -0.18943742 0
-0.006380795 1.0116732 -0.19055343 0
-0.0072565181 1.1505188 -0.18909308 0
-0.0085308906 1.3525701 -0.19008677 0
-0.010338224 1.6391224 -0.19157346 0
-0.012757571 2.0227091 -0.18880412 0
-0.017346684 2.7503116 -0.19227654 0
-0.032805141 5.2012453 -0.242147 0
-0.065544605 10.392077 -0.24162523 0
-0.023489501 3.7242534 0.17359789 0
-0.02336747 3.7049055 0.25922555 0
-0.023372043 3.7056305 0.34610513 0
-0.023466084 3.7205405 0.43505585 0
-0.010358689 1.6423671 0.27002695 0
-0.0086508393 1.371588 0.25842619 0
-0.028532464 0.9043225 -0.19232024 0
-0.031975333 1.0134425 -0.19097787 0
-0.0364016 1.1537309 -0.1897116 0
-0.043087024 1.365622 -0.19201274 0
-0.051754676 1.6403391 -0.19180726 0
-0.065008029 2.0603976 -0.19241393 0
-0.086821385 2.7517612 -0.19246978 0
-0.11984534 3.7984393 -0.17692302 0
-0.11982001 3.7976365 -0.088340685 0
-0.11949179 3.7872336 0.00010817321 0
-0.11972387 3.7945895 0.088486686 0
-0.11808187 3.742547 0.17453393 0
-0.11736292 3.7197602 0.26038924 0
-0.1173676 3.719909 0.34760469 0
-0.11717125 3.7136855 0.43446171 0
-0.051717009 1.6391453 0.26962596 0
-0.043166149 1.36813 0.25789779 0
-0.050891597 0.8954196 -0.19063933 0
-0.057645254 1.0142478 -0.19134286 0
-0.066076532 1.1625931 -0.19138211 0
-0.077645183 1.3661394 -0.19229978 0
-0.092832342 1.633352 -0.19120333 0
-0.11651772 2.0500879 -0.19166473 0
-0.15564755 2.7385633 -0.19176038 0
-0.21551563 3.7919209 -0.17681646 0
-0.21556151 3.7927282 -0.088324934 0
-0.21486188 3.7804186 0.00010809903 0
-0.21490698 3.7812119 0.088273108 0
-0.21210985 3.7319975 0.17423613 0
-0.21195114 3.7292049 0.26134163 0
-0.21194117 3.7290294 0.34884572 0
-0.079157636 1.3927505 0.16311878 0
-0.077815652 1.3691387 0.19280182 0
-0.077937275 1.3712786 0.22581576 0
-0.077547222 1.3644158 0.25748459 0
-0.073561445 0.89499098 -0.19088258 0
-0.083449915 1.0152998 -0.19187757 0
-0.094588667 1.1508203 -0.18977666 0
-0.1119177 1.3616552 -0.19200505 0
-0.13439678 1.6351486 -0.19174965 0
-0.16827564 2.0473385 -0.19174367 0
-0.22519733 2.7398806 -0.19218938 0
-0.42591387 5.1819139 -0.2420557 0
-0.85112017 10.355219 -0.24157535 0
-0.30699751 3.7351089 0.1746875 0
-0.30610594 3.7242613 0.26145336 0
-0.30661121 3.7304087 0.34958735 0
-0.30595741 3.7224541 0.43673873 0
-0.11474939 1.3961072 0.19694462 0
-0.1147582 1.3962145 0.23032568 0
-0.11256451 1.3695248 0.25890243 0
-0.09679091 0.89908648 -0.19221587 0
-0.10961859 1.0182422 -0.19289508 0
-0.12277637 1.1404643 -0.18851988 0
-0.14483762 1.3453902 -0.19016646 0
-0.17571276 1.6321882 -0.19186145 0
-0.21932237 2.0372758 -0.19125877 0
-0.29199156 2.7122967 -0.19071072 0
-0.55400115 5.1460919 -0.24095881 0
-1.1126285 10.335156 -0.24168546 0
-0.399856 3.7142446 0.17412825 0
-0.39890701 3.7054296 0.26075506 0
-0.39812219 3.6981394 0.34739432 0
-0.40013561 3.7168419 0.43712595 0
-0.15049623 1.3979529 0.19767787 0
-0.14887145 1.3828604 0.22866975 0
-0.14785916 1.3734572 0.26026842 0
-0.11996233 0.90024096 -0.19304852 0
-0.13508688 1.013741 -0.19262692 0
-0.15432179 1.1580868 -0.19201557 0
-0.18089893 1.3575313 -0.19246662 0
-0.21935628 1.6461293 -0.19408917 0
-0.27281693 2.0473175 -0.19278651 0
-0.36131653 2.7114506 -0.19123153 0
-0.68663818 5.1527824 -0.24200648 0
-1.3735384 10.30753 -0.24177311 0
-0.49087784 3.6837256 0.17322315 0
-0.49041328 3.6802394 0.25977072 0
-0.24209999 1.8168062 0.1711859 0
-0.24165368 1.813457 0.21392408 0
-0.18610701 1.3966146 0.19808975 0
-0.18608856 1.3964761 0.23162413 0
-0.18074022 1.3563403 0.25780714 0
-0.14194633 0.89257759 -0.19211225 0
-0.15886636 0.99897307 -0.190522 0
-0.18191497 1.1439059 -0.19036496 0
-0.21358901 1.3430765 -0.19112067 0
-0.2579875 1.6222602 -0.19198146 0
-0.32173365 2.0231044 -0.19121024 0
-0.42858931 2.6950271 -0.19077539 0
-0.81727391 5.1391287 -0.24225684 0
-1.633494 10.27163 -0.24182107 0
-0.58146518 3.6563315 0.17257011 0
-0.5805124 3.6503403 0.2586121 0
-0.27917463 1.7554877 0.16601928 0
-0.28173631 1.7715958 0.20975795 0
-0.28025058 1.7622534 0.25087371 0
-0.21924695 1.3786544 0.26301652 0
-0.16294391 0.88072425 -0.19038554 0
-0.18609552 1.0058604 -0.19266996 0
-0.20976308 1.1337854 -0.18950145 0
-0.24830593 1.3421124 -0.1918142 0
-0.29680228 1.6042389 -0.19067456 0
-0.37077594 2.0040722 -0.19023532 0
-0.49581429 2.679914 -0.19053072 0
-0.94520789 5.1089206 -0.24188039 0
-1.8925976 10.229633 -0.24187988 0
-0.67038321 3.6234722 0.17176311 0
-0.66734385 3.6070445 0.25665629 0
-0.67020398 3.6225035 0.3440761 0
-0.66985798 3.6206334 0.43054968 0
-0.292842 1.5828332 0.26464993 0
-0.25168985 1.3604027 0.26066342 0
-0.18634166 0.88214642 -0.1916486 0
-0.21026513 0.99540079 -0.19162194 0
-0.23967642 1.1346346 -0.19059375 0
-0.28025818 1.3267497 -0.1905688 0
-0.33934715 1.6064785 -0.19189762 0
-0.42139801 1.9949095 -0.19031453 0
-0.56574565 2.6782551 -0.191367 0
-0.61985123 2.9343922 -0.13962418 0
-0.61915237 2.9310839 -0.069652848 0
-0.61976236 2.9339716 8.5608495e-05 0
-0.75275767 3.563575 0.16977035 0
-0.75413746 3.570107 0.25530106 0
-0.75188434 3.5594406 0.33978045 0
-0.75200599 3.5600164 0.4254629 0
-0.28685895 1.3579979 0.26150662 0
-0.20788366 0.87440431 -0.19104564 0
-0.23558989 0.99094284 -0.19184732 0
-0.27058458 1.1381382 -0.19226822 0
-0.31479418 1.3240935 -0.19126756 0
-0.37380171 1.5722921 -0.18888079 0
-0.47259608 1.9878429 -0.19071756 0
-0.52477205 2.2073064 -0.15861258 0
-0.61912662 2.6041825 -0.12461598 0
-0.61868674 2.6023324 -0.062191822 0
-0.62329191 2.6217027 7.6931508e-05 0
-0.8376748 3.5234442 0.16881195 0
-0.83580774 3.5155909 0.25283059 0
-0.8350873 3.5125606 0.33720991 0
-0.8328048 3.50296 0.42102194 0
-0.83605421 3.5166276 0.50819331 0
-0.2336549 0.88315058 -0.19418322 0
-0.2603218 0.98394406 -0.1917033 0
-0.29597244 1.1186936 -0.19018477 0
-0.34430212 1.3013663 -0.18917961 0
-0.41451338 1.5667454 -0.18941094 0
-0.5190444 1.9618437 -0.18941967 0
-0.58298957 2.2035387 -0.15934841 0
-0.64956015 2.455157 -0.11823163 0
-0.64846516 2.4510181 -0.058948006 0
-0.6473977 2.4469833 7.2260991e-05 0
-0.91379875 3.4539053 0.16653223 0
-0.91184324 3.4465141 0.24943846 0
-0.91360271 3.4531643 0.33361521 0
-0.91166574 3.4458432 0.41678986 0
-0.91130972 3.4444976 0.50093406 0
-0.25199103 0.86370206 -0.19124447 0
-0.28757474 0.9856655 -0.19339122 0
-0.32544357 1.1154613 -0.19097087 0
-0.34754378 1.19121 -0.1743858 0
-0.46011338 1.5770435 -0.19199871 0
-0.57267654 1.9628551 -0.19085209 0
-0.71567774 2.4529932 -0.178637 0
-0.7136119 2.4459124 -0.11861601 0
-0.71511477 2.4510636 -0.059364278 0
-0.71360606 2.4458923 7.2737472e-05 0
-0.98664701 3.3817432 0.16420126 0
-0.97888696 3.3551457 0.24453595 0
-0.97979987 3.3582745 0.32673284 0
-0.9839496 3.3724978 0.4107914 0
-0.98583227 3.3789508 0.49486247 0
-0.275626 0.86309111 -0.19258821 0
-0.3098157 0.97015226 -0.19182058 0
-0.35231945 1.1032479 -0.19034164 0
-0.37900788 1.1868197 -0.17508769 0
-0.39426374 1.2345916 -0.15146981 0
-0.39774004 1.2454772 -0.1220373 0
-0.39653346 1.241699 -0.091125406 0
-0.4014715 1.2571619 -0.061438657 0
-0.39899921 1.2494202 -0.0304949 0
-0.3997989 1.2519243 3.7518639e-05 0
-0.39906433 1.2496241 0.030574817 0
-0.3974036 1.2444237 0.060890879 0
-0.39938498 1.2506281 0.091856025 0
-0.40098429 1.2556362 0.12310863 0
-0.39591184 1.2397524 0.1521783 0
-0.39698854 1.243124 0.18347007 0
-0.39502326 1.2369699 0.21348864 0
-0.40046227 1.2540016 0.24802171 0
-0.29745361 0.85626143 -0.19267808 0
-0.33580098 0.96664959 -0.19274239 0
-0.38210213 1.0999339 -0.19137277 0
-0.4303731 1.2388885 -0.18431301 0
-0.43208176 1.2438072 -0.15388939 0
-0.4351415 1.252615 -0.1237734 0
-0.42863101 1.2338737 -0.091315977 0
-0.43251264 1.2450475 -0.06136056 0
-0.43209922 1.2438575 -0.030615559 0
-0.43349063 1.2478628 3.7712794e-05 0
-0.43162793 1.2425008 0.030657308 0
-0.43245125 1.2448708 0.061427262 0
-0.43760043 1.2596934 0.093303345 0
-0.43395674 1.2492046 0.12351257 0
-0.43055782 1.2394203 0.15342256 0
-0.43536776 1.2532665 0.18652929 0
-0.43081015 1.2401466 0.21584478 0
-0.43087661 1.240338 0.24739136 0
-0.31893504 0.84840876 -0.19266103 0
-0.35955396 0.95646042 -0.1924589 0
-0.41301712 1.0986794 -0.19290674 0
-0.47786567 1.2711849 -0.19085139 0
-0.48858705 1.2997053 -0.16227938 0
-0.5126338 1.3636727 -0.13598239 0
-0.51081103 1.3588239 -0.10148505 0
-0.5115208 1.3607121 -0.06767565 0
-0.50917464 1.354471 -0.033643726 0
-0.51213729 1.3623519 4.1550287e-05 0
-1.2022043 3.1980205 0.079630867 0
-1.1943375 3.1770933 0.15820844 0
-1.1601225 3.0860772 0.23067576 0
-1.1575577 3.0792546 0.30724585 0
-1.1648617 3.0986838 0.38708889 0
-1.1615304 3.0898223 0.46408764 0
-0.33973402 0.83884311 -0.19237471 0
-0.38353813 0.94700056 -0.19244196 0
-0.43545607 1.075192 -0.1906518 0
-0.50557154 1.2483153 -0.18927331 0
-0.51479173 1.2710811 -0.16027662 0
-0.5130468 1.2667726 -0.12757033 0
-0.51252532 1.2654852 -0.095449664 0
-0.51469922 1.2708527 -0.063832216 0
-0.51125956 1.2623597 -0.031666208 0
-0.51019371 1.259728 3.8800736e-05 0
-1.2736883 3.1448855 0.15815504 0
-1.2002369 2.9635255 0.22370842 0
-1.2009047 2.9651744 0.29879212 0
-1.1978018 2.9575131 0.37311149 0
-1.1980919 2.9582293 0.44872144 0
-0.35543892 0.81769234 -0.18952112 0
-0.40706176 0.93645144 -0.19232476 0
-0.46137601 1.0614022 -0.19021086 0
-0.50971717 1.1726117 -0.17968827 0
-0.51351392 1.1813462 -0.15054785 0
-0.51333153 1.1809267 -0.12019167 0
-0.51310146 1.1803973 -0.089979999 0
-0.51184922 1.1775166 -0.059773982 0
-0.51483846 1.1843934 -0.030026818 0
-0.51177949 1.1773561 3.6649788e-05 0
-1.3537486 3.1143184 0.15828568 0
-1.2279544 2.8249269 0.21551688 0
-1.2337488 2.8382571 0.28904873 0
-1.2258538 2.8200943 0.35956386 0
-1.2260792 2.8206131 0.43240321 0
-1.2263212 2.8211699 0.50575417 0
-0.3807748 0.81882441 -0.19194983 0
-0.42690355 0.91802043 -0.19069159 0
-0.49017885 1.0540887 -0.19105648 0
-0.51143098 1.0997896 -0.17045291 0
-0.51102453 1.0989156 -0.14164165 0
-0.51677567 1.1112829 -0.11439455 0
-0.51187974 1.1007546 -0.084866755 0
-0.51363814 1.1045358 -0.056709293 0
-0.51731694 1.1124469 -0.028524753 0
-0.51088494 1.0986153 3.4589044e-05 0
-1.4354689 3.0868561 0.15868075 0
-1.2482877 2.6843383 0.20712885 0
-1.2381582 2.6625559 0.27425045 0
-1.23896 2.6642802 0.343575 0
-1.2335765 2.6527033 0.41130438 0
-1.2413491 2.6694176 0.48401189 0
-0.40017051 0.80665278 -0.19140321 0
-0.45177799 0.91068172 -0.19147474 0
-0.5154413 1.0390126 -0.19062112 0
-0.51440781 1.0369292 -0.16267078 0
-0.51514196 1.0384091 -0.1354755 0
-0.51207155 1.0322199 -0.10755202 0
-0.51098418 1.0300279 -0.080382541 0
-0.50813663 1.0242878 -0.053230692 0
-0.51188958 1.0318531 -0.026780959 0
-0.51460332 1.0373232 3.3057702e-05 0
-1.2530524 2.5258687 0.19727851 0
-1.2385242 2.4965832 0.2602917 0
-1.2435807 2.5067761 0.32720718 0
-1.2393486 2.498245 0.39208063 0
-1.2419012 2.5033906 0.45944527 0
-0.41840687 0.79253197 -0.19049768 0
-0.47440791 0.89860725 -0.19139257 0
-0.53399324 1.0114717 -0.18798114 0
-0.53258085 1.0087965 -0.16031505 0
-0.52837521 1.0008303 -0.1322705 0
-0.53701079 1.0171875 -0.10736375 0
-0.53338784 1.0103251 -0.07987009 0
-0.53559613 1.0145079 -0.053407941 0
-0.52827412 1.0006387 -0.026308488 0
-0.53676796 1.0167276 3.2822638e-05 0
-1.2498922 2.3675032 0.18731385 0
-1.2430373 2.3545189 0.24867192 0
-1.2415318 2.3516672 0.3109521 0
-1.2464423 2.3609686 0.37535381 0
-1.2400028 2.3487709 0.43667281 0
-1.2418419 2.3522546 0.50115931 0
-0.44406328 0.79205602 -0.19301577 0
-0.49789849 0.88807952 -0.19176574 0
-0.5619837 1.0023855 -0.1888684 0
-0.56150293 1.0015279 -0.16136071 0
-0.55578971 0.9913376 -0.13282755 0
-0.56075525 1.0001944 -0.10702989 0
-0.56428605 1.0064921 -0.080667272 0
-0.55561906 0.99103314 -0.052893527 0
-0.55812764 0.9955076 -0.026535492 0
-0.56311947 1.0044113 3.2873384e-05 0
-1.2996584 2.3181434 0.061942484 0
-1.2895297 2.3000772 0.12291086 0
-1.2550424 2.2385638 0.1795613 0
-1.24543 2.2214184 0.23785864 0
-1.2431595 2.2173688 0.29724839 0
-1.243228 2.2174909 0.35741803 0
-1.2422026 2.2156618 0.41762161 0
-1.242977 2.2170432 0.47888318 0
-0.46078661 0.77535039 -0.19171779 0
-0.51923859 0.87370563 -0.19143079 0
-0.58327246 0.9814533 -0.18763839 0
-0.58254838 0.98023498 -0.16024792 0
-0.5864262 0.98676002 -0.13415462 0
-0.5861783 0.98634285 -0.10709669 0
-0.5843966 0.98334491 -0.079968765 0
-0.58787131 0.98919171 -0.053570084 0
-0.5893811 0.99173212 -0.02682282 0
-0.58229876 0.97981495 3.2539014e-05 0
-1.350165 2.2718782 0.061597187 0
-1.3583336 2.2856231 0.12393101 0
-1.2538583 2.1098261 0.17171864 0
-1.2402613 2.0869467 0.22673962 0
-1.2370938 2.0816169 0.28314567 0
-1.2466371 2.0976751 0.34306812 0
-1.2419894 2.0898545 0.39968976 0
-1.2379537 2.0830636 0.45654702 0
-0.47990882 0.76301014 -0.19160044 0
-0.54332989 0.86384374 -0.19221339 0
-0.61524981 0.97818965 -0.18992272 0
-0.61348152 0.97537822 -0.16193365 0
-0.6171692 0.98124129 -0.13547891 0
-0.60985553 0.96961319 -0.10691743 0
-0.61946696 0.98489457 -0.08134035 0
-0.61292815 0.97449839 -0.053595066 0
-0.61518198 0.97808188 -0.026865013 0
-0.61757571 0.98188764 3.3114935e-05 0
-1.2529587 1.992087 0.16465726 0
-1.2431146 1.9764359 0.21807234 0
-1.2368102 1.9664127 0.27163488 0
-1.2401192 1.9716736 0.32747561 0
-1.2439975 1.9778397 0.38414913 0
-1.2419735 1.9746218 0.4395099 0
-0.49737486 0.74820262 -0.19097355 0
-0.56350648 0.84768462 -0.19172138 0
-0.64220726 0.96607453 -0.1906568 0
-0.63741416 0.95886421 -0.16181134 0
-0.63908726 0.96138108 -0.13492091 0
-0.64352483 0.9680565 -0.10850218 0
-0.63661313 0.95765924 -0.08039242 0
-0.63683116 0.95798725 -0.053553913 0
-0.63473457 0.95483327 -0.026657978 0
-0.64062244 0.9636904 3.3036002e-05 0
-1.2472509 1.8762436 0.1576339 0
-1.2309065 1.8516567 0.20766634 0
-1.241395 1.8674346 0.26220688 0
-1.2394664 1.8645334 0.31477621 0
-1.2390243 1.8638684 0.36796948 0
-1.2383029 1.8627832 0.42143914 0
-0.52090925 0.74227613 -0.19275521 0
-0.58360684 0.83161789 -0.19135804 0
-0.6669116 0.95032406 -0.1908095 0
-0.66720653 0.95074433 -0.16323084 0
-0.66438103 0.9467181 -0.13517332 0
-0.66549456 0.94830483 -0.10813651 0
-0.67036116 0.95523953 -0.081583634 0
-0.6586861 0.93860298 -0.053382639 0
-0.66338539 0.94529933 -0.026850702 0
-0.66603535 0.9490754 3.310071e-05 0
-1.2996567 1.8519621 0.15829936 0
-1.2477115 1.7779422 0.2028663 0
-1.2397494 1.7665966 0.25236127 0
-1.2355654 1.7606344 0.30240402 0
-1.2412151 1.768685 0.3552497 0
-1.2420596 1.7698884 0.40738505 0
-0.5372014 0.72582924 -0.191944 0
-0.60279328 0.81445241 -0.1908482 0
-0.69298941 0.93631917 -0.19144836 0
-0.6905098 0.93296891 -0.16311921 0
-0.6940763 0.93778771 -0.13635603 0
-0.69499016 0.93902248 -0.10904352 0
-0.68638688 0.92739826 -0.08065968 0
-0.6900667 0.93237019 -0.054001518 0
-0.69156325 0.93439227 -0.027028067 0
-0.68994564 0.93220663 3.3109165e-05 0
-1.352802 1.8278122 0.1591029 0
-1.2470638 1.6849461 0.19578426 0
-1.2358646 1.6698146 0.24291427 0
-1.2505542 1.689662 0.29554096 0
-1.2472913 1.6852535 0.34470528 0
-1.2415739 1.6775286 0.39321366 0
-0.55513459 0.7117759 -0.1918717 0
-0.61970288 0.79456323 -0.18979223 0
-0.711496 0.91225749 -0.1901397 0
-0.71246052 0.91349411 -0.16280633 0
-0.71830434 0.92098689 -0.13650572 0
-0.71928036 0.92223835 -0.10916782 0
-0.7227881 0.92673588 -0.082162522 0
-0.71932632 0.92229724 -0.054452281 0
-0.72574049 0.93052131 -0.027437193 0
-0.71925849 0.92221028 3.3388245e-05 0
-1.3912998 1.7838802 0.15828502 0
-1.2528914 1.6064174 0.19027326 0
-1.2427524 1.5934176 0.23628819 0
-1.2428174 1.5935007 0.28411731 0
-1.2405216 1.5905572 0.3316344 0
-1.2370647 1.5861249 0.37898642 0
-0.57305235 0.69770789 -0.19191715 0
-0.65173966 0.79351199 -0.19340865 0
-0.7368542 0.8971414 -0.19080454 0
-0.74760777 0.91023421 -0.16553549 0
-0.7460106 0.90828961 -0.13737072 0
-0.74478942 0.90680277 -0.10953093 0
-0.74986583 0.91298342 -0.082594886 0
-0.74634653 0.90869856 -0.054744121 0
-0.74521023 0.90731514 -0.027298827 0
-0.74668479 0.90911043 3.3585573e-05 0
-1.4361943 1.7486082 0.1583212 0
-1.2507632 1.5228405 0.18405442 0
-1.2438536 1.5144278 0.22915716 0
-1.2336624 1.5020199 0.27327102 0
-1.2372844 1.5064297 0.32050264 0
-1.2396065 1.509257 0.36797804 0
-0.59507746 0.68835241 -0.19341345 0
-0.66090882 0.76450241 -0.19034304 0
-0.75375628 0.87190318 -0.18942259 0
-0.77626818 0.89794368 -0.16681027 0
-0.7792508 0.90139383 -0.139258 0
-0.7783286 0.90032709 -0.11108615 0
-0.77477884 0.89622092 -0.082821116 0
-0.77673417 0.89848268 -0.055292096 0
-0.77144217 0.89236122 -0.027425984 0
-0.77595109 0.89757693 3.3872206e-05 0
-1.4777898 1.7094247 0.15810014 0
-1.2557769 1.4526125 0.17934006 0
-1.2386359 1.4327848 0.22146319 0
-1.2422912 1.4370131 0.26706338 0
-1.2335377 1.4268876 0.31010458 0
-1.2374725 1.4314392 0.35650641 0
-0.61182112 0.67264098 -0.19327614 0
-0.67591316 0.74310422 -0.18920252 0
-0.77671987 0.85393196 -0.18971682 0
-0.80384558 0.88375419 -0.16788977 0
-0.80376208 0.88366234 -0.13960822 0
-0.79999191 0.87951738 -0.11097448 0
-0.79461455 0.87360555 -0.082558237 0
-0.79807091 0.87740546 -0.05521699 0
-0.80807173 0.88840044 -0.027922181 0
-0.80007529 0.87960905 3.3945373e-05 0
-1.2528118 1.377351 0.17389666 0
-1.238551 1.3616726 0.21523473 0
-1.2418346 1.3652828 0.25947484 0
-1.2394756 1.3626893 0.30285469 0
-1.2373004 1.3602978 0.34645551 0
-0.63232863 0.66088933 -0.19442327 0
-0.70721936 0.73916274 -0.1926823 0
-0.80575526 0.84214926 -0.1915562 0
-0.83053178 0.86804491 -0.16883385 0
-0.83350813 0.87115568 -0.14091101 0
-0.82507831 0.8623451 -0.11139978 0
-0.82624942 0.86356914 -0.083553895 0
-0.82662493 0.86396158 -0.055666175 0
-0.8298229 0.86730403 -0.0279085 0
-0.83317888 0.87081152 3.4406428e-05 0
-1.249386 1.3058177 0.16879271 0
-1.2362072 1.2920438 0.20909393 0
-1.2404579 1.2964864 0.25226974 0
-1.2431889 1.2993407 0.29565492 0
-1.2353884 1.2911879 0.33668789 0
-0.63470501 0.63071609 -0.19019882 0
-0.72395438 0.71940458 -0.19223365 0
-0.82732302 0.82212359 -0.19168967 0
-0.85924011 0.85384005 -0.17023478 0
-0.85306495 0.84770375 -0.14055546 0
-0.85527009 0.84989506 -0.11254417 0
-0.8583079 0.85291374 -0.084591977 0
-0.8659091 0.8604672 -0.056831058 0
-0.85322225 0.8478601 -0.027966866 0
-0.86469567 0.85926139 3.4801276e-05 0
-1.2753119 1.267297 0.041904803 0
-1.2735784 1.2655745 0.083689809 0
-1.2751633 1.2671494 0.125779 0
-1.2494278 1.2415756 0.16451246 0
-1.2526964 1.2448236 0.20650305 0
-1.2390921 1.2313048 0.24559371 0
-1.2375356 1.2297581 0.2868377 0
-1.2500876 1.2422312 0.33204347 0
-0.6563192 0.62007785 -0.19192493 0
-0.74479187 0.70366508 -0.19298941 0
-0.8357994 0.78964728 -0.18897572 0
-0.89204544 0.84278744 -0.17246506 0
-0.89136332 0.842143 -0.143318 0
-0.88019586 0.8315922 -0.11302627 0
-0.8831712 0.83440322 -0.084939815 0
-0.89293545 0.84362829 -0.057189174 0
-0.88880885 0.83972955 -0.028429572 0
-0.88506061 0.83618832 3.476044e-05 0
-1.2980764 1.2263978 0.041622486 0
-1.3014035 1.2295412 0.083452478 0
-1.2879481 1.2168287 0.12397128 0
-1.2446809 1.1759506 0.15992855 0
-1.2507323 1.181668 0.2011988 0
-1.2370282 1.1687206 0.23926194 0
-1.2362661 1.1680006 0.27962169 0
-1.2405367 1.1720353 0.321547 0
-0.67932975 0.61012352 -0.19408897 0
-0.75476325 0.6778723 -0.19107911 0
-0.86088425 0.77318227 -0.19017465 0
-0.91998994 0.82626665 -0.17378053 0
-0.91771466 0.82422316 -0.14416425 0
-0.91030014 0.81756395 -0.11420591 0
-0.92020023 0.82645547 -0.086467452 0
-0.91549224 0.82222712 -0.057286508 0
-0.91909504 0.82546294 -0.028722769 0
-0.92277575 0.82876867 3.5408892e-05 0
-1.3346459 1.1986798 0.04181169 0
-1.3253595 1.1903394 0.0830357 0
-1.3358505 1.1997617 0.12562743 0
-1.2498401 1.1225135 0.15690123 0
-1.2471831 1.1201272 0.19601762 0
-1.2392714 1.1130215 0.23418786 0
-1.2447588 1.11795 0.27507305 0
-1.2294621 1.1042116 0.31135362 0
-0.68864721 0.58778721 -0.19245124 0
-0.7706219 0.65775573 -0.19083038 0
-0.88235515 0.75312448 -0.19065799 0
-0.94958937 0.81051147 -0.17545171 0
-0.95427573 0.81451142 -0.14663157 0
-0.94422668 0.80593419 -0.11587345 0
-0.95337796 0.81374514 -0.08762724 0
-0.94697028 0.80827594 -0.057961252 0
-0.96087706 0.82014591 -0.029372262 0
-0.9507435 0.8114965 3.5684796e-05 0
-1.404065 1.1984241 0.043025166 0
-1.4015051 1.1962391 0.085887417 0
-1.4067259 1.2006952 0.12940164 0
-1.2399703 1.058363 0.15226036 0
-1.2522675 1.068859 0.19251551 0
-1.2402099 1.0585674 0.2292434 0
-1.2392007 1.057706 0.26786017 0
-1.2433008 1.0612055 0.30797729 0
-0.70371687 0.57059658 -0.19257669 0
-0.79247087 0.64256114 -0.19216369 0
-0.89908993 0.72901136 -0.19023769 0
-0.98675567 0.80009359 -0.17853084 0
-0.98522097 0.79884917 -0.14824125 0
-0.97792023 0.79292953 -0.11751491 0
-0.98132801 0.79569268 -0.088322245 0
-0.98127353 0.79564852 -0.058813002 0
-0.97481078 0.79040831 -0.029179091 0
-0.98969358 0.80247575 3.6374953e-05 0
-1.2534286 1.0163207 0.15071519 0
-1.2484972 1.0123222 0.18794815 0
-1.2336309 1.0002681 0.22328973 0
-1.2431808 1.0080113 0.26313743 0
-1.2331623 0.99988812 0.29911938 0
-0.70693618 0.54422706 -0.18963841 0
-0.8112061 0.62449813 -0.19282332 0
-0.9206779 0.70877379 -0.19095959 0
-1.0138465 0.78049868 -0.17981096 0
-1.0173831 0.78322119 -0.15005839 0
-1.0154505 0.78173345 -0.11961582 0
-1.0118692 0.77897644 -0.089273095 0
-1.0105057 0.77792674 -0.059369355 0
-1.015811 0.78201091 -0.029806064 0
-1.0031323 0.77225041 3.6141009e-05 0
-1.2490849 0.96159434 0.14722776 0
-1.2383194 0.95330667 0.18273574 0
-1.2442847 0.95789903 0.2207718 0
-1.2400275 0.95462167 0.25728828 0
-1.2467095 0.95976561 0.2964353 0
-0.71758473 0.52412981 -0.18888617 0
-0.81767821 0.5972389 -0.19071798 0
-0.94236147 0.6883086 -0.19179274 0
-1.0484493 0.76579601 -0.18246192 0
-1.0485579 0.76587528 -0.15175712 0
-1.0380437 0.7581957 -0.11998485 0
-1.0485184 0.76584649 -0.090772264 0
-1.0373459 0.75768596 -0.059803698 0
-1.0450418 0.76330709 -0.030088898 0
-1.0449878 0.7632677 3.6943169e-05 0
-1.2517669 0.91430086 0.14477783 0
-1.2443106 0.90885466 0.18017747 0
-1.2433579 0.90815878 0.21647157 0
-1.236287 0.90299422 0.25170329 0
-1.2337028 0.90110672 0.28784329 0
-0.73950046 0.51203376 -0.19119233 0
-0.83602107 0.57886511 -0.19152768 0
-0.95133013 0.65870565 -0.19017391 0
-1.0724519 0.742571 -0.18331911 0
-1.0825584 0.74956876 -0.15389094 0
-1.0856307 0.75169593 -0.12325311 0
-1.0806903 0.74827522 -0.091893204 0
-1.0888636 0.7539345 -0.061657086 0
-1.0794894 0.74744374 -0.030527839 0
-1.083746 0.75039095 3.7631842e-05 0
-1.2567321 0.87016749 0.1069501 0
-1.2452297 0.86220318 0.14145985 0
-1.2502862 0.8657043 0.17782229 0
-1.2352868 0.85531861 0.21124068 0
-1.2414035 0.85955381 0.24824902 0
-1.2396157 0.85831594 0.28407803 0
-0.7622444 0.49980897 -0.19374947 0
-0.85479426 0.5604946 -0.19252634 0
-0.97503281 0.63933587 -0.19162546 0
-1.1196953 0.73419201 -0.18816723 0
-1.1193348 0.73395568 -0.15643574 0
-1.1253189 0.73787946 -0.12560464 0
-1.125337 0.73789138 -0.094076045 0
-1.1150427 0.73114127 -0.062074788 0
-1.1118243 0.72903097 -0.030912071 0
-1.1135291 0.73014879 3.8014023e-05 0
-1.2537884 0.82211775 0.10490035 0
-1.2387108 0.8122313 0.1383464 0
-1.2351944 0.80992568 0.17271353 0
-1.2414565 0.81403172 0.2087159 0
-1.248513 0.81865871 0.24546069 0
-1.2411295 0.81381726 0.27962884 0
-0.77023059 0.47770008 -0.19265348 0
-0.86836129 0.53856111 -0.19245926 0
-0.97966427 0.60759169 -0.18946151 0
-1.1447817 0.70999819 -0.18931134 0
-1.1479961 0.71199173 -0.15787967 0
-1.1424923 0.70857829 -0.12548539 0
-1.1569872 0.71756804 -0.095177606 0
-1.1538905 0.71564746 -0.063211799 0
-1.1512867 0.71403259 -0.031498164 0
-1.1510556 0.71388924 3.8667698e-05 0
-1.2466779 0.77319461 0.068378776 0
-1.2437725 0.77139264 0.10240082 0
-1.2417104 0.77011377 0.13646714 0
-1.2445496 0.77187467 0.17124309 0
-1.2310947 0.76352984 0.20366916 0
-1.2491179 0.77470785 0.24165851 0
-1.2401397 0.76913959 0.27494466 0
-0.77076143 0.45150843 -0.18987547 0
-0.87728083 0.51390702 -0.19150044 0
-1.0012822 0.58654642 -0.19071859 0
-1.1708115 0.68585593 -0.19069254 0
-1.1882659 0.69608057 -0.16095045 0
-1.1836169 0.69335723 -0.12803945 0
-1.1870846 0.69538862 -0.09617909 0
-1.1833886 0.69322348 -0.063848943 0
-1.1927295 0.6986953 -0.032139305 0
-1.1872681 0.69549614 3.9282007e-05 0
-1.2494932 0.73194724 0.067498438 0
-1.2524111 0.73365653 0.10155521 0
-1.2448989 0.72925597 0.13475181 0
-1.2364473 0.72430503 0.16755955 0
-1.2570261 0.73636001 0.20481931 0
-1.2430477 0.72817153 0.2368532 0
-1.2428236 0.72804022 0.27137944 0
-0.78512669 0.43369558 -0.19065706 0
-0.89878917 0.49648154 -0.19339858 0
-1.0168563 0.56170052 -0.19092394 0
-1.190658 0.65770668 -0.19116044 0
-1.427443 0.78850424 -0.19059068 0
-1.7997545 0.99416512 -0.19191557 0
-3.0251141 1.6710407 -0.24160452 0
-4.5587349 2.5181963 -0.24245714 0
-9.0929489 5.0228477 -0.24152583 0
-1.2489064 0.68988252 0.03325481 0
-1.2540658 0.69273245 0.066779688 0
-1.2467427 0.68868732 0.099654391 0
-1.2375957 0.68363458 0.13205157 0
-1.2402112 0.6850794 0.16567369 0
-1.2353776 0.68240935 0.19842236 0
-1.2468958 0.68877184 0.23419946 0
-1.2397691 0.6848352 0.26685327 0
-0.81183839 0.42207634 -0.19449481 0
-0.90442663 0.47021315 -0.19199683 0
-1.0219607 0.53131938 -0.18930423 0
-1.2045444 0.62624496 -0.19079152 0
-1.4439459 0.75071025 -0.19020374 0
-1.8189683 0.94568515 -0.19135831 0
-3.0765038 1.5994803 -0.24240749 0
-4.6183109 2.4010689 -0.24232548 0
-9.2172947 4.792089 -0.24153917 0
-1.2540073 0.65196085 0.032942001 0
-1.2463083 0.6479581 0.065474905 0
-1.234836 0.64199358 0.097376488 0
-1.2420321 0.64573485 0.13074434 0
-1.2427865 0.6461271 0.1637871 0
-1.2443972 0.64696449 0.19718561 0
-1.2420824 0.64576101 0.23016083 0
-1.2414346 0.64542425 0.26362151 0
-0.80956388 0.39527452 -0.19149885 0
-0.90663916 0.4426721 -0.19003421 0
-1.0424985 0.50900626 -0.19066815 0
-1.2167439 0.59408271 -0.19028831 0
-1.4738147 0.71959907 -0.19168478 0
-1.8420664 0.89940017 -0.19133925 0
-3.1120851 1.5194947 -0.24211219 0
-4.6684084 2.2793789 -0.2418585 0
-9.3395052 4.5600705 -0.24164878 0
-1.2585914 0.61451495 3.998488e-05 0
-1.2478985 0.60929406 0.032367248 0
-1.2377092 0.60431904 0.064201415 0
-1.2380059 0.60446393 0.096392706 0
-1.2369243 0.60393584 0.12856117 0
-1.2485142 0.6095947 0.16246255 0
-1.2459577 0.60834646 0.19493781 0
-1.2330322 0.60203552 0.22559635 0
-1.2465742 0.60864747 0.26136759 0
-0.81421965 0.37240839 -0.1903162 0
-0.91905898 0.42035988 -0.19035304 0
-1.0606673 0.48512879 -0.19169068 0
-1.2316961 0.56335413 -0.19034243 0
-1.4850585 0.67923719 -0.19085671 0
-1.8674052 0.85411519 -0.19167104 0
-3.1396194 1.4360014 -0.24135777 0
-4.7295432 2.163202 -0.2421201 0
-9.4547939 4.324441 -0.24173076 0
-1.2573931 0.5751074 3.94731e-05 0
-1.2524953 0.57286727 0.032101236 0
-1.2395518 0.56694716 0.063534528 0
-1.2487202 0.57114053 0.096073963 0
-1.2344706 0.56462306 0.12678462 0
-1.2484508 0.57101732 0.16052783 0
-1.2363112 0.56546491 0.19113478 0
-1.2466365 0.57018751 0.22538063 0
-1.2474108 0.57054168 0.25844148 0
-0.83352178 0.35608894 -0.19266583 0
-0.92878097 0.3967846 -0.19023189 0
-1.0712579 0.45765221 -0.19145621 0
-1.2519267 0.53483576 -0.19132182 0
-1.5123761 0.64610237 -0.19221057 0
-1.893327 0.80884844 -0.19217512 0
-3.1797431 1.3584183 -0.24172965 0
-4.7755613 2.0401678 -0.24176289 0
-9.5549145 4.0819559 -0.24157959 0
-1.2388381 0.52924412 3.8459024e-05 0
-1.2339138 0.52714044 0.031274043 0
-1.2448012 0.53179163 0.06309554 0
-1.2341106 0.52722448 0.093896247 0
-1.2447637 0.53177565 0.12642308 0
-1.2340978 0.52721906 0.15692136 0
-1.2434922 0.53123242 0.19011158 0
-1.2463045 0.53243387 0.22282018 0
-1.2373811 0.52862173 0.25351858 0
-0.82915038 0.32973909 -0.18967132 0
-0.94464141 0.37566796 -0.19147745 0
-1.0874501 0.43246055 -0.19233812 0
-1.2644908 0.50286669 -0.1912414 0
-1.5203297 0.60460949 -0.19122112 0
-1.9111919 0.76004881 -0.19198021 0
-3.2057292 1.2748644 -0.24118225 0
-4.8200083 1.916836 -0.24148694 0
-1.2381675 0.49239832 -0.030980859 0
-1.2435578 0.49454194 3.820589e-05 0
-1.2417594 0.49382678 0.031147078 0
-1.2365199 0.49174309 0.062026951 0
-1.2480931 0.49634558 0.093977049 0
-1.2474457 0.49608812 0.12538388 0
-1.2490901 0.49674201 0.15718345 0
-1.2453016 0.49523544 0.18841726 0
-1.2367675 0.49184155 0.21882606 0
-1.2408975 0.49348402 0.25160709 0
-0.84213847 0.31053266 -0.19078878 0
-0.9608708 0.35431439 -0.19289306 0
-1.0924102 0.40281859 -0.19135629 0
-1.27039 0.46844742 -0.19028486 0
-1.5402652 0.56796199 -0.19186446 0
-1.9369609 0.71424073 -0.19269656 0
-3.2400818 1.1947575 -0.24142121 0
-4.8676872 1.7949256 -0.24152911 0
-1.2505373 0.46112686 -0.030989291 0
-1.2405986 0.45746201 3.7748225e-05 0
-1.2371582 0.45619339 0.030733073 0
-1.2450597 0.45910701 0.061854377 0
-1.2464124 0.45960581 0.092947446 0
-1.2506405 0.46116492 0.12449545 0
-1.2457044 0.45934477 0.15524907 0
-1.239301 0.45698354 0.1857051 0
-1.2345749 0.45524085 0.21633628 0
-1.2400824 0.45727167 0.24902239 0
-0.85704976 0.29168537 -0.19243784 0
-0.95347238 0.32450151 -0.18970327 0
-1.1012306 0.37478906 -0.19118349 0
-1.2930303 0.44006547 -0.19195126 0
-1.5522295 0.5282805 -0.19163291 0
-1.9494063 0.66345423 -0.1922076 0
-3.2710421 1.1132551 -0.24155758 0
-1.2509782 0.42575362 -0.06151934 0
-1.2491903 0.42514515 -0.030680237 0
-1.2441581 0.4234325 3.751941e-05 0
-1.2433331 0.4231517 0.030611413 0
-1.2432392 0.42311975 0.061213903 0
-1.2434158 0.42317986 0.091898248 0
-1.2358439 0.42060289 0.12192696 0
-1.2353872 0.42044744 0.15259217 0
-1.2479002 0.4247061 0.18532844 0
-1.2373519 0.42111611 0.21489201 0
-1.2446915 0.423614 0.24772207 0
-0.86043882 0.26881313 -0.1916144 0
-0.96412653 0.30120662 -0.1902499 0
-1.1143928 0.34815189 -0.19188195 0
-1.3023598 0.4068754 -0.19175071 0
-1.5715111 0.49096209 -0.19242227 0
-1.9633961 0.61339241 -0.19199939 0
-3.2984009 1.0304666 -0.24158043 0
-1.2450035 0.38895649 -0.060723417 0
-1.2442105 0.38870877 -0.030307332 0
-1.2365922 0.3863287 3.6985424e-05 0
-1.2422776 0.38810492 0.030334601 0
-1.2322819 0.38498211 0.060176812 0
-1.237591 0.38664076 0.090717643 0
-1.2423875 0.38813925 0.12156735 0
-1.2470416 0.38959324 0.15276851 0
-1.2486176 0.39008561 0.18391424 0
-1.2364211 0.38627523 0.21296938 0
-1.2489572 0.39019167 0.24653254 0
-0.86532497 0.24655558 -0.19125584 0
-0.98089123 0.27948368 -0.19210495 0
-1.1216658 0.31959435 -0.19168434 0
-1.3068094 0.372347 -0.19096138 0
-1.5696537 0.4472388 -0.19075197 0
-1.9801705 0.56420666 -0.19218603 0
-1.2512608 0.35651964 -0.090956435 0
-1.2498885 0.35612863 -0.060504016 0
-1.2417172 0.35380039 -0.030019525 0
-1.2446649 0.35464028 3.69474e-05 0
-1.239737 0.35323617 0.030045293 0
-1.2360048 0.35217276 0.059905481 0
-1.2324517 0.35116038 0.089662693 0
-1.2395821 0.353192 0.12038223 0
-1.2508124 0.35639185 0.15208009 0
-1.2412685 0.35367253 0.18145917 0
-1.2375073 0.35260087 0.21155624 0
-1.239996 0.35330996 0.24292617 0
-0.87568927 0.22578345 -0.19222584 0
-0.99708986 0.25708479 -0.19394489 0
-1.1153018 0.28756401 -0.18929619 0
-1.3133801 0.33863553 -0.19061191 0
-1.5852736 0.40873924 -0.19133556 0
-1.9947095 0.51430619 -0.19227605 0
-1.2409412 0.31995824 -0.089590736 0
-1.2487538 0.32197258 -0.060036596 0
-1.2438264 0.32070214 -0.029865321 0
-1.2443994 0.3208499 3.6687452e-05 0
-1.2430612 0.32050484 0.029920286 0
-1.2476799 0.32169574 0.060058698 0
-1.2413099 0.32005331 0.089690901 0
-1.236757 0.3188794 0.11928829 0
-1.2393157 0.31953913 0.14965405 0
-1.2374903 0.31906846 0.17967238 0
-1.2478532 0.32174039 0.21186921 0
-1.2425499 0.320373 0.24176541 0
-0.87381876 0.20193277 -0.19063577 0
-0.99536604 0.23002142 -0.19241907 0
-1.1288497 0.26086846 -0.19041748 0
-1.3239881 0.30596343 -0.1909699 0
-1.5897331 0.36737505 -0.19069396 0
-2.523212 0.58309484 -0.24172443 0
-1.2470304 0.2881791 -0.089476749 0
-1.2350677 0.28541461 -0.059013486 0
-1.2487195 0.28856942 -0.029798442 0
-1.2430812 0.28726649 3.6423233e-05 0
-1.2363693 0.2857154 0.029576221 0
-1.2436945 0.28740823 0.059498735 0
-1.2404473 0.28665778 0.089077443 0
-1.2360173 0.28563407 0.11848388 0
-1.2417732 0.28696421 0.14902875 0
-1.2503763 0.28895232 0.180427 0
-1.237372 0.28594711 0.2087978 0
-1.2392216 0.28637454 0.23963518 0
-0.86918521 0.17788708 -0.18858534 0
-1.006942 0.20608033 -0.19358975 0
-1.1258661 0.23041928 -0.18887305 0
-1.3326696 0.27274361 -0.19116834 0
-1.606545 0.32879484 -0.19165415 0
-1.2471343 0.255238 -0.11882085 0
-1.2581688 0.2574963 -0.089781046 0
-1.2408565 0.25395319 -0.05896505 0
-1.2412913 0.25404215 -0.029458797 0
-1.2392144 0.25361711 3.611088e-05 0
-1.2374794 0.25326201 0.029440491 0
-1.2401268 0.25380385 0.059002809 0
-1.2439317 0.25458255 0.088837959 0
-1.232242 0.25219014 0.11747441 0
-1.2479208 0.25539893 0.14894548 0
-1.2366437 0.25309098 0.17746714 0
-1.2455282 0.25490931 0.2090219 0
-1.2373186 0.25322911 0.2379555 0
-0.87980407 0.15704376 -0.18996882 0
-1.0007555 0.17863342 -0.1914726 0
-1.1460834 0.20457423 -0.19133756 0
-1.3346015 0.23822445 -0.19052231 0
-1.6230009 0.28970331 -0.19268364 0
-1.2386638 0.2210997 -0.11744475 0
-1.2485031 0.222856 -0.088661715 0
-1.2426018 0.22180261 -0.058763251 0
-1.236063 0.22063546 -0.029193264 0
-1.2362635 0.22067125 3.5851175e-05 0
-1.2408959 0.22149813 0.029379416 0
-1.2427276 0.22182508 0.058841437 0
-1.2372588 0.2208489 0.087935321 0
-1.238624 0.2210926 0.11751343 0
-1.2397251 0.22128914 0.1472538 0
