# .PCD v0.7 - Point Cloud Data file format
VERSION 0.7
FIELDS x y z intensity
SIZE 4 4 4 4
TYPE F F F F
COUNT 1 1 1 1
WIDTH 1341
HEIGHT 1
VIEWPOINT 0 0 0 1 0 0 0
POINTS 1341
DATA ascii
0.31856379 2.6450326 -0.31136769 0
0.3965345 3.2924228 -0.30953673 0
0.61815661 5.1325493 -0.36140659 0
0.93017477 7.7232342 -0.36215085 0
1.8609817 15.451717 -0.36185554 0
0.42579824 3.5353994 0.082997069 0
0.4235585 3.516803 0.1651094 0
0.23478319 1.9494029 0.13737915 0
0.16614649 1.3795129 0.12977476 0
0.080505326 0.84821922 -0.31014067 0
0.086730972 0.91381377 -0.3101283 0
0.094190009 0.99240363 -0.31114683 0
0.10140844 1.0684583 -0.30777141 0
0.11193344 1.1793517 -0.31006709 0
0.12517843 1.3189033 -0.31400311 0
0.13868411 1.4612018 -0.31199175 0
0.15661499 1.6501248 -0.31219935 0
0.17852822 1.8810067 -0.31053528 0
0.20913109 2.2034445 -0.31105193 0
0.25043929 2.6386752 -0.30977657 0
0.31425804 3.3110816 -0.31044638 0
0.48835003 5.1453476 -0.36132482 0
0.73315638 7.7246733 -0.36123562 0
1.4695967 15.483947 -0.36162654 0
0.33933654 3.5753136 0.083706371 0
0.33946359 3.5766523 0.16746368 0
0.18550125 1.954476 0.13736299 0
0.1319356 1.3900982 0.13041577 0
0.059669655 0.8584885 -0.31324509 0
0.063516259 0.91383094 -0.30949154 0
0.069156162 0.9949742 -0.31130639 0
0.075226426 1.0823092 -0.31111524 0
0.081740603 1.1760311 -0.3085534 0
0.090121962 1.2966167 -0.30805749 0
0.10084854 1.4509437 -0.30915958 0
0.1149195 1.6533875 -0.31216848 0
0.13066669 1.879948 -0.30971742 0
0.15347838 2.2081478 -0.31107 0
0.1851314 2.6635511 -0.31204906 0
0.2308553 3.3213971 -0.31076831 0
0.35937494 5.170455 -0.36233559 0
0.53833634 7.7452354 -0.36144668 0
1.0782139 15.512646 -0.3615461 0
0.13541712 1.9482942 0.045519564 0
0.13257858 1.9074551 0.08912456 0
0.13305731 1.9143428 0.13426359 0
0.095690921 1.3767393 0.12889482 0
0.037679326 0.85268658 -0.31068218 0
0.041032795 0.92857587 -0.31403452 0
0.044100467 0.99799758 -0.31180477 0
0.047868874 1.083277 -0.31094709 0
0.052536119 1.1888971 -0.31148195 0
0.058327641 1.3199599 -0.31315401 0
0.065051831 1.472129 -0.31322402 0
0.072285764 1.6358335 -0.30841151 0
0.083195888 1.8827306 -0.30973127 0
0.096930444 2.1935449 -0.30856991 0
0.11761412 2.6616182 -0.31137568 0
0.14726922 3.332716 -0.31138042 0
0.22828004 5.165998 -0.36150441 0
0.34331715 7.7692986 -0.36204997 0
0.6864813 15.535135 -0.36155128 0
0.085372105 1.9319786 0.045073677 0
0.085910089 1.9441532 0.090709053 0
0.08526811 1.929625 0.13514145 0
0.061227858 1.3855921 0.12953773 0
0.017432982 0.92097527 -0.31121618 0
0.018840961 0.99535805 -0.31073257 0
0.020385193 1.076939 -0.30888176 0
0.022386143 1.1826482 -0.30959815 0
0.02492974 1.3170249 -0.31220901 0
0.027794234 1.4683547 -0.31217232 0
0.031547014 1.6666121 -0.31396425 0
0.035915937 1.89742 -0.31189942 0
0.041919317 2.2145753 -0.31128037 0
0.050509337 2.6683817 -0.31191844 0
0.062997736 3.3281374 -0.31070513 0
0.09816163 5.1858273 -0.36260316 0
0.14698492 7.7651362 -0.36156797 0
0.29430169 15.547803 -0.36155811 0
0.069966123 3.6962731 0.08616659 0
0.069898948 3.6927245 0.17215563 0
0.036934782 1.9512451 0.13654684 0
0.031689528 1.6741412 0.15638934 0
0.030938925 1.6344872 0.19115674 0
0.030324634 1.6020344 0.22527499 0
-0.0054185498 0.8591094 -0.31272343 0
-0.0058697211 0.93064255 -0.31443286 0
-0.0062629497 0.99298882 -0.30994362 0
-0.0068040285 1.0787767 -0.30935961 0
-0.0074718543 1.1846603 -0.31007552 0
-0.0081852321 1.2977661 -0.3075946 0
-0.0091732023 1.4544085 -0.30915812 0
-0.01043319 1.6541791 -0.31157246 0
-0.011999238 1.9024756 -0.31268066 0
-0.01400054 2.2197814 -0.31196246 0
-0.016845854 2.6709051 -0.31216371 0
-0.021064341 3.339745 -0.31173915 0
-0.032540351 5.1592631 -0.3606883 0
-0.049004454 7.7696414 -0.36172017 0
-0.098145865 15.560998 -0.36180735 0
-0.023456914 3.7190869 0.086684614 0
-0.023404256 3.7107377 0.17296788 0
-0.012329793 1.954885 0.13677977 0
-0.010303983 1.6336933 0.15258662 0
-0.01026845 1.6280597 0.19037473 0
-0.010107835 1.6025941 0.22531784 0
-0.027138252 0.86013365 -0.31324583 0
-0.028698087 0.90957183 -0.30746058 0
-0.031317454 0.99259132 -0.30996755 0
-0.034359839 1.0890183 -0.31244576 0
-0.037079163 1.1752059 -0.30774787 0
-0.041028362 1.3003739 -0.30835992 0
-0.046353936 1.4691653 -0.31244412 0
-0.05218143 1.6538649 -0.31166208 0
-0.059644461 1.890402 -0.31084472 0
-0.070386916 2.2308788 -0.31367183 0
-0.0842342 2.6697617 -0.31217915 0
-0.1054802 3.3431435 -0.31220543 0
-0.11975039 3.7954299 -0.26546839 0
-0.12014377 3.807898 -0.17736359 0
-0.1200075 3.8035791 -0.088478915 0
-0.1198525 3.7986662 0.00010849976 0
-0.11848814 3.7554238 0.087573372 0
-0.11745141 3.7225649 0.17360207 0
-0.061825648 1.9595337 0.13717052 0
-0.043813698 1.3886538 0.12976193 0
-0.050229575 1.5920018 0.18624729 0
-0.050677259 1.6061909 0.22593139 0
-0.04927928 0.86705142 -0.31611744 0
-0.051421467 0.90474242 -0.30616933 0
-0.057011258 1.0030928 -0.31359643 0
-0.061304431 1.0786296 -0.30981046 0
-0.06828288 1.201413 -0.31496164 0
-0.074573115 1.3120874 -0.31148469 0
-0.083158031 1.463136 -0.31150901 0
-0.093057692 1.6373169 -0.30888796 0
-0.10787347 1.8979954 -0.31244153 0
-0.12500834 2.1994774 -0.30960166 0
-0.1511842 2.6600323 -0.31138849 0
-0.18903887 3.3260717 -0.3109577 0
-0.21548326 3.7913513 -0.26547897 0
-0.21551651 3.7919364 -0.17681718 0
-0.2149955 3.7827697 -0.08809302 0
-0.21482831 3.7798278 0.00010808213 0
-0.21270831 3.742527 0.087370001 0
-0.077684902 1.3668383 0.063813716 0
-0.077621765 1.3657273 0.095709786 0
-0.079702362 1.4023347 0.13118654 0
-0.087909237 1.5467317 0.18115304 0
-0.070058435 0.85237128 -0.31131077 0
-0.076595061 0.93189967 -0.31591305 0
-0.081990302 0.99754125 -0.3124083 0
-0.088970594 1.0824674 -0.31145856 0
-0.0970404 1.1806495 -0.31006163 0
-0.10781502 1.3117397 -0.31194881 0
-0.11908489 1.4488554 -0.30901009 0
-0.13568895 1.65087 -0.31199151 0
-0.15490384 1.8846495 -0.3107892 0
-0.17986298 2.1883166 -0.3085714 0
-0.21944568 2.6699026 -0.31309256 0
-0.2748183 3.3435979 -0.31314498 0
-0.42414901 5.1604414 -0.36198005 0
-0.63669318 7.746376 -0.36184594 0
-1.2748113 15.510089 -0.36183253 0
-0.30732858 3.7391367 0.087444089 0
-0.11515029 1.4009848 0.06552273 0
-0.11332887 1.3788244 0.09679725 0
-0.11393052 1.3861443 0.12989958 0
-0.12457287 1.5156254 0.17782147 0
-0.091484554 0.849796 -0.31111443 0
-0.099631906 0.92547637 -0.31448787 0
-0.10769492 1.0003734 -0.3140465 0
-0.11599557 1.0774777 -0.31076625 0
-0.12729499 1.1824375 -0.31127584 0
-0.13958637 1.2966117 -0.30909055 0
-0.15914544 1.478295 -0.31604496 0
-0.17741917 1.6480389 -0.31220332 0
-0.20434502 1.8981519 -0.31376639 0
-0.23512457 2.1840618 -0.30870989 0
-0.28594664 2.6561456 -0.31222621 0
-0.35758007 3.3215454 -0.31182557 0
-0.55411375 5.1471381 -0.36191261 0
-0.83247495 7.7328229 -0.36207899 0
-1.6653973 15.469802 -0.36175805 0
-0.39968762 3.7126806 0.087033577 0
-0.15185824 1.4106045 0.066130832 0
-0.15037709 1.3968462 0.098297566 0
-0.147938 1.3741896 0.12908806 0
-0.15942353 1.4808781 0.17416136 0
-0.11207704 0.8410669 -0.30885589 0
-0.12121372 0.90963179 -0.31004456 0
-0.13146083 0.98652977 -0.31064329 0
-0.1434935 1.0768274 -0.31152406 0
-0.15813684 1.1867163 -0.31335309 0
-0.1712583 1.2851846 -0.30729905 0
-0.19388434 1.4549785 -0.31200695 0
-0.21787338 1.6350011 -0.31067622 0
-0.24993309 1.8755888 -0.31098035 0
-0.29089025 2.1829462 -0.3094914 0
-0.35203609 2.6418068 -0.31148595 0
-0.43789423 3.2861173 -0.30943865 0
-0.68383706 5.1317616 -0.36192977 0
-1.026248 7.7013383 -0.36170238 0
-2.0548654 15.420457 -0.36170173 0
-0.49521345 3.7162616 0.087382697 0
-0.24333009 1.8260374 0.085867397 0
-0.185605 1.3928474 0.098314516 0
-0.18307246 1.3738422 0.12944826 0
-0.19380766 1.454403 0.17156835 0
-0.13352856 0.8396455 -0.30947298 0
-0.14364058 0.90323126 -0.30900022 0
-0.15525784 0.97628218 -0.30855212 0
-0.17179917 1.0802963 -0.31368208 0
-0.1869795 1.1757523 -0.31160492 0
-0.2077826 1.3065649 -0.31356537 0
-0.22823091 1.4351467 -0.30889106 0
-0.26172829 1.6457827 -0.31388015 0
-0.29600772 1.8613364 -0.30975732 0
-0.34801713 2.1883786 -0.31140772 0
-0.4183327 2.6305323 -0.31130233 0
-0.52055001 3.2732887 -0.30936927 0
-0.81149656 5.1027994 -0.3612166 0
-1.2203826 7.6739297 -0.36174655 0
-2.4426413 15.359656 -0.36160651 0
-0.28054836 1.7641258 0.041634187 0
-0.27827945 1.7498586 0.082589149 0
-0.27935666 1.7566322 0.12445041 0
-0.21751726 1.3677778 0.12935293 0
-0.22857521 1.4373118 0.17017853 0
-0.15586448 0.84245932 -0.31186068 0
-0.16803476 0.90824062 -0.31206548 0
-0.1812648 0.97975004 -0.31099498 0
-0.19786148 1.0694563 -0.31188527 0
-0.21579085 1.166366 -0.31046185 0
-0.23657636 1.2787132 -0.30821601 0
-0.26597151 1.4375963 -0.31076419 0
-0.30069596 1.6252844 -0.31131902 0
-0.3451626 1.86563 -0.31182232 0
-0.40298659 2.1781731 -0.31130368 0
-0.48326546 2.6120865 -0.31046402 0
-0.60507709 3.2704878 -0.31044903 0
-0.94176322 5.090302 -0.36189926 0
-1.4135358 7.6402683 -0.36172631 0
-2.8298016 15.295293 -0.3616575 0
-0.67108154 3.6272466 0.085977048 0
-0.66913837 3.6167438 0.17144416 0
-0.66537732 3.596415 0.25589997 0
-0.25220042 1.3631625 0.1294772 0
-0.25727662 1.3905997 0.16536395 0
-0.17936213 0.84910518 -0.315896 0
-0.19262202 0.91187787 -0.31488532 0
-0.20482831 0.96966267 -0.30933547 0
-0.22273409 1.0544292 -0.30904388 0
-0.24497297 1.1597086 -0.31023675 0
-0.26973763 1.2769452 -0.30933228 0
-0.30127034 1.4262218 -0.30985042 0
-0.34279528 1.622802 -0.31240126 0
-0.39010879 1.8467854 -0.3102195 0
-0.4577218 2.1668673 -0.31123981 0
-0.54780203 2.5933094 -0.3097769 0
-0.61883926 2.9296014 -0.27948424 0
-0.62124366 2.9409842 -0.21013956 0
-0.61856753 2.9283152 -0.13933502 0
-3.212254 15.206897 -0.36136928 0
-0.75446439 3.5716548 0.085083611 0
-0.75380504 3.5685334 0.17000656 0
-0.75485319 3.5734954 0.25554338 0
-0.28940076 1.3700309 0.13078171 0
-0.28605887 1.3542105 0.16184372 0
-0.19803701 0.83298719 -0.31165984 0
-0.21253073 0.89395088 -0.31044832 0
-0.23096043 0.9714703 -0.31167248 0
-0.2517271 1.0588195 -0.31209338 0
-0.27625975 1.1620092 -0.31261787 0
-0.30466709 1.2814968 -0.31219819 0
-0.33775175 1.4206581 -0.31039479 0
-0.38251612 1.6089468 -0.31149337 0
-0.43851557 1.8444928 -0.31159428 0
-0.50995559 2.144985 -0.30984676 0
-0.52319545 2.2006748 -0.26436895 0
-0.61897409 2.6035411 -0.24978885 0
-0.6177991 2.5985987 -0.18673004 0
-0.61867541 2.6022847 -0.12452517 0
-3.5982013 15.134825 -0.36169952 0
-0.83686507 3.5200381 0.084330305 0
-0.83197874 3.4994855 0.16766407 0
-0.83165985 3.4981441 0.25157586 0
-0.83339548 3.5054443 0.33652675 0
-0.31604087 1.3293372 0.1597735 0
-0.21933319 0.82901847 -0.31214675 0
-0.23516925 0.88887441 -0.31064767 0
-0.25384036 0.95944601 -0.30977157 0
-0.27588373 1.0427639 -0.30931479 0
-0.30441079 1.1505882 -0.31151304 0
-0.33147994 1.252902 -0.30717233 0
-0.37681666 1.4242623 -0.31316045 0
-0.42040142 1.5890006 -0.30958739 0
-0.47987354 1.8137887 -0.30835521 0
-0.56644857 2.1410184 -0.31123981 0
-0.58179891 2.199038 -0.26585168 0
-0.64797252 2.4491563 -0.23647061 0
-0.64984596 2.4562371 -0.17762224 0
-0.64943671 2.4546905 -0.11820916 0
-3.9800231 15.043382 -0.3617996 0
-0.9129985 3.4508808 0.083199039 0
-0.90964329 3.438199 0.16577494 0
-0.91221273 3.4479105 0.24953952 0
-0.91077709 3.4424844 0.3325834 0
-0.34102133 1.2889658 0.15590608 0
-0.23759171 0.81434816 -0.30878252 0
-0.25891644 0.88743889 -0.31233034 0
-0.28044772 0.96123755 -0.31253576 0
-0.30661923 1.0509406 -0.31393585 0
-0.33524328 1.14905 -0.31328765 0
-0.34668431 1.1882643 -0.29337695 0
-0.40606207 1.391782 -0.30817413 0
-0.46340024 1.5883094 -0.31163219 0
-0.53005791 1.8167793 -0.31103894 0
-0.62066758 2.1273448 -0.31143016 0
-0.71463567 2.4494214 -0.29820722 0
-0.71334302 2.4449909 -0.23773107 0
-0.71473348 2.4497566 -0.17840129 0
-0.7163344 2.4552438 -0.11906854 0
-4.3584676 14.938695 -0.36181223 0
-0.98607403 3.3797793 0.08205872 0
-0.98407054 3.3729124 0.16377249 0
-0.98566228 3.3783681 0.24622849 0
-0.98311174 3.369626 0.32783726 0
-0.36879912 1.2640629 0.15397079 0
-0.37155515 1.2735093 0.18651114 0
-0.26037839 0.81534499 -0.31155312 0
-0.2826072 0.88495201 -0.31386545 0
-0.30796447 0.96435541 -0.31597608 0
-0.33942422 1.0628679 -0.31995589 0
-0.3668007 1.1485943 -0.31558695 0
-0.37682533 1.1799853 -0.29358754 0
-0.38534352 1.206659 -0.26925117 0
-0.39825431 1.2470876 -0.24657682 0
-0.39398825 1.233729 -0.21285333 0
-0.39307642 1.2308736 -0.18158683 0
-0.39581603 1.2394525 -0.15206617 0
-0.3981736 1.2468349 -0.12217033 0
-0.39739266 1.2443894 -0.091322854 0
-0.3940731 1.2339946 -0.060306452 0
-0.40281779 1.2613776 -0.030786749 0
-0.3954587 1.2383335 3.7111338e-05 0
-0.39756969 1.2449437 0.030460304 0
-0.39440754 1.235042 0.060431819 0
-0.39388713 1.2334123 0.090591557 0
-0.3965649 1.2417974 0.12175182 0
-0.40063581 1.254545 0.15399407 0
-0.39881799 1.2488527 0.18431555 0
-0.28030223 0.80688876 -0.31092614 0
-0.30428377 0.87592292 -0.31328717 0
-0.32659623 0.94015247 -0.31064779 0
-0.36011198 1.0366322 -0.31469396 0
-0.39041919 1.1238756 -0.31140357 0
-0.42825478 1.2327907 -0.30931664 0
-0.42997912 1.2377543 -0.27852258 0
-0.43289268 1.2461416 -0.24847092 0
-0.42998394 1.2377683 -0.215354 0
-0.43082571 1.2401915 -0.18450685 0
-0.43338737 1.2475655 -0.15435439 0
-0.43507642 1.2524277 -0.12375489 0
-0.43230817 1.2444589 -0.092099354 0
-0.43324515 1.2471561 -0.061464485 0
-0.43166023 1.2425938 -0.030584456 0
-0.43189129 1.2432588 3.7573653e-05 0
-0.43934807 1.2647243 0.031205649 0
-0.43182188 1.243059 0.061337862 0
-0.42857638 1.2337165 0.09137927 0
-0.43392226 1.2491053 0.12350275 0
-0.42988732 1.2374902 0.15318364 0
-0.42959774 1.2366565 0.18405718 0
-0.29973361 0.7973305 -0.31005934 0
-0.32604954 0.86733425 -0.31305888 0
-0.35610992 0.94729877 -0.3158783 0
-0.38414487 1.0218755 -0.31305778 0
-0.42436051 1.1288543 -0.31565017 0
-0.45673633 1.2149782 -0.30764171 0
-0.4867672 1.2948643 -0.29404444 0
-0.50855339 1.3528184 -0.27221403 0
-0.51363164 1.3663272 -0.23990047 0
-0.51394409 1.3671583 -0.20526052 0
-0.5177688 1.3773326 -0.17197181 0
-0.50777853 1.3507571 -0.13469447 0
-0.91769081 2.4411771 -0.18232162 0
-0.92269444 2.4544876 -0.1220751 0
-1.2033813 3.2011514 -0.079513453 0
-1.2041979 3.2033234 9.7697957e-05 0
-1.1650051 3.0990653 0.077166878 0
-1.1613636 3.0893784 0.15384054 0
-1.1628728 3.0933931 0.2312226 0
-1.1597013 3.0849566 0.30781481 0
-1.1625645 3.0925734 0.38632557 0
-0.32069626 0.79183668 -0.31097144 0
-0.34891549 0.8615132 -0.31403637 0
-0.37041187 0.9145903 -0.30799091 0
-0.41206843 1.0174452 -0.31478646 0
-0.44406104 1.0964386 -0.30962142 0
-0.48864508 1.206522 -0.30852509 0
-0.51123369 1.262296 -0.28948656 0
-0.508165 1.2547189 -0.25497401 0
-0.51447076 1.2702885 -0.2252461 0
-0.51136458 1.2626191 -0.19144209 0
-0.51166302 1.263356 -0.15930253 0
-0.51497412 1.2715315 -0.12804957 0
-0.99632901 2.460053 -0.18555038 0
-0.99240458 2.4503632 -0.12307651 0
-5.8364248 14.410816 -0.36149433 0
-1.2040544 2.9729514 0.074759521 0
-1.2034812 2.9715362 0.14943737 0
-1.1955526 2.9519594 0.22283532 0
-1.1959252 2.9528794 0.29755321 0
-1.2020468 2.9679942 0.37443376 0
-0.34139848 0.78539217 -0.3117252 0
-0.36741662 0.84524721 -0.31138822 0
-0.39675704 0.91274536 -0.31064284 0
-0.43786487 1.0073146 -0.31497097 0
-0.4740108 1.0904688 -0.3112148 0
-0.5130496 1.1802781 -0.30502823 0
-0.51491791 1.1845762 -0.27455583 0
-0.51410931 1.182716 -0.24290161 0
-0.50628692 1.1647203 -0.20872621 0
-0.50853568 1.1698937 -0.17927177 0
-0.50891602 1.1707686 -0.14919987 0
-0.51194102 1.1777277 -0.11986608 0
-1.0662216 2.4528582 -0.18697789 0
-1.0670379 2.4547362 -0.12460916 0
-6.1986575 14.260101 -0.36152303 0
-1.2337962 2.8383663 0.072135255 0
-1.2223141 2.8119514 0.14291784 0
-1.2228097 2.8130913 0.21461393 0
-1.2238016 2.8153734 0.28671825 0
-1.2313727 2.8327909 0.36118266 0
-0.36247295 0.77946782 -0.31290519 0
-0.3871747 0.83258682 -0.31022534 0
-0.41975945 0.90265769 -0.31071633 0
-0.46087626 0.99107587 -0.31343076 0
-0.50154883 1.0785388 -0.31132364 0
-0.51593679 1.109479 -0.29000401 0
-0.51161826 1.1001923 -0.25790843 0
-0.50793189 1.092265 -0.22688577 0
-0.51607639 1.1097791 -0.20115051 0
-0.51246834 1.1020204 -0.17079864 0
-0.51097649 1.0988122 -0.14162832 0
-0.51323301 1.1036648 -0.11361034 0
-1.1411066 2.4538546 -0.189189 0
-1.1445297 2.4612155 -0.1263642 0
-6.560483 14.107771 -0.36174372 0
-1.2407076 2.6680381 0.068580464 0
-1.2414668 2.6696706 0.13723521 0
-1.2357844 2.6574512 0.20505418 0
-1.2459748 2.6793647 0.27598178 0
-1.2436566 2.6743798 0.34487739 0
-0.38736036 0.78083038 -0.31727582 0
-0.41791654 0.84242469 -0.31771994 0
-0.44387597 0.89475304 -0.31175241 0
-0.48806518 0.98382843 -0.31493413 0
-0.51201648 1.0321088 -0.30155566 0
-0.51690888 1.0419708 -0.27568057 0
-0.52083296 1.0498809 -0.24911657 0
-0.51474434 1.0376076 -0.21816143 0
-0.51949567 1.0471851 -0.19212049 0
-0.51425457 1.0366203 -0.1626223 0
-0.51403892 1.0361856 -0.13518541 0
-0.52320433 1.0546609 -0.10989027 0
-1.213728 2.4465995 -0.19093063 0
-1.220647 2.4605467 -0.1278709 0
-6.9116955 13.932406 -0.36160496 0
-1.2506306 2.5209868 0.06559106 0
-1.2435652 2.5067449 0.13043185 0
-1.2426442 2.5048881 0.19563985 0
-1.245458 2.5105603 0.26174891 0
-1.2346395 2.4887526 0.32485461 0
-0.39824322 0.75433868 -0.31049669 0
-0.42890704 0.81242102 -0.31038794 0
-0.4701423 0.89052749 -0.31431442 0
-0.50364619 0.95398945 -0.30935293 0
-0.52753794 0.99924433 -0.29574949 0
-0.538194 1.0194287 -0.27322331 0
-0.53848165 1.0199736 -0.2451669 0
-0.53740126 1.0179271 -0.21680626 0
-0.53024346 1.004369 -0.18666112 0
-0.53561002 1.0145341 -0.16122687 0
-0.53393155 1.0113549 -0.13366146 0
-0.55660611 1.0543042 -0.11128142 0
-1.292043 2.4473436 -0.19347194 0
-1.300056 2.4625218 -0.12963744 0
-7.2590842 13.749909 -0.36150843 0
-1.253431 2.3742061 0.062575273 0
-1.2440605 2.356457 0.12420622 0
-1.2450092 2.358254 0.18658206 0
-1.2468135 2.3616717 0.24942736 0
-1.2399737 2.3487158 0.31056181 0
-1.2451559 2.3585317 0.37496641 0
-0.41899362 0.74734044 -0.31186959 0
-0.4504455 0.80343974 -0.31120098 0
-0.48574412 0.86640036 -0.31002703 0
-0.52632797 0.93878794 -0.30863285 0
-0.55559766 0.99099499 -0.29736355 0
-0.55744928 0.99429762 -0.2701726 0
-0.56349736 1.0050853 -0.24492879 0
-0.56080878 1.0002898 -0.21599565 0
-0.56040484 0.9995693 -0.18833779 0
-0.55323857 0.9867872 -0.15898576 0
-0.56079417 1.0002638 -0.13402355 0
-0.57908636 1.0328908 -0.1105287 0
-1.2967238 2.3129091 -0.18537261 0
-1.2918065 2.3041382 -0.12297671 0
-1.3018005 2.321964 -0.061892506 0
-1.2923477 2.3051035 7.544375e-05 0
-1.2527313 2.2344415 0.059705909 0
-1.2381738 2.2084758 0.11801589 0
-1.2396934 2.2111864 0.1773653 0
-1.2436765 2.218291 0.23752376 0
-1.2427427 2.2166252 0.2971487 0
-1.2362336 2.2050152 0.35540721 0
-0.43978068 0.74000448 -0.3133404 0
-0.47413191 0.79780608 -0.31355414 0
-0.50945574 0.85724437 -0.31125268 0
-0.55405945 0.93229753 -0.31099737 0
-0.59280497 0.99749333 -0.30370629 0
-0.59730589 1.005067 -0.27710694 0
-0.58417672 0.98297489 -0.24305627 0
-0.59136921 0.99507743 -0.21802361 0
-0.58449942 0.98351789 -0.1880331 0
-0.59136564 0.99507147 -0.16267338 0
-0.58440071 0.98335183 -0.13369127 0
-0.59970802 1.0091089 -0.10956862 0
-0.81291842 1.3678709 -0.11123966 0
-1.3513362 2.273849 -0.12314123 0
-1.3579737 2.2850175 -0.061801583 0
-1.3552665 2.280462 7.5732663e-05 0
-1.2513566 2.1056163 0.057089351 0
-1.2452527 2.0953457 0.11361378 0
-1.244719 2.0944476 0.17046699 0
-1.239974 2.0864632 0.22668709 0
-1.2402765 2.0869722 0.28387412 0
-1.2428411 2.0912876 0.34202346 0
-0.46334887 0.73668134 -0.3167842 0
-0.48983502 0.77879184 -0.31084105 0
-0.53258753 0.84676433 -0.31222868 0
-0.57733196 0.91790384 -0.31095758 0
-0.6079362 0.96656168 -0.29886505 0
-0.61157554 0.97234792 -0.27225503 0
-0.61072505 0.97099572 -0.24382795 0
-0.6104663 0.97058433 -0.21596418 0
-0.61161262 0.9724068 -0.18879993 0
-0.60371494 0.95985025 -0.15935567 0
-0.61019742 0.97015679 -0.13394849 0
-0.62749475 0.99765795 -0.11000986 0
-0.84610444 1.345227 -0.11109944 0
-4.1304541 6.5670352 -0.36117113 0
-8.2839556 13.170715 -0.36176056 0
-1.2563339 1.9974535 0.054998938 0
-1.2417064 1.9741969 0.10870953 0
-1.2433945 1.976881 0.16340041 0
-1.2346071 1.9629099 0.21657993 0
-1.2442503 1.9782417 0.27326891 0
-1.2370782 1.9668386 0.32667255 0
-1.2338049 1.9616345 0.38100165 0
-0.47903362 0.72061187 -0.31497282 0
-0.51240498 0.77081251 -0.31271845 0
-0.55683333 0.83764619 -0.31394869 0
-0.59808141 0.89969581 -0.30980432 0
-0.64036655 0.96330547 -0.30275923 0
-0.63901711 0.96127558 -0.2735835 0
-0.64245296 0.96644413 -0.24667819 0
-0.64105475 0.96434075 -0.21810557 0
-0.62495905 0.94012791 -0.18553618 0
-0.64853996 0.97560078 -0.16463569 0
-0.63676125 0.95788199 -0.13442984 0
-0.65950119 0.99208981 -0.11119589 0
-0.87631822 1.3182484 -0.11066273 0
-4.3044753 6.4752364 -0.36198211 0
-8.6123133 12.955531 -0.3617053 0
-1.2475566 1.8767034 0.052524399 0
-1.2381314 1.8625251 0.10424785 0
-1.235249 1.8581892 0.15611705 0
-1.2463826 1.8749374 0.21027732 0
-1.2572651 1.8913081 0.26555896 0
-1.2484163 1.8779967 0.31704912 0
-1.23884 1.863591 0.36791474 0
-0.49794888 0.70955849 -0.31553426 0
-0.53214335 0.75828433 -0.31298497 0
-0.57623029 0.82110661 -0.31310084 0
-0.62259573 0.88717562 -0.31080499 0
-0.67208314 0.95769334 -0.30622911 0
-0.67296082 0.95894396 -0.27766547 0
-0.67261738 0.95845455 -0.24889269 0
-0.6651473 0.94780999 -0.21809423 0
-0.66261721 0.94420469 -0.18958083 0
-0.66286677 0.94456035 -0.16216913 0
-0.67746007 0.96535522 -0.13783436 0
-0.67271763 0.95859742 -0.10931019 0
-0.91859013 1.3089565 -0.11179335 0
-4.4628057 6.3593311 -0.3616842 0
-8.9375505 12.735675 -0.36174977 0
-1.2511026 1.7827742 0.050763134 0
-1.2370317 1.7627237 0.10037737 0
-1.2473557 1.7774352 0.15192905 0
-1.2356207 1.7607132 0.20090045 0
-1.2376683 1.763631 0.25193763 0
-1.2348347 1.7595931 0.30222517 0
-1.2382263 1.7644261 0.35439426 0
-0.50768661 0.68595093 -0.3106353 0
-0.54774833 0.74007946 -0.31107795 0
-0.58771944 0.79408568 -0.30835539 0
-0.64680183 0.87391371 -0.31177869 0
-0.69607449 0.94048756 -0.30624747 0
-0.68847859 0.93022448 -0.27429372 0
-0.69762313 0.94257993 -0.24926327 0
-0.6888296 0.93069869 -0.21808785 0
-0.68507063 0.9256199 -0.18926069 0
-0.69001329 0.93229806 -0.16300191 0
-0.70031095 0.94621152 -0.13758086 0
-0.70473772 0.95219266 -0.1105729 0
-0.94832587 1.2813121 -0.11144103 0
-4.6274333 6.2522664 -0.36212212 0
-9.2593288 12.510562 -0.36187834 0
-1.256412 1.6975768 0.049224459 0
-1.239215 1.6743413 0.097094588 0
-1.2484167 1.686774 0.14682615 0
-1.2400223 1.6754321 0.19467877 0
-1.2459697 1.6834677 0.24490047 0
-1.2471422 1.685052 0.2947346 0
-1.2388583 1.6738594 0.34237468 0
-0.52730191 0.6760897 -0.31209707 0
-0.55747557 0.71477735 -0.30625927 0
-0.61288285 0.78581887 -0.31105286 0
-0.67833948 0.86974525 -0.31629878 0
-0.72078204 0.92416376 -0.30675808 0
-0.721196 0.92469454 -0.27794188 0
-0.72148448 0.92506438 -0.24936737 0
-0.71143949 0.91218507 -0.21788779 0
-0.70919251 0.90930402 -0.1895241 0
-0.72441643 0.92882365 -0.16553842 0
-0.71691203 0.91920173 -0.13624112 0
-0.72825229 0.93374181 -0.11052952 0
-0.97566783 1.2509701 -0.11090849 0
-4.7768235 6.124691 -0.36160076 0
-9.5626602 12.260938 -0.36152393 0
-1.2518809 1.6051217 0.047444634 0
-1.2457736 1.5972911 0.094419718 0
-1.2383621 1.5877883 0.14088564 0
-1.2418904 1.5923123 0.18860257 0
-1.2347585 1.5831679 0.23476826 0
-1.2457558 1.5972683 0.28478906 0
-1.2359715 1.5847231 0.33041799 0
-1.2317996 1.5793741 0.37737337 0
-0.54505581 0.66362125 -0.31259218 0
-0.5920586 0.7208485 -0.31516281 0
-0.64513069 0.78546536 -0.31725702 0
-0.69369173 0.84458983 -0.31341788 0
-0.74342895 0.90514636 -0.30657613 0
-0.73693639 0.89724147 -0.2751931 0
-0.74603945 0.90832466 -0.24985111 0
-0.74987584 0.91299564 -0.2225313 0
-0.74380898 0.90560901 -0.19260545 0
-0.75204718 0.91563934 -0.16651848 0
-0.74733096 0.90989721 -0.13761386 0
-0.75471318 0.91888523 -0.11099035 0
-0.99769467 1.2147223 -0.1098923 0
-4.9340205 6.0073137 -0.36190781 0
-9.8856945 12.03612 -0.36213654 0
-1.2549646 1.5279558 0.046085298 0
-1.2324997 1.5006042 0.09051431 0
-1.2406499 1.5105273 0.13676506 0
-1.2399552 1.5096815 0.18246397 0
-1.2422575 1.5124847 0.22886313 0
-1.2361127 1.5050031 0.27381378 0
-1.2384214 1.5078142 0.3207972 0
-1.2370939 1.5061978 0.36723217 0
-0.56527907 0.65388328 -0.31462538 0
-0.6006285 0.69477355 -0.3102915 0
-0.6476742 0.74919337 -0.30911055 0
-0.7106359 0.82202399 -0.31160048 0
-0.76872849 0.88922226 -0.30765611 0
-0.77152073 0.89245218 -0.2796075 0
-0.78048509 0.9028216 -0.25367507 0
-0.7672736 0.88753927 -0.22097629 0
-0.77179104 0.89276475 -0.19395481 0
-0.76921821 0.88978869 -0.16529533 0
-0.7728647 0.89400679 -0.13811675 0
-0.77722764 0.89905357 -0.11092902 0
-1.0367633 1.19927 -0.11082633 0
-5.0761771 5.8718381 -0.36134946 0
-10.175441 11.770382 -0.36175293 0
-1.2487289 1.4444599 0.044503361 0
-1.2352821 1.4289054 0.08804208 0
-1.2390343 1.4332458 0.13255708 0
-1.2416301 1.4362484 0.17731974 0
-1.2394345 1.4337087 0.22160597 0
-1.240472 1.4349087 0.26667228 0
-1.2370356 1.4309337 0.31098396 0
-1.2430075 1.4378418 0.35810098 0
-0.57091916 0.62767303 -0.30884889 0
-0.62317795 0.68512672 -0.31290793 0
-0.67958432 0.74714035 -0.31523988 0
-0.72797525 0.80034173 -0.31024742 0
-0.78793544 0.86626244 -0.30649528 0
-0.79621929 0.87536973 -0.28046229 0
-0.79701942 0.87624937 -0.25178081 0
-0.80453438 0.88451141 -0.22520635 0
-0.8024109 0.88217688 -0.19599195 0
-0.79708743 0.87632418 -0.16647826 0
-0.79945064 0.87892234 -0.13885935 0
-0.80288482 0.88269788 -0.11137579 0
-1.0676539 1.1737871 -0.11092626 0
-5.2263708 5.745913 -0.36160251 0
-10.472175 11.513191 -0.36185646 0
-1.2483443 1.3724395 0.043241385 0
-1.2507852 1.3751231 0.086645789 0
-1.2356946 1.3585324 0.1284906 0
-1.2384908 1.3616066 0.17190884 0
-1.2390761 1.3622501 0.215326 0
-1.2431456 1.366724 0.25974876 0
-1.2494242 1.3736268 0.30528554 0
-1.2451805 1.3689612 0.34866202 0
-0.59292561 0.61970663 -0.3121931 0
-0.63123393 0.65974528 -0.30849388 0
-0.69052559 0.72171497 -0.31176639 0
-0.74826473 0.78206205 -0.31038338 0
-0.83167994 0.86924487 -0.31487706 0
-0.82161427 0.85872459 -0.2816835 0
-0.82889074 0.86632979 -0.25486061 0
-0.82874459 0.86617696 -0.2257919 0
-0.83742404 0.87524849 -0.19908498 0
-0.83115256 0.86869371 -0.16896003 0
-0.83592975 0.87368667 -0.14132041 0
-0.81868178 0.85565966 -0.11053614 0
-1.1005468 1.1502558 -0.11129203 0
-5.377162 5.6200352 -0.36210623 0
-10.755456 11.241254 -0.36172614 0
-1.2627584 1.3197942 0.042573281 0
-1.2386742 1.2946221 0.083516724 0
-1.242977 1.2991194 0.12579834 0
-1.2386631 1.2946105 0.16734405 0
-1.2401354 1.2961494 0.20975834 0
-1.2388468 1.2948024 0.2519421 0
-1.2336659 1.2893877 0.29339018 0
-1.2552345 1.3119303 0.34209666 0
-0.60993093 0.6060977 -0.31299272 0
-0.65320671 0.6491015 -0.31112674 0
-0.7080034 0.70355386 -0.31154111 0
-0.77497017 0.77009976 -0.31329879 0
-0.83337981 0.82814229 -0.30750933 0
-0.85244709 0.84708977 -0.2848337 0
-0.867185 0.86173505 -0.25986493 0
-0.85438806 0.84901857 -0.22686806 0
-0.85873568 0.85333884 -0.19896793 0
-0.85609585 0.85071558 -0.16961184 0
-0.85267526 0.8473165 -0.14049125 0
-0.84913248 0.84379596 -0.11173652 0
-1.1321555 1.1250403 -0.11158149 0
-1.2715117 1.2635207 -0.083451428 0
-1.2793568 1.2713165 -0.041934676 0
-1.2762687 1.2682478 5.1365794e-05 0
-1.2447361 1.2369134 0.04090013 0
-1.2558932 1.2480004 0.082527675 0
-1.2383281 1.2305456 0.12214568 0
-1.2305907 1.2228569 0.16203216 0
-1.2413837 1.233582 0.20463818 0
-1.2521582 1.2442888 0.24818347 0
-1.2388588 1.231073 0.28714439 0
-1.2400215 1.2322283 0.32936972 0
-0.62067175 0.58639878 -0.31081069 0
-0.67226744 0.63514537 -0.31247059 0
-0.72897619 0.68872279 -0.31302115 0
-0.79448152 0.75061089 -0.31342804 0
-0.86289746 0.81524903 -0.31070974 0
-0.88493264 0.83606744 -0.28854564 0
-0.88407946 0.83526134 -0.25852799 0
-0.88486755 0.83600593 -0.22928563 0
-0.88891429 0.83982921 -0.20098509 0
-0.88560367 0.83670139 -0.17121962 0
-0.87795156 0.82947183 -0.14116159 0
-0.88966441 0.84053791 -0.11424212 0
-1.1548553 1.0910852 -0.11106928 0
-1.2965281 1.2249351 -0.083037779 0
-1.2937404 1.2223011 -0.041381773 0
-1.3017197 1.2298398 5.1124574e-05 0
-1.2547543 1.185468 0.040233374 0
-1.2479252 1.1790159 0.080023177 0
-1.2474474 1.1785644 0.12007288 0
-1.247213 1.1783429 0.16025388 0
-1.2380997 1.1697329 0.19916666 0
-1.2349983 1.1668029 0.23886934 0
-1.237492 1.1691588 0.27989894 0
-1.2392676 1.1708363 0.32121804 0
-0.63328606 0.56877053 -0.30984023 0
-0.68441987 0.61469513 -0.31080902 0
-0.7426644 0.66700602 -0.31157088 0
-0.80932534 0.72687596 -0.31194723 0
-0.8872121 0.79682803 -0.31212392 0
-0.91859454 0.8250134 -0.29263893 0
-0.91909188 0.82546008 -0.26259059 0
-0.92708856 0.83264214 -0.23470575 0
-0.92644215 0.83206153 -0.20465679 0
-0.90961599 0.81694955 -0.17182095 0
-0.92542952 0.83115208 -0.14537619 0
-0.91360742 0.82053435 -0.11462084 0
-1.1863681 1.0655078 -0.11147816 0
-1.334649 1.1986827 -0.083515055 0
-1.3346734 1.1987045 -0.041710068 0
-1.3383667 1.2020216 5.1356012e-05 0
-1.246863 1.1198397 0.039061632 0
-1.2441266 1.117382 0.077946335 0
-1.2430085 1.1163779 0.11689629 0
-1.2370349 1.1110129 0.1552937 0
-1.2434585 1.1167821 0.19543225 0
-1.2406038 1.1142181 0.23443964 0
-1.2446929 1.1178908 0.27505848 0
-1.2372842 1.1112368 0.31333452 0
-0.69236338 0.59095907 -0.30754507 0
-0.75472528 0.64418739 -0.30971119 0
-0.81315124 0.69405615 -0.30657238 0
-0.9012683 0.7692675 -0.31013972 0
-0.95790744 0.81761128 -0.29849392 0
-0.9498328 0.81071919 -0.26544288 0
-0.95094329 0.81166708 -0.23548368 0
-0.93824595 0.80082941 -0.20273478 0
-0.95295566 0.81338471 -0.17607369 0
-0.94036478 0.80263793 -0.14449406 0
-0.95195663 0.81253201 -0.11682206 0
-1.4067338 1.200702 -0.12929626 0
-1.4129497 1.2060075 -0.086482473 0
-1.4040121 1.1983789 -0.042918094 0
-1.4060111 1.2000852 5.2772619e-05 0
-1.2579314 1.0736933 0.038547151 0
-1.2458115 1.0633485 0.076346152 0
-1.2384034 1.0570256 0.11391804 0
-1.2427001 1.0606929 0.15259556 0
-1.2406765 1.0589657 0.1907336 0
-1.2244291 1.0450978 0.22632644 0
-1.2549734 1.0711687 0.27126953 0
-1.2446408 1.0623493 0.3083092 0
-0.66834497 0.54191583 -0.3132017 0
-0.70961207 0.57537657 -0.308658 0
-0.77759361 0.63049817 -0.31246582 0
-0.8492052 0.68856317 -0.31351346 0
-0.93735182 0.76003534 -0.315855 0
-0.996786 0.80822647 -0.30415553 0
-0.97815424 0.79311925 -0.26767826 0
-0.97750479 0.79259264 -0.23703197 0
-0.98541379 0.79900557 -0.20850289 0
-0.99305612 0.80520219 -0.17967075 0
-0.98624831 0.7996822 -0.14839584 0
-0.97951061 0.79421902 -0.11770602 0
-4.0277829 3.2658577 -0.36251166 0
-6.0347872 4.8932018 -0.36169726 0
-12.082489 9.796875 -0.36166614 0
-1.2469018 1.0110285 0.037415318 0
-1.2516912 1.0149119 0.07511279 0
-1.2397262 1.0052103 0.11167037 0
-1.2342118 1.0007391 0.14840451 0
-1.242147 1.0071732 0.18699218 0
-1.240108 1.0055199 0.22446209 0
-1.234952 1.0013392 0.26139569 0
-1.2330146 0.99976838 0.29908356 0
-0.69127548 0.53217083 -0.31755203 0
-0.73515779 0.5659532 -0.31345662 0
-0.79357427 0.61092448 -0.31259191 0
-0.86900747 0.66899592 -0.31449038 0
-0.93648034 0.72093916 -0.30933151 0
-1.0099323 0.77748531 -0.30208305 0
-1.0207338 0.78580081 -0.27381587 0
-1.0123137 0.77931869 -0.24062653 0
-1.022984 0.78753304 -0.21217909 0
-1.01487 0.78128666 -0.1799925 0
-1.0171579 0.78304791 -0.15002519 0
-1.0100006 0.77753788 -0.11897384 0
-4.0874729 3.1466963 -0.36062106 0
-6.1495209 4.7341413 -0.36129743 0
-12.324083 9.4875603 -0.36161494 0
-1.2548925 0.96606517 0.0369117 0
-1.2468665 0.95988649 0.073346093 0
-1.2355341 0.9511624 0.1090956 0
-1.2272209 0.94476259 0.14465068 0
-1.2303153 0.94714475 0.18155459 0
-1.2545322 0.96578795 0.22259 0
-1.2428684 0.95680863 0.25787771 0
-1.2405024 0.95498717 0.2949594 0
-0.69322211 0.50633514 -0.31247628 0
-0.74140298 0.54152685 -0.31019306 0
-0.79819989 0.58301175 -0.30851957 0
-0.88123918 0.64366436 -0.31293818 0
-0.95562804 0.69799858 -0.30973855 0
-1.0500335 0.76695305 -0.30818972 0
-1.0439245 0.76249099 -0.27478689 0
-1.0451469 0.76338392 -0.24377355 0
-1.0489851 0.76618743 -0.21349317 0
-1.0438913 0.76246679 -0.18166868 0
-1.0548331 0.77045882 -0.15266533 0
-1.036127 0.75679564 -0.11976328 0
-4.186698 3.0579987 -0.36245051 0
-6.2766552 4.5845203 -0.36185345 0
-12.554605 9.1699867 -0.36147287 0
-1.2528561 0.91509646 4.4291883e-05 0
-1.248439 0.91187012 0.03603344 0
-1.245266 0.90955251 0.071878672 0
-1.2455168 0.90973568 0.10791528 0
-1.2550838 0.91672355 0.14516146 0
-1.2422063 0.9073177 0.17987277 0
-1.2405963 0.90614176 0.21599077 0
-1.2388774 0.90488631 0.25223067 0
-1.2484244 0.91185951 0.29127809 0
-0.69735628 0.48285291 -0.30874822 0
-0.758035 0.52486712 -0.31151006 0
-0.8158794 0.56491888 -0.3097434 0
-0.88802427 0.61487234 -0.3097381 0
-0.98061347 0.67898154 -0.31218302 0
-1.0827299 0.74968749 -0.31213334 0
-1.0763297 0.74525595 -0.27827704 0
-1.0929568 0.75676864 -0.25039017 0
-1.0831426 0.74997324 -0.21652365 0
-1.0762842 0.74522448 -0.18397416 0
-1.0987582 0.76078558 -0.15619384 0
-1.081962 0.74915576 -0.1228366 0
-4.2514677 2.943737 -0.3615106 0
-6.3920798 4.4259071 -0.3619526 0
-12.796576 8.8604116 -0.36188576 0
-1.2514343 0.86649925 4.3454627e-05 0
-1.240227 0.85873926 0.035159659 0
-1.2244911 0.84784365 0.069422238 0
-1.2354552 0.85543519 0.10513939 0
-1.2480022 0.86412281 0.1417748 0
-1.2450441 0.86207461 0.17707673 0
-1.2486382 0.86456317 0.21352383 0
-1.2401965 0.8587181 0.24800767 0
-1.2532563 0.86776078 0.287204 0
-0.73004597 0.47869626 -0.31777096 0
-0.77815539 0.51024193 -0.31438616 0
-0.8362202 0.54831541 -0.31211239 0
-0.90916169 0.59614366 -0.31176347 0
-0.98372275 0.6450339 -0.30789199 0
-1.0990108 0.7206291 -0.3114844 0
-1.1225134 0.73603988 -0.28532368 0
-1.1153619 0.7313506 -0.25121433 0
-1.1128097 0.72967708 -0.21870306 0
-1.1186923 0.7335344 -0.18799868 0
-1.1047058 0.72436333 -0.15439124 0
-1.1236321 0.73677343 -0.12541637 0
-4.3175988 2.8310797 -0.36094308 0
-6.5086236 4.2677498 -0.3623372 0
-1.2485987 0.81871486 -0.034714814 0
-1.2529385 0.82156056 4.2773227e-05 0
-1.2356976 0.81025559 0.03444054 0
-1.2396756 0.81286395 0.069097973 0
-1.2465154 0.8173489 0.10429185 0
-1.2278935 0.80513835 0.13713826 0
-1.2517676 0.82079279 0.1750309 0
-1.2386779 0.81220973 0.20824875 0
-1.2486149 0.81872559 0.24548075 0
-1.2434255 0.81532276 0.28014612 0
-0.72952706 0.45245558 -0.31247491 0
-0.7844674 0.4865298 -0.31187585 0
-0.84526044 0.52423388 -0.3104493 0
-0.91801935 0.56935924 -0.30977452 0
-1.0047886 0.62317395 -0.30946407 0
-1.1078956 0.68712127 -0.30898896 0
-1.1457624 0.71060646 -0.28658316 0
-1.1553814 0.71657217 -0.25607297 0
-1.1474366 0.71164477 -0.22190775 0
-1.1571245 0.71765321 -0.19135244 0
-1.1394229 0.70667464 -0.15670063 0
-1.1440729 0.70955861 -0.12565899 0
-4.401628 2.729907 -0.36209252 0
-6.5938449 4.089529 -0.36122042 0
-1.2445012 0.77184457 -0.034048431 0
-1.2434896 0.77121723 4.1772859e-05 0
-1.23444 0.76560456 0.033856146 0
-1.2424517 0.7705735 0.068146966 0
-1.2392347 0.76857829 0.10202722 0
-1.2322007 0.76421583 0.13542201 0
-1.2537751 0.77759629 0.17251244 0
-1.2561535 0.77907139 0.20781483 0
-1.2327522 0.76455784 0.23849237 0
-1.2404047 0.76930392 0.2750034 0
-0.73579186 0.43102345 -0.31039986 0
-0.80590636 0.47209617 -0.31556165 0
-0.87393659 0.51194799 -0.3161352 0
-0.93937284 0.55028021 -0.31219408 0
-1.0146486 0.59437639 -0.3077825 0
-1.1225371 0.65757698 -0.3083455 0
-1.1915905 0.69802815 -0.29354581 0
-1.1864247 0.69500202 -0.25898305 0
-1.1971409 0.70127958 -0.22802466 0
-1.1938956 0.69937843 -0.19445229 0
-1.1914462 0.69794357 -0.16138121 0
-1.1958805 0.70054126 -0.12936608 0
-4.4626832 2.614219 -0.36157224 0
-1.2485309 0.7313835 -0.067363657 0
-1.253014 0.73400968 -0.033763733 0
-1.2420635 0.72759497 4.1094965e-05 0
-1.2476568 0.7308715 0.033701982 0
-1.2427783 0.72801375 0.067135699 0
-1.2409866 0.72696412 0.10062882 0
-1.2460405 0.72992468 0.13487537 0
-1.2446269 0.72909665 0.16866803 0
-1.2460207 0.72991306 0.20302609 0
-1.2410609 0.72700763 0.23647462 0
-1.244746 0.72916639 0.27179921 0
-0.74333411 0.41060981 -0.30911133 0
-0.80957049 0.44719806 -0.31247738 0
-0.86897749 0.48001385 -0.30986017 0
-0.95112157 0.52538937 -0.31159246 0
-1.0435967 0.57647169 -0.31205079 0
-1.1487881 0.63457823 -0.31105781 0
-1.2705587 0.70184302 -0.30853745 0
-1.4402348 0.79557025 -0.30990508 0
-1.6549921 0.91419995 -0.31073973 0
-1.9378438 1.0704441 -0.31112131 0
-2.7161198 1.5003554 -0.3626534 0
-3.3840473 1.8693116 -0.36085552 0
-4.5469484 2.5116856 -0.36314771 0
-1.2546456 0.69305277 -0.066728547 0
-1.2307385 0.67984676 -0.03269073 0
-1.2380201 0.683869 4.0377257e-05 0
-1.2413057 0.68568397 0.033052426 0
-1.2450525 0.68775368 0.066299729 0
-1.2496531 0.69029498 0.099887021 0
-1.2496549 0.69029599 0.1333383 0
-1.2447661 0.68759543 0.16628215 0
-1.2455121 0.68800753 0.20005015 0
-1.2408659 0.68544108 0.23306692 0
-1.238995 0.68440753 0.26668665 0
-0.76673168 0.39862528 -0.31455711 0
-0.82586974 0.42937127 -0.31448561 0
-0.87087607 0.45277014 -0.3063648 0
-0.96959513 0.50409436 -0.31337664 0
-1.0550915 0.54854411 -0.31124899 0
-1.1642208 0.60528064 -0.31100103 0
-1.2986715 0.67518181 -0.31112704 0
-1.4552768 0.75660121 -0.30893442 0
-1.6860578 0.87658471 -0.3123191 0
-1.9638041 1.0209855 -0.31105304 0
-2.7625785 1.4362699 -0.36390057 0
-3.444561 1.790834 -0.3623732 0
-1.2508004 0.65029353 -0.098554529 0
-1.2486917 0.64919722 -0.065519586 0
-1.2370048 0.64312118 -0.032415707 0
-1.2553499 0.65265882 4.0392355e-05 0
-1.250268 0.65001678 0.032843769 0
-1.2310605 0.64003074 0.064673863 0
-1.2478402 0.64875448 0.098401971 0
-1.247741 0.64870292 0.1313453 0
-1.2272295 0.63803893 0.16173683 0
-1.2419789 0.64570725 0.19680239 0
-1.2357577 0.6424728 0.22898884 0
-1.2456367 0.64760894 0.26451385 0
-0.77282304 0.37733558 -0.31304935 0
-0.82119429 0.40095311 -0.3087534 0
-0.90282518 0.44080991 -0.31359041 0
-0.97425318 0.47568506 -0.3109028 0
-1.0687715 0.52183425 -0.31130013 0
-1.185023 0.57859468 -0.31255743 0
-1.3209332 0.64495373 -0.31246108 0
-1.4851327 0.72512513 -0.31128815 0
-1.7085094 0.83419019 -0.31247845 0
-1.9896493 0.97145844 -0.31116405 0
-2.7908912 1.3626697 -0.36298415 0
-3.4817123 1.6999674 -0.3616527 0
-1.245977 0.60835594 -0.096933797 0
-1.2288582 0.59999752 -0.063664056 0
-1.2406712 0.60576528 -0.032100916 0
-1.2316647 0.60136783 3.9129427e-05 0
-1.2519847 0.61128914 0.032473233 0
-1.2542162 0.61237872 0.065057658 0
-1.2381127 0.60451609 0.096401028 0
-1.2425141 0.60666513 0.12914217 0
-1.2367148 0.60383356 0.16092716 0
-1.2374197 0.60417771 0.19360198 0
-1.2468182 0.60876662 0.22811863 0
-0.78323877 0.35823834 -0.31350613 0
-0.82574236 0.37767866 -0.30678174 0
-0.90671003 0.41471171 -0.31120509 0
-0.98739421 0.4516151 -0.31135979 0
-1.0785286 0.49329826 -0.31041685 0
-1.1909146 0.54470146 -0.31038651 0
-1.3393048 0.61257225 -0.31304991 0
-1.5006725 0.68637872 -0.31081527 0
-1.7314651 0.79193884 -0.31292164 0
-2.3344047 1.0677118 -0.36075154 0
-2.7973723 1.2794642 -0.35951263 0
-1.2338638 0.5643456 -0.12664416 0
-1.250494 0.57195193 -0.096131548 0
-1.2467983 0.57026154 -0.0638275 0
-1.2584112 0.57557303 -0.032173805 0
-1.2427124 0.56839269 3.901223e-05 0
-1.246172 0.56997508 0.031939168 0
-1.2427158 0.5683943 0.063696705 0
-1.2522162 0.5727396 0.096342944 0
-1.241585 0.56787705 0.1275153 0
-1.2368823 0.56572622 0.15904035 0
-1.2468355 0.57027858 0.19276185 0
-1.2333397 0.56410587 0.2229767 0
-0.78865474 0.33692127 -0.31217086 0
-0.84148294 0.35949001 -0.30916041 0
-0.90805233 0.38792911 -0.30820712 0
-0.99389267 0.42460099 -0.30993101 0
-1.1057749 0.47239816 -0.31472689 0
-1.1945339 0.51031697 -0.30787489 0
-1.3489271 0.57627529 -0.31180009 0
-1.5113212 0.6456517 -0.30954713 0
-1.7561303 0.75023663 -0.31385726 0
-2.3759737 1.0150399 -0.36310083 0
-2.8401396 1.2133363 -0.3609584 0
-1.2410003 0.53016782 -0.12596312 0
-1.247444 0.53292066 -0.094832882 0
-1.2499961 0.53401095 -0.063281082 0
-1.2220818 0.52208567 -0.030898236 0
-1.2525795 0.53511459 3.8885617e-05 0
-1.2395377 0.52954298 0.03141658 0
-1.2327809 0.52665645 0.062486272 0
-1.2354778 0.52780861 0.094000272 0
-1.2378405 0.52881795 0.12571992 0
-1.2470937 0.53277099 0.15857384 0
-1.2360356 0.52804685 0.18897156 0
-1.2417121 0.53047198 0.22199912 0
-0.79587126 0.31650457 -0.31176609 0
-0.83344549 0.33144721 -0.30303749 0
-0.93333083 0.37116992 -0.31350759 0
-1.0060883 0.40010431 -0.31048614 0
-1.0995294 0.43726429 -0.30970955 0
-1.2295675 0.48897824 -0.31362364 0
-1.3624229 0.5418126 -0.31165946 0
-1.531327 0.60898292 -0.31039777 0
-1.7485583 0.6953721 -0.30926883 0
-2.3847046 0.94835681 -0.36066237 0
-1.2405626 0.49335077 -0.1560331 0
-1.2622734 0.50198483 -0.12679601 0
-1.259086 0.50071722 -0.094727024 0
-1.2419519 0.49390331 -0.062222954 0
-1.2489915 0.49670282 -0.031251691 0
-1.2376863 0.49220693 3.8025497e-05 0
-1.2476393 0.49616507 0.031294562 0
-1.2377088 0.4922159 0.06208659 0
-1.2646009 0.50291044 0.095220022 0
-1.2443439 0.49485457 0.12507211 0
-1.2457634 0.49541909 0.15676484 0
-1.2466838 0.49578512 0.18862638 0
-0.81988513 0.30232689 -0.31808266 0
-0.86954337 0.320638 -0.31312037 0
-0.94408834 0.34812596 -0.31406969 0
-1.0195158 0.37593928 -0.31160256 0
-1.1199065 0.4129577 -0.31241402 0
-1.2277652 0.45272982 -0.31015062 0
-1.3555638 0.49985465 -0.3071067 0
-1.545753 0.56998557 -0.31030709 0
-1.7770003 0.65525639 -0.31127518 0
-2.4119272 0.88938123 -0.36126953 0
-1.2405199 0.45743299 -0.15452641 0
-1.2638676 0.46604231 -0.12573457 0
-1.2396562 0.45711455 -0.092367828 0
-1.2414805 0.45778725 -0.061600853 0
-1.2392046 0.45694801 -0.030708458 0
-1.2310526 0.45394206 3.7457768e-05 0
-1.2438691 0.45866799 0.030899784 0
-1.2364496 0.45593214 0.061426632 0
-1.2370921 0.45616907 0.092252426 0
-1.2262138 0.45215774 0.12206388 0
-1.2449346 0.45906088 0.15515313 0
-1.2339566 0.45501283 0.18490426 0
-0.80653131 0.27449208 -0.3101154 0
-0.88894534 0.3025406 -0.3172563 0
-0.94656402 0.32215035 -0.31208903 0
-1.0353627 0.35237181 -0.31362796 0
-1.1171482 0.38020638 -0.30886921 0
-1.251546 0.42594686 -0.31334248 0
-1.3867338 0.47195622 -0.31137055 0
-1.576725 0.53661716 -0.31370589 0
-1.7929289 0.61019927 -0.31126851 0
-1.2487388 0.42499149 -0.18537617 0
-1.2475731 0.42459476 -0.15402108 0
-1.2455592 0.42390937 -0.12280969 0
-1.2407442 0.42227063 -0.091625601 0
-1.2347342 0.42022517 -0.060720507 0
-1.2542284 0.4268598 -0.030803975 0
-1.2270672 0.41761586 3.7004007e-05 0
-1.2422978 0.42279935 0.030585922 0
-1.2322443 0.41937777 0.060672544 0
-1.2572923 0.42790252 0.092923827 0
-1.2342001 0.42004341 0.12176477 0
-1.2461187 0.42409974 0.1539177 0
-0.82437569 0.25754651 -0.31437719 0
-0.89516151 0.279661 -0.31685483 0
-0.95659792 0.29885456 -0.31281075 0
-1.0291357 0.32151639 -0.30918512 0
-1.1345471 0.35444838 -0.31110722 0
-1.255023 0.39208674 -0.31163618 0
-1.3944678 0.43565127 -0.31053936 0
-1.5748062 0.49199149 -0.3107546 0
-1.8146145 0.56691098 -0.31244975 0
-1.2512977 0.3909229 -0.18423267 0
-1.2535403 0.39162353 -0.15348861 0
-1.2414167 0.38783595 -0.12139744 0
-1.2349716 0.38582242 -0.090451397 0
-1.2327633 0.38513249 -0.060126416 0
-1.2580858 0.39304361 -0.030645316 0
-1.238013 0.38677257 3.7027919e-05 0
-1.2398045 0.38733229 0.030274212 0
-1.2461512 0.38931507 0.0608541 0
-1.2499225 0.3904933 0.091621563 0
-1.2494441 0.39034382 0.12225782 0
-1.2447765 0.38888559 0.15249102 0
-0.82485867 0.23502558 -0.31219983 0
-0.89354688 0.2545968 -0.31390885 0
-0.95944327 0.27337256 -0.31138581 0
-1.0522959 0.29982889 -0.31376979 0
-1.1437049 0.32587388 -0.31126395 0
-1.2507569 0.35637602 -0.30824521 0
-1.4173265 0.40383643 -0.31326029 0
-1.5904249 0.4531571 -0.31148052 0
-1.8340042 0.5225597 -0.31341764 0
-1.2476287 0.35548475 -0.18231343 0
-1.2354422 0.35201246 -0.15013695 0
-1.224999 0.3490369 -0.11889263 0
-1.23185 0.35098895 -0.089545429 0
-1.2400768 0.35333297 -0.060029056 0
-1.2354132 0.3520042 -0.029867122 0
-1.2356356 0.35206756 3.6679365e-05 0
-1.2290949 0.35020393 0.02978738 0
-1.2420896 0.35390651 0.060200397 0
-1.2523481 0.35682943 0.091110185 0
-1.2431898 0.35421997 0.1207326 0
-1.2409317 0.3535766 0.15087876 0
-0.83025235 0.21406823 -0.31209698 0
-0.88235837 0.22750299 -0.30786303 0
-0.96650374 0.24919862 -0.31153682 0
-1.0465193 0.26982942 -0.30991796 0
-1.1451383 0.29525688 -0.3095274 0
-1.2671074 0.3267048 -0.31014389 0
-1.4121021 0.36408952 -0.30997583 0
-1.6034722 0.41343147 -0.31189287 0
-1.2359831 0.31867987 -0.20977898 0
-1.2564756 0.32396355 -0.18235332 0
-1.241963 0.32022172 -0.14989948 0
-1.2293249 0.31696314 -0.11849833 0
-1.2334027 0.31801456 -0.089046493 0
-1.2308955 0.31736809 -0.059178021 0
-1.2354705 0.3185477 -0.02966469 0
-1.2451388 0.32104051 3.6709247e-05 0
-1.2481967 0.32182896 0.030043896 0
-1.2344532 0.31828538 0.059422009 0
-1.2421731 0.32027587 0.089753278 0
-1.2426618 0.32040188 0.11985783 0
-0.8350507 0.19297378 -0.3119705 0
-0.8981238 0.20754948 -0.31143686 0
-0.95788151 0.22135903 -0.30685902 0
-1.0618024 0.24537434 -0.31251043 0
-1.1590484 0.26784715 -0.31136087 0
-1.2906078 0.29824951 -0.31395352 0
-1.4220756 0.32863072 -0.31024566 0
-1.6028657 0.37040988 -0.30985779 0
-1.2539002 0.28976664 -0.21151133 0
-1.2403835 0.28664306 -0.17891091 0
-1.2415603 0.28691503 -0.14892945 0
-1.2447577 0.28765389 -0.11924814 0
-1.2437968 0.28743187 -0.089244738 0
-1.2308136 0.28443155 -0.058810223 0
-1.2509412 0.28908285 -0.029851459 0
-1.245301 0.28777945 3.6488273e-05 0
-1.2365464 0.28575632 0.029580457 0
-1.2545961 0.28992748 0.060020264 0
-1.2400122 0.28655723 0.089046195 0
-1.2534604 0.28966501 0.12015595 0
-0.83985394 0.17188416 -0.31204489 0
-0.90161854 0.18452488 -0.31093475 0
-0.9800337 0.2005733 -0.31223437 0
-1.0521667 0.21533601 -0.30797678 0
-1.1734598 0.24015981 -0.31350413 0
-1.2832963 0.2626389 -0.31046355 0
-1.4309305 0.29285362 -0.31046608 0
-1.2487031 0.25555906 -0.24006955 0
-1.2449985 0.25480086 -0.20885846 0
-1.2470543 0.25522161 -0.17888702 0
-1.2476406 0.25534162 -0.14883834 0
-1.2405729 0.25389513 -0.11819571 0
-1.2482605 0.25546849 -0.089074008 0
-1.227465 0.25121248 -0.058328692 0
-1.2360375 0.25296691 -0.029334111 0
-1.2340955 0.25256947 3.5961712e-05 0
-1.2417136 0.25412861 0.029541228 0
-1.2482628 0.25546896 0.059389904 0
-1.244283 0.25465444 0.088863052 0
-1.2334146 0.25243014 0.11758621 0
-0.83346444 0.14877219 -0.30817762 0
-0.90838826 0.16214599 -0.31175876 0
-0.98856962 0.17645825 -0.31343517 0
-1.070583 0.19109751 -0.31185627 0
-1.1641877 0.20780581 -0.30952716 0
-1.2877283 0.22985765 -0.31003353 0
-1.4427332 0.2575258 -0.31151745 0
-1.2523798 0.22354798 -0.23961537 0
-1.2432398 0.22191651 -0.20755774 0
-1.2367973 0.22076654 -0.17656019 0
-1.2495477 0.22304247 -0.14834705 0
-1.2453498 0.22229314 -0.11807869 0
-1.240517 0.2214305 -0.088094592 0
-1.237227 0.22084324 -0.058509078 0
-1.2435548 0.22197275 -0.029370205 0
-1.2380201 0.2209848 3.5902114e-05 0
-1.2515638 0.22340232 0.029631989 0
-1.2474022 0.22265948 0.059062771 0
-1.2395345 0.22125512 0.088097058 0
-0.84496933 0.12891883 -0.31112945 0
-0.90851146 0.13861358 -0.31050149 0
-0.98738086 0.15064685 -0.31175345 0
-1.088135 0.16601914 -0.31564802 0
-1.184745 0.18075913 -0.31367993 0
-1.3064265 0.19932435 -0.31322435 0
-1.2485752 0.19049786 -0.26847091 0
-1.2548263 0.19145159 -0.23908281 0
-1.2440639 0.18980955 -0.20682965 0
-1.2437594 0.1897631 -0.17681403 0
-1.2384529 0.18895346 -0.14641707 0
-1.2564238 0.19169533 -0.11863215 0
-1.2384176 0.18894808 -0.087578952 0
-1.2241296 0.18676813 -0.057648413 0
-1.2478125 0.19038148 -0.029347932 0
-1.2671218 0.19332755 3.6592897e-05 0
-1.2466408 0.19020273 0.029392418 0
-1.2337625 0.18823785 0.058173474 0
-1.2257624 0.18701725 0.086755134 0
-0.83998621 0.10654783 -0.30820626 0
-0.90667516 0.11500696 -0.3087835 0
-0.9929716 0.12595321 -0.31241548 0
-1.084057 0.13750692 -0.31335855 0
-1.1829091 0.15004578 -0.31209183 0
-1.2890532 0.16350961 -0.30797148 0
-1.2595568 0.15976813 -0.26987916 0
-1.2399234 0.15727773 -0.23541208 0
-1.253014 0.15893821 -0.20758463 0
-1.2400424 0.15729284 -0.17566532 0
-1.2328733 0.15638348 -0.14524452 0
-1.2312108 0.1561726 -0.11584248 0
-1.2396336 0.15724099 -0.087356471 0
-1.2421074 0.15755478 -0.058289222 0
