# .PCD v0.7 - Point Cloud Data file format
VERSION 0.7
FIELDS x y z intensity
SIZE 4 4 4 4
TYPE F F F F
COUNT 1 1 1 1
WIDTH 1360
HEIGHT 1
VIEWPOINT 0 0 0 1 0 0 0
POINTS 1360
DATA ascii
0.93375117 -2.5823348 -0.1919691 0
1.4002378 -3.8724265 -0.19170319 0
3.5321782 -9.7684116 -0.24151178 0
0.330634 -0.8469246 -0.19325617 0
0.3698751 -0.94744134 -0.19156811 0
0.42421025 -1.0866218 -0.19171436 0
0.4938527 -1.265012 -0.19084515 0
0.59913832 -1.5347029 -0.1925496 0
0.74850273 -1.9173024 -0.19211577 0
1.0007993 -2.5635643 -0.1923902 0
1.4954488 -3.8306172 -0.19144095 0
3.7831433 -9.6905851 -0.24187128 0
0.34866413 -0.83061004 -0.19148046 0
0.39548934 -0.94216001 -0.19245723 0
0.4516167 -1.0758703 -0.19176744 0
0.52253103 -1.2448069 -0.18972611 0
0.63057762 -1.5022025 -0.19040811 0
0.79294139 -1.8889959 -0.19122384 0
1.0622345 -2.5305233 -0.19186147 0
1.5915104 -3.7913983 -0.19142742 0
4.0265307 -9.5922594 -0.24187662 0
0.36865664 -0.81965065 -0.19103812 0
0.41726425 -0.92772216 -0.19159821 0
0.47736138 -1.0613388 -0.19126387 0
0.55474734 -1.2333944 -0.19006015 0
0.66797405 -1.4851363 -0.19032124 0
0.84516716 -1.8790976 -0.19231996 0
1.1282567 -2.508503 -0.1922897 0
1.6922053 -3.7623551 -0.19205628 0
4.268971 -9.4913931 -0.24197298 0
0.38636217 -0.80414039 -0.1896355 0
0.43787727 -0.91135943 -0.19044068 0
0.50396478 -1.0489081 -0.19125503 0
0.58518153 -1.2179457 -0.18989499 0
0.70661736 -1.4706916 -0.19069488 0
0.88934052 -1.8509954 -0.19168004 0
1.1902916 -2.4773688 -0.19214477 0
1.7848473 -3.7148247 -0.19186845 0
4.5061131 -9.3786287 -0.24192058 0
0.40889961 -0.7987681 -0.19074161 0
0.46471328 -0.90779775 -0.19208616 0
0.53726 -1.0495147 -0.19377641 0
0.610973 -1.1935099 -0.18842937 0
0.74240792 -1.4502625 -0.19041495 0
0.93956709 -1.8354046 -0.19245993 0
1.2486285 -2.4391429 -0.1915632 0
1.8795967 -3.6717129 -0.1920308 0
4.7334766 -9.2466469 -0.24152085 0
0.42859435 -0.78759271 -0.1905954 0
0.48249438 -0.88664037 -0.19012555 0
0.55777925 -1.0249852 -0.19178559 0
0.65027916 -1.1949648 -0.19118932 0
0.77816665 -1.4299731 -0.19026911 0
0.97972405 -1.8003587 -0.19131698 0
1.3119597 -2.410881 -0.19188304 0
1.9692643 -3.6187556 -0.19179949 0
4.972908 -9.1383057 -0.24189231 0
0.44231912 -0.76611763 -0.18804018 0
0.51182091 -0.88649803 -0.19280365 0
0.58417886 -1.0118254 -0.19202088 0
0.67752028 -1.1734972 -0.19042988 0
0.81295484 -1.4080762 -0.19002515 0
1.0277092 -1.7800411 -0.19185318 0
1.3729891 -2.3780818 -0.19196945 0
2.6011417 -4.5053005 -0.24219014 0
5.1958342 -8.9994307 -0.24161056 0
0.47618052 -0.77870756 -0.19401838 0
0.52310401 -0.85544246 -0.18886068 0
0.61168623 -1.0003027 -0.19270262 0
0.70822763 -1.1581788 -0.19078401 0
0.85779333 -1.4027666 -0.19216911 0
1.0704278 -1.7504919 -0.19151922 0
1.4279127 -2.3350942 -0.19134761 0
2.7085721 -4.4293818 -0.24170694 0
5.4252639 -8.8720427 -0.2417897 0
0.48783261 -0.75431645 -0.19094811 0
0.5524404 -0.85421693 -0.19160739 0
0.63756686 -0.98584467 -0.19295585 0
0.74079281 -1.1454589 -0.19170752 0
0.88607597 -1.3701046 -0.1906976 0
1.115366 -1.7246468 -0.19171043 0
1.4941316 -2.310317 -0.19234617 0
2.8203101 -4.3609352 -0.24177918 0
5.6461682 -8.7304487 -0.2417375 0
0.50309026 -0.73646969 -0.18958426 0
0.57574284 -0.84282517 -0.19225037 0
0.65484583 -0.95862341 -0.19080207 0
0.7633934 -1.1175253 -0.19019654 0
0.91709369 -1.342526 -0.1900202 0
1.1612406 -1.6999305 -0.19215971 0
1.5503428 -2.2695341 -0.19214728 0
2.9304769 -4.2899013 -0.24186452 0
5.8674946 -8.5893774 -0.24185482 0
0.52961904 -0.73478949 -0.19253141 0
0.58998352 -0.81853878 -0.19004664 0
0.68452734 -0.94970816 -0.19240506 0
0.80444849 -1.1160859 -0.19334552 0
0.94863403 -1.3161279 -0.18961227 0
1.2017184 -1.6672553 -0.19183354 0
1.6061251 -2.2283261 -0.19202931 0
3.0351255 -4.2109108 -0.241653 0
6.0825281 -8.4388542 -0.2418621 0
0.55212986 -0.7266413 -0.19398597 0
0.61048323 -0.80343837 -0.19005752 0
0.70900118 -0.93309486 -0.19260329 0
0.82700145 -1.0883914 -0.19210257 0
0.98640114 -1.2981725 -0.19055149 0
1.2343698 -1.6245165 -0.19043998 0
1.6605964 -2.1854603 -0.19188599 0
3.1396532 -4.1320019 -0.24159516 0
6.2859287 -8.2727194 -0.24157067 0
0.55864376 -0.69793171 -0.19002514 0
0.63034046 -0.78750467 -0.18999122 0
0.72785115 -0.90932792 -0.19142838 0
0.85860616 -1.0726844 -0.19309363 0
1.0168625 -1.2703991 -0.19018139 0
1.2865156 -1.6072855 -0.19216529 0
1.7180516 -2.1464174 -0.192204 0
3.2456446 -4.0548887 -0.24179903 0
6.4958768 -8.115509 -0.24169049 0
0.58405495 -0.69308347 -0.19265728 0
0.65489072 -0.77714258 -0.19141802 0
0.75783783 -0.89930737 -0.1932839 0
0.87278903 -1.0357171 -0.19034384 0
1.0507275 -1.2468723 -0.19056867 0
1.3245686 -1.5718327 -0.19186242 0
1.7662939 -2.0960171 -0.19162175 0
3.3436532 -3.9678302 -0.24156299 0
6.6966877 -7.9467931 -0.24162254 0
0.60165924 -0.67846835 -0.19275437 0
0.67422742 -0.7603007 -0.19140017 0
0.77255261 -0.87117833 -0.19136803 0
0.91076505 -1.0270352 -0.19291137 0
1.0817753 -1.219877 -0.19055502 0
1.3614588 -1.5352654 -0.19153224 0
1.8095701 -2.0405836 -0.1906686 0
3.4491475 -3.8894727 -0.24201533 0
6.9010463 -7.7820482 -0.24183227 0
0.61480927 -0.6590234 -0.19157748 0
0.69102502 -0.74072027 -0.19080077 0
0.79557949 -0.85279381 -0.19167934 0
0.93317193 -1.0002812 -0.19224876 0
1.1100219 -1.1898495 -0.19018021 0
1.3970861 -1.497558 -0.19116616 0
1.86216 -1.9960777 -0.19084077 0
3.5369329 -3.7912922 -0.24138393 0
7.0967407 -7.6071043 -0.24188484 0
0.63170964 -0.64377862 -0.19171961 0
0.72099513 -0.73476994 -0.19389366 0
0.82898551 -0.84482354 -0.19452868 0
0.95969397 -0.97802913 -0.19256601 0
1.145259 -1.1671394 -0.19110957 0
1.4397094 -1.4672154 -0.19187024 0
1.9115503 -1.9480709 -0.19080286 0
3.6293898 -3.6987302 -0.241246 0
7.2854877 -7.4246788 -0.24185403 0
0.64761895 -0.62750638 -0.19168031 0
0.72412866 -0.70164001 -0.18991357 0
0.83599156 -0.81002885 -0.19131434 0
0.97861266 -0.94822073 -0.19149905 0
1.1715796 -1.1351948 -0.19065994 0
1.4717557 -1.4260486 -0.19128348 0
1.9656465 -1.9046011 -0.19134341 0
3.7190652 -3.6035655 -0.24108447 0
7.4674401 -7.2355304 -0.24175496 0
0.65971673 -0.60771602 -0.19066052 0
0.75583929 -0.696262 -0.19355974 0
0.86119735 -0.79331541 -0.19243924 0
1.0039341 -0.92480123 -0.19182549 0
1.2078427 -1.1126373 -0.19193022 0
1.5075003 -1.388675 -0.19131298 0
2.5517318 -2.3505974 -0.24254285 0
3.8157179 -3.5149527 -0.24152219 0
7.6448898 -7.0422988 -0.24166858 0
0.67542613 -0.59139049 -0.19082612 0
0.76713711 -0.67169094 -0.19205041 0
0.88191903 -0.77219182 -0.19265325 0
1.0341578 -0.90548927 -0.1931722 0
1.2237889 -1.0715266 -0.19010615 0
1.5354652 -1.3444247 -0.19049506 0
2.608156 -2.2836528 -0.24235037 0
3.9024992 -3.4169555 -0.24147952 0
7.8140311 -6.8418198 -0.2414798 0
0.69898313 -0.58152395 -0.19327338 0
0.77732474 -0.6467008 -0.19045402 0
0.89052844 -0.74088144 -0.19038856 0
1.0487907 -0.87254882 -0.19173087 0
1.2470559 -1.0374969 -0.18959244 0
1.5639393 -1.3011303 -0.18989304 0
2.6572008 -2.2106771 -0.24164616 0
3.9818273 -3.3127093 -0.2411378 0
7.9904413 -6.6477041 -0.24166949 0
0.70900214 -0.56020182 -0.19207305 0
0.79573798 -0.62873417 -0.19101664 0
0.92592782 -0.7316007 -0.19394727 0
1.0670303 -0.84308964 -0.19111443 0
1.2772843 -1.0092169 -0.19025502 0
1.6015371 -1.2654179 -0.19051959 0
2.7112291 -2.1422157 -0.24156566 0
4.0750871 -3.2198367 -0.24178715 0
8.1604891 -6.447824 -0.2418136 0
0.71487826 -0.53611076 -0.18993883 0
0.8082698 -0.60614812 -0.19029188 0
0.93773365 -0.70323735 -0.19264103 0
1.092291 -0.81914496 -0.19187476 0
1.3109071 -0.98309243 -0.19150639 0
1.6250391 -1.2186704 -0.18959603 0
2.7569568 -2.0675328 -0.24091384 0
4.1480255 -3.1107409 -0.24137959 0
8.3257751 -6.2437735 -0.24196471 0
0.73229361 -0.52083069 -0.19101253 0
0.82842875 -0.58920509 -0.19147587 0
0.94842798 -0.67455238 -0.19127959 0
1.1088289 -0.7886346 -0.1912225 0
1.3249891 -0.94237465 -0.19002844 0
1.6661429 -1.1850142 -0.19084142 0
2.8177829 -2.0040975 -0.24173208 0
4.2298689 -3.0084181 -0.24164677 0
8.4691181 -6.0235081 -0.24163535 0
0.75478345 -0.50864559 -0.1934686 0
0.84708798 -0.57084924 -0.19239727 0
0.96072042 -0.64742571 -0.19040257 0
1.1271945 -0.75961196 -0.19102263 0
1.344141 -0.90581131 -0.18943605 0
1.7040473 -1.1483507 -0.19180217 0
2.8674128 -1.9323381 -0.24172884 0
4.3041573 -2.9005547 -0.24163161 0
8.6192331 -5.8084674 -0.2416587 0
0.76184976 -0.48591456 -0.19207515 0
0.85480005 -0.54519904 -0.19096273 0
0.99638569 -0.63550365 -0.19423029 0
1.152704 -0.73520482 -0.19213985 0
1.3679218 -0.87247276 -0.18962379 0
1.7395003 -1.1094687 -0.19257951 0
2.9142725 -1.858749 -0.24164741 0
4.3880763 -2.798754 -0.24230003 0
8.7632294 -5.5892653 -0.24166384 0
0.77008921 -0.46425995 -0.1911374 0
0.87187219 -0.52562135 -0.19175194 0
1.0005704 -0.60320908 -0.19201714 0
1.1611143 -0.6999954 -0.1905362 0
1.4008985 -0.84455281 -0.19117935 0
1.7615906 -1.0620016 -0.19199654 0
2.9606059 -1.7848462 -0.24167705 0
4.4430256 -2.6785455 -0.24152437 0
8.9058905 -5.369051 -0.24178407 0
0.78903008 -0.44893354 -0.19296482 0
0.89203936 -0.50754261 -0.19330847 0
1.010505 -0.57494593 -0.19107802 0
1.1879425 -0.67590237 -0.19207811 0
1.4197942 -0.80781871 -0.19091485 0
1.7878187 -1.0172132 -0.19199586 0
3.005321 -1.7099341 -0.24172723 0
4.5136466 -2.5681245 -0.24176289 0
9.0344524 -5.1403227 -0.24167523 0
0.78778648 -0.42227903 -0.18999369 0
0.89611214 -0.4803451 -0.19150288 0
1.0341058 -0.55431414 -0.19283387 0
1.2052923 -0.64607567 -0.19218564 0
1.4486394 -0.77651751 -0.19209704 0
1.8087181 -0.96953136 -0.1915514 0
3.034826 -1.6267648 -0.24072134 0
4.5768204 -2.4533238 -0.24175309 0
9.1573515 -4.9086366 -0.24157181 0
0.80462521 -0.40551105 -0.19152543 0
0.91627306 -0.46177876 -0.19325912 0
1.0428145 -0.52555251 -0.19192322 0
1.2176397 -0.61366004 -0.19162381 0
1.4527858 -0.73216784 -0.19013588 0
1.8359075 -0.9252516 -0.19189663 0
3.0904555 -1.5575125 -0.24193875 0
4.6401706 -2.3385303 -0.24190468 0
9.2886238 -4.6812348 -0.24184094 0
0.814201 -0.38489163 -0.19143149 0
0.92241752 -0.43604806 -0.19217265 0
1.064585 -0.50325394 -0.19353066 0
1.2289901 -0.58097202 -0.19104163 0
1.4761358 -0.6978035 -0.19082612 0
1.8578049 -0.87822729 -0.19180752 0
3.1274402 -1.4784132 -0.24183598 0
4.6924281 -2.218219 -0.24163336 0
9.3943748 -4.440938 -0.24159911 0
0.81957877 -0.36242434 -0.19048458 0
0.94305724 -0.41702753 -0.19421798 0
1.0745125 -0.47515813 -0.19309378 0
1.2551154 -0.55502218 -0.19286376 0
1.4970188 -0.6619938 -0.19130489 0
1.8802851 -0.83147728 -0.19190072 0
3.1575301 -1.3962853 -0.24136081 0
4.744247 -2.0979443 -0.2414982 0
9.5095844 -4.2052155 -0.2417555 0
0.82965189 -0.3421208 -0.19075812 0
0.94881666 -0.39126039 -0.19330885 0
1.0761069 -0.44375065 -0.19130673 0
1.2592022 -0.51925308 -0.19141699 0
1.5172728 -0.62567282 -0.19181411 0
1.9000485 -0.78351671 -0.19183843 0
3.2010367 -1.3200009 -0.24206273 0
4.8009582 -1.9797552 -0.2417645 0
9.6110878 -3.9632926 -0.24171598 0
0.84761381 -0.3247548 -0.19294201 0
0.94624716 -0.36254519 -0.1908603 0
1.0780898 -0.41305938 -0.18974544 0
1.2730343 -0.48775044 -0.1915873 0
1.5238252 -0.58383846 -0.19071884 0
1.9183418 -0.73499358 -0.19175139 0
3.2240968 -1.2352806 -0.24137203 0
4.8570857 -1.860944 -0.24214862 0
9.7022676 -3.7173276 -0.24157262 0
0.85252374 -0.30219689 -0.19226226 0
0.9590053 -0.33994174 -0.19164206 0
1.0941318 -0.38784051 -0.19078529 0
1.2804784 -0.45389533 -0.19092272 0
1.542791 -0.54687816 -0.19130415 0
1.9306574 -0.68436641 -0.191195 0
3.2556167 -1.154029 -0.24147432 0
4.9040947 -1.7383705 -0.24222775 0
9.8026447 -3.4747756 -0.24181125 0
0.85441983 -0.27880988 -0.19104207 0
0.96610993 -0.31525603 -0.19141082 0
1.1042647 -0.36033797 -0.19090554 0
1.2912216 -0.42134482 -0.1908782 0
1.5499425 -0.50576925 -0.19054738 0
1.94601 -0.63501197 -0.19106737 0
3.2892945 -1.0733457 -0.24188592 0
4.9333096 -1.6098123 -0.24158698 0
9.8846893 -3.2255211 -0.24174994 0
0.85833842 -0.25631401 -0.19041115 0
0.97530913 -0.29124337 -0.191716 0
1.113216 -0.33242467 -0.19094177 0
1.2927754 -0.38604403 -0.18960716 0
1.5544108 -0.46417269 -0.18959606 0
1.9639812 -0.58647716 -0.19131759 0
3.3236175 -0.99248695 -0.24249063 0
4.9834857 -1.488151 -0.24212773 0
9.9692707 -2.9769886 -0.2419039 0
0.87002015 -0.23606473 -0.19161984 0
0.99184734 -0.2691204 -0.19357011 0
1.1114093 -0.30156144 -0.18926612 0
1.3119364 -0.35597098 -0.19103891 0
1.55928 -0.42308334 -0.1888274 0
1.9676628 -0.53389084 -0.190303 0
3.3397427 -0.90618074 -0.24192142 0
5.0157471 -1.3609351 -0.24194926 0
10.041424 -2.7245646 -0.24190906 0
0.87054515 -0.21277834 -0.190492 0
0.98982215 -0.24193199 -0.19192207 0
1.1275704 -0.27560037 -0.19077295 0
1.3263175 -0.32417807 -0.19188049 0
1.5693878 -0.38358924 -0.1888189 0
1.982584 -0.48458251 -0.19050257 0
3.3656952 -0.82264209 -0.24222022 0
5.0458512 -1.2333052 -0.24182288 0
10.106002 -2.4701054 -0.24188589 0
0.88204902 -0.19214275 -0.19188701 0
0.98111928 -0.21372391 -0.18912849 0
1.1271881 -0.24554309 -0.18959939 0
1.3213439 -0.28783736 -0.19004942 0
1.5986528 -0.34824547 -0.19122151 0
1.9923842 -0.43401465 -0.19033109 0
3.3847742 -0.73732853 -0.24217691 0
5.0802517 -1.1066658 -0.24205585 0
10.146941 -2.2103775 -0.24145359 0
0.88179183 -0.16890256 -0.1908429 0
0.99511194 -0.19060843 -0.19083768 0
1.1414534 -0.21863936 -0.19100986 0
1.326632 -0.25410935 -0.18982711 0
1.6147926 -0.30930498 -0.19215707 0
2.5534999 -0.4891094 -0.24267754 0
3.3935976 -0.65002567 -0.24155743 0
5.1037121 -0.97758907 -0.24192102 0
10.225723 -1.9586833 -0.24207485 0
0.88722605 -0.14684086 -0.19115603 0
1.0114286 -0.16739707 -0.19309509 0
1.1578598 -0.19163226 -0.19288452 0
1.3367192 -0.22123447 -0.19041088 0
1.6157281 -0.26741201 -0.19140431 0
2.5610764 -0.42387244 -0.2423037 0
3.4097648 -0.56433511 -0.24161744 0
5.1131301 -0.84625149 -0.24127817 0
10.268753 -1.6995358 -0.24200097 0
0.88707072 -0.12390877 -0.19038814 0
1.0088794 -0.14092338 -0.19186829 0
1.1481625 -0.16037887 -0.19053409 0
1.3335687 -0.18627699 -0.18923214 0
1.6334417 -0.22816417 -0.19275916 0
2.569128 -0.35886371 -0.24213143 0
3.4276915 -0.47879049 -0.24195439 0
5.1447773 -0.71863836 -0.24183866 0
10.301126 -1.4388928 -0.241831 0
0.88562965 -0.100999 -0.18947141 0
1.0167217 -0.115949 -0.19274181 0
1.1526407 -0.13144946 -0.19066595 0
1.3528082 -0.15427698 -0.19134876 0
1.6386073 -0.18687008 -0.19275077 0
2.5687947 -0.29295054 -0.24132635 0
3.4369903 -0.39196131 -0.24183545 0
5.1579599 -0.58822417 -0.2416835 0
10.319926 -1.1769052 -0.24149814 0
0.89816344 -0.079530701 -0.19166242 0
1.0103325 -0.089463055 -0.19104169 0
1.1186658 -0.099055767 -0.18457361 0
1.1365782 -0.10064188 -0.1603536 0
1.6303035 -0.14436033 -0.19128448 0
2.5909636 -0.229425 -0.24278769 0
3.4502285 -0.3055113 -0.24214725 0
5.167696 -0.45758986 -0.24152163 0
10.348803 -0.91636717 -0.24155574 0
0.89720517 -0.056674615 -0.19109182 0
1.0140002 -0.064052314 -0.19136859 0
1.1357808 -0.071744949 -0.18703915 0
1.1250217 -0.071065322 -0.15841967 0
1.63556 -0.10331498 -0.1915343 0
2.6030192 -0.1644274 -0.24345097 0
3.4567502 -0.21835583 -0.24214108 0
5.1785121 -0.32711601 -0.24156435 0
10.372975 -0.65523964 -0.241657 0
0.90547633 -0.034289092 -0.19260781 0
1.0253828 -0.038829774 -0.19327027 0
1.1231296 -0.042531308 -0.18472017 0
1.1191149 -0.042379279 -0.15738717 0
1.6444004 -0.062271085 -0.19232425 0
2.5867186 -0.097955324 -0.24161825 0
3.4617736 -0.13109241 -0.24218409 0
5.1958637 -0.19675992 -0.24206503 0
10.395658 -0.39366868 -0.24187693 0
0.91275334 -0.011516662 -0.19403212 0
1.0255429 -0.012939783 -0.19317737 0
1.1253747 -0.014199411 -0.18497156 0
1.1439589 -0.014433898 -0.16077867 0
1.1313964 -0.014275391 -0.13224056 0
1.1406469 -0.01439211 -0.10647686 0
1.1367364 -0.014342768 -0.079474919 0
1.1312327 -0.014273325 -0.052668341 0
1.1309184 -0.014269359 -0.02629645 0
1.1303459 -0.014262136 3.2272121e-05 0
1.1311942 -0.014272839 0.026367491 0
1.125798 -0.014204754 0.052479733 0
1.1266781 -0.014215857 0.078836337 0
1.1263915 -0.014212241 0.10521102 0
1.1331583 -0.014297621 0.13251208 0
1.1383206 -0.014362755 0.16005251 0
1.1359173 -0.014332433 0.18677102 0
1.1380441 -0.014359267 0.21443607 0
0.91132158 0.011498597 -0.19372776 0
1.0203981 0.012874871 -0.19220829 0
1.1387196 0.014367791 -0.18716501 0
1.1319592 0.014282491 -0.15909217 0
1.6423026 0.020721748 -0.19195661 0
2.5948138 0.032740053 -0.24222007 0
3.4702015 0.043785255 -0.24261911 0
5.197319 0.065577157 -0.24197866 0
10.394032 0.13114667 -0.24168512 0
0.90814197 0.034390036 -0.19317482 0
1.0160148 0.038475025 -0.19150454 0
1.1339918 0.042942647 -0.18650669 0
1.1380057 0.04309465 -0.1600439 0
1.6367037 0.061979629 -0.19142409 0
2.5910537 0.098119497 -0.2420232 0
3.4622052 0.13110876 -0.24221428 0
5.1905189 0.19655752 -0.24181601 0
10.390808 0.39348504 -0.2417641 0
0.90565431 0.057208329 -0.19289137 0
1.0285506 0.06497144 -0.19411466 0
1.132421 0.071532711 -0.18648586 0
1.1301674 0.071390361 -0.15914425 0
1.6384387 0.10349682 -0.1918714 0
2.5789492 0.16290694 -0.24119978 0
3.4560874 0.21831398 -0.24209467 0
5.1786022 0.3271217 -0.24156855 0
10.382586 0.65584677 -0.24188091 0
0.89955068 0.079653531 -0.19195844 0
1.0067292 0.089143999 -0.19036037 0
1.1648951 0.10314929 -0.19220118 0
1.350773 0.11960842 -0.19057317 0
1.6353595 0.14480804 -0.19187771 0
2.5830688 0.22872593 -0.24204789 0
3.4509857 0.30557835 -0.24220042 0
5.1704345 0.45783234 -0.24164961 0
10.355251 0.91693819 -0.24170625 0
0.90199423 0.10286524 -0.19297245 0
1.0145724 0.11570388 -0.19233434 0
1.164542 0.13280672 -0.19263461 0
1.3469476 0.15360862 -0.19051978 0
1.631566 0.18606709 -0.19192252 0
2.5659719 0.29262862 -0.24106115 0
3.4404745 0.39235866 -0.24208061 0
5.1494532 0.58725405 -0.24128489 0
10.320941 1.1770209 -0.24152189 0
0.88762087 0.12398562 -0.19050622 0
1.0071481 0.14068156 -0.19153903 0
1.1536388 0.16114382 -0.19144286 0
1.3453807 0.18792692 -0.19090825 0
1.6180364 0.2260123 -0.1909412 0
2.5684676 0.35877147 -0.2420692 0
3.4265027 0.47862446 -0.24187048 0
5.1395001 0.71790117 -0.24159059 0
10.304313 1.4393381 -0.24190584 0
0.89517355 0.14815621 -0.19286835 0
0.99853873 0.16526373 -0.19063425 0
1.1522546 0.19070455 -0.19195075 0
1.3391967 0.22164451 -0.19076379 0
1.6220757 0.26846257 -0.19215626 0
2.5642464 0.42439708 -0.24260361 0
3.4162295 0.56540501 -0.24207553 0
5.1286001 0.84881192 -0.24200819 0
10.261488 1.6983335 -0.24182975 0
0.8846184 0.16944396 -0.19145465 0
1.0077647 0.19303198 -0.19326417 0
1.1441108 0.21914838 -0.19145456 0
1.3312768 0.25499904 -0.19049175 0
1.3414423 0.25694618 -0.15962896 0
1.3469398 0.25799918 -0.12800941 0
1.3398309 0.25663751 -0.095369622 0
1.3470078 0.25801221 -0.063849509 0
1.3451077 0.25764826 -0.031842902 0
1.359091 0.26032668 3.9505216e-05 0
0.88358629 0.19247763 -0.19222143 0
0.98516965 0.21460623 -0.18990926 0
1.1318595 0.24656071 -0.19038516 0
1.2093827 0.26344809 -0.17394601 0
1.210196 0.26362526 -0.14475657 0
1.1972854 0.26081288 -0.11437585 0
1.2056861 0.26264283 -0.086265519 0
1.1991932 0.26122844 -0.057137273 0
1.2047175 0.26243186 -0.028667102 0
1.2028039 0.26201499 3.5143388e-05 0
0.87619877 0.2141602 -0.19172914 0
0.97907901 0.23930615 -0.18983902 0
1.1328604 0.27689338 -0.19166797 0
1.2097945 0.29569754 -0.17502292 0
1.2019011 0.29376826 -0.14460519 0
1.1896129 0.29076478 -0.11430755 0
1.2128137 0.29643553 -0.087283015 0
1.2068444 0.2949765 -0.057838131 0
1.208248 0.29531956 -0.028919263 0
1.2060083 0.29477212 3.5443103e-05 0
0.86777663 0.23545599 -0.19112572 0
0.9804306 0.26602268 -0.191342 0
1.1228642 0.30466956 -0.19121683 0
1.2018459 0.32609984 -0.17500795 0
1.1991248 0.32536155 -0.14521293 0
1.2015884 0.32602996 -0.11621192 0
1.2151939 0.3297216 -0.088025175 0
1.1921941 0.32348099 -0.057508975 0
1.1993707 0.32542828 -0.028894177 0
1.201955 0.32612944 3.555456e-05 0
0.85607153 0.25563708 -0.18990827 0
0.9755016 0.29130083 -0.19175383 0
1.1168619 0.33351341 -0.19156712 0
1.2051591 0.35988036 -0.17675677 0
1.2042439 0.35960707 -0.14688517 0
1.2035162 0.35938978 -0.11723831 0
1.2055628 0.36000091 -0.08795768 0
1.2002901 0.35842639 -0.058317311 0
1.2000449 0.35835317 -0.029119035 0
1.2084528 0.36086392 3.6004723e-05 0
0.85207552 0.27804491 -0.19051789 0
0.97123337 0.31692788 -0.19242591 0
1.0984683 0.35844654 -0.18990345 0
1.2084457 0.39433378 -0.17864162 0
1.2154967 0.39663464 -0.14943115 0
1.1992326 0.39132741 -0.11774565 0
1.2036401 0.39276567 -0.088512473 0
1.2098274 0.39478466 -0.05924594 0
1.2085164 0.39435685 -0.029556697 0
1.2119199 0.39546746 3.6393812e-05 0
0.85359478 0.30257651 -0.1925038 0
0.95428103 0.33826712 -0.190698 0
1.1084177 0.39290446 -0.19327633 0
1.2043113 0.42689613 -0.17956601 0
1.2037406 0.42669386 -0.14926231 0
1.2033607 0.42655921 -0.11917006 0
1.2117106 0.429519 -0.089874521 0
1.2121602 0.42967838 -0.059872176 0
1.2109512 0.42924982 -0.029871695 0
1.2048934 0.42710248 3.6494897e-05 0
0.83617556 0.32037237 -0.19033833 0
0.95160723 0.36459887 -0.19194146 0
1.0818325 0.41449338 -0.19040418 0
1.2066901 0.46233132 -0.18160273 0
1.1997422 0.45966926 -0.15015727 0
1.2067274 0.4623456 -0.12062066 0
1.2032295 0.46100545 -0.090079799 0
1.1989499 0.45936576 -0.059773311 0
1.2138653 0.46508044 -0.030223513 0
1.2034888 0.46110478 3.6793132e-05 0
0.8381266 0.34561551 -0.19270667 0
0.9514336 0.39233953 -0.19384201 0
1.0666438 0.43984839 -0.18962441 0
1.2003027 0.49496487 -0.18246341 0
1.2111968 0.49945721 -0.15311986 0
1.2051299 0.49695539 -0.12167595 0
1.1980242 0.49402526 -0.090594716 0
1.1999152 0.49480504 -0.06042479 0
1.2029562 0.49605903 -0.030253986 0
1.2010019 0.49525318 3.7087433e-05 0
0.82619715 0.36535105 -0.1920228 0
0.93137521 0.41186163 -0.19181213 0
1.062539 0.46986333 -0.19094209 0
1.2065153 0.53353083 -0.18539576 0
1.2077298 0.53406787 -0.15433648 0
1.2085348 0.53442389 -0.12334231 0
1.1957575 0.52877361 -0.091403402 0
1.2053102 0.53299791 -0.061354361 0
1.1933097 0.52769119 -0.030336674 0
1.2043825 0.53258771 3.7594953e-05 0
0.8136695 0.38464037 -0.19130653 0
0.92499441 0.43726623 -0.19270951 0
1.0575571 0.49993169 -0.19225307 0
1.2255428 0.57934242 -0.19050576 0
1.4682527 0.69407696 -0.18980703 0
1.8612922 0.87987584 -0.19216758 0
3.1272647 1.4783303 -0.24182242 0
4.6959352 2.219877 -0.24181396 0
9.3988075 4.4430337 -0.24171311 0
0.81910044 0.41280621 -0.19497098 0
0.90364945 0.4554168 -0.19059657 0
1.0395344 0.52389944 -0.19131954 0
1.2007639 0.60515511 -0.18896802 0
1.4584658 0.73503041 -0.19087927 0
1.8360289 0.92531282 -0.19190934 0
3.0852039 1.554866 -0.24152763 0
4.6394992 2.338192 -0.24186967 0
9.2947598 4.6843271 -0.24200071 0
0.78543878 0.42102057 -0.1894275 0
0.89344084 0.47891316 -0.19093201 0
1.0312651 0.55279148 -0.19230416 0
1.1991456 0.64278078 -0.19120552 0
1.4495683 0.77701545 -0.19222021 0
1.8020575 0.96596104 -0.19084601 0
3.0530398 1.636528 -0.24216606 0
4.5821757 2.4561942 -0.24203596 0
9.1678667 4.9142728 -0.2418492 0
0.78439879 0.44629851 -0.19183221 0
0.88093048 0.50122201 -0.19090113 0
1.0137876 0.57681364 -0.19169874 0
1.1796243 0.67116952 -0.19073313 0
1.2092916 0.68804926 -0.16260928 0
1.2179345 0.69296682 -0.13079534 0
3.0092623 1.7121767 -0.24204427 0
4.5083609 2.5651171 -0.24147977 0
9.0362606 5.1413512 -0.24172358 0
0.77400953 0.46662337 -0.19211043 0
0.8703565 0.52470762 -0.19141859 0
0.9935962 0.59900451 -0.19067873 0
1.1633105 0.7013194 -0.19089659 0
1.1381738 0.68616533 -0.15532556 0
1.1960236 0.7210409 -0.13035513 0
2.9547105 1.7812921 -0.2411958 0
4.4456611 2.6801343 -0.24166764 0
8.9151859 5.3746548 -0.24203642 0
0.75500375 0.48154813 -0.19034915 0
0.85336393 0.54428309 -0.19064191 0
0.98449016 0.62791657 -0.19191144 0
1.1462455 0.7310856 -0.19106331 0
1.1411452 0.72783256 -0.1581876 0
1.1763859 0.75030935 -0.1302373 0
2.9165888 1.8602263 -0.24183947 0
4.373661 2.7895598 -0.24150404 0
8.776 5.5974107 -0.24201602 0
0.75336713 0.50769114 -0.19310556 0
0.84599131 0.5701102 -0.19214818 0
0.96400785 0.6496411 -0.19105409 0
1.1324115 0.76312762 -0.19190674 0
1.1338905 0.76412439 -0.15980448 0
1.1614293 0.7826826 -0.1307268 0
2.8708928 1.9346833 -0.2420222 0
4.3068514 2.9023702 -0.24178284 0
8.6211176 5.8097372 -0.24171153 0
0.73285711 0.52123147 -0.19115952 0
0.83313698 0.59255373 -0.19256409 0
0.95292628 0.67775172 -0.19218682 0
1.0988445 0.78153348 -0.18950066 0
1.1489741 0.81718719 -0.16478458 0
1.1337203 0.80633813 -0.12985727 0
2.8190958 2.0050313 -0.24184471 0
4.2282195 3.0072451 -0.24155255 0
8.4732609 6.0264544 -0.24175355 0
0.72049648 0.54032403 -0.19143155 0
0.8148666 0.61109531 -0.19184498 0
0.93496823 0.70116347 -0.19207294 0
1.0921651 0.81905055 -0.19185264 0
1.0908583 0.81807065 -0.15936014 0
1.0925421 0.81933331 -0.12746872 0
1.0971183 0.82276517 -0.095870554 0
1.0997676 0.82475191 -0.06399706 0
1.091161 0.81829762 -0.031711455 0
1.0929805 0.81966209 3.9002283e-05 0
1.098223 0.82359356 0.03199511 0
1.1057799 0.82926077 0.06442602 0
1.100116 0.82501322 0.096211404 0
0.70057249 0.55354136 -0.1897894 0
0.79774445 0.63031954 -0.19149831 0
0.91915852 0.72625214 -0.19252935 0
1.0602775 0.83775395 -0.18990493 0
1.1001372 0.86924833 -0.16386849 0
1.0951542 0.86531103 -0.13028005 0
1.0956531 0.86570519 -0.097620726 0
1.0899512 0.86120003 -0.064670078 0
1.0985094 0.86796212 -0.0325513 0
1.0989968 0.86834717 3.9986302e-05 0
1.1002768 0.86935854 0.032683779 0
1.0957732 0.86580014 0.065095432 0
1.1017778 0.87054449 0.098246992 0
0.69560724 0.57871538 -0.19233994 0
0.78296322 0.65139174 -0.19183551 0
0.88579375 0.73694235 -0.18937631 0
1.0295753 0.85656244 -0.18821809 0
1.1020278 0.91683984 -0.16754352 0
1.0968143 0.91250241 -0.13317485 0
1.1100365 0.92350268 -0.10094684 0
1.0960737 0.91188633 -0.066377766 0
1.1026111 0.91732508 -0.033348277 0
1.0972238 0.91284305 4.0747083e-05 0
1.094658 0.91070849 0.033189084 0
1.0926794 0.90906233 0.066253535 0
1.0966944 0.91240263 0.099815369 0
0.67460501 0.59067154 -0.19059414 0
0.76712608 0.67168128 -0.19204766 0
0.87402797 0.76528257 -0.19092947 0
1.0026352 0.87788868 -0.18728404 0
1.1039723 0.96661752 -0.17149357 0
1.0932385 0.95721924 -0.13563091 0
1.0997051 0.96288127 -0.10218482 0
1.099231 0.96246612 -0.068018399 0
1.0942811 0.95813203 -0.033816956 0
1.1014215 0.96438408 4.179357e-05 0
1.0964854 0.96006215 0.033968337 0
1.087503 0.95219731 0.067375407 0
1.0901715 0.95453376 0.10138208 0
1.0888923 0.95341378 0.13517506 0
1.0819149 0.94730455 0.27093908 0
0.662862 0.61061341 -0.19156952 0
0.74742383 0.68850988 -0.19140466 0
0.85219008 0.78501809 -0.19042651 0
0.9678368 0.89154929 -0.18492825 0
1.0638859 0.9800275 -0.169055 0
1.1021107 1.0152394 -0.13986605 0
1.1026652 1.0157501 -0.10480864 0
1.0998437 1.013151 -0.06961643 0
1.0968523 1.0103954 -0.034673456 0
1.0945609 1.0082846 4.2485342e-05 0
1.1025434 1.0156379 0.034938995 0
1.0925173 1.0064021 0.069237687 0
1.1021839 1.0153068 0.10484888 0
1.094907 1.0086035 0.13903758 0
1.0348799 0.95330793 0.26510128 0
0.64097822 0.62107188 -0.1897148 0
0.74337739 0.72029096 -0.19496183 0
0.84088999 0.81477517 -0.19243534 0
0.83544564 0.80949992 -0.16348353 0
0.84028929 0.81419313 -0.13674659 0
0.84183568 0.81569147 -0.10941304 0
0.84067839 0.81457013 -0.081834793 0
0.8396737 0.81359667 -0.054430962 0
0.84720087 0.82089007 -0.02742774 0
0.83597332 0.81001121 3.3231227e-05 0
0.84104472 0.81492507 0.02729534 0
0.84128398 0.81515694 0.054602377 0
0.84399563 0.81778437 0.082225129 0
1.098925 1.0647966 0.14291497 0
1.0032873 0.97212911 0.19640884 0
1.0047146 0.97351199 0.23000817 0
0.98973364 0.9589963 0.25965393 0
0.63050085 0.64254671 -0.19135274 0
0.71314263 0.72676736 -0.19178192 0
0.82344472 0.83917683 -0.19322848 0
0.84586489 0.86202532 -0.16972579 0
0.84826475 0.86447102 -0.14155008 0
0.83526129 0.85121918 -0.11131537 0
0.84088594 0.85695124 -0.083933674 0
0.84394217 0.86006594 -0.056096945 0
0.83979857 0.85584313 -0.027878527 0
0.84021467 0.85626721 3.4248002e-05 0
0.8293879 0.84523362 0.027600579 0
0.84114128 0.85721153 0.055979487 0
0.83147353 0.84735906 0.083062284 0
0.84010768 0.85615814 0.11203034 0
1.0927408 1.1136179 0.18243615 0
0.95147091 0.96964902 0.19099513 0
0.94405979 0.96209627 0.22161089 0
0.94808096 0.96619433 0.25504276 0
0.60859197 0.65235901 -0.18964015 0
0.69330901 0.74316847 -0.19143139 0
0.79131168 0.84821904 -0.19065109 0
0.83735359 0.89757204 -0.17250861 0
0.84262115 0.90321845 -0.1443664 0
0.84398127 0.90467638 -0.11548369 0
0.83717722 0.89738297 -0.085796893 0
0.83841157 0.89870614 -0.057218809 0
0.84067351 0.90113074 -0.028653461 0
0.84405053 0.90475059 3.5323883e-05 0
0.84220487 0.90277225 0.028776189 0
0.83425212 0.89424753 0.057004917 0
0.83422983 0.89422363 0.085565001 0
0.83568847 0.89578718 0.11441952 0
1.1014613 1.1806731 0.18880697 0
0.93172562 0.9987309 0.19203034 0
0.93122077 0.99818975 0.2244395 0
0.93046951 0.99738443 0.25699505 0
0.59875089 0.67518872 -0.19182262 0
0.67103744 0.7567035 -0.1904946 0
0.7717914 0.8703199 -0.19117945 0
0.8529411 0.96182936 -0.18066354 0
0.83716077 0.94403446 -0.14746609 0
0.83428729 0.94079411 -0.1173689 0
0.83944666 0.94661218 -0.088449806 0
0.83507842 0.94168627 -0.058594704 0
0.83542299 0.94207484 -0.029275594 0
0.84411323 0.95187449 3.6320373e-05 0
0.83997756 0.94721085 0.029507523 0
0.83412856 0.94061518 0.058599997 0
0.84088594 0.94823515 0.088674173 0
0.84328014 0.95093507 0.11870723 0
1.0947874 1.2345502 0.1929426 0
1.1003981 1.2408772 0.23317456 0
0.58611006 0.69552225 -0.19333518 0
0.65790159 0.78071547 -0.19229805 0
0.73126698 0.86777639 -0.18650709 0
0.84354872 1.0010183 -0.1839669 0
0.83876997 0.9953475 -0.1521263 0
0.83862203 0.9951719 -0.12147356 0
0.83471 0.99052966 -0.090556048 0
0.84563833 1.0034981 -0.061093342 0
0.83279234 0.98825401 -0.030047899 0
0.83917987 0.99583387 3.7177717e-05 0
0.83681178 0.99302375 0.03026711 0
0.84305537 1.0004328 0.06098159 0
0.84371799 1.0012192 0.091608427 0
0.84230834 0.99954635 0.1220828 0
0.84441245 1.0020432 0.1532255 0
1.1007718 1.3062586 0.24016336 0
0.55956131 0.69907802 -0.19033726 0
0.63388306 0.79193056 -0.19105899 0
0.71890152 0.89814693 -0.18907459 0
0.84088683 1.0505471 -0.1891087 0
0.85342646 1.0662133 -0.15961434 0
0.83915377 1.0483819 -0.12534338 0
0.84279209 1.0529274 -0.094285883 0
0.8374387 1.0462393 -0.0623888 0
0.84262484 1.0527184 -0.031351335 0
0.83655566 1.045136 3.8217906e-05 0
0.84294927 1.0531238 0.031440467 0
0.83658636 1.0451744 0.062401902 0
0.83790511 1.046822 0.093816094 0
0.84204137 1.0519894 0.1258523 0
0.83745122 1.0462549 0.15670408 0
1.0996528 1.3738317 0.24740554 0
1.1016359 1.3763094 0.28983897 0
0.54898542 0.72250301 -0.1928812 0
0.61354941 0.80747366 -0.1910121 0
0.70639342 0.92966282 -0.19189487 0
0.72726858 0.95713598 -0.16893581 0
0.7270394 0.95683438 -0.14044838 0
0.72336036 0.95199251 -0.11160086 0
0.72844326 0.95868194 -0.084173411 0
0.72356176 0.95225763 -0.055677813 0
0.7243284 0.9532665 -0.027836218 0
0.73164058 0.96288985 3.4524135e-05 0
0.73167676 0.96293753 0.028187709 0
0.72701764 0.95680577 0.056012504 0
0.72527373 0.95451063 0.083875947 0
0.71826863 0.94529146 0.11088368 0
0.72595102 0.95540196 0.14030756 0
0.72921193 0.95969361 0.16945742 0
0.72655243 0.95619351 0.19744158 0
0.7324537 0.96395993 0.22810131 0
0.53071916 0.73631585 -0.19293135 0
0.59988517 0.83227623 -0.19323616 0
0.67523891 0.93682146 -0.1897943 0
0.72491121 1.0057364 -0.17422909 0
0.95734435 1.3282124 -0.19135328 0
0.84910578 1.178043 -0.13554503 0
0.83457929 1.1578891 -0.099782817 0
0.837892 1.1624851 -0.06671194 0
0.83442563 1.1576759 -0.033179615 0
0.84395391 1.1708953 4.1205265e-05 0
0.83458281 1.157894 0.033267405 0
0.83685595 1.1610477 0.066711344 0
0.83415633 1.1573023 0.099814102 0
0.83322883 1.1560155 0.13309263 0
0.8362115 1.1601536 0.16722411 0
0.84206766 1.1682785 0.20247097 0
1.0987589 1.52441 0.30894634 0
0.50946307 0.74579883 -0.19198579 0
0.57576376 0.84285587 -0.19225736 0
0.65337604 0.95647186 -0.19037384 0
0.75765163 1.10912 -0.188766 0
0.91645122 1.3415854 -0.18988708 0
1.1529365 1.6877743 -0.19078557 0
0.8456192 1.237895 -0.10480484 0
0.83682597 1.2250227 -0.069066748 0
0.84224683 1.2329583 -0.034716941 0
0.841003 1.2311374 4.256473e-05 0
0.84267843 1.23359 0.034820076 0
0.8352263 1.2226809 0.069019444 0
0.84330291 1.2345042 0.10460354 0
0.83980346 1.2293813 0.1390547 0
0.83862615 1.2276579 0.17384791 0
0.83771318 1.2263216 0.20879951 0
1.1003832 1.610842 0.32073247 0
1.0973594 1.6064155 0.3665421 0
0.49244609 0.76145005 -0.19275393 0
0.55316287 0.8553341 -0.19185798 0
0.63455862 0.98119318 -0.19204544 0
0.73332596 1.1339132 -0.1897752 0
0.88858324 1.3739815 -0.1912372 0
1.1081483 1.7134864 -0.19046985 0
1.4892169 2.3027177 -0.19171348 0
0.84846854 1.3119537 -0.072737403 0
0.84090209 1.300254 -0.036002748 0
0.83942592 1.2979715 4.4128879e-05 0
0.83501226 1.2911468 0.035838421 0
0.8450864 1.306724 0.072536506 0
0.84182501 1.301681 0.1084608 0
0.83855188 1.2966199 0.14422022 0
0.83743697 1.294896 0.18031897 0
0.83696568 1.2941673 0.21668555 0
0.84003824 1.2989182 0.25432333 0
1.1015692 1.7033132 0.38218608 0
0.47277701 0.77314168 -0.19263163 0
0.53411341 0.87344635 -0.19283549 0
0.60132551 0.98335963 -0.18943863 0
0.70787859 1.157608 -0.19068997 0
0.84819257 1.3870664 -0.1900183 0
1.0650058 1.7416253 -0.19054914 0
1.4240153 2.3287208 -0.19082534 0
0.84901857 1.3884171 -0.075764529 0
0.84868228 1.3878671 -0.037823528 0
0.83908159 1.3721669 4.5916775e-05 0
0.83578515 1.3667761 0.037340261 0
0.83584774 1.3668785 0.074680865 0
0.83549845 1.3663073 0.11205295 0
0.83835167 1.3709732 0.15008909 0
0.83535194 1.3660676 0.18723431 0
0.84196889 1.3768885 0.22690551 0
0.84161615 1.3763118 0.26523322 0
1.0995008 1.7980357 0.39708674 0
0.45186928 0.78265893 -0.19210017 0
0.51303524 0.8886013 -0.19326109 0
0.58080822 1.0059873 -0.19091295 0
0.68254495 1.1822001 -0.19184215 0
0.82575601 1.4302485 -0.19301738 0
1.0292393 1.7826911 -0.19213881 0
1.3620327 2.3591051 -0.19043756 0
1.3697703 2.3725069 -0.12753816 0
0.84850115 1.4696441 -0.039455999 0
0.84166586 1.457805 4.8056332e-05 0
0.83872616 1.4527134 0.039097283 0
0.84178799 1.4580166 0.078474514 0
0.84363294 1.461212 0.11805242 0
0.83942372 1.4539216 0.15680064 0
0.83971459 1.4544253 0.19637734 0
0.83799344 1.4514443 0.23563148 0
0.84044635 1.4556929 0.27635515 0
0.84116352 1.4569349 0.31696692 0
0.43227407 0.79435462 -0.19223176 0
0.49217594 0.90443134 -0.19394054 0
0.55600768 1.0217297 -0.19117646 0
0.64897156 1.1925619 -0.19080488 0
0.78458673 1.4417708 -0.19183888 0
0.98461431 1.809345 -0.19227193 0
1.2898182 2.370193 -0.18864468 0
1.2865682 2.3642209 -0.12530726 0
1.2898382 2.37023 -0.062740341 0
0.84738231 1.557165 5.0610579e-05 0
0.83799028 1.5399061 0.0408617 0
0.83766001 1.5392991 0.081685446 0
0.83666575 1.5374721 0.12246849 0
0.83465987 1.5337861 0.16308993 0
0.84096867 1.5453793 0.20572662 0
0.83649635 1.5371608 0.24604115 0
0.83140635 1.5278074 0.28597093 0
0.84185982 1.5470169 0.33183661 0
0.40968147 0.80029541 -0.19110632 0
0.46283862 0.9041357 -0.1913113 0
0.53147405 1.0382121 -0.19168957 0
0.61960226 1.2103668 -0.19109072 0
0.75079739 1.466651 -0.19256671 0
0.93839675 1.8331184 -0.19222018 0
1.2451576 2.4323628 -0.19103071 0
1.2412752 2.4247787 -0.12681606 0
1.2452579 2.4325585 -0.063538022 0
1.2379847 2.4183507 7.7560384e-05 0
0.8482514 1.6570233 0.043387517 0
0.83793944 1.6368793 0.085714109 0
0.83486879 1.630881 0.12818977 0
0.84071147 1.6422944 0.1723167 0
0.83887118 1.6386994 0.21526267 0
0.83632571 1.633727 0.25803697 0
0.84006381 1.6410292 0.30309838 0
0.83942515 1.6397816 0.34707975 0
0.39092204 0.81363088 -0.19187358 0
0.44010839 0.91600311 -0.19141103 0
0.5015077 1.0437942 -0.19032258 0
0.58440977 1.2163393 -0.18964455 0
0.71242481 1.4827785 -0.19226214 0
0.88943076 1.8511833 -0.19169949 0
1.1824353 2.4610171 -0.19087653 0
1.7836766 3.7123885 -0.19174263 0
4.5027494 9.3716288 -0.24174 0
0.84364963 1.7558985 0.090802565 0
0.84320563 1.7549744 0.13622756 0
0.84047669 1.7492945 0.18126017 0
0.84128171 1.75097 0.22714919 0
0.83589643 1.7397616 0.27136588 0
0.83459651 1.737056 0.31684306 0
0.84015971 1.7486349 0.36551523 0
0.36621615 0.8142246 -0.18977347 0
0.4193669 0.93239701 -0.19256368 0
0.47717115 1.0609158 -0.19118765 0
0.55479765 1.2335062 -0.19007738 0
0.67223352 1.4946065 -0.19153486 0
0.8441757 1.8768933 -0.19209436 0
1.11742 2.4844093 -0.1904428 0
1.6926765 3.7634029 -0.19210978 0
4.2640171 9.4803782 -0.24169219 0
1.0650901 2.368062 0.12103063 0
0.84847647 1.8864554 0.14472522 0
0.83649701 1.859821 0.19046451 0
0.84239036 1.8729239 0.24013536 0
0.83796698 1.8630891 0.28721201 0
0.83587611 1.8584404 0.33502907 0
0.83828831 1.8638036 0.38504365 0
0.34885052 0.83105409 -0.19158283 0
0.39534029 0.94180501 -0.1923847 0
0.44680223 1.0644009 -0.18972309 0
0.52277243 1.245382 -0.18981376 0
0.64033484 1.5254467 -0.19335438 0
0.79361635 1.8906038 -0.19138661 0
1.0631865 2.5327909 -0.1920334 0
1.5965439 3.8033893 -0.19203286 0
4.0262084 9.5914917 -0.24185725 0
0.99488074 2.3700688 0.11981168 0
0.84949344 2.0237176 0.15356195 0
0.84027869 2.0017657 0.20276463 0
0.83759451 1.9953713 0.2530438 0
0.84075689 2.0029049 0.30539742 0
0.84155333 2.0048022 0.3574715 0
0.84030271 2.0018229 0.4090454 0
0.32654646 0.83645427 -0.19086698 0
0.37088382 0.95002514 -0.19209054 0
0.42154318 1.07979 -0.19050902 0
0.49596605 1.2704254 -0.19166183 0
0.59680641 1.5287297 -0.19180018 0
0.74880165 1.9180681 -0.19219248 0
0.99580604 2.5507739 -0.19143032 0
1.4990695 3.8398917 -0.19190446 0
3.7827837 9.6896648 -0.24184829 0
0.92826486 2.3777661 0.11897855 0
0.84935093 2.1756268 0.16341029 0
0.83894432 2.1489701 0.21546198 0
0.8375594 2.1454227 0.26930609 0
0.83937621 2.1500764 0.32450414 0
0.83839458 2.1475618 0.37903288 0
0.83950418 2.1504042 0.43493792 0
0.30777851 0.85117662 -0.19239259 0
0.34395918 0.95123595 -0.19051939 0
0.39463589 1.091385 -0.19073671 0
0.43246511 1.1960034 -0.17873061 0
0.4351685 1.2034798 -0.14956748 0
0.43681401 1.2080306 -0.11990309 0
0.93200785 2.5775135 -0.19161069 0
1.400768 3.8738928 -0.19177578 0
3.5350502 9.7763548 -0.24170814 0
0.85504568 2.3646708 0.11720612 0
0.84799862 2.3451817 0.17448238 0
0.83552164 2.3106761 0.2294877 0
0.84021151 2.3236461 0.28892383 0
0.83693379 2.3145816 0.34603408 0
0.83984059 2.3226204 0.40605929 0
0.84060705 2.3247399 0.4657594 0
0.2855477 0.8567006 -0.19195107 0
0.32415292 0.97252399 -0.193083 0
0.36896336 1.1069643 -0.19177091 0
0.40562311 1.2169509 -0.1802737 0
0.40575239 1.2173388 -0.1499694 0
0.40480208 1.2144878 -0.11949187 0
0.86481082 2.5946066 -0.1911979 0
1.3022381 3.9069767 -0.19172545 0
3.2839029 9.8523703 -0.24146147 0
0.79181761 2.3756123 0.11672071 0
0.84791702 2.5439217 0.18761675 0
0.83683538 2.5106747 0.24717444 0
0.83729154 2.5120432 0.30962303 0
0.83880836 2.5165939 0.37295148 0
0.83758909 2.5129359 0.43549728 0
0.83814776 2.514612 0.49940285 0
0.2660397 0.87082815 -0.19355038 0
0.29874077 0.97786868 -0.19258584 0
0.3395555 1.1114676 -0.19100556 0
0.38080934 1.2465038 -0.18316942 0
0.38329697 1.2546467 -0.15332489 0
0.38077256 1.2463834 -0.12164576 0
0.72666335 2.3785884 -0.17387252 0
0.72425669 2.3707106 -0.11540312 0
0.7258184 2.3758225 -0.057759207 0
0.72434396 2.3709962 7.0776383e-05 0
0.72422045 2.3705919 0.05777365 0
0.72508687 2.3734281 0.11567741 0
0.84399068 2.7626362 0.20211178 0
0.83669192 2.738745 0.26746368 0
0.8370952 2.7400651 0.3350172 0
0.83486187 2.7327547 0.40173525 0
0.83450431 2.7315843 0.46958989 0
0.24290344 0.87338114 -0.19269383 0
0.27198571 0.97794908 -0.19118883 0
0.30560875 1.0988437 -0.18745093 0
0.36456946 1.3108423 -0.19121075 0
0.43887901 1.5780289 -0.19142941 0
0.55043799 1.9791493 -0.19174601 0
0.65964228 2.371803 -0.17210472 0
0.65929806 2.3705654 -0.11454956 0
0.65827763 2.3668964 -0.0571201 0
0.65613824 2.3592041 6.9907772e-05 0
0.65902251 2.3695748 0.05732524 0
0.65956068 2.3715098 0.11473605 0
0.81203723 2.9197531 0.21203938 0
0.81357586 2.9252853 0.28358543 0
0.811203 2.9167533 0.3540042 0
0.8115567 2.9180253 0.42582464 0
0.8140676 2.9270532 0.49950197 0
0.2200406 0.87624818 -0.19203994 0
0.24780583 0.98681515 -0.1916384 0
0.27965546 1.1136471 -0.18871208 0
0.33362019 1.3285462 -0.19250363 0
0.39798674 1.5848672 -0.19097963 0
0.49975872 1.9901447 -0.19152826 0
0.59735012 2.3787742 -0.17146197 0
0.59436566 2.3668897 -0.11361089 0
0.59468251 2.3681514 -0.05677009 0
0.59606212 2.3736453 6.9867659e-05 0
0.59557045 2.3716874 0.05699455 0
0.5969032 2.3769946 0.11423615 0
0.76923484 3.0632555 0.22098057 0
0.77002466 3.0664008 0.29528746 0
0.76726604 3.0554154 0.36836588 0
0.76807463 3.0586355 0.44337368 0
0.19630885 0.8746016 -0.19053252 0
0.22028334 0.98141354 -0.18944937 0
0.25752571 1.1473368 -0.193258 0
0.29765201 1.3261089 -0.19100112 0
0.35715252 1.5911975 -0.19059551 0
0.44706079 1.9917599 -0.19053712 0
0.5517801 2.4583087 -0.1761349 0
0.55133313 2.4563174 -0.11719817 0
0.55245411 2.4613116 -0.058650423 0
0.55324727 2.4648454 7.2118135e-05 0
0.55017507 2.451158 0.058551986 0
0.5511027 2.4552908 0.11729318 0
0.71344018 3.1785419 0.22792566 0
0.71269184 3.1752079 0.30393639 0
0.71073997 3.166512 0.37947634 0
0.71305287 3.1768165 0.45775038 0
0.17356369 0.87616849 -0.18985911 0
0.19866928 1.0029043 -0.19256864 0
0.22517948 1.1367307 -0.19045354 0
0.26679224 1.3467964 -0.19294947 0
0.31849009 1.6077729 -0.19155708 0
0.39643142 2.0012293 -0.1904252 0
0.41553774 2.0976801 -0.14949724 0
0.41471726 2.0935383 -0.099357843 0
0.41635719 2.1018167 -0.049817774 0
0.41339919 2.0868845 6.0734881e-05 0
0.41313568 2.0855541 0.049553774 0
0.4127886 2.083802 0.09901733 0
0.4154819 2.0973983 0.14959984 0
0.41393143 2.0895712 0.19895399 0
0.41455963 2.0927424 0.24946195 0
0.4045482 2.0422037 0.29269856 0
0.29532084 1.4908121 0.24986722 0
0.26980948 1.3620279 0.2616064 0
0.15348974 0.89240807 -0.19247736 0
0.17181818 0.99897188 -0.19092011 0
0.19543631 1.1362906 -0.18949302 0
0.23037913 1.3394524 -0.19100347 0
0.27967796 1.6260818 -0.19283606 0
0.34531355 2.007695 -0.19015059 0
0.36830819 2.1413887 -0.15190141 0
0.87975609 5.1150093 -0.24162398 0
1.7640865 10.256614 -0.2419724 0
0.58151555 3.3810024 0.15990888 0
0.57936907 3.3685226 0.2391454 0
0.5785073 3.363512 0.3187578 0
0.26202744 1.5234596 0.18075562 0
0.27056316 1.5730872 0.22441232 0
0.27046549 1.5725193 0.26233408 0
0.23415783 1.3614222 0.26027206 0
0.1308212 0.89528936 -0.1923254 0
0.1456275 0.99661791 -0.18970737 0
0.16583349 1.1348999 -0.18850307 0
0.19691147 1.3475854 -0.1913936 0
0.23830485 1.6308656 -0.19262876 0
0.29508993 2.0194807 -0.19050077 0
0.39440843 2.699178 -0.19070184 0
0.75083858 5.1384473 -0.24175899 0
1.5039376 10.292364 -0.2418433 0
0.50574577 3.461127 0.16304284 0
0.50285721 3.441359 0.24333784 0
0.50487292 3.4551539 0.32613117 0
0.22214977 1.5203066 0.17965907 0
0.27589878 1.888144 0.26827863 0
0.20088375 1.3747702 0.26177123 0
0.10728452 0.89078254 -0.19071485 0
0.12189142 1.0120635 -0.1920007 0
0.13938035 1.1572739 -0.19157404 0
0.16440284 1.3650355 -0.19322112 0
0.19570194 1.6249118 -0.1912812 0
0.24474245 2.0320947 -0.19104713 0
0.32825658 2.7255118 -0.19191593 0
0.62118363 5.1576829 -0.24184936 0
1.2432306 10.322534 -0.24173793 0
0.42453998 3.5249522 0.16549198 0
0.42426407 3.5226614 0.2482505 0
0.42289901 3.5113273 0.33032069 0
0.42424175 3.522476 0.4148638 0
0.23018405 1.9112164 0.27064526 0
0.16433778 1.3644953 0.25894254 0
0.086277753 0.9090386 -0.19409542 0
0.096435741 1.0160651 -0.1922369 0
0.11064765 1.1658044 -0.19246258 0
0.13000144 1.3697196 -0.19335814 0
0.15498732 1.6329756 -0.19170892 0
0.19466619 2.0510397 -0.19230509 0
0.2569612 2.7073915 -0.19012277 0
0.49096581 5.1729078 -0.24190518 0
0.98306596 10.357767 -0.24190496 0
0.34038141 3.5863223 0.16791643 0
0.33981025 3.5803046 0.25162822 0
0.33967546 3.5788841 0.33576256 0
0.33878866 3.5695407 0.41926634 0
0.33923516 3.5742452 0.50477177 0
0.17175126 1.8096036 0.29885393 0
0.13033119 1.3731939 0.25988629 0
0.062081248 0.8931849 -0.19031522 0
0.070565186 1.0152464 -0.19168399 0
0.08052595 1.1585554 -0.19086953 0
0.093992256 1.3522999 -0.19050352 0
0.11401994 1.6404454 -0.19218682 0
0.14132477 2.0332897 -0.19024584 0
0.19004498 2.7342446 -0.19161065 0
0.36036646 5.18472 -0.24195518 0
0.72063023 10.367963 -0.24164134 0
0.25275853 3.6365266 0.16991428 0
0.25152636 3.6187987 0.25380665 0
0.13207316 1.9001833 0.17790137 0
0.13233155 1.903901 0.22316249 0
0.13346039 1.9201419 0.27060962 0
0.12417277 1.7865177 0.29442999 0
0.095085964 1.3680356 0.25837356 0
0.039700314 0.89842176 -0.19115669 0
0.045158315 1.0219368 -0.19267063 0
0.051155847 1.1576616 -0.19044891 0
0.059951793 1.3567146 -0.19085149 0
0.072600387 1.6429534 -0.19220476 0
0.089551307 2.0265543 -0.18934387 0
0.1215528 2.7507508 -0.19249108 0
0.22919957 5.1868072 -0.24170566 0
0.45919397 10.391602 -0.24184516 0
0.16246003 3.6764853 0.1715351 0
0.16152976 3.6554334 0.2560086 0
0.085713327 1.9397005 0.18134081 0
0.084796034 1.9189421 0.22460313 0
0.08576449 1.9408582 0.27313715 0
0.07575354 1.7143096 0.28212467 0
0.060214214 1.3626533 0.25698817 0
0.017160682 0.90658975 -0.19274105 0
0.019387765 1.0242454 -0.19295217 0
0.022172533 1.1713632 -0.19254962 0
0.025674937 1.3563935 -0.19065444 0
0.031028101 1.6391982 -0.19161282 0
0.03850216 2.0340488 -0.18989281 0
0.051890589 2.7413523 -0.19168071 0
0.09832231 5.1943159 -0.24186289 0
0.19657865 10.385146 -0.24150254 0
0.069836818 3.6894424 0.17200263 0
0.069587335 3.6762624 0.25726241 0
0.069984712 3.6972551 0.34537786 0
0.070004098 3.6982794 0.43252164 0
0.03175265 1.6774757 0.27584317 0
0.026060047 1.3767385 0.25943792 0
-0.0056750444 0.89977664 -0.19126211 0
-0.0064000417 1.0147247 -0.19112821 0
-0.00725456 1.1502084 -0.18904206 0
-0.0086255409 1.367577 -0.1921958 0
-0.010358279 1.642302 -0.19194508 0
-0.012852784 2.0378051 -0.19021322 0
-0.017295046 2.7421243 -0.19170415 0
-0.032793447 5.1993914 -0.24206068 0
-0.065567426 10.395697 -0.24170938 0
-0.023454705 3.7187364 0.17334072 0
-0.023397259 3.7096286 0.25955603 0
-0.023404019 3.7107 0.34657863 0
-0.02337422 3.7059755 0.43335271 0
-0.010303749 1.6336563 0.26859477 0
-0.0086941998 1.3784628 0.25972149 0
-0.028465487 0.90219969 -0.1918688 0
-0.032170344 1.0196233 -0.19214261 0
-0.036234777 1.1484436 -0.18884218 0
-0.04290548 1.3598682 -0.19120371 0
-0.051868346 1.6439419 -0.19222853 0
-0.064739875 2.0518987 -0.19162023 0
-0.08658959 2.7444148 -0.19195594 0
-0.12001005 3.8036597 -0.17716618 0
-0.12001581 3.8038423 -0.08848504 0
-0.11973374 3.7949021 0.00010839225 0
-0.11982775 3.7978818 0.088563465 0
-0.11786321 3.7356167 0.17421074 0
-0.11736678 3.7198825 0.26039779 0
-0.11760538 3.7274451 0.34830892 0
-0.11758176 3.7266965 0.43598387 0
-0.051697776 1.6385357 0.26952571 0
-0.04319251 1.3689655 0.25805527 0
-0.050965551 0.89672071 -0.19091636 0
-0.058287062 1.0255401 -0.19347322 0
-0.066098556 1.1629807 -0.1914459 0
-0.077677205 1.3667028 -0.19237909 0
-0.09301462 1.6365592 -0.19157876 0
-0.11605227 2.0418985 -0.19089907 0
-0.15594059 2.7437193 -0.1921214 0
-0.21520181 3.7863994 -0.17655899 0
-0.21515556 3.7855856 -0.0881586 0
-0.21506782 3.7840419 0.00010820264 0
-0.2151053 3.7847013 0.088354565 0
-0.21181613 3.7268295 0.17399485 0
-0.21229269 3.7352145 0.26176277 0
-0.21219878 3.733562 0.34926975 0
-0.079033062 1.3905587 0.16286208 0
-0.077721074 1.3674747 0.19256748 0
-0.078086391 1.3739023 0.2262478 0
-0.078014202 1.3726323 0.25903514 0
-0.074221373 0.90302002 -0.19259501 0
-0.082581244 1.0047311 -0.18988022 0
-0.094597548 1.1509283 -0.18979448 0
-0.11254294 1.3692623 -0.19307771 0
-0.13511856 1.6439302 -0.19277944 0
-0.16851845 2.0502927 -0.19202036 0
-0.22468458 2.7336421 -0.19175179 0
-0.42560393 5.1781425 -0.24187954 0
-0.85172528 10.362581 -0.2417471 0
-0.30759031 3.742321 0.17502482 0
-0.305693 3.7192373 0.26110065 0
-0.30598906 3.7228391 0.348878 0
-0.30584332 3.721066 0.43657586 0
-0.11344016 1.3801783 0.1946976 0
-0.11459839 1.3942702 0.23000494 0
-0.11224878 1.3656834 0.25817621 0
-0.097191885 0.90281111 -0.19301216 0
-0.10771881 1.0005953 -0.18955205 0
-0.12294925 1.1420702 -0.18878533 0
-0.14549324 1.3514802 -0.19102725 0
-0.17570317 1.6320989 -0.19185096 0
-0.21928255 2.036906 -0.19122407 0
-0.29224083 2.714612 -0.19087352 0
-0.55575377 5.1623721 -0.24172111 0
-1.113258 10.341004 -0.24182221 0
-0.39905587 3.7068124 0.17377982 0
-0.39929318 3.7090166 0.26100749 0
-0.40026113 3.718008 0.34926075 0
