# .PCD v0.7 - Point Cloud Data file format
VERSION 0.7
FIELDS x y z intensity
SIZE 4 4 4 4
TYPE F F F F
COUNT 1 1 1 1
WIDTH 1359
HEIGHT 1
VIEWPOINT 0 0 0 1 0 0 0
POINTS 1359
DATA ascii
1.0053416 0.11465119 -0.19058445 0
1.1434317 0.13039926 -0.18914263 0
1.3462262 0.15352637 -0.19041775 0
1.6213477 0.18490176 -0.1907205 0
2.5728576 0.29341388 -0.24170803 0
3.432198 0.39141479 -0.24149826 0
5.1622305 0.5887112 -0.24188361 0
10.328044 1.1778311 -0.24168812 0
0.89530885 0.1250595 -0.19215627 0
1.0157125 0.14187784 -0.19316779 0
1.1618506 0.16229087 -0.19280557 0
1.3491011 0.1884466 -0.19143616 0
1.623806 0.22681822 -0.19162205 0
2.5704374 0.35904661 -0.24225484 0
3.420115 0.47773218 -0.24141958 0
5.1540117 0.71992821 -0.24227273 0
10.28833 1.4371057 -0.24153064 0
0.89492691 0.1481154 -0.19281521 0
1.0081294 0.16685103 -0.19246522 0
1.1519045 0.1906466 -0.19189243 0
1.3426822 0.22222139 -0.19126029 0
1.615941 0.26744726 -0.19142953 0
2.5626335 0.42413014 -0.24245103 0
3.4123156 0.56475723 -0.24179819 0
5.1267099 0.84849906 -0.241919 0
10.251163 1.6966245 -0.24158642 0
0.88886034 0.1702565 -0.19237272 0
0.99804509 0.19117026 -0.1914002 0
1.1466607 0.21963678 -0.19188124 0
1.3351887 0.25574833 -0.1910515 0
1.3538398 0.25932086 -0.16110422 0
1.3363098 0.25596306 -0.12699915 0
1.3488678 0.25836846 -0.096012868 0
1.3519832 0.25896522 -0.064085342 0
1.3449275 0.25761378 -0.031838641 0
1.3535172 0.25925907 3.9343202e-05 0
0.88272399 0.19228978 -0.19203384 0
0.9923802 0.21617696 -0.19129923 0
1.1317171 0.24652965 -0.19036117 0
1.2094067 0.26345333 -0.17394947 0
1.2010293 0.26162842 -0.1436601 0
1.2125217 0.26413187 -0.11583136 0
1.2104204 0.26367414 -0.086604252 0
1.2073598 0.26300743 -0.057526384 0
1.2037854 0.26222879 -0.028644919 0
1.201244 0.26167518 3.5097812e-05 0
0.87042338 0.21274859 -0.19046538 0
0.9920665 0.24248056 -0.19235724 0
1.1339085 0.27714953 -0.1918453 0
1.2239276 0.29915196 -0.17706758 0
1.2062963 0.29484254 -0.145134 0
1.2056108 0.29467496 -0.11584476 0
1.1917559 0.29128858 -0.085767537 0
1.2186929 0.29787248 -0.058405969 0
1.1925551 0.29148388 -0.028543655 0
1.2095804 0.29564524 3.5548084e-05 0
0.86015064 0.23338681 -0.18944611 0
0.98288476 0.26668856 -0.19182095 0
1.1147398 0.30246514 -0.18983328 0
1.2039744 0.32667735 -0.1753179 0
1.2002238 0.32565972 -0.145346 0
1.2031431 0.32645181 -0.11636229 0
1.2042897 0.32676291 -0.087235302 0
1.2058513 0.32718664 -0.058167774 0
1.2021761 0.32618943 -0.028961759 0
1.199241 0.32539308 3.5474284e-05 0
0.86226833 0.25748754 -0.19128294 0
0.97241634 0.29037955 -0.19114737 0
1.1092806 0.33124948 -0.19026674 0
1.2102284 0.36139417 -0.17750028 0
1.2056931 0.36003983 -0.14706194 0
1.2101741 0.36137792 -0.11788686 0
1.1976089 0.35762575 -0.087377369 0
1.2096115 0.36120993 -0.058770206 0
1.2037907 0.35947174 -0.029209927 0
1.2116103 0.36180681 3.6098798e-05 0
0.83905905 0.27379742 -0.18760751 0
0.97300726 0.31750673 -0.19277737 0
1.114115 0.36355227 -0.19260845 0
1.2159863 0.39679438 -0.17975633 0
1.1977607 0.39084712 -0.14725073 0
1.2116528 0.39538032 -0.11896512 0
1.20898 0.39450812 -0.088905148 0
1.2028944 0.39252234 -0.058906429 0
1.2012243 0.39197737 -0.029378356 0
1.2022513 0.39231247 3.6103465e-05 0
0.84278929 0.29874626 -0.19006693 0
0.95190448 0.3374247 -0.19022308 0
1.101142 0.39032543 -0.19200768 0
1.2083555 0.42832974 -0.18016903 0
1.20825 0.42829233 -0.14982148 0
1.208528 0.42839089 -0.11968178 0
1.2004594 0.42553073 -0.089039996 0
1.204288 0.4268879 -0.059483346 0
1.2135124 0.43015769 -0.029934876 0
1.2056645 0.42737582 3.6518253e-05 0
0.84460437 0.32360178 -0.19225697 0
0.95012385 0.36403051 -0.19164224 0
1.0788101 0.41333538 -0.18987222 0
1.2035259 0.461119 -0.18112652 0
1.2019264 0.46050611 -0.15043065 0
1.2083288 0.46295917 -0.12078073 0
1.2065105 0.46226251 -0.090325423 0
1.1996075 0.45961767 -0.05980609 0
1.2108129 0.46391097 -0.030147513 0
1.2057556 0.46197325 3.6862431e-05 0
0.83386934 0.34385994 -0.19172782 0
0.9318037 0.3842448 -0.18984267 0
1.0837191 0.44688964 -0.19265999 0
1.216518 0.50165153 -0.18492837 0
1.2056849 0.49718431 -0.15242305 0
1.2019641 0.49564999 -0.12135633 0
1.2041357 0.49654543 -0.091056861 0
1.2092901 0.498671 -0.060896896 0
1.1967648 0.49350595 -0.030098278 0
1.2079897 0.4981347 3.730322e-05 0
0.81574804 0.36073038 -0.18959425 0
0.9353959 0.41363961 -0.19264017 0
1.0710002 0.47360495 -0.19246259 0
1.211347 0.53566742 -0.1861382 0
1.2067429 0.53363144 -0.15421036 0
1.2124987 0.53617674 -0.12374686 0
1.1976293 0.52960134 -0.091546483 0
1.2128959 0.53635234 -0.061740495 0
1.1986983 0.53007406 -0.030473664 0
1.2042997 0.53255105 3.7592366e-05 0
0.81532371 0.38542235 -0.19169547 0
0.92188537 0.43579653 -0.19206178 0
1.0474321 0.49514532 -0.19041242 0
1.2241077 0.57866406 -0.19028269 0
1.4818604 0.70050967 -0.19156615 0
1.8490198 0.87407434 -0.19090052 0
3.1317971 1.4804728 -0.24217288 0
4.7024889 2.222975 -0.24215142 0
9.4026499 4.44485 -0.24181193 0
0.80721277 0.40681511 -0.19214134 0
0.90980834 0.45852071 -0.19189559 0
1.0433791 0.52583706 -0.19202712 0
1.2148714 0.61226487 -0.19118814 0
1.4683653 0.7400195 -0.19217488 0
1.8396291 0.92712724 -0.19228564 0
3.0916214 1.5581001 -0.24203002 0
4.6365209 2.3366911 -0.2417144 0
9.2994318 4.6866817 -0.24212237 0
0.79466432 0.42596576 -0.19165246 0
0.90294379 0.48400706 -0.19296284 0
1.0185555 0.54597867 -0.18993415 0
1.1906228 0.63821232 -0.18984656 0
1.4428607 0.77341998 -0.19133076 0
1.8059372 0.9680407 -0.19125688 0
3.0458667 1.632683 -0.2415971 0
4.5743833 2.4520173 -0.24162434 0
9.1685314 4.914629 -0.24186672 0
0.78518164 0.44674391 -0.19202365 0
0.89260817 0.50786626 -0.19343174 0
1.0222718 0.58164078 -0.193303 0
1.1756603 0.66891408 -0.19009219 0
1.2119051 0.68953627 -0.16296071 0
1.2165352 0.69217068 -0.13064508 0
3.0070267 1.7109046 -0.24186444 0
4.5061121 2.5638375 -0.24135932 0
9.0388689 5.1428351 -0.24179335 0
0.770423 0.46446118 -0.19122025 0
0.87059015 0.52484846 -0.19146997 0
1.0066463 0.60687196 -0.19318314 0
1.1664221 0.70319527 -0.19140719 0
1.1489979 0.69269085 -0.15680273 0
1.202036 0.72466564 -0.13101044 0
2.9561977 1.7821887 -0.2413172 0
4.4376287 2.6752918 -0.24123099 0
8.9023085 5.3668914 -0.24168681 0
0.75760674 0.4832083 -0.19100541 0
0.85838711 0.54748696 -0.19176409 0
0.98880965 0.63067162 -0.19275346 0
1.1433108 0.72921383 -0.19057415 0
1.1435919 0.72939306 -0.15852675 0
1.1828107 0.75440717 -0.1309486 0
2.9145098 1.8589003 -0.24166706 0
4.3841429 2.7962453 -0.24208283 0
8.7647352 5.5902262 -0.24170539 0
0.74767005 0.50385189 -0.19164528 0
0.84220833 0.56756091 -0.19128896 0
0.96407944 0.64968938 -0.19106829 0
1.1295835 0.76122189 -0.19142748 0
1.1343975 0.76446605 -0.15987593 0
1.1662576 0.78593642 -0.13127027 0
2.86725 1.9322284 -0.24171512 0
4.3112102 2.9053075 -0.24202755 0
8.6259098 5.8129663 -0.24184588 0
0.73575008 0.52328902 -0.19191413 0
0.83471829 0.59367841 -0.19292958 0
0.94947302 0.67529565 -0.19149037 0
1.1078043 0.78790587 -0.19104581 0
1.1411006 0.81158733 -0.16365537 0
1.1509219 0.81857252 -0.13182758 0
2.8192267 2.0051243 -0.24185595 0
4.23283 3.0105245 -0.24181595 0
8.4673986 6.022285 -0.24158628 0
0.71772987 0.53824925 -0.19069648 0
0.80962533 0.60716474 -0.19061102 0
0.92653978 0.6948427 -0.19034146 0
1.0915616 0.81859791 -0.19174662 0
1.1054417 0.82900715 -0.16149059 0
1.0989921 0.82417035 -0.12822124 0
1.1020851 0.82648993 -0.096304573 0
1.0943859 0.82071596 -0.06368389 0
1.1026869 0.82694119 -0.032046419 0
1.0895178 0.8170653 3.8878719e-05 0
1.1052518 0.82886469 0.032199886 0
1.0994607 0.82452178 0.064057842 0
1.1039015 0.82785207 0.096542463 0
0.71539617 0.56525391 -0.19380522 0
0.79491615 0.62808484 -0.19081937 0
0.92058796 0.72738153 -0.19282876 0
1.0626738 0.83964747 -0.19033414 0
1.0978848 0.86746854 -0.16353297 0
1.1022193 0.87089336 -0.13112052 0
1.1048704 0.87298816 -0.098441981 0
1.1073289 0.87493062 -0.065701149 0
1.0938091 0.86424834 -0.032412019 0
1.0991205 0.86844492 3.9990802e-05 0
1.0860176 0.85809195 0.032260209 0
1.1062658 0.87409067 0.065718755 0
1.0906923 0.86178559 0.097258486 0
0.70169199 0.58377761 -0.19402242 0
0.7791062 0.64818293 -0.19089049 0
0.89865738 0.74764431 -0.19212645 0
1.0206239 0.84911531 -0.18658167 0
1.1046438 0.91901618 -0.16794123 0
1.0963647 0.91212833 -0.13312027 0
1.0996584 0.91486859 -0.10000306 0
1.0976764 0.91321963 -0.066474825 0
1.1029449 0.91760278 -0.033358373 0
1.092378 0.90881157 4.0567131e-05 0
1.0908829 0.90756774 0.033074629 0
1.1012101 0.91615957 0.066770792 0
1.1023371 0.91709715 0.10032894 0
0.68354547 0.59849966 -0.19312006 0
0.76564562 0.670385 -0.19167702 0
0.88198543 0.77224994 -0.19266775 0
0.99883515 0.87456137 -0.18657422 0
1.0958371 0.95949447 -0.17022984 0
1.1004417 0.96352625 -0.13652456 0
1.0921543 0.95626986 -0.10148318 0
1.0972617 0.96074182 -0.067896545 0
1.1096847 0.97161919 -0.034292981 0
1.1009029 0.96393007 4.1773896e-05 0
1.0987036 0.96200442 0.034037057 0
1.0995083 0.96270901 0.068119191 0
1.0976225 0.96105778 0.102075 0
1.0965986 0.96016127 0.13613172 0
1.0953292 0.95904976 0.27429834 0
0.66595894 0.6134662 -0.19246453 0
0.74649805 0.687657 -0.19116756 0
0.85420334 0.78687268 -0.19087639 0
0.96452469 0.88849825 -0.1842954 0
1.0586643 0.97521752 -0.16822529 0
1.0990558 1.0124252 -0.13947836 0
1.1048645 1.017776 -0.10501768 0
1.0963494 1.0099322 -0.069395252 0
1.0983124 1.0117403 -0.034719609 0
1.0982451 1.0116785 4.2628351e-05 0
1.1002141 1.0134922 0.034865182 0
1.0995257 1.012858 0.069681838 0
1.1004474 1.0137072 0.10468369 0
1.099599 1.0129256 0.13963339 0
1.0312712 0.94998366 0.26417685 0
0.65105069 0.63083154 -0.19269603 0
0.72529846 0.70277345 -0.19022036 0
0.84127998 0.81515306 -0.19252458 0
0.83679396 0.81080633 -0.16374737 0
0.84669971 0.82040447 -0.1377898 0
0.84218091 0.81602597 -0.1094579 0
0.84467739 0.81844497 -0.082224071 0
0.84553325 0.81927425 -0.054810803 0
0.84600723 0.8197335 -0.027389096 0
0.83603483 0.81007081 3.3233668e-05 0
0.83718598 0.81118619 0.027170107 0
0.8387171 0.81266975 0.054435775 0
0.8463338 0.82004988 0.082452923 0
1.0944664 1.0604765 0.14233513 0
1.0101171 0.97874665 0.19774586 0
1.0053719 0.97414899 0.23015866 0
0.98327678 0.95274001 0.25795999 0
0.63271827 0.6448065 -0.19202572 0
0.70766687 0.72118706 -0.19030936 0
0.80981326 0.8252849 -0.19002973 0
0.83996266 0.85601038 -0.16854149 0
0.84227663 0.85836858 -0.14055085 0
0.83976531 0.85580921 -0.11191563 0
0.84171605 0.85779727 -0.084016532 0
0.83662152 0.85260534 -0.055610336 0
0.83486456 0.85081488 -0.027714735 0
0.84211564 0.85820448 3.4325487e-05 0
0.84556401 0.86171871 0.028138891 0
0.83931082 0.85534608 0.05585767 0
0.83885819 0.8548848 0.083799995 0
0.83708882 0.85308164 0.11162776 0
1.107154 1.1283065 0.18484247 0
0.94769031 0.96579617 0.19023621 0
0.94717044 0.96526635 0.22234109 0
0.95834124 0.9766506 0.25780287 0
0.61566228 0.65993774 -0.19184327 0
0.69698244 0.74710608 -0.19244568 0
0.78779811 0.8444528 -0.18980457 0
0.8410238 0.90150625 -0.17326474 0
0.83618963 0.8963244 -0.14326447 0
0.84501868 0.90578842 -0.11562563 0
0.84477288 0.90552491 -0.086575329 0
0.82636374 0.8857919 -0.056396585 0
0.84781903 0.90879017 -0.02889701 0
0.8334015 0.89333576 3.4878216e-05 0
0.83943564 0.89980382 0.028681569 0
0.8396287 0.90001082 0.057372302 0
0.83949536 0.89986789 0.086105086 0
0.84047931 0.90092254 0.11507547 0
1.0963986 1.1752462 0.18793914 0
0.92756385 0.99426979 0.19117258 0
0.93252289 0.99958545 0.22475334 0
0.93107289 0.9980312 0.25716171 0
0.59944463 0.67597097 -0.19204487 0
0.67672813 0.76312065 -0.19211006 0
0.77519339 0.87415618 -0.19202216 0
0.85092378 0.95955449 -0.18023625 0
0.84266973 0.95024669 -0.1484365 0
0.8363921 0.94316769 -0.11766501 0
0.84126782 0.94866586 -0.088641696 0
0.83763707 0.94457155 -0.058774237 0
0.84484082 0.95269495 -0.029605623 0
0.83445293 0.94098091 3.5904708e-05 0
0.83621323 0.94296592 0.029375287 0
0.83473843 0.9413029 0.058642842 0
0.83810848 0.94510317 0.088381283 0
0.83831948 0.94534111 0.11800893 0
1.101946 1.2426227 0.19420423 0
1.102694 1.2434663 0.23366109 0
0.57626396 0.68383813 -0.19008733 0
0.65629315 0.77880675 -0.19182792 0
0.72582388 0.86131722 -0.18511885 0
0.85314792 1.0124094 -0.18606038 0
0.84358269 1.0010587 -0.15299918 0
0.83668298 0.99287093 -0.12119269 0
0.83983171 0.99660748 -0.09111169 0
0.84038514 0.99726415 -0.06071382 0
0.83251995 0.98793077 -0.03003807 0
0.83838809 0.99489433 3.7142639e-05 0
0.84130567 0.99835652 0.03042965 0
0.83680105 0.993011 0.060529191 0
0.84182584 0.99897379 0.091402985 0
0.83745879 0.99379152 0.12137991 0
0.84939665 1.0079579 0.15412992 0
1.0931647 1.2972313 0.23850365 0
0.56820649 0.70987874 -0.19327794 0
0.63904953 0.7983852 -0.19261624 0
0.7288326 0.91055411 -0.19168651 0
0.84903497 1.0607269 -0.19094115 0
0.84921741 1.0609548 -0.15882714 0
0.84273958 1.0528618 -0.12587899 0
0.83687484 1.0455347 -0.093623899 0
0.83875602 1.0478851 -0.062486939 0
0.83603007 1.0444794 -0.031105964 0
0.83218193 1.0396718 3.8018094e-05 0
0.8367995 1.0454407 0.031211093 0
0.83328533 1.0410503 0.062155675 0
0.83391821 1.041841 0.093369707 0
0.83661854 1.0452147 0.12504181 0
0.84256256 1.0526407 0.15766053 0
1.1010647 1.3755957 0.24772319 0
1.0982038 1.3720214 0.28893596 0
0.54097259 0.71195757 -0.19006595 0
0.61870116 0.81425375 -0.19261596 0
0.69946492 0.92054451 -0.19001272 0
0.73143607 0.96262074 -0.16990387 0
0.72796488 0.9580524 -0.14062715 0
0.72541112 0.95469147 -0.11191726 0
0.73181045 0.96311343 -0.084562495 0
0.72738671 0.95729142 -0.055972137 0
0.72521317 0.95443094 -0.027870221 0
0.7291134 0.95956397 3.4404886e-05 0
0.72916633 0.95963359 0.028090997 0
0.7259329 0.95537812 0.055928927 0
0.73303455 0.96472448 0.084773466 0
0.72850871 0.95876813 0.11246451 0
0.72103322 0.94892985 0.13935708 0
0.72889686 0.95927894 0.1693842 0
0.72822618 0.95839632 0.19789642 0
0.73316354 0.96489418 0.22832239 0
0.52687979 0.73098904 -0.19153561 0
0.60143197 0.83442223 -0.19373442 0
0.67465329 0.93600899 -0.18962969 0
0.72550142 1.0065553 -0.17437094 0
0.95236844 1.3213089 -0.1903587 0
0.84885705 1.1776979 -0.13550532 0
0.83883172 1.1637889 -0.10029124 0
0.84533483 1.1728113 -0.067304522 0
0.83637905 1.1603861 -0.033257287 0
0.84069514 1.1663742 4.1046158e-05 0
0.83972865 1.1650332 0.033472523 0
0.83445513 1.1577169 0.066519953 0
0.84028369 1.1658033 0.10054729 0
0.84162909 1.1676699 0.1344344 0
0.84274155 1.1692133 0.16852996 0
0.83949935 1.1647152 0.20185342 0
1.1010411 1.5275762 0.30958802 0
0.50850385 0.74439466 -0.19162433 0
0.57346588 0.83949196 -0.19149005 0
0.65386325 0.95718509 -0.19051579 0
0.77149409 1.1293839 -0.1922148 0
0.92347664 1.3518699 -0.19134274 0
1.1546739 1.6903177 -0.19107307 0
0.84859353 1.2422491 -0.10517348 0
0.83480483 1.222064 -0.068899937 0
0.84080023 1.2308406 -0.034657311 0
0.84112066 1.2313097 4.2570686e-05 0
0.83564031 1.223287 0.034529254 0
0.84466767 1.2365021 0.069799639 0
0.83595407 1.2237463 0.10369199 0
0.83514196 1.2225575 0.13828287 0
0.84210092 1.2327446 0.17456824 0
0.84121877 1.2314533 0.20967327 0
1.0963556 1.604946 0.31955853 0
1.1004076 1.6108778 0.36756024 0
0.4889459 0.75603789 -0.19138388 0
0.54760987 0.8467477 -0.18993197 0
0.62944639 0.9732883 -0.19049823 0
0.73620343 1.1383625 -0.19051985 0
0.87933493 1.3596811 -0.1892468 0
1.1057358 1.7097559 -0.19005518 0
1.4852691 2.2966135 -0.19120526 0
0.84911424 1.312952 -0.072792754 0
0.83746642 1.2949414 -0.035855651 0
0.83756346 1.2950916 4.403097e-05 0
0.84471363 1.3061476 0.036254801 0
0.84188777 1.3017781 0.072261952 0
0.83883643 1.2970599 0.10807575 0
0.83702695 1.2942621 0.14395796 0
0.83679235 1.2938992 0.18018016 0
0.83931291 1.2977967 0.21729323 0
0.83873898 1.2969092 0.25392997 0
1.0982552 1.6981889 0.38103631 0
0.46767783 0.76480287 -0.19055398 0
0.528337 0.86400008 -0.19075 0
0.60564625 0.99042535 -0.1907998 0
0.70785964 1.1575769 -0.19068487 0
0.84998637 1.3899996 -0.19042015 0
1.0611372 1.7352989 -0.18985698 0
1.4293255 2.3374045 -0.19153692 0
0.84589165 1.3833035 -0.075485483 0
0.85761172 1.4024695 -0.03822149 0
0.84411281 1.3803946 4.6192097e-05 0
0.83983558 1.3734 0.037521221 0
0.84183997 1.3766778 0.075216264 0
0.84521335 1.3821943 0.11335587 0
0.8413254 1.3758363 0.15062149 0
0.83973551 1.3732363 0.18821684 0
0.84087783 1.3751043 0.22661147 0
0.83766794 1.369855 0.26398891 0
1.1025602 1.8030386 0.3981916 0
0.44613111 0.77272016 -0.18966074 0
0.51251745 0.88770449 -0.19306603 0
0.57890892 1.0026976 -0.19028865 0
0.68200088 1.1812577 -0.19168924 0
0.81261891 1.4074944 -0.18994662 0
1.023121 1.772094 -0.19099665 0
1.3616452 2.358434 -0.19038339 0
1.3668888 2.3675158 -0.12726986 0
0.85363531 1.4785367 -0.039694745 0
0.83556002 1.4472295 4.7707708e-05 0
0.84521329 1.4639494 0.039399683 0
0.83989018 1.4547296 0.078297593 0
0.83799517 1.4514472 0.11726351 0
0.84064943 1.4560446 0.1570296 0
0.83986628 1.4546881 0.19641282 0
0.8388477 1.4529239 0.23587169 0
0.83637607 1.4486428 0.27501675 0
0.83605981 1.4480951 0.31504375 0
0.43217391 0.79417056 -0.19218722 0
0.48466706 0.89063293 -0.19098169 0
0.55608684 1.0218753 -0.19120368 0
0.64845008 1.1916035 -0.19065155 0
0.77719218 1.4281824 -0.19003084 0
0.97989428 1.8006713 -0.19135021 0
1.2947873 2.3793244 -0.18937145 0
1.2900785 2.3706715 -0.12564915 0
1.2904087 2.3712785 -0.062768094 0
0.84820342 1.558674 5.0659623e-05 0
0.84063506 1.5447662 0.040990662 0
0.83711433 1.5382963 0.081632234 0
0.83585107 1.5359751 0.12234925 0
0.84496564 1.5527241 0.16510364 0
0.83305401 1.530835 0.20379044 0
0.84288937 1.5489087 0.24792156 0
0.84018415 1.5439376 0.28899014 0
0.83564758 1.5356011 0.32938793 0
0.41307035 0.80691552 -0.19268715 0
0.46624488 0.91078973 -0.19271925 0
0.52644998 1.0283978 -0.1898775 0
0.62100172 1.2131007 -0.19152232 0
0.74419659 1.4537566 -0.1908737 0
0.93367195 1.8238887 -0.19125237 0
1.2432508 2.428638 -0.19073819 0
1.2406349 2.423528 -0.12675065 0
1.2437396 2.4295928 -0.063460559 0
1.2485669 2.4390225 7.8223369e-05 0
0.8528446 1.665996 0.043622456 0
0.83426142 1.6296943 0.085337877 0
0.83715189 1.6353408 0.12854032 0
0.83613557 1.6333555 0.17137879 0
0.83528322 1.6316905 0.21434197 0
0.84050727 1.6418955 0.25932714 0
0.83694571 1.6349381 0.30197334 0
0.8397398 1.6403962 0.34720987 0
0.38981387 0.81132442 -0.19132967 0
0.4418124 0.91954964 -0.19215214 0
0.50105119 1.0428441 -0.19014934 0
0.58709246 1.2219228 -0.19051509 0
0.70910901 1.4758774 -0.19136731 0
0.89351368 1.8596811 -0.19257948 0
1.1794266 2.4547551 -0.19039086 0
1.7842258 3.7135315 -0.19180165 0
4.5048714 9.3760443 -0.24185391 0
0.85366589 1.7767454 0.09188062 0
0.83657002 1.7411636 0.13515551 0
0.84021235 1.7487445 0.18120317 0
0.84053499 1.7494159 0.22694758 0
0.83901453 1.7462513 0.27237815 0
0.83668363 1.7414 0.31763542 0
0.83803785 1.7442186 0.36459211 0
0.37132424 0.82558167 -0.19242048 0
0.41682324 0.9267416 -0.1913957 0
0.4751659 1.0564574 -0.19038419 0
0.55502081 1.2340024 -0.19015384 0
0.67208725 1.4942814 -0.1914932 0
0.84092319 1.8696618 -0.19135424 0
1.1224248 2.4955368 -0.19129577 0
1.6852677 3.7469304 -0.19126889 0
4.2641678 9.4807138 -0.24170072 0
1.0655887 2.3691707 0.12108729 0
0.85079312 1.891606 0.14512037 0
0.83962965 1.8667858 0.19117779 0
0.84135818 1.870629 0.2398411 0
0.84147131 1.8708805 0.28841314 0
0.83695817 1.8608462 0.33546275 0
0.83592904 1.8585581 0.38395998 0
0.35152325 0.83742124 -0.19305064 0
0.39746246 0.94686055 -0.19341742 0
0.44700566 1.0648855 -0.18980947 0
0.52343416 1.2469584 -0.19005403 0
0.634983 1.5126973 -0.19173835 0
0.79385781 1.891179 -0.19144484 0
1.0666951 2.5411494 -0.19266711 0
1.5946269 3.7988224 -0.19180228 0
4.0224338 9.5824995 -0.24163049 0
0.99733579 2.3759174 0.12010734 0
0.84880698 2.0220826 0.15343787 0
0.84037161 2.0019872 0.20278706 0
0.83723527 1.9945157 0.25293529 0
0.84007841 2.0012887 0.30515099 0
0.83892381 1.9985381 0.35635453 0
0.83895051 1.9986017 0.40838718 0
0.3303318 0.84615052 -0.19307953 0
0.37069768 0.9495483 -0.19199413 0
0.42212179 1.0812721 -0.19077052 0
0.49601376 1.2705476 -0.19168027 0
0.60376149 1.5465453 -0.1940354 0
0.74976498 1.9205357 -0.19243973 0
0.99755448 2.5552526 -0.19176643 0
1.4971973 3.8350959 -0.19166479 0
3.7830434 9.6903296 -0.24186487 0
0.92310882 2.3645589 0.11831769 0
0.85092288 2.1796534 0.16371273 0
0.83926284 2.149786 0.21554378 0
0.83750963 2.1452951 0.26929009 0
0.8386302 2.1481655 0.32421574 0
0.83689094 2.1437104 0.37835309 0
0.84130663 2.1550212 0.43587172 0
0.30647829 0.84758073 -0.1915798 0
0.34736511 0.96065527 -0.19240595 0
0.39679632 1.0973597 -0.19178089 0
0.43308297 1.1977122 -0.17898597 0
0.43557277 1.2045978 -0.14970642 0
0.43635282 1.2067552 -0.11977649 0
0.93491346 2.5855489 -0.19220805 0
1.4015946 3.8761787 -0.19188894 0
3.5358646 9.7786074 -0.24176383 0
0.85738534 2.3711412 0.11752684 0
0.84892786 2.3477516 0.17467357 0
0.84148884 2.3271787 0.23112667 0
0.84080547 2.3252888 0.28912809 0
0.83947927 2.3216212 0.34708652 0
0.84163147 2.3275731 0.4069252 0
0.84026194 2.3237855 0.46556818 0
0.28656128 0.85974151 -0.19263241 0
0.32209495 0.96634966 -0.19185716 0
0.36613691 1.0984844 -0.19030185 0
0.40346003 1.2104613 -0.17931235 0
0.40242741 1.2073632 -0.14874046 0
0.40361539 1.2109275 -0.11914158 0
0.86931348 2.6081154 -0.19219336 0
1.3028418 3.9087877 -0.19181432 0
3.2886219 9.8665276 -0.24180844 0
0.79314882 2.379606 0.11691695 0
0.84322512 2.5298452 0.18657859 0
0.83648741 2.5096307 0.24707165 0
0.83765048 2.5131199 0.30975577 0
0.83968991 2.5192387 0.37334344 0
0.84063113 2.5220625 0.43707898 0
0.83744615 2.512507 0.49898478 0
0.26336741 0.86208099 -0.19160622 0
0.2980848 0.97572148 -0.19216296 0
0.33811066 1.1067382 -0.19019282 0
0.38120297 1.2477924 -0.18335877 0
0.38087586 1.2467215 -0.1523564 0
0.38098559 1.2470808 -0.12171382 0
0.7286948 2.3852379 -0.17435859 0
0.72100973 2.3600824 -0.11488575 0
0.72328657 2.3675351 -0.057557728 0
0.72412056 2.370265 7.0754555e-05 0
0.72464007 2.3719654 0.057807121 0
0.72245473 2.3648124 0.11525749 0
0.84348339 2.7609756 0.20199031 0
0.83752638 2.7414765 0.26773041 0
0.83763123 2.7418196 0.33523172 0
0.83600515 2.7364972 0.4022854 0
0.8372153 2.7404583 0.47111544 0
0.24210055 0.87049431 -0.19205691 0
0.27097014 0.97429752 -0.19047496 0
0.31196478 1.1216974 -0.19134954 0
0.36424217 1.3096656 -0.19103909 0
0.44103074 1.5857657 -0.19236796 0
0.55251461 1.986616 -0.1924694 0
0.66094822 2.3764987 -0.17244545 0
0.65911043 2.3698907 -0.11451697 0
0.65852606 2.3677897 -0.057141654 0
0.66115135 2.3772292 7.0441893e-05 0
0.65649325 2.3604805 0.057105228 0
0.65714216 2.3628137 0.11431532 0
0.81198162 2.919553 0.21202487 0
0.81398338 2.9267504 0.28372744 0
0.80911559 2.9092481 0.3530933 0
0.80946344 2.9104986 0.42472631 0
0.80966705 2.9112308 0.49680185 0
0.21983206 0.87541771 -0.19185793 0
0.24718173 0.98432982 -0.19115575 0
0.28291407 1.1266236 -0.190911 0
0.33227783 1.3232005 -0.19172905 0
0.39552212 1.5750526 -0.18979692 0
0.49724373 1.9801296 -0.19056442 0
0.59394908 2.3652306 -0.17048575 0
0.59432226 2.3667166 -0.11360258 0
0.59540904 2.3710446 -0.056839447 0
0.5956949 2.3721828 6.9824615e-05 0
0.59626192 2.3744409 0.057060722 0
0.59679401 2.37656 0.11421526 0
0.76863909 3.0608833 0.22080943 0
0.76910627 3.0627437 0.29493529 0
0.77080715 3.0695169 0.37006599 0
0.77041799 3.0679672 0.44472638 0
0.19863944 0.88498491 -0.19279455 0
0.22218607 0.98989064 -0.19108577 0
0.25614449 1.1411833 -0.19222148 0
0.29789937 1.327211 -0.19115984 0
0.35484207 1.580904 -0.18936253 0
0.44898507 2.0003328 -0.19135725 0
0.54917687 2.4467106 -0.17530392 0
0.550901 2.4543922 -0.11710631 0
0.55148894 2.4570115 -0.058547955 0
0.54957026 2.4484634 7.1638824e-05 0
0.55188358 2.4587698 0.05873381 0
0.54939348 2.4476759 0.1169294 0
0.71272552 3.1753578 0.22769734 0
0.71426606 3.1822214 0.30460772 0
0.71257341 3.1746802 0.38045526 0
0.71242404 3.1740148 0.45734671 0
0.17456549 0.88122576 -0.19095498 0
0.19775322 0.99827993 -0.19168071 0
0.22402228 1.1308891 -0.18947481 0
0.26419383 1.3336796 -0.19107027 0
0.32055315 1.6181875 -0.19279793 0
0.39658016 2.0019803 -0.19049665 0
0.41450185 2.0924509 -0.14912456 0
0.41324627 2.0861125 -0.099005431 0
0.41587916 2.0994036 -0.049760576 0
0.41687882 2.10445 6.1246094e-05 0
0.41184977 2.0790629 0.049399536 0
0.4151316 2.0956297 0.099579357 0
0.41641334 2.1021001 0.14993522 0
0.41497445 2.0948365 0.19945532 0
0.41403764 2.0901074 0.24914783 0
0.40389746 2.0389187 0.29222775 0
0.27098471 1.3679606 0.26274589 0
0.15421349 0.89661604 -0.19338495 0
0.1723974 1.0023396 -0.19156373 0
0.19611864 1.1402577 -0.19015458 0
0.23118339 1.3441285 -0.19167028 0
0.27824727 1.6177635 -0.19184959 0
0.34666401 2.0155468 -0.19089423 0
0.36831689 2.1414394 -0.151905 0
0.88159537 5.1257029 -0.24212915 0
1.7621363 10.245275 -0.24170491 0
0.58225763 3.3853168 0.16011293 0
0.57783884 3.3596256 0.23851375 0
0.58015501 3.3730922 0.31966567 0
0.26026705 1.5132245 0.17954123 0
0.27028188 1.5714519 0.22417903 0
0.27258718 1.5848551 0.26439199 0
0.23579024 1.3709133 0.26208651 0
0.130619 0.89390564 -0.19202816 0
0.14757505 1.0099462 -0.19224443 0
0.16431314 1.1244951 -0.18677489 0
0.19666193 1.3458778 -0.19115107 0
0.23706841 1.622404 -0.19162931 0
0.29479635 2.0174716 -0.19031122 0
0.39489377 2.7024994 -0.19093651 0
0.75172478 5.1445117 -0.24204431 0
1.5040985 10.293466 -0.24186918 0
0.50602359 3.4630284 0.16313241 0
0.50438184 3.451793 0.24407563 0
0.50437117 3.45172 0.32580706 0
0.22233185 1.5215527 0.17980631 0
0.27459729 1.8792369 0.26701307 0
0.20009778 1.3693913 0.26074705 0
0.10756174 0.89308429 -0.19120765 0
0.12049954 1.0005066 -0.18980825 0
0.13846971 1.149713 -0.1903224 0
0.16188778 1.344153 -0.19026521 0
0.19668949 1.6331112 -0.19224642 0
0.24490499 2.0334442 -0.19117402 0
0.32721338 2.7168503 -0.19130602 0
0.62198269 5.1643176 -0.24216047 0
1.2422352 10.314269 -0.24154438 0
0.42513806 3.529918 0.16572514 0
0.42383218 3.5190752 0.24799778 0
0.42352143 3.5164952 0.33080685 0
0.42348152 3.5161638 0.41412041 0
0.22929662 1.9038481 0.26960182 0
0.16556011 1.3746443 0.26086855 0
0.085039772 0.89599502 -0.19131038 0
0.096228041 1.0138767 -0.19182286 0
0.1099903 1.1588784 -0.19131917 0
0.12919796 1.3612539 -0.19216307 0
0.15480229 1.6310259 -0.19148004 0
0.19440451 2.0482824 -0.19204657 0
0.25771976 2.7153835 -0.19068401 0
0.49165943 5.1802158 -0.24224694 0
0.983235 10.359549 -0.24194656 0
0.34092146 3.5920124 0.16818286 0
0.33831939 3.5645964 0.25052422 0
0.33934522 3.5754046 0.33543611 0
0.33931458 3.5750821 0.41991723 0
0.33981076 3.5803099 0.50562823 0
0.17353871 1.8284364 0.30196416 0
0.12939712 1.3633524 0.25802371 0
0.062732413 0.90255344 -0.19231141 0
0.070723131 1.0175188 -0.19211303 0
0.079689018 1.1465142 -0.18888576 0
0.095042005 1.367403 -0.19263116 0
0.11390599 1.6388059 -0.19199474 0
0.14165831 2.0380881 -0.19069481 0
0.19044727 2.7400324 -0.19201624 0
0.36009464 5.180809 -0.24177268 0
0.72061187 10.367698 -0.24163517 0
0.25196809 3.6251543 0.16938291 0
0.25070268 3.6069484 0.25297552 0
0.13168998 1.8946705 0.17738524 0
0.13317204 1.9159933 0.22457987 0
0.13260052 1.9077706 0.26886609 0
0.12313273 1.7715542 0.29196391 0
0.094621174 1.3613484 0.2571106 0
0.039478209 0.89339548 -0.19008724 0
0.044784658 1.0134809 -0.1910764 0
0.05102437 1.1546862 -0.18995942 0
0.060304534 1.3646971 -0.19197442 0
0.072543897 1.6416751 -0.19205523 0
0.08961647 2.028029 -0.18948163 0
0.12076272 2.7328713 -0.19123991 0
0.22866835 5.1747856 -0.24114545 0
0.45890409 10.385041 -0.24169247 0
0.16210909 3.6685436 0.17116456 0
0.16168503 3.6589472 0.25625467 0
0.085593313 1.9369845 0.1810869 0
0.084630512 1.9151963 0.22416469 0
0.08572194 1.9398954 0.27300164 0
0.076404072 1.7290312 0.28454742 0
0.060117282 1.3604596 0.25657448 0
0.017112868 0.90406382 -0.19220403 0
0.019054992 1.0066652 -0.18964034 0
0.022188799 1.1722226 -0.19269088 0
0.025654126 1.355294 -0.1904999 0
0.031103218 1.6431667 -0.19207671 0
0.038529754 2.0355065 -0.19002892 0
0.052031815 2.7488134 -0.1922024 0
0.098343298 5.1954246 -0.24191451 0
0.19671997 10.392612 -0.24167615 0
0.070183985 3.7077827 0.17285766 0
0.0700057 3.698364 0.25880906 0
0.069968723 3.6964104 0.34529898 0
0.069725215 3.6835465 0.43079859 0
0.031680059 1.6736408 0.27521256 0
0.026076868 1.3776273 0.25960538 0
-0.0057131047 0.90581107 -0.19254485 0
-0.0063713789 1.0101802 -0.19027223 0
-0.007244701 1.1486452 -0.18878515 0
-0.0086445287 1.3705875 -0.19261888 0
-0.01034939 1.6408927 -0.19178037 0
-0.012843193 2.0362844 -0.19007127 0
-0.017254356 2.7356732 -0.19125316 0
-0.032757804 5.1937399 -0.24179757 0
-0.065527767 10.389408 -0.24156319 0
-0.023441959 3.7167156 0.17324653 0
-0.023356237 3.7031243 0.25910094 0
-0.023422685 3.7136598 0.34685504 0
-0.02345195 3.7182996 0.4347938 0
-0.010292817 1.6319231 0.2683098 0
-0.0086325109 1.3686821 0.25787866 0
-0.028676499 0.90888762 -0.1932911 0
-0.032118402 1.017977 -0.19183238 0
-0.036247015 1.1488314 -0.18890595 0
-0.042957515 1.3615173 -0.19143561 0
-0.051653277 1.6371254 -0.19143146 0
-0.064870611 2.0560422 -0.19200718 0
-0.086575791 2.7439773 -0.19192535 0
-0.119633 3.7917094 -0.17660956 0
-0.1198356 3.7981308 -0.088352181 0
-0.11987996 3.7995367 0.00010852462 0
-0.11984833 3.7985344 0.088578679 0
-0.1177791 3.7329509 0.17408642 0
-0.11741348 3.7213626 0.26050141 0
-0.11732987 3.7187128 0.34749293 0
-0.11755425 3.7258246 0.43588188 0
-0.051687907 1.6382229 0.26947424 0
-0.043244854 1.3706244 0.25836802 0
-0.051582363 0.90757334 -0.19322693 0
-0.058422655 1.0279258 -0.19392329 0
-0.06612362 1.1634215 -0.19151849 0
-0.077371329 1.361321 -0.19162154 0
-0.093171783 1.6393244 -0.19190246 0
-0.1166162 2.0518208 -0.19182672 0
-0.15585972 2.7422965 -0.19202177 0
-0.21478753 3.7791102 -0.17621909 0
-0.21464565 3.776614 -0.087949671 0
-0.21510752 3.7847402 0.0001082226 0
-0.21537882 3.7895138 0.088466913 0
-0.21255754 3.7398744 0.17460388 0
-0.21165326 3.723964 0.26097435 0
-0.21181871 3.7268751 0.3486442 0
-0.078426085 1.3798791 0.16161129 0
-0.078296848 1.3776052 0.19399406 0
-0.077915646 1.3708981 0.22575308 0
-0.077686101 1.3668593 0.25794572 0
-0.07337489 0.89272124 -0.1903985 0
-0.083669752 1.0179745 -0.19238305 0
-0.094951756 1.1552378 -0.19050513 0
-0.11150213 1.3565992 -0.19129211 0
-0.13453744 1.6368601 -0.19195035 0
-0.16835721 2.0483308 -0.19183663 0
-0.2253965 2.7423038 -0.19235936 0
-0.42564997 5.1787028 -0.24190572 0
-0.85202807 10.366264 -0.24183303 0
-0.30673689 3.7319379 0.17453921 0
-0.30522218 3.7135091 0.2606985 0
-0.30549946 3.7168827 0.3483198 0
-0.30489916 3.709579 0.43522814 0
-0.11427821 1.3903747 0.19613595 0
-0.11485805 1.3974292 0.23052607 0
-0.11283929 1.3728678 0.25953442 0
-0.095985174 0.89160204 -0.19061577 0
-0.11073073 1.0285729 -0.19485211 0
-0.12295994 1.1421695 -0.18880175 0
-0.14524198 1.3491462 -0.19069736 0
-0.17518316 1.6272686 -0.19128315 0
-0.21941642 2.0381494 -0.1913408 0
-0.29126707 2.7055669 -0.19023754 0
-0.55579507 5.162756 -0.24173908 0
-1.1127977 10.336729 -0.24172223 0
-0.40048122 3.7200525 0.17440052 0
-0.39955392 3.7114387 0.26117793 0
-0.3995674 3.7115638 0.3486554 0
-0.39904431 3.7067051 0.43593377 0
-0.14983535 1.3918139 0.19680978 0
-0.15058751 1.3988007 0.23130564 0
-0.14784339 1.3733107 0.26024067 0
-0.11987147 0.89955914 -0.1929023 0
-0.13477245 1.0113814 -0.19217855 0
-0.15379564 1.1541384 -0.19136092 0
-0.18123332 1.3600407 -0.19282237 0
-0.2172796 1.630545 -0.1922517 0
-0.27385405 2.0551002 -0.19351938 0
-0.36143872 2.7123673 -0.1912962 0
-0.68566978 5.1455154 -0.24166517 0
-1.3744948 10.314709 -0.24194148 0
-0.49236161 3.6948602 0.17374673 0
-0.49185324 3.6910455 0.26053345 0
-0.24283926 1.8223541 0.17170863 0
-0.2431595 1.8247572 0.21525711 0
-0.18639411 1.3987691 0.19839534 0
-0.18595161 1.3954484 0.23145367 0
-0.18092051 1.3576932 0.2580643 0
-0.14293773 0.8988117 -0.19345404 0
-0.16085483 1.0114769 -0.19290668 0
-0.18160418 1.1419516 -0.19003972 0
-0.21460238 1.3494487 -0.19202743 0
-0.25853634 1.6257112 -0.19238986 0
-0.32117739 2.0196068 -0.19087966 0
-0.42847127 2.6942849 -0.19072285 0
-0.81492627 5.1243663 -0.24156094 0
-1.6318841 10.261507 -0.24158274 0
-0.58128715 3.6552119 0.17251727 0
-0.58195198 3.6593924 0.25925341 0
-0.27998841 1.7606047 0.16650321 0
-0.28221059 1.7745781 0.21011105 0
-0.28108653 1.7675099 0.25162202 0
-0.21704069 1.3647811 0.26036981 0
-0.16543214 0.89417326 -0.19329281 0
-0.18614863 1.0061475 -0.19272494 0
-0.21013659 1.1358042 -0.18983887 0
-0.24869408 1.3442104 -0.19211404 0
-0.29663351 1.6033267 -0.19056614 0
-0.37176493 2.0094175 -0.19074273 0
-0.49542823 2.6778274 -0.19038236 0
-0.94773442 5.1225767 -0.24252692 0
-1.8921942 10.227453 -0.24182834 0
-0.67027479 3.6228864 0.17173533 0
-0.66951483 3.6187787 0.25749123 0
-0.6699062 3.620894 0.34392321 0
-0.66668004 3.603456 0.42850703 0
-0.28813592 1.5573964 0.2603969 0
-0.25249377 1.364748 0.26149601 0
-0.18888515 0.89418739 -0.19426453 0
-0.20924652 0.99057865 -0.19069363 0
-0.23784792 1.1259785 -0.18913971 0
-0.27881971 1.3199399 -0.18959068 0
-0.34094828 1.6140584 -0.19280306 0
-0.42327103 2.0037763 -0.19116043 0
-0.564803 2.6737926 -0.19104815 0
-0.61976612 2.9339893 -0.13960502 0
-0.62024134 2.9362392 -0.069775358 0
-0.61675316 2.9197259 8.5192827e-05 0
-0.75416338 3.5702298 0.17008738 0
-0.75195992 3.5597982 0.2545639 0
-0.75266159 3.5631201 0.3401317 0
-0.75340998 3.566663 0.42625725 0
-0.28719375 1.3595828 0.26181179 0
-0.20824833 0.87593818 -0.19138078 0
-0.23743591 0.99870759 -0.19335057 0
-0.26971871 1.1344961 -0.19165295 0
-0.31520417 1.3258179 -0.19151668 0
-0.37465483 1.5758805 -0.18931188 0
-0.47271141 1.9883281 -0.1907641 0
-0.52533442 2.209672 -0.15878256 0
-0.61735797 2.5967433 -0.12426 0
-0.61897206 2.6035323 -0.062220503 0
-0.62117696 2.6128068 7.6670469e-05 0
-0.83629626 3.5176458 0.16853414 0
-0.83516306 3.5128791 0.25263557 0
-0.83431298 3.5093036 0.33689722 0
-0.83331305 3.5050976 0.42127889 0
-0.8346166 3.5105808 0.50731951 0
-0.23076832 0.87224013 -0.19178428 0
-0.26108608 0.98683286 -0.19226614 0
-0.299678 1.1326996 -0.19256587 0
-0.34479481 1.3032286 -0.18945034 0
-0.41601312 1.572414 -0.19009624 0
-0.52062738 1.9678267 -0.18999736 0
-0.58536452 2.2125154 -0.15999755 0
-0.64754564 2.4475427 -0.11786495 0
-0.64869916 2.4519026 -0.058969282 0
-0.64693534 2.4452357 7.2209383e-05 0
-0.91263944 3.4495234 0.16632096 0
-0.91105926 3.4435508 0.24922399 0
-0.90980846 3.4388232 0.33222967 0
-0.91162461 3.4456878 0.41677108 0
-0.91279471 3.4501104 0.50175029 0
-0.25483307 0.87344307 -0.19340137 0
-0.28280792 0.96932715 -0.19018558 0
-0.32527444 1.1148816 -0.19087163 0
-0.34403601 1.1791871 -0.17262572 0
-0.45857638 1.5717756 -0.19135734 0
-0.57479471 1.9701151 -0.19155799 0
-0.71467477 2.4495554 -0.17838664 0
-0.71433198 2.4483807 -0.11873571 0
-0.71518993 2.4513211 -0.059370518 0
-0.71434385 2.4484212 7.2812683e-05 0
-0.98535782 3.3773246 0.16398671 0
-0.98163164 3.364553 0.2452216 0
-0.98401833 3.3727334 0.32813957 0
-0.98211014 3.3661931 0.41002342 0
-0.98101646 3.3624444 0.49244505 0
-0.27072981 0.84775931 -0.1891671 0
-0.31055692 0.97247326 -0.1922795 0
-0.35371545 1.1076193 -0.19109583 0
-0.37925172 1.1875831 -0.17520033 0
-0.39593777 1.2398336 -0.15211293 0
-0.39798746 1.2462519 -0.12211321 0
-0.39935809 1.250544 -0.091774523 0
-0.40064567 1.2545758 -0.061312277 0
-0.39986151 1.2521204 -0.030560805 0
-0.39852855 1.2479464 3.7399423e-05 0
-0.40067196 1.2546582 0.030697988 0
-0.3987529 1.2486489 0.061097622 0
-0.39877525 1.2487189 0.09171579 0
-0.4019829 1.2587633 0.12341523 0
-0.39518788 1.2374854 0.15190002 0
-0.39688364 1.2427955 0.18342158 0
-0.39761001 1.2450701 0.21488664 0
-0.39763704 1.2451546 0.24627192 0
-0.29756495 0.85658193 -0.1927502 0
-0.33845672 0.97429448 -0.19426674 0
-0.38422313 1.1060395 -0.19243506 0
-0.43021113 1.2384223 -0.18424365 0
-0.43187585 1.2432145 -0.15381606 0
-0.43501198 1.2522422 -0.12373656 0
-0.43199179 1.2435482 -0.092031956 0
-0.43289953 1.2461612 -0.061415449 0
-0.43205884 1.2437413 -0.0306127 0
-0.4295586 1.2365439 3.7370715e-05 0
-0.43595499 1.2549567 0.030964646 0
-0.4304972 1.2392458 0.061149698 0
-0.4296301 1.2367498 0.091603942 0
-0.43183437 1.243095 0.1229085 0
-0.43509689 1.2524867 0.15504 0
-0.43506065 1.2523823 0.18639772 0
-0.43252599 1.245086 0.21670446 0
-0.43283847 1.2459855 0.24851778 0
-0.31777078 0.8453117 -0.19195774 0
-0.35744128 0.95084035 -0.19132805 0
-0.40819049 1.0858399 -0.19065237 0
-0.47951803 1.2755804 -0.19151132 0
-0.48416972 1.2879546 -0.1608122 0
-0.51641798 1.3737391 -0.1369862 0
-0.51381612 1.366818 -0.10208209 0
-0.51424628 1.3679621 -0.068036243 0
-0.50881511 1.3535146 -0.03361997 0
-0.50894541 1.3538611 4.1291325e-05 0
-1.2034906 3.2014418 0.079716057 0
-1.1953958 3.1799088 0.15834865 0
-1.1619651 3.0909786 0.23104213 0
-1.1612375 3.0890431 0.30822253 0
-1.1616029 3.0900152 0.386006 0
-1.1618041 3.0905504 0.46419698 0
-0.33832687 0.83536869 -0.19157791 0
-0.38192356 0.94301403 -0.19163182 0
-0.43560997 1.075572 -0.19071919 0
-0.50981283 1.2587876 -0.19086115 0
-0.51320994 1.2671754 -0.15978414 0
-0.50992209 1.2590573 -0.12679335 0
-0.51201427 1.2642232 -0.09535449 0
-0.51582283 1.273627 -0.063971564 0
-0.51198989 1.264163 -0.031711444 0
-0.51301366 1.2666909 3.9015198e-05 0
-1.26983 3.135359 0.15767595 0
-1.2006147 2.9644585 0.22377884 0
-1.2022854 2.9685836 0.29913566 0
-1.198715 2.9597678 0.37339592 0
-1.1997383 2.9622943 0.44933805 0
-0.35692078 0.82110143 -0.19031125 0
-0.41157404 0.94683206 -0.1944567 0
-0.46623194 1.0725733 -0.19221281 0
-0.51669389 1.1886618 -0.18214776 0
-0.5162189 1.187569 -0.15134087 0
-0.51149768 1.1767077 -0.11976228 0
-0.5126847 1.1794386 -0.089906923 0
-0.51104307 1.175662 -0.05967984 0
-0.51186657 1.1775564 -0.029853487 0
-0.51111495 1.1758274 3.66022e-05 0
-1.3561306 3.1197982 0.1585642 0
-1.2244538 2.8168738 0.21490251 0
-1.2265366 2.8216653 0.28735903 0
-1.226751 2.8221583 0.35982701 0
-1.2286962 2.8266335 0.43332615 0
-1.2290518 2.8274515 0.50688028 0
-0.37841001 0.81373912 -0.19075772 0
-0.43421206 0.93373674 -0.1939562 0
-0.48778141 1.0489331 -0.19012201 0
-0.51202965 1.101077 -0.17065243 0
-0.51555616 1.1086605 -0.1428977 0
-0.50766301 1.0916868 -0.11237735 0
-0.51465338 1.1067191 -0.085326612 0
-0.50488389 1.0857106 -0.055742767 0
-0.51367623 1.1046178 -0.028324004 0
-0.51921976 1.1165388 3.5153349e-05 0
-1.433195 3.0819662 0.15842938 0
-1.2480905 2.6839142 0.20709613 0
-1.2387681 2.6638672 0.27438551 0
-1.2374163 2.6609602 0.34314686 0
-1.2415193 2.6697836 0.41395271 0
-1.2389294 2.6642141 0.48306841 0
-0.40063709 0.80759329 -0.19162637 0
-0.45333022 0.91381061 -0.19213261 0
-0.50689667 1.0217885 -0.18746114 0
-0.51083767 1.0297327 -0.1615418 0
-0.51040083 1.028852 -0.13422865 0
-0.51384425 1.0357932 -0.10792434 0
-0.51511961 1.0383639 -0.081033081 0
-0.51516694 1.0384594 -0.053967163 0
-0.51061147 1.0292766 -0.026714088 0
-0.50686926 1.0217332 3.2560874e-05 0
-1.2490318 2.5177641 0.19664551 0
-1.2413766 2.5023332 0.26089117 0
-1.2406192 2.5008061 0.32642794 0
-1.2399856 2.4995291 0.39228213 0
-1.2392008 2.497947 0.45844623 0
-0.41526276 0.78657657 -0.1890662 0
-0.46887347 0.88812411 -0.1891598 0
-0.53678411 1.0167581 -0.18896362 0
-0.53519088 1.0137403 -0.16110072 0
-0.53041023 1.0046849 -0.13277994 0
-0.53099799 1.0057983 -0.10616162 0
-0.53692025 1.0170159 -0.080399029 0
-0.53800762 1.0190756 -0.053648405 0
-0.54019797 1.0232246 -0.026902307 0
-0.5355916 1.0144993 3.27507e-05 0
-1.25116 2.3699045 0.18750384 0
-1.2378806 2.3447511 0.2476403 0
-1.2376338 2.3442838 0.3099758 0
-1.241549 2.3516998 0.37388024 0
-1.2451164 2.3584569 0.43847355 0
-1.2402434 2.349227 0.50051421 0
-0.43819654 0.78159183 -0.19046575 0
-0.49876091 0.8896178 -0.1920979 0
-0.56198871 1.0023944 -0.1888701 0
-0.56153411 1.0015836 -0.16136967 0
-0.56359673 1.0052626 -0.13469334 0
-0.56244057 1.0032004 -0.10735156 0
-0.56344974 1.0050004 -0.080547713 0
-0.56067437 1.0000501 -0.053374786 0
-0.55802387 0.99532247 -0.026530556 0
-0.55825979 0.99574327 3.2589691e-05 0
-1.295727 2.311131 0.06175511 0
-1.2956686 2.3110268 0.12349598 0
-1.2504325 2.2303412 0.17890175 0
-1.2371429 2.2066371 0.23627593 0
-1.2423946 2.2160041 0.29706547 0
-1.2393147 2.2105107 0.35629299 0
-1.2378131 2.2078326 0.41614589 0
-1.2454104 2.2213836 0.47982073 0
-0.46272415 0.77861065 -0.19252393 0
-0.52431136 0.88224143 -0.19330101 0
-0.58584839 0.98578775 -0.18846707 0
-0.58749354 0.98855597 -0.16160823 0
-0.58547366 0.98515725 -0.13393672 0
-0.58537781 0.9849959 -0.10695045 0
-0.58719683 0.98805666 -0.080351941 0
-0.5883854 0.99005669 -0.05361693 0
-0.58505899 0.98445946 -0.026626121 0
-0.58605307 0.9861322 3.2748805e-05 0
-1.353579 2.2776227 0.061752938 0
-1.3579561 2.2849879 0.12389655 0
-1.2477612 2.0995667 0.17088363 0
-1.2446959 2.0944088 0.22755034 0
-1.2385614 2.0840864 0.28348157 0
-1.2348007 2.0777583 0.33981079 0
-1.2401391 2.0867412 0.39909434 0
-1.2378876 2.0829527 0.4565227 0
-0.47937495 0.76216131 -0.19138728 0
-0.53840506 0.85601366 -0.19047113 0
-0.60920697 0.96858209 -0.18805733 0
-0.6118418 0.97277117 -0.16150081 0
-0.6115889 0.97236913 -0.13425393 0
-0.60708213 0.96520382 -0.1064312 0
-0.60693383 0.96496803 -0.079694666 0
-0.60941851 0.96891844 -0.05328818 0
-0.60705185 0.96515566 -0.026509969 0
-0.61270994 0.97415155 3.285403e-05 0
-1.2522467 1.9909552 0.16456372 0
-1.2432414 1.9766377 0.2180946 0
-1.2422258 1.9750228 0.27282429 0
-1.2400113 1.9715021 0.32744712 0
-1.2471995 1.9829307 0.38513795 0
-1.2422562 1.9750712 0.43960994 0
-0.50448912 0.7589047 -0.19370517 0
-0.56291991 0.84680223 -0.19152182 0
-0.64007276 0.96286356 -0.19002309 0
-0.63940096 0.96185297 -0.1623157 0
-0.6402055 0.96306324 -0.13515699 0
-0.63973558 0.96235627 -0.10786328 0
-0.64301372 0.9672876 -0.081200697 0
-0.63385242 0.95350629 -0.053303417 0
-0.64219558 0.96605694 -0.026971331 0
-0.63721603 0.95856619 3.2860338e-05 0
-1.252511 1.8841566 0.15829872 0
-1.2407608 1.8664806 0.20932887 0
-1.2413757 1.8674055 0.2622028 0
-1.2477674 1.8770207 0.31688434 0
-1.2408952 1.8666826 0.36852509 0
-1.2436299 1.8707966 0.42325211 0
-0.5207001 0.74197817 -0.19267783 0
-0.58885294 0.83909333 -0.19307816 0
-0.66689122 0.95029497 -0.19080366 0
-0.66351736 0.94548738 -0.16232829 0
-0.66653138 0.94978225 -0.13561083 0
-0.66621411 0.94933015 -0.10825343 0
-0.65694183 0.93611753 -0.079950489 0
-0.66277528 0.94442993 -0.053714044 0
-0.6678524 0.95166463 -0.027031505 0
-0.66335082 0.94525009 3.2967295e-05 0
-1.3046368 1.8590586 0.15890594 0
-1.251197 1.7829089 0.20343302 0
-1.2423011 1.7702326 0.25288069 0
-1.2395042 1.766247 0.30336803 0
-1.2396665 1.7664782 0.35480642 0
-1.2397578 1.7666085 0.40663007 0
-0.53506529 0.72294313 -0.19118078 0
-0.60267454 0.81429201 -0.19081062 0
-0.68564117 0.92639077 -0.18941832 0
-0.69203728 0.93503273 -0.16348004 0
-0.69491512 0.93892109 -0.13652082 0
-0.6899454 0.93220633 -0.108252 0
-0.69211257 0.93513447 -0.081332527 0
-0.69796073 0.94303614 -0.054619271 0
-0.6950841 0.93914938 -0.027165672 0
-0.68866432 0.93047541 3.3047676e-05 0
-1.344193 1.8161803 0.1580904 0
-1.2506262 1.6897594 0.19634354 0
-1.2409728 1.6767162 0.2439183 0
-1.2375076 1.6720344 0.29245767 0
-1.2405474 1.6761416 0.34284151 0
-1.2309016 1.6631088 0.38983366 0
-0.5537107 0.70995021 -0.19137958 0
-0.63550109 0.81481922 -0.19463065 0
-0.71962589 0.92268133 -0.19231232 0
-0.72243404 0.92628187 -0.16508541 0
-0.71858603 0.92134804 -0.13655925 0
-0.71474129 0.91641849 -0.1084789 0
-0.71785289 0.92040807 -0.081601515 0
-0.71803331 0.92063946 -0.054354403 0
-0.71797913 0.92056996 -0.027143769 0
-0.7176652 0.92016739 3.3314285e-05 0
-1.3952851 1.7889901 0.15873842 0
-1.2445761 1.5957558 0.18901044 0
-1.2331796 1.5811435 0.23446806 0
-1.2418038 1.5922012 0.2838856 0
-1.2432371 1.594039 0.33236036 0
-1.236809 1.5857971 0.3789081 0
-0.56940812 0.69327092 -0.19069669 0
-0.65022922 0.79167295 -0.19296041 0
-0.73400027 0.89366668 -0.19006553 0
-0.74343884 0.9051584 -0.16461241 0
-0.74492276 0.90696508 -0.1371704 0
-0.74636292 0.90871853 -0.10976233 0
-0.74495459 0.90700388 -0.082053937 0
-0.74152309 0.90282589 -0.054390322 0
-0.73975784 0.90067661 -0.027099092 0
-0.74633211 0.90868104 3.3569708e-05 0
-1.4417062 1.7553191 0.15892883 0
-1.2496458 1.5214801 0.18388999 0
-1.2420895 1.51228 0.22883217 0
-1.2372098 1.506339 0.27405679 0
-1.241425 1.511471 0.32157522 0
-1.2386 1.5080315 0.36767927 0
-0.5901677 0.68267304 -0.19181767 0
-0.66553158 0.76984978 -0.1916744 0
-0.76046389 0.87966222 -0.19110826 0
-0.77569008 0.89727497 -0.16668604 0
-0.77665442 0.89839053 -0.138794 0
-0.77076828 0.89158177 -0.11000712 0
-0.77674741 0.89849806 -0.083031543 0
-0.77341914 0.89464813 -0.055056117 0
-0.77187175 0.89285815 -0.027441256 0
-0.77266467 0.89377534 3.3728746e-05 0
-1.4796356 1.7115598 0.15829761 0
-1.2511168 1.447222 0.17867453 0
-1.2425619 1.4373263 0.22216515 0
-1.2386347 1.4327835 0.26627731 0
-1.240101 1.4344795 0.31175455 0
-1.2408645 1.4353628 0.3574836 0
-0.60857952 0.6690771 -0.1922521 0
-0.68480003 0.75287455 -0.19169015 0
-0.78378052 0.86169451 -0.19144142 0
-0.80096138 0.88058329 -0.16728738 0
-0.80477846 0.88477975 -0.13978475 0
-0.81032306 0.89087558 -0.11240762 0
-0.80868399 0.88907355 -0.084020011 0
-0.799779 0.87928331 -0.055335168 0
-0.79841876 0.87778789 -0.027588632 0
-0.80151248 0.88118911 3.4006349e-05 0
-1.2517889 1.3762265 0.17375468 0
-1.2454405 1.3692471 0.21643198 0
-1.2418514 1.3653013 0.25947836 0
-1.2464274 1.3703321 0.3045533 0
-1.2442776 1.3679686 0.34840918 0
-0.62727892 0.65561157 -0.19287063 0
-0.70665568 0.73857361 -0.19252872 0
-0.79990548 0.83603525 -0.1901655 0
-0.82437658 0.86161166 -0.16758259 0
-0.8279559 0.86535269 -0.13997237 0
-0.82778966 0.86517888 -0.11176586 0
-0.82894158 0.8663829 -0.08382614 0
-0.83006805 0.86756021 -0.055898041 0
-0.83386666 0.87153035 -0.028044499 0
-0.83227938 0.86987144 3.4369285e-05 0
-1.2514247 1.3079485 0.16906814 0
-1.2379968 1.2939141 0.20939662 0
-1.2368821 1.292749 0.25154254 0
-1.2375047 1.2933998 0.29430312 0
-1.2418977 1.2979912 0.33846191 0
-0.64031535 0.63629121 -0.19188006 0
-0.72744042 0.72286868 -0.1931593 0
-0.82451457 0.81933278 -0.19103895 0
-0.85781151 0.85242045 -0.16995175 0
-0.86159211 0.85617727 -0.14196044 0
-0.85919625 0.85379654 -0.11306081 0
-0.85296834 0.84760773 -0.084065728 0
-0.85786229 0.85247093 -0.056302931 0
-0.86159527 0.85618049 -0.028241316 0
-0.85735995 0.85197175 3.4506036e-05 0
-1.2728759 1.2648762 0.041824758 0
-1.2726326 1.2646345 0.083627656 0
-1.2747937 1.2667822 0.12574255 0
-1.245587 1.237759 0.16400672 0
-1.2530866 1.2452114 0.20656738 0
-1.2405183 1.232722 0.2458764 0
-1.2420018 1.2341963 0.28787288 0
-1.2338446 1.2260903 0.32772908 0
-0.6554473 0.61925411 -0.19166997 0
-0.74231088 0.70132113 -0.19234654 0
-0.84592426 0.79921311 -0.19126497 0
-0.89073509 0.84154946 -0.17221172 0
-0.89297372 0.84366447 -0.14357693 0
-0.88741601 0.83841366 -0.11395341 0
-0.87929446 0.83074057 -0.084566966 0
-0.88938707 0.84027588 -0.056961913 0
-0.8913303 0.84211183 -0.028510224 0
-0.88750941 0.83850193 3.4856617e-05 0
-1.2999583 1.2281758 0.041682828 0
-1.2931244 1.2217193 0.082921579 0
-1.295907 1.2243482 0.12473737 0
-1.2464614 1.1776328 0.16015731 0
-1.2520647 1.1829268 0.20141312 0
-1.2398753 1.1714106 0.23981263 0
-1.2405838 1.1720799 0.28059828 0
-1.2367938 1.168499 0.32057682 0
-0.67152196 0.60311115 -0.19185822 0
-0.76369596 0.68589503 -0.19334057 0
-0.86151767 0.7737512 -0.19031459 0
-0.9260515 0.8317107 -0.17492552 0
-0.92114574 0.82730472 -0.14470324 0
-0.91930234 0.82564908 -0.11533532 0
-0.91078061 0.81799555 -0.085582331 0
-0.91910517 0.825472 -0.057512589 0
-0.92259967 0.82861054 -0.028832292 0
-0.91932803 0.82567221 3.5276596e-05 0
-1.3443562 1.2074009 0.042115893 0
-1.3273693 1.1921446 0.083161622 0
-1.3286846 1.1933259 0.12495353 0
-1.2561815 1.128209 0.15769731 0
-1.2507331 1.1233157 0.1965756 0
-1.2374413 1.1113778 0.23384202 0
-1.246562 1.1195694 0.27547151 0
-1.2405699 1.1141878 0.31416661 0
-0.68503505 0.58470404 -0.19144176 0
-0.77099657 0.65807557 -0.19092317 0
-0.88359082 0.75417912 -0.19092499 0
-0.95400441 0.81427985 -0.17626746 0
-0.95232224 0.81284404 -0.1463314 0
-0.95175439 0.81235939 -0.11679724 0
-0.94903624 0.81003934 -0.087228186 0
-0.95578653 0.81580096 -0.058500864 0
-0.95051062 0.81129777 -0.029055381 0
