# .PCD v0.7 - Point Cloud Data file format
VERSION 0.7
FIELDS x y z intensity
SIZE 4 4 4 4
TYPE F F F F
COUNT 1 1 1 1
WIDTH 1358
HEIGHT 1
VIEWPOINT 0 0 0 1 0 0 0
POINTS 1358
DATA ascii
1.9628779 -1.9019184 -0.19107389 0
3.7224407 -3.6068361 -0.24130329 0
7.4645691 -7.2327485 -0.24166201 0
0.66956216 -0.61678541 -0.19350588 0
0.7510677 -0.69186652 -0.1923378 0
0.8470419 -0.78027576 -0.18927613 0
1.0045009 -0.92532331 -0.19193378 0
1.2107582 -1.1153229 -0.1923935 0
1.5083383 -1.389447 -0.19141935 0
2.5448833 -2.3442886 -0.24189188 0
3.8183584 -3.517385 -0.24168932 0
7.6474295 -7.0446382 -0.24174885 0
0.67380339 -0.58996964 -0.19036765 0
0.77457517 -0.67820352 -0.19391251 0
0.88292605 -0.77307355 -0.19287324 0
1.0300008 -0.90184945 -0.1923957 0
1.2268403 -1.0741985 -0.19058016 0
1.5349878 -1.3440067 -0.19043583 0
2.5995367 -2.2761056 -0.24154945 0
3.8990777 -3.4139597 -0.2412678 0
7.8239512 -6.8505054 -0.24178635 0
0.6940971 -0.57745898 -0.19192237 0
0.78016412 -0.64906305 -0.1911497 0
0.89448339 -0.7441718 -0.1912341 0
1.0467266 -0.87083155 -0.19135353 0
1.2448821 -1.0356884 -0.18926194 0
1.5574198 -1.2957064 -0.18910144 0
2.6578732 -2.2112362 -0.2417073 0
3.9818482 -3.3127267 -0.24113907 0
7.988729 -6.6462793 -0.24161769 0
0.70326358 -0.55566764 -0.19051844 0
0.79377317 -0.62718171 -0.19054499 0
0.92114359 -0.72782052 -0.19294514 0
1.071331 -0.8464877 -0.19188471 0
1.2700769 -1.0035222 -0.18918146 0
1.5907707 -1.256911 -0.18923882 0
2.718003 -2.147568 -0.2421692 0
4.0715528 -3.2170444 -0.24157746 0
8.1576424 -6.4455748 -0.24172924 0
0.71944326 -0.53953421 -0.19115172 0
0.81189072 -0.60886359 -0.19114436 0
0.94735283 -0.71045107 -0.19461714 0
1.086183 -0.81456441 -0.19080181 0
1.3111918 -0.98330599 -0.19154799 0
1.6242694 -1.218093 -0.18950622 0
2.7642477 -2.0730004 -0.24155094 0
4.1524143 -3.1140323 -0.24163499 0
8.3165846 -6.2368808 -0.24169759 0
0.73097861 -0.51989543 -0.19066954 0
0.83923376 -0.59688997 -0.19397326 0
0.95089322 -0.67630571 -0.19177678 0
1.1107918 -0.79003066 -0.19156101 0
1.3301673 -0.94605762 -0.1907711 0
1.6786581 -1.1939155 -0.19227493 0
2.8103166 -1.9987873 -0.24109156 0
4.2379489 -3.0141649 -0.24210837 0
8.4636679 -6.0196319 -0.24147986 0
0.74354452 -0.50107169 -0.1905878 0
0.84525603 -0.56961471 -0.19198118 0
0.96465635 -0.65007812 -0.19118263 0
1.1231158 -0.7568633 -0.19033141 0
1.3552923 -0.91332614 -0.19100766 0
1.6971066 -1.1436735 -0.19102097 0
2.8664529 -1.9316913 -0.24164791 0
4.3005199 -2.8981035 -0.24142742 0
8.6251936 -5.8124838 -0.24182579 0
0.76338321 -0.48689261 -0.19246176 0
0.86047256 -0.54881704 -0.19222997 0
0.9846195 -0.62799907 -0.19193666 0
1.1494148 -0.73310697 -0.19159159 0
1.3638133 -0.86985224 -0.18905425 0
1.7284523 -1.1024222 -0.19135641 0
2.9141221 -1.8586531 -0.24163494 0
4.3777461 -2.7921655 -0.24172963 0
8.7585869 -5.5863047 -0.24153581 0
0.76721221 -0.46252549 -0.19042332 0
0.86342263 -0.52052742 -0.1898936 0
1.0052348 -0.60602111 -0.19291228 0
1.1753225 -0.708561 -0.19286773 0
1.4064996 -0.84792966 -0.19194375 0
1.756092 -1.0586866 -0.19139723 0
2.9601483 -1.7845703 -0.24163969 0
4.4424443 -2.678195 -0.24149278 0
8.8995237 -5.3652129 -0.24161123 0
0.78396869 -0.4460538 -0.19172703 0
0.88761449 -0.50502503 -0.19234958 0
1.0188191 -0.57967633 -0.19265014 0
1.1876684 -0.67574638 -0.1920338 0
1.4108924 -0.80275387 -0.18971784 0
1.7848756 -1.0155387 -0.19167981 0
3.0073776 -1.7111043 -0.24189267 0
4.501678 -2.5613148 -0.24112183 0
9.0321245 -5.1389976 -0.24161294 0
0.80113763 -0.42943567 -0.19321364 0
0.90010524 -0.4824855 -0.19235621 0
1.031243 -0.55277956 -0.19230002 0
1.2030712 -0.64488512 -0.19183148 0
1.4519839 -0.7783103 -0.19254054 0
1.8174697 -0.97422254 -0.19247824 0
3.0461121 -1.6328145 -0.24161655 0
4.5741205 -2.4518764 -0.24161047 0
9.1660767 -4.9133139 -0.24180198 0
0.80075401 -0.40356007 -0.19060397 0
0.9141593 -0.46071348 -0.19281328 0
1.0447744 -0.52654028 -0.19228394 0
1.2165242 -0.61309791 -0.19144826 0
1.463788 -0.73771268 -0.19157583 0
1.8458244 -0.93024951 -0.1929332 0
3.0833251 -1.553919 -0.24138054 0
4.6498222 -2.3433945 -0.24240783 0
9.2892742 -4.6815629 -0.2418579 0
0.82493597 -0.38996631 -0.19395547 0
0.91704452 -0.43350813 -0.19105326 0
1.0554993 -0.49895892 -0.19187897 0
1.2237979 -0.57851756 -0.19023453 0
1.4793559 -0.69932574 -0.19124238 0
1.8542044 -0.87652528 -0.1914358 0
3.1240525 -1.4768118 -0.24157402 0
4.697495 -2.2206144 -0.24189429 0
9.4026861 -4.4448671 -0.24181286 0
0.81947792 -0.36237976 -0.19046114 0
0.92992496 -0.41122034 -0.19151346 0
1.0652505 -0.47106239 -0.19142936 0
1.2458255 -0.55091411 -0.19143626 0
1.5023291 -0.66434211 -0.19198351 0
1.8909191 -0.83617973 -0.19298603 0
3.165493 -1.3998066 -0.2419695 0
4.74861 -2.0998738 -0.24172029 0
9.5097094 -4.2052703 -0.24175867 0
0.82260877 -0.33921647 -0.18913874 0
0.93463856 -0.38541383 -0.19042024 0
1.0654238 -0.43934533 -0.18940753 0
1.2577474 -0.51865315 -0.19119583 0
1.5130655 -0.62393779 -0.1912822 0
1.9061731 -0.78604233 -0.1924568 0
3.1952403 -1.3176106 -0.2416244 0
4.7943373 -1.977025 -0.2414311 0
9.6268864 -3.9698071 -0.24211331 0
0.84284574 -0.32292798 -0.19185665 0
0.96159148 -0.36842421 -0.19395529 0
1.0893424 -0.41737068 -0.19172591 0
1.268831 -0.48613998 -0.19095472 0
1.5174838 -0.58140886 -0.18992518 0
1.9253567 -0.73768133 -0.19245259 0
3.2222204 -1.2345617 -0.24123158 0
4.849359 -1.8579836 -0.24176341 0
9.7092323 -3.719996 -0.24174602 0
0.86119831 -0.30527177 -0.19421856 0
0.9616735 -0.34088755 -0.19217525 0
1.0941148 -0.38783446 -0.19078231 0
1.2635618 -0.44789892 -0.18840045 0
1.5342145 -0.54383802 -0.19024067 0
1.9457303 -0.68970937 -0.19268769 0
3.2526734 -1.1529857 -0.24125601 0
4.8914981 -1.7339052 -0.24160555 0
9.7934961 -3.4715326 -0.24158557 0
0.85925102 -0.28038636 -0.19212228 0
0.97078097 -0.31678024 -0.19233628 0
1.106456 -0.36105305 -0.19128439 0
1.2909576 -0.42125863 -0.19083916 0
1.5553589 -0.50753671 -0.19121325 0
1.9535577 -0.63747489 -0.19180843 0
3.2948155 -1.0751473 -0.24229191 0
4.9392915 -1.6117642 -0.24187993 0
9.8762217 -3.2227578 -0.24154285 0
0.86209565 -0.25743595 -0.19124463 0
0.97263348 -0.29044437 -0.19119005 0
1.1135267 -0.33251742 -0.19099504 0
1.2999974 -0.38820064 -0.19066639 0
1.5541688 -0.46410042 -0.18956655 0
1.9611635 -0.58563572 -0.19104311 0
3.3034382 -0.9864611 -0.24101837 0
4.9738002 -1.4852587 -0.24165715 0
9.9680576 -2.9766264 -0.24187447 0
0.87397242 -0.23713712 -0.19249032 0
0.97525674 -0.26461884 -0.19033226 0
1.1155962 -0.30269751 -0.18997912 0
1.3062059 -0.3544161 -0.19020444 0
1.5731915 -0.42685798 -0.19051206 0
1.9648366 -0.53312403 -0.19002967 0
3.3396158 -0.90614629 -0.24191222 0
5.0089302 -1.3590856 -0.24162042 0
10.037269 -2.7234373 -0.24180898 0
0.87599343 -0.21411002 -0.19168422 0
0.98209184 -0.24004255 -0.19042319 0
1.1351372 -0.27744985 -0.19205317 0
1.3142997 -0.32124069 -0.19014187 0
1.5839831 -0.38715661 -0.19057491 0
1.9704593 -0.48161897 -0.18933754 0
3.3690386 -0.82345927 -0.24246083 0
5.0414352 -1.2322259 -0.24161126 0
10.099238 -2.4684525 -0.24172401 0
0.87849754 -0.19136913 -0.19111441 0
0.99319214 -0.21635382 -0.19145574 0
1.1303424 -0.2462302 -0.19012995 0
1.3188657 -0.28729749 -0.18969297 0
1.5985407 -0.34822103 -0.19120808 0
1.9771584 -0.43069792 -0.18887658 0
3.386519 -0.73770857 -0.24230173 0
5.0683241 -1.1040677 -0.24148755 0
10.158799 -2.2129605 -0.24173577 0
0.88192308 -0.1689277 -0.19087131 0
1.007576 -0.19299585 -0.19322799 0
1.133232 -0.21706459 -0.1896341 0
1.3324437 -0.25522256 -0.19065872 0
1.6049253 -0.30741492 -0.19098288 0
2.5521839 -0.4888573 -0.24255246 0
3.3943887 -0.65017718 -0.24161375 0
5.1011724 -0.97710258 -0.24180062 0
10.20875 -1.9554319 -0.24167302 0
0.89421964 -0.14799833 -0.19266284 0
1.0071884 -0.16669531 -0.1922856 0
1.1505904 -0.19042912 -0.19167352 0
1.3448606 -0.22258191 -0.19157058 0
1.6310178 -0.26994255 -0.19321558 0
2.5545797 -0.4227972 -0.24168906 0
3.4080842 -0.56405693 -0.24149835 0
5.1327477 -0.84949839 -0.24220391 0
10.252755 -1.6968882 -0.24162397 0
0.89287513 -0.12471955 -0.19163392 0
1.0133576 -0.14154892 -0.19271994 0
1.1478294 -0.16033234 -0.1904788 0
1.3419408 -0.18744642 -0.19042012 0
1.6078348 -0.22458732 -0.18973733 0
2.5703347 -0.35903227 -0.24224517 0
3.4246457 -0.47836506 -0.24173939 0
5.1544743 -0.71999288 -0.24229449 0
10.295884 -1.4381608 -0.24170798 0
0.89555931 -0.10213139 -0.19159576 0
1.0162197 -0.11589175 -0.19264664 0
1.1441456 -0.13048068 -0.18926072 0
1.3525293 -0.15424517 -0.19130929 0
1.6325493 -0.18617922 -0.19203816 0
2.5725901 -0.29338336 -0.2416829 0
3.4404776 -0.39235899 -0.24208082 0
5.1609573 -0.58856595 -0.24182393 0
10.330407 -1.1781005 -0.24174342 0
0.90088832 -0.079771981 -0.19224387 0
1.0136286 -0.089754917 -0.19166495 0
1.1222765 -0.099375494 -0.18516935 0
1.1286111 -0.099936403 -0.15922958 0
1.6260393 -0.14398274 -0.19078416 0
2.5853209 -0.22892535 -0.24225894 0
3.4572041 -0.30612898 -0.24263684 0
5.176115 -0.45833537 -0.24191512 0
10.347731 -0.91627222 -0.2415307 0
0.90248752 -0.057008289 -0.19221689 0
1.0256078 -0.064785548 -0.19355926 0
1.1354297 -0.071722776 -0.18698135 0
1.1378142 -0.071873397 -0.16022104 0
1.6445566 -0.10388328 -0.19258785 0
2.5862055 -0.1633653 -0.24187844 0
3.4467945 -0.21772696 -0.24144369 0
5.1829629 -0.32739717 -0.24177197 0
10.376675 -0.65547329 -0.24174318 0
0.90575331 -0.034299579 -0.19266672 0
1.0170981 -0.038516048 -0.19170874 0
1.1283534 -0.042729124 -0.18557931 0
1.1239728 -0.042563241 -0.15807036 0
1.6386442 -0.06205311 -0.19165103 0
2.593905 -0.098227464 -0.24228951 0
3.4437075 -0.13040827 -0.24092019 0
5.1862097 -0.19639432 -0.24161524 0
10.389805 -0.39344701 -0.24174073 0
0.90927857 -0.011472819 -0.19329345 0
1.0109549 -0.012755719 -0.19042949 0
1.1307359 -0.014267055 -0.18585275 0
1.1342506 -0.014311403 -0.15941422 0
1.1307667 -0.014267446 -0.13216695 0
1.1253258 -0.014198795 -0.10504666 0
1.1386725 -0.014367196 -0.079610273 0
1.1239415 -0.014181329 -0.052328877 0
1.13644 -0.014339029 -0.026424842 0
1.1362836 -0.014337055 3.2441647e-05 0
1.1365478 -0.014340389 0.026492281 0
1.1323122 -0.014286946 0.052783396 0
1.1322243 -0.014285837 0.079224423 0
1.1239409 -0.014181321 0.10498212 0
1.140008 -0.014384048 0.13331309 0
1.1289268 -0.01424423 0.15873171 0
1.1308609 -0.014268634 0.18593962 0
1.129158 -0.014247148 0.21276172 0
0.90953851 0.011476099 -0.19334871 0
1.0228039 0.012905225 -0.19266146 0
1.1338673 0.014306566 -0.18636744 0
1.1337585 0.014305194 -0.15934506 0
1.6413542 0.020709783 -0.19184576 0
2.584744 0.032612998 -0.24128009 0
3.456284 0.043609653 -0.24164608 0
5.1942644 0.065538615 -0.24183641 0
10.394772 0.131156 -0.2417023 0
0.90015775 0.034087684 -0.19147646 0
1.0083826 0.038186003 -0.19006598 0
1.1217701 0.042479828 -0.18449658 0
1.132378 0.042881534 -0.15925243 0
1.6304312 0.061742097 -0.19069046 0
2.5804064 0.097716294 -0.24102865 0
3.4630408 0.1311404 -0.24227272 0
5.1946864 0.19671533 -0.24201016 0
10.389692 0.39344278 -0.24173813 0
0.90227181 0.056994665 -0.19217096 0
1.007327 0.063630782 -0.19010918 0
1.127851 0.071244039 -0.18573329 0
1.1293125 0.071336359 -0.15902388 0
1.6272736 0.10279154 -0.19056389 0
2.5881543 0.16348842 -0.24206071 0
3.4544308 0.21820931 -0.2419786 0
5.1861386 0.32759777 -0.2419201 0
10.385278 0.65601671 -0.2419436 0
0.90226179 0.079893604 -0.19253698 0
1.0223976 0.090531401 -0.19332306 0
1.1520526 0.10201212 -0.19008227 0
1.3443732 0.11904174 -0.18967028 0
1.6400194 0.14522067 -0.19242446 0
2.5737927 0.22790454 -0.24117868 0
3.4488592 0.30539006 -0.24205117 0
5.1699262 0.45778736 -0.24162586 0
10.353916 0.91681999 -0.24167509 0
0.89720386 0.10231894 -0.19194759 0
1.022737 0.11663499 -0.19388212 0
1.1628472 0.13261344 -0.19235428 0
1.3598057 0.15507498 -0.19233851 0
1.6309191 0.18599331 -0.1918464 0
2.5703306 0.29312569 -0.24147063 0
3.4389148 0.39218077 -0.24197087 0
5.168611 0.58943886 -0.24218257 0
10.327752 1.1777978 -0.24168129 0
0.89448363 0.12494422 -0.19197914 0
1.0076474 0.14075129 -0.19163397 0
1.1470575 0.16022453 -0.19035071 0
1.3422012 0.1874828 -0.19045708 0
1.6260452 0.22713099 -0.19188629 0
2.5642757 0.35818592 -0.24167411 0
3.4200637 0.47772503 -0.24141596 0
5.1505022 0.71943802 -0.24210776 0
10.295192 1.4380641 -0.24169172 0
0.88735569 0.14686231 -0.19118397 0
1.0045384 0.16625671 -0.19177966 0
1.1415712 0.1889364 -0.19017105 0
1.3405886 0.22187488 -0.19096206 0
1.6200364 0.26812506 -0.19191468 0
2.547946 0.42169929 -0.24106143 0
3.4156239 0.56530482 -0.24203263 0
5.1194549 0.84729832 -0.24157663 0
10.258795 1.6978877 -0.24176627 0
0.88803351 0.17009813 -0.19219378 0
0.99023938 0.18967511 -0.18990324 0
1.1384012 0.21805471 -0.1904991 0
1.3383578 0.25635538 -0.19150497 0
1.3439622 0.25742885 -0.15992881 0
1.3458731 0.25779489 -0.12790804 0
1.3432924 0.25730056 -0.095616013 0
1.3373351 0.25615945 -0.063391007 0
1.3456714 0.25775623 -0.03185625 0
1.3348019 0.25567424 3.8799197e-05 0
0.88165128 0.19205612 -0.19180049 0
0.99291998 0.21629454 -0.19140328 0
1.1243486 0.24492455 -0.18912177 0
1.2080592 0.26315978 -0.17375565 0
1.2145807 0.2645804 -0.14528105 0
1.2118574 0.26398718 -0.11576791 0
1.2046518 0.26241753 -0.08619152 0
1.2020828 0.2618579 -0.057274949 0
1.2141781 0.26449269 -0.028892221 0
1.1976984 0.26090279 3.4994217e-05 0
0.87627453 0.21417873 -0.19174571 0
0.99123049 0.24227621 -0.19219513 0
1.1269927 0.27545917 -0.19067521 0
1.1969163 0.29254991 -0.17315982 0
1.1981491 0.29285118 -0.14415379 0
1.2044656 0.29439509 -0.11573473 0
1.2031524 0.29407409 -0.086587712 0
1.2018389 0.29375306 -0.057598241 0
1.2119135 0.29621547 -0.029006997 0
1.2085708 0.29539847 3.5518413e-05 0
0.87081784 0.23628117 -0.19179554 0
0.9933188 0.26951966 -0.19385727 0
1.1123796 0.30182472 -0.18943135 0
1.2035797 0.32657027 -0.17526042 0
1.202913 0.3263894 -0.14567168 0
1.2043729 0.3267855 -0.11648122 0
1.2037005 0.32660308 -0.087192632 0
1.2174501 0.3303338 -0.058727276 0
1.1999955 0.32559779 -0.028909229 0
1.2005248 0.32574138 3.5512257e-05 0
0.86261451 0.25759092 -0.19135974 0
0.98977846 0.29556417 -0.19456023 0
1.1131209 0.33239624 -0.19092545 0
1.2082862 0.36081418 -0.17721541 0
1.2038645 0.35949379 -0.1468389 0
1.2127752 0.36215466 -0.11814026 0
1.1982875 0.35782838 -0.087426871 0
1.2055095 0.35998499 -0.058570903 0
1.2060379 0.3601428 -0.029264456 0
1.2007906 0.35857588 3.5776437e-05 0
0.85283142 0.27829158 -0.19068691 0
0.96962255 0.31640226 -0.19210677 0
1.1122123 0.3629314 -0.19227952 0
1.2016233 0.39210752 -0.17763308 0
1.2109601 0.3951543 -0.14887345 0
1.2137809 0.39607474 -0.11917406 0
1.2076163 0.39406314 -0.088804871 0
1.1944256 0.3897588 -0.058491699 0
1.2041219 0.39292291 -0.029449223 0
1.2089561 0.39450037 3.6304813e-05 0
0.85369283 0.30261129 -0.19252592 0
0.95633614 0.33899561 -0.19110867 0
1.0989221 0.38953853 -0.19162059 0
1.20724 0.42793432 -0.1800027 0
1.2056029 0.42735398 -0.14949323 0
1.2120696 0.42964628 -0.12003251 0
1.2027171 0.42633104 -0.089207456 0
1.2057627 0.42741063 -0.059556186 0
1.1971915 0.42437238 -0.029532271 0
1.1979595 0.42464465 3.628488e-05 0
0.83826727 0.32117376 -0.19081445 0
0.95272726 0.36502799 -0.19216736 0
1.0925488 0.41859925 -0.19229026 0
1.2018975 0.46049505 -0.18088144 0
1.1988698 0.45933506 -0.15004809 0
1.1997416 0.45966908 -0.11992238 0
1.2038293 0.46123523 -0.090124696 0
1.2073809 0.46259597 -0.060193632 0
1.1928804 0.45704028 -0.029701019 0
1.2235537 0.46879241 3.7406557e-05 0
0.8253637 0.34035248 -0.18977216 0
0.94030917 0.38775218 -0.19157556 0
1.0782226 0.44462311 -0.19168285 0
1.2128943 0.50015724 -0.18437751 0
1.202049 0.49568498 -0.15196341 0
1.2110752 0.49940705 -0.12227622 0
1.2010735 0.49528271 -0.090825304 0
1.2062043 0.49739847 -0.060741499 0
1.2133642 0.50035101 -0.030515749 0
1.1982599 0.49412248 3.7002763e-05 0
0.82965076 0.36687827 -0.19282548 0
0.93734068 0.41449961 -0.19304068 0
1.0652473 0.47106096 -0.19142878 0
1.2108835 0.53546244 -0.18606699 0
1.2095999 0.53489482 -0.15457547 0
1.2129785 0.53638887 -0.12379582 0
1.2089416 0.53460377 -0.092411198 0
1.206275 0.53342456 -0.061403472 0
1.2080723 0.53421938 -0.030711975 0
1.2094232 0.53481668 3.7752296e-05 0
0.81893688 0.38713041 -0.19254498 0
0.92073071 0.43525067 -0.19182123 0
1.0494696 0.49610853 -0.19078285 0
1.2241794 0.57869792 -0.19029382 0
1.4823163 0.70072514 -0.19162507 0
1.855045 0.87692267 -0.19152258 0
3.1308558 1.4800279 -0.2421001 0
4.6996636 2.2216396 -0.24200596 0
9.3937006 4.4406195 -0.24158177 0
0.81919003 0.41285136 -0.1949923 0
0.90939081 0.45831031 -0.19180752 0
1.0442123 0.52625704 -0.1921805 0
1.2054327 0.60750806 -0.18970275 0
1.4547971 0.73318154 -0.19039913 0
1.827659 0.9210946 -0.19103448 0
3.0944934 1.5595475 -0.24225487 0
4.6333933 2.3351147 -0.24155134 0
9.2829075 4.6783538 -0.24169213 0
0.79508847 0.42619312 -0.19175474 0
0.89789516 0.48130083 -0.19188392 0
1.029722 0.55196428 -0.19201641 0
1.1996222 0.64303625 -0.19128151 0
1.4410549 0.772452 -0.1910913 0
1.8136178 0.97215778 -0.19207031 0
3.0491185 1.6344261 -0.24185503 0
4.5851817 2.4578056 -0.24219474 0
9.1780128 4.9197116 -0.24211685 0
0.77462018 0.44073474 -0.18944074 0
0.88071805 0.5011012 -0.1908551 0
1.0179335 0.57917243 -0.19248268 0
1.180279 0.67154205 -0.19083901 0
1.2097732 0.68832332 -0.16267404 0
1.2169504 0.69240689 -0.13068967 0
3.0084145 1.7116941 -0.24197605 0
4.5083981 2.5651381 -0.24148175 0
9.0373859 5.1419911 -0.24175368 0
0.7765367 0.46814692 -0.19273768 0
0.87177336 0.52556181 -0.1917302 0
1.0001718 0.60296869 -0.19194062 0
1.1560544 0.69694489 -0.18970586 0
1.1378429 0.68596584 -0.1552804 0
1.1977974 0.72211033 -0.13054848 0
2.9631345 1.7863706 -0.24188346 0
4.4534078 2.6848044 -0.24208875 0
8.913764 5.3737974 -0.24199782 0
0.77055842 0.49146903 -0.19427074 0
0.8629272 0.55038261 -0.19277835 0
0.99132133 0.63227355 -0.19324307 0
1.1466204 0.73132467 -0.1911258 0
1.1443126 0.7298528 -0.15862668 0
1.1834763 0.75483173 -0.13102229 0
2.9167643 1.8603382 -0.24185401 0
4.3765388 2.7913954 -0.24166296 0
8.7705507 5.593935 -0.24186574 0
0.75347233 0.50776201 -0.19313252 0
0.85068488 0.57327318 -0.19321422 0
0.97385675 0.65627819 -0.19300602 0
1.1298883 0.76142728 -0.19147915 0
1.1438286 0.77082163 -0.1612051 0
1.169749 0.78828925 -0.13166325 0
2.8674664 1.9323744 -0.24173336 0
4.3149157 2.9078047 -0.24223557 0
8.6176634 5.8074093 -0.24161467 0
0.7359249 0.52341336 -0.19195972 0
0.83103752 0.59106052 -0.19207884 0
0.94683927 0.67342246 -0.19095919 0
1.1042753 0.78539598 -0.19043723 0
1.1383801 0.80965233 -0.16326518 0
1.1458964 0.81499821 -0.13125195 0
2.8243573 2.0087733 -0.24229607 0
4.2332954 3.0108554 -0.24184254 0
8.4741154 6.0270624 -0.24177794 0
0.72081834 0.54056543 -0.19151707 0
0.81426799 0.61064637 -0.19170405 0
0.92828012 0.69614786 -0.19069898 0
1.0860519 0.81446612 -0.19077879 0
0.76562309 0.574166 -0.11184753 0
0.84495145 0.63365692 -0.098581895 0
1.1059054 0.82935494 -0.096638411 0
1.1014014 0.82597727 -0.064092144 0
1.0964485 0.82226288 -0.03186512 0
1.0930095 0.81968379 3.9003316e-05 0
1.0977075 0.82320702 0.031980094 0
1.0916305 0.81864959 0.063601628 0
1.0984523 0.82376564 0.096065909 0
0.7042821 0.55647242 -0.19079436 0
0.79408795 0.62743044 -0.19062056 0
0.82784629 0.65410382 -0.17340285 0
0.70840311 0.5597285 -0.12688117 0
0.71443421 0.56449383 -0.10641695 0
0.75717729 0.5982663 -0.090074159 0
1.0889078 0.86037564 -0.097019747 0
1.0997669 0.86895561 -0.065252475 0
1.1019111 0.87064981 -0.032652095 0
1.1057893 0.87371409 4.0233441e-05 0
1.1002588 0.86934429 0.032683242 0
1.1040504 0.8723402 0.065587141 0
1.0967562 0.86657685 0.097799219 0
0.69700712 0.57988 -0.19272701 0
0.68759322 0.57204801 -0.1684687 0
0.68617129 0.57086504 -0.14669846 0
0.68878412 0.57303882 -0.12591758 0
0.83284277 0.69288945 -0.12661877 0
0.70310384 0.58495224 -0.08537066 0
0.75848556 0.6310274 -0.068976767 0
1.1003349 0.91543132 -0.066635817 0
1.1201683 0.93193197 -0.033879291 0
1.1010733 0.91604567 4.0890041e-05 0
1.0918261 0.90835243 0.033103224 0
1.0974562 0.91303641 0.066543177 0
1.1023884 0.91713977 0.10033361 0
0.68306947 0.5980829 -0.19298558 0
0.6769402 0.59271622 -0.16946989 0
0.87315047 0.76451427 -0.19073778 0
0.67619306 0.592062 -0.12630732 0
0.82563686 0.72291219 -0.12825631 0
0.68829006 0.60265392 -0.085391618 0
0.71614099 0.62703967 -0.066543959 0
0.73195022 0.64088196 -0.04529174 0
1.0917919 0.95595258 -0.033740032 0
1.1044687 0.96705216 4.1909199e-05 0
1.093257 0.9572354 0.033868324 0
1.1003188 0.9634186 0.0681694 0
1.10393 0.96658051 0.10266158 0
1.099448 0.96265614 0.13648544 0
1.0947753 0.95856482 0.27415967 0
0.66582191 0.61334002 -0.19242494 0
0.67974287 0.62616372 -0.17407252 0
0.66420299 0.61184871 -0.14841978 0
0.67199129 0.61902308 -0.12839992 0
0.66889209 0.6161682 -0.10628917 0
0.67077404 0.6179018 -0.085126214 0
0.70468563 0.64914042 -0.066980571 0
0.71335196 0.65712363 -0.045152795 0
0.72555178 0.66836178 -0.022935983 0
1.1047628 1.0176823 4.2881333e-05 0
1.0925347 1.0064181 0.034621824 0
1.0981152 1.0115588 0.069592454 0
1.0957296 1.0093613 0.10423489 0
1.103063 1.0161165 0.14007327 0
1.0387939 0.95691335 0.26610392 0
0.65590781 0.63553786 -0.19413362 0
0.73562723 0.71278149 -0.19292924 0
0.66129076 0.64075363 -0.15133455 0
0.65731502 0.63690138 -0.12862618 0
0.66576093 0.64508498 -0.10834428 0
0.68094939 0.65980172 -0.088502713 0
0.6912812 0.66981268 -0.067291908 0
0.6965521 0.67491984 -0.045153253 0
0.70227158 0.6804617 -0.022735721 0
0.723046 0.70059097 2.8742188e-05 0
0.84423006 0.81801152 0.027398717 0
0.84012479 0.81403375 0.054527141 0
0.84204924 0.81589842 0.082035512 0
1.0949234 1.0609193 0.14239454 0
1.0071647 0.97588605 0.1971679 0
1.0097468 0.97838789 0.23116018 0
0.99202198 0.96121359 0.26025423 0
0.63789129 0.65007842 -0.19359571 0
0.71444935 0.72809911 -0.19213335 0
0.65941089 0.67200911 -0.15473652 0
0.66453302 0.67722905 -0.13334091 0
0.67289555 0.68575138 -0.1122862 0
0.67975301 0.69273984 -0.090590768 0
0.6840871 0.69715679 -0.068282679 0
0.68646884 0.69958401 -0.045629673 0
0.69211328 0.70533627 -0.022975866 0
0.69768518 0.71101463 2.8438357e-05 0
0.84077412 0.85683733 0.027979491 0
0.83905584 0.85508621 0.055840697 0
0.83871853 0.85474247 0.083786041 0
0.83573079 0.85169762 0.11144667 0
1.097441 1.1184078 0.18322085 0
0.95213956 0.97033042 0.19112934 0
0.9467088 0.96479595 0.22223273 0
0.95312375 0.97133338 0.25639933 0
0.62070757 0.66534591 -0.19341542 0
0.69511896 0.7451086 -0.19193114 0
0.63989556 0.6859138 -0.15417033 0
0.6474489 0.69401038 -0.13338512 0
0.65652484 0.70373899 -0.11248249 0
0.65321493 0.70019102 -0.089380734 0
0.67326796 0.72168618 -0.068998896 0
0.67244172 0.72080052 -0.045891918 0
0.67920512 0.72805029 -0.023149982 0
0.69082522 0.74050605 2.8911338e-05 0
0.83773059 0.89797616 0.028623311 0
0.83863443 0.89894497 0.057304364 0
0.83229005 0.89214438 0.085366048 0
0.84192723 0.90247464 0.11527371 0
1.0948079 1.1735412 0.18766646 0
0.9321034 0.99913585 0.1921082 0
0.92743146 0.99412793 0.22352622 0
0.91936976 0.98548645 0.25392932 0
0.59804559 0.6743933 -0.19159664 0
0.67458683 0.76070601 -0.1915022 0
0.63754147 0.71893138 -0.15792458 0
0.73286164 0.82642031 -0.15522923 0
0.62727761 0.70735717 -0.11049513 0
0.62951618 0.70988154 -0.088561371 0
0.64799994 0.73072493 -0.068277672 0
0.64437717 0.72663975 -0.04521383 0
0.66512853 0.75004023 -0.023307994 0
0.69975603 0.78908831 3.0108993e-05 0
0.84356344 0.95125449 0.029633492 0
0.84059328 0.94790518 0.059054159 0
0.83716702 0.94404155 0.088282004 0
0.83747089 0.94438416 0.11788947 0
1.0966201 1.2366168 0.19326559 0
1.0981997 1.2383982 0.23270875 0
0.58246988 0.69120258 -0.19213443 0
0.62025988 0.73604697 -0.18129577 0
0.62283349 0.73910105 -0.1588515 0
0.612055 0.72631043 -0.13348116 0
0.72371417 0.85881364 -0.13125882 0
0.62038946 0.73620075 -0.089862786 0
0.62718171 0.74426097 -0.068041712 0
0.63274115 0.75085819 -0.045712531 0
0.64198864 0.76183194 -0.023163529 0
0.65851867 0.78144777 2.9173987e-05 0
0.67260319 0.79816151 0.024327759 0
0.84258866 0.999879 0.060947832 0
0.84066087 0.99759138 0.091276497 0
0.834791 0.99062574 0.12099324 0
0.83894897 0.99555987 0.15223411 0
1.0949352 1.2993324 0.23888993 0
0.55763286 0.69666874 -0.18968126 0
0.59702605 0.74588394 -0.17994992 0
0.59908438 0.74845541 -0.15756209 0
0.59509569 0.74347228 -0.13383225 0
0.69303811 0.86583489 -0.12961729 0
0.60878742 0.7605778 -0.090933837 0
0.62529963 0.78120703 -0.069954298 0
0.61764157 0.77163953 -0.046014011 0
0.62489581 0.78070253 -0.023250343 0
0.63597071 0.7945388 2.9054218e-05 0
0.83951217 1.0488297 0.031312268 0
0.83868462 1.0477958 0.062558413 0
0.84023869 1.0497373 0.094077371 0
0.83415318 1.0421345 0.12467334 0
0.83503401 1.0432349 0.15625179 0
1.098565 1.3724728 0.24716081 0
1.1075468 1.3836939 0.29139411 0
0.55126256 0.72549987 -0.19368125 0
0.61816072 0.81354243 -0.19244769 0
0.70519793 0.92808944 -0.1915701 0
0.61353594 0.80745596 -0.14251709 0
0.6017971 0.79200685 -0.11625426 0
0.61858135 0.81409609 -0.095435441 0
0.60598481 0.79751813 -0.070023037 0
0.6065706 0.79828912 -0.046675388 0
0.62208545 0.8187077 -0.023906983 0
0.63404459 0.83444679 2.9918845e-05 0
0.72943395 0.95998585 0.028101306 0
0.73130447 0.96244752 0.056342777 0
0.72550946 0.95482087 0.083903208 0
0.73083794 0.9618336 0.11282409 0
0.73149925 0.96270388 0.14137991 0
0.72795552 0.95804006 0.16916543 0
0.72969735 0.96033239 0.1982962 0
0.73364514 0.96552801 0.22847237 0
0.52146941 0.72348279 -0.1895688 0
0.59632242 0.82733327 -0.19208851 0
0.6796934 0.94300157 -0.19104634 0
0.72222078 1.0020038 -0.17358246 0
0.94913971 1.3168293 -0.18971334 0
0.83980763 1.1651429 -0.13406074 0
0.8379578 1.1625764 -0.10018676 0
0.83393043 1.1569889 -0.06639652 0
0.83595395 1.1597962 -0.033240385 0
0.84017503 1.1656526 4.1020765e-05 0
0.8373735 1.1617657 0.033378642 0
0.84301394 1.1695913 0.067202233 0
0.84302026 1.1696 0.10087474 0
0.84320861 1.1698613 0.13468671 0
0.83486366 1.1582837 0.16695456 0
0.83612883 1.1600389 0.20104299 0
1.0948821 1.5190314 0.30785626 0
0.50549382 0.73998827 -0.19049002 0
0.57371479 0.83985639 -0.19157317 0
0.65299314 0.95591134 -0.19026227 0
0.76986849 1.1270041 -0.19180979 0
0.92447263 1.353328 -0.19154911 0
1.1485403 1.6813388 -0.1900581 0
0.85255092 1.2480423 -0.10566395 0
0.84050208 1.2304041 -0.069370151 0
0.84078652 1.2308205 -0.034656748 0
0.84006917 1.2297704 4.2517469e-05 0
0.83982521 1.2294133 0.034702178 0
0.8345567 1.2217007 0.068964116 0
0.83774757 1.2263718 0.10391445 0
0.84770328 1.2409459 0.14036277 0
0.83879113 1.2278994 0.17388213 0
0.83603293 1.2238618 0.2083807 0
1.1008606 1.6115409 0.32087162 0
1.1047308 1.6172065 0.36900431 0
0.48802343 0.75461149 -0.1910228 0
0.55980664 0.86560708 -0.19416228 0
0.6250661 0.96651518 -0.18917257 0
0.73414952 1.1351866 -0.18998832 0
0.88377976 1.366554 -0.19020341 0
1.1072971 1.7121701 -0.19032353 0
1.4829819 2.293077 -0.19091082 0
0.85174209 1.3170154 -0.073018037 0
0.84598136 1.3081077 -0.036220215 0
0.84286159 1.3032838 4.4309494e-05 0
0.83562601 1.2920958 0.035864763 0
0.82903141 1.2818989 0.071158454 0
0.83790088 1.2956133 0.10795521 0
0.83845413 1.2964687 0.14420341 0
0.84065306 1.2998689 0.18101145 0
0.83574039 1.2922726 0.21636832 0
0.83713686 1.2944319 0.25344491 0
1.1004376 1.7015637 0.38179356 0
0.47495756 0.77670759 -0.19352008 0
0.52719474 0.86213207 -0.1903376 0
0.609945 0.9974553 -0.19215406 0
0.70770603 1.1573259 -0.1906435 0
0.8480829 1.3868868 -0.18999371 0
1.0629073 1.7381936 -0.19017369 0
1.4266732 2.3330672 -0.1911815 0
0.85154557 1.3925495 -0.075990029 0
0.84588176 1.3832873 -0.037698716 0
0.83872521 1.3715841 4.5897272e-05 0
0.83319569 1.3625416 0.037224568 0
0.83926111 1.3724605 0.074985847 0
0.83665705 1.368202 0.11220834 0
0.83748519 1.3695562 0.14993396 0
0.83655816 1.3680403 0.18750468 0
0.83616656 1.3673999 0.22534181 0
0.8357268 1.3666807 0.26337719 0
1.0994536 1.7979585 0.39706966 0
0.452362 0.78351241 -0.19230965 0
0.51436281 0.89090073 -0.19376118 0
0.57726502 0.99985027 -0.18974827 0
0.68305528 1.183084 -0.19198559 0
0.81597042 1.4132993 -0.19073002 0
1.0329753 1.7891622 -0.19283625 0
1.366794 2.3673518 -0.19110328 0
1.3712156 2.3750103 -0.12767275 0
0.85085571 1.4737222 -0.039565489 0
0.83932418 1.4537491 4.7922629e-05 0
0.83918631 1.4535104 0.039118733 0
0.84112334 1.4568653 0.078412548 0
0.83793211 1.4513381 0.11725469 0
0.83341509 1.4435143 0.15567826 0
0.84551096 1.4644649 0.19773288 0
0.83774859 1.4510201 0.23556262 0
0.83746308 1.4505256 0.27537417 0
0.8385644 1.4524332 0.31598753 0
0.43899736 0.80670947 -0.1952216 0
0.48251373 0.88667595 -0.19013317 0
0.55270541 1.0156615 -0.19004102 0
0.6510753 1.1964277 -0.1914234 0
0.78177828 1.4366099 -0.19115219 0
0.9797141 1.8003403 -0.19131503 0
1.2916148 2.3734946 -0.18890744 0
1.2901629 2.3708267 -0.12565738 0
1.2889693 2.3686333 -0.062698074 0
0.84974283 1.5615027 5.0751562e-05 0
0.83838212 1.5406262 0.040880803 0
0.84145105 1.5462656 0.082055137 0
0.84144723 1.5462587 0.12316839 0
0.83662641 1.5373999 0.1634742 0
0.83696175 1.5380161 0.20474641 0
0.83741111 1.5388418 0.24631022 0
0.84245664 1.5481135 0.2897718 0
0.83967268 1.5429976 0.33097452 0
0.40822998 0.79746002 -0.19042923 0
0.46441254 0.90721029 -0.19196185 0
0.53302157 1.0412351 -0.1922477 0
0.61773121 1.2067118 -0.19051366 0
0.74324363 1.4518951 -0.1906293 0
0.93569148 1.8278339 -0.19166605 0
1.2413234 2.4248729 -0.19044247 0
1.2417297 2.4256668 -0.12686251 0
1.2431543 2.4284494 -0.063430689 0
1.2451534 2.4323547 7.8009507e-05 0
0.84814763 1.6568207 0.043382209 0
0.83643895 1.6339481 0.08556062 0
0.8406226 1.6421208 0.12907325 0
0.8453126 1.6512824 0.17325976 0
0.84352893 1.6477982 0.21645789 0
0.84142697 1.643692 0.25961089 0
0.84193695 1.6446882 0.30377421 0
0.84060967 1.6420956 0.34756953 0
0.39108172 0.81396323 -0.19195196 0
0.44576222 0.92777044 -0.19386998 0
0.50506419 1.0511965 -0.19167228 0
0.58845973 1.2247686 -0.19095878 0
0.71341848 1.4848467 -0.1925303 0
0.88912874 1.8505547 -0.1916344 0
1.1782404 2.4522865 -0.19019938 0
1.7809464 3.7067058 -0.19144912 0
4.5051365 9.3765965 -0.24186814 0
0.84712559 1.763133 0.091176689 0
0.83917749 1.7465906 0.13557677 0
0.83953238 1.7473292 0.18105653 0
0.83811504 1.7443793 0.22629419 0
0.83923537 1.746711 0.27244985 0
0.83671618 1.7414678 0.31764776 0
0.83957171 1.747411 0.36525941 0
0.37017176 0.82301927 -0.19182326 0
0.41578797 0.92443985 -0.19092032 0
0.47545677 1.0571041 -0.19050075 0
0.55455035 1.2329563 -0.18999265 0
0.67146581 1.4928997 -0.19131613 0
0.84715468 1.8835166 -0.19277222 0
1.1179749 2.4856431 -0.19053738 0
1.6865112 3.7496948 -0.19141002 0
4.2629724 9.478055 -0.24163295 0
1.0655853 2.369163 0.1210869 0
0.85082775 1.8916831 0.14512628 0
0.84124631 1.8703802 0.19154587 0
0.83744425 1.8619269 0.23872538 0
0.83724368 1.8614811 0.28696412 0
0.83739924 1.8618269 0.33563957 0
0.84005058 1.8677218 0.38585311 0
0.35403493 0.84340471 -0.19443001 0
0.39672634 0.94510698 -0.19305921 0
0.45116714 1.0747993 -0.19157653 0
0.52342182 1.246929 -0.19004956 0
0.63210487 1.5058408 -0.19086929 0
0.79671985 1.897997 -0.19213504 0
1.0589584 2.5227187 -0.19126971 0
1.5923535 3.7934065 -0.19152883 0
4.0214891 9.5802488 -0.24157375 0
0.99691367 2.3749118 0.1200565 0
0.84639603 2.0163388 0.15300204 0
0.83949745 1.9999048 0.20257612 0
0.83634555 1.992396 0.2526665 0
0.83615184 1.9919344 0.30372468 0
0.83925009 1.9993154 0.35649315 0
0.84086931 2.0031729 0.40932122 0
0.3297103 0.84455848 -0.19271624 0
0.37060827 0.9493193 -0.19194782 0
0.41989914 1.0755788 -0.18976603 0
0.49101552 1.2577446 -0.18974873 0
0.59544885 1.5252522 -0.19136389 0
0.74814361 1.9163824 -0.19202358 0
0.99408317 2.5463607 -0.19109912 0
1.4950703 3.829648 -0.19139251 0
3.7822168 9.6882124 -0.24181205 0
0.92379731 2.3663223 0.11840593 0
0.84835178 2.1730673 0.16321807 0
0.84273481 2.1586795 0.21643546 0
0.83860683 2.1481056 0.26964286 0
0.8410213 2.1542902 0.32514012 0
0.83890486 2.148869 0.37926358 0
0.83958745 2.1506174 0.43498105 0
0.309194 0.85509121 -0.19327742 0
0.34287766 0.94824499 -0.18992035 0
0.39310399 1.0871483 -0.18999629 0
0.43742439 1.2097187 -0.1807802 0
0.43559092 1.204648 -0.14971267 0
0.43507159 1.2032119 -0.11942481 0
0.93206024 2.5776584 -0.19162147 0
1.3992227 3.8696191 -0.1915642 0
3.5387659 9.7866306 -0.24196221 0
0.85725909 2.3707922 0.11750953 0
0.85212135 2.3565834 0.17533067 0
0.83871734 2.319514 0.23036544 0
0.84038633 2.3241296 0.28898394 0
0.83529359 2.3100452 0.34535593 0
0.84158999 2.3274584 0.40690514 0
0.83719856 2.3153138 0.46387085 0
0.28187642 0.84568596 -0.18948315 0
0.31968388 0.95911598 -0.190421 0
0.36636662 1.0991737 -0.19042125 0
0.40460089 1.2138841 -0.17981939 0
0.40139848 1.2042763 -0.14836016 0
0.40390244 1.2117887 -0.11922631 0
0.86605197 2.5983303 -0.19147229 0
1.3021665 3.9067616 -0.1917149 0
3.2898118 9.8700981 -0.24189594 0
0.79190475 2.3758738 0.11673357 0
0.85208029 2.5564125 0.18853796 0
0.84084916 2.5227168 0.24835998 0
0.83864754 2.5161116 0.31012449 0
0.84167355 2.5251901 0.37422541 0
0.8408367 2.5226796 0.43718585 0
0.83692878 2.5109549 0.49867654 0
0.26366624 0.8630591 -0.19182362 0
0.29679337 0.9714942 -0.19133042 0
0.33709431 1.1034113 -0.18962109 0
0.38019726 1.2445004 -0.18287502 0
0.38080147 1.2464781 -0.15232664 0
0.37920901 1.2412654 -0.12114625 0
0.72587311 2.3760018 -0.17368345 0
0.72435993 2.3710487 -0.11541958 0
0.72218686 2.3639355 -0.057470217 0
0.72200233 2.3633316 7.0547583e-05 0
0.72426045 2.370723 0.057776839 0
0.72685462 2.3792145 0.11595943 0
0.84027261 2.7504656 0.20122141 0
0.8388015 2.7456505 0.26813805 0
0.83291894 2.7263949 0.33334583 0
0.8364684 2.7380135 0.40250832 0
0.83252031 2.72509 0.46847343 0
0.23967323 0.86176664 -0.19013134 0
0.27189937 0.97763866 -0.19112815 0
0.30913419 1.1115198 -0.18961333 0
0.36480838 1.3117014 -0.19133605 0
0.43689832 1.5709072 -0.1905655 0
0.55392557 1.9916892 -0.19296092 0
0.65939581 2.3709168 -0.1720404 0
0.66189831 2.379915 -0.11500135 0
0.6596638 2.3718805 -0.057240378 0
0.6621902 2.3809643 7.0552574e-05 0
0.6605674 2.3751295 0.057459623 0
0.66142732 2.3782215 0.11506076 0
0.8120057 2.9196396 0.21203114 0
0.80961818 2.9110548 0.28220588 0
0.8119235 2.9193442 0.35431865 0
0.8115375 2.9179561 0.42581457 0
0.81059939 2.914583 0.49737394 0
0.21974963 0.87508947 -0.19178599 0
0.24615137 0.98022681 -0.19035894 0
0.28173241 1.121918 -0.1901136 0
0.3325454 1.324266 -0.19188344 0
0.39748752 1.5828792 -0.19074006 0
0.49898559 1.987066 -0.19123197 0
0.59877288 2.3844402 -0.17187037 0
0.5943256 2.36673 -0.11360322 0
0.59530425 2.3706272 -0.056829438 0
0.59365213 2.364048 6.958517e-05 0
0.59553951 2.3715641 0.056991588 0
0.59695756 2.3772111 0.11424656 0
0.76775807 3.057375 0.22055633 0
0.7674129 3.0560002 0.29428592 0
0.7689904 3.0622821 0.36919376 0
0.76704335 3.0545287 0.44277835 0
0.19717981 0.87848192 -0.19137786 0
0.22285682 0.99287897 -0.19166264 0
0.25808629 1.1498345 -0.19367871 0
0.29596063 1.3185736 -0.18991579 0
0.35618457 1.5868851 -0.19007896 0
0.44749618 1.9936996 -0.19072267 0
0.55163676 2.4576702 -0.17608915 0
0.55054855 2.4528217 -0.11703138 0
0.55312306 2.4642918 -0.058721438 0
0.54902267 2.4460237 7.156744e-05 0
0.54927874 2.4471645 0.058456592 0
0.55263072 2.4620984 0.11761839 0
0.71291953 3.1762223 0.22775933 0
0.711541 3.1700807 0.30344561 0
0.71440601 3.1828449 0.3814337 0
0.71243876 3.1740804 0.45735615 0
0.17523891 0.88462526 -0.19169162 0
0.1945906 0.98231465 -0.1886152 0
0.22381115 1.1298232 -0.18929623 0
0.26812401 1.3535194 -0.19391266 0
0.31803286 1.6054647 -0.19128206 0
0.39860767 2.0122151 -0.19147056 0
0.4164409 2.1022394 -0.14982218 0
0.41361037 2.0879505 -0.099092662 0
0.41450965 2.0924902 -0.049596712 0
0.41370028 2.0884044 6.0779115e-05 0
0.41307664 2.0852561 0.049546693 0
0.4127247 2.0834796 0.099002011 0
0.4152489 2.0962222 0.14951594 0
0.41480619 2.093987 0.19937444 0
0.41417438 2.0907977 0.24923012 0
0.40460598 2.0424955 0.29274037 0
0.26926297 1.359269 0.26107651 0
0.15287879 0.88885593 -0.19171122 0
0.17644013 1.0258445 -0.1960559 0
0.19466934 1.1318313 -0.18874936 0
0.22996844 1.3370646 -0.19066298 0
0.27694592 1.6101974 -0.19095233 0
0.34630615 2.0134661 -0.19069718 0
0.36789882 2.1390085 -0.15173256 0
0.88205749 5.1283898 -0.24225606 0
1.7628505 10.249428 -0.24180287 0
0.58227015 3.3853896 0.16011637 0
0.57893872 3.3660202 0.23896775 0
0.58168161 3.3819678 0.32050681 0
0.2627466 1.5276407 0.1812517 0
0.27105072 1.5759219 0.22481671 0
0.27120253 1.5768045 0.26304898 0
0.23500901 1.366371 0.26121816 0
0.13051902 0.89322138 -0.19188116 0
0.14747657 1.0092722 -0.19211614 0
0.1665812 1.1400169 -0.189353 0
0.19837488 1.3576006 -0.192816 0
0.23833409 1.6310657 -0.1926524 0
0.29594162 2.0253093 -0.19105057 0
0.39349914 2.692955 -0.19026218 0
0.75134665 5.1419239 -0.24192257 0
1.5042826 10.294724 -0.24189876 0
0.50493616 3.4555864 0.16278183 0
0.50269395 3.4402418 0.24325883 0
0.50314271 3.4433131 0.32501352 0
0.22051364 1.5091096 0.17833589 0
0.27505648 1.8823797 0.2674596 0
0.19948559 1.3652017 0.2599493 0
0.11000198 0.91334558 -0.19554555 0
0.12151109 1.0089056 -0.19140163 0
0.13763919 1.1428173 -0.18918088 0
0.16437815 1.3648305 -0.19319211 0
0.19631425 1.6299957 -0.19187967 0
0.24711886 2.051826 -0.19290216 0
0.32550582 2.7026725 -0.19030769 0
0.62056828 5.1525736 -0.24160978 0
1.2436256 10.325814 -0.24181475 0
0.42541477 3.5322154 0.165833 0
0.42248896 3.5079226 0.24721181 0
0.42374364 3.5183403 0.33098042 0
0.4227286 3.5099123 0.41338411 0
0.22809832 1.8938986 0.26819289 0
0.16449711 1.3658181 0.2591936 0
0.084419183 0.88945633 -0.18991426 0
0.09661974 1.0180037 -0.19260368 0
0.10980305 1.1569055 -0.19099346 0
0.12882689 1.3573442 -0.19161114 0
0.1553984 1.6373068 -0.19221739 0
0.19402099 2.0442414 -0.19166769 0
0.2575219 2.7132993 -0.19053763 0
0.4912774 5.1761909 -0.24205871 0
0.98196286 10.346145 -0.24163352 0
0.34022573 3.584682 0.16783965 0
0.33945873 3.576601 0.25136793 0
0.34024814 3.5849183 0.33632866 0
0.33919975 3.5738723 0.4197751 0
0.33967704 3.5789011 0.50542927 0
0.17261283 1.8186811 0.30035308 0
0.13034269 1.373315 0.25990921 0
0.062032815 0.89248812 -0.19016674 0
0.070906967 1.0201637 -0.19261239 0
0.080248542 1.1545641 -0.19021198 0
0.094316728 1.3569682 -0.19116116 0
0.11374835 1.6365378 -0.19172904 0
0.14085735 2.0265646 -0.18961661 0
0.19070332 2.7437162 -0.19227439 0
0.36024573 5.1829829 -0.24187413 0
0.72122657 10.376542 -0.2418413 0
0.25201854 3.62588 0.16941682 0
0.25170141 3.6213176 0.25398329 0
0.1323809 1.904611 0.17831591 0
0.13344833 1.9199685 0.22504582 0
0.13364106 1.9227413 0.27097595 0
0.12404526 1.7846832 0.29412764 0
0.095286414 1.3709195 0.25891823 0
0.039393973 0.89148921 -0.18968163 0
0.045274906 1.0245752 -0.19316807 0
0.051253568 1.1598729 -0.19081271 0
0.059974626 1.3572313 -0.19092417 0
0.072382949 1.6380327 -0.19162911 0
0.090066813 2.0382202 -0.19043383 0
0.12124229 2.7437241 -0.19199936 0
0.22926734 5.1883411 -0.24177714 0
0.45906582 10.388701 -0.24177766 0
0.16250876 3.677588 0.17158656 0
0.16146602 3.653991 0.25590754 0
0.08552631 1.9354682 0.18094514 0
0.08505749 1.9248587 0.22529565 0
0.085496016 1.9347826 0.27228212 0
0.07597173 1.7192473 0.28293726 0
0.060810041 1.3761368 0.25953108 0
0.017146245 0.90582705 -0.1925789 0
0.019281738 1.018644 -0.19189698 0
0.022051958 1.1649934 -0.19150254 0
0.025783062 1.3621055 -0.19145733 0
0.031201806 1.6483749 -0.19268553 0
0.03852351 2.0351768 -0.18999812 0
0.051887546 2.7411916 -0.19166946 0
0.098315187 5.1939392 -0.24184535 0
0.19703382 10.409193 -0.24206175 0
0.069993272 3.6977077 0.17238796 0
0.069683179 3.6813257 0.25761673 0
0.069955997 3.6957386 0.34523618 0
0.069891281 3.6923194 0.43182459 0
0.031863935 1.6833549 0.27680993 0
0.02613364 1.3806264 0.26017058 0
-0.0056594643 0.89730632 -0.19073702 0
-0.0064166626 1.01736 -0.19162457 0
-0.0072780806 1.1539375 -0.18965496 0
-0.0085983789 1.3632704 -0.19159056 0
-0.010404864 1.6496881 -0.19280833 0
-0.012843892 2.0363953 -0.19008161 0
-0.017244034 2.7340364 -0.19113873 0
-0.032807533 5.2016244 -0.24216464 0
-0.065547243 10.392496 -0.24163498 0
-0.023543106 3.7327523 0.17399405 0
-0.023348626 3.7019176 0.25901651 0
-0.023374487 3.706018 0.34614131 0
-0.02345261 3.7184043 0.43480605 0
-0.010298074 1.6327566 0.26844683 0
-0.0086348038 1.3690455 0.25794715 0
-0.028645862 0.90791655 -0.1930846 0
-0.032109074 1.0176814 -0.19177668 0
-0.03645812 1.1555222 -0.19000615 0
-0.042967942 1.3618479 -0.19148208 0
-0.051751103 1.6402259 -0.19179401 0
-0.064597473 2.0473852 -0.19119874 0
-0.086499631 2.7415633 -0.1917565 0
-0.11945913 3.7861989 -0.17635289 0
-0.11974635 3.7953019 -0.08828637 0
-0.11987741 3.7994556 0.0001085223 0
-0.11986714 3.7991304 0.088592574 0
-0.1180165 3.7404752 0.17443733 0
-0.11737984 3.7202966 0.26042679 0
-0.11747993 3.723469 0.34793738 0
-0.11766235 3.7292507 0.43628266 0
-0.051750366 1.6402025 0.26979986 0
-0.043292906 1.3721474 0.2586551 0
-0.051514477 0.90637892 -0.19297263 0
-0.057878036 1.0183434 -0.19211555 0
-0.066337839 1.1671907 -0.19213894 0
-0.0779787 1.3720076 -0.1931258 0
-0.092760421 1.6320866 -0.19105519 0
-0.11645092 2.0489125 -0.19155484 0
-0.15544599 2.7350171 -0.19151205 0
-0.21512814 3.7851033 -0.17649855 0
-0.21470186 3.7776029 -0.087972701 0
-0.21478945 3.779144 0.00010806258 0
-0.2153727 3.7894061 0.088464402 0
-0.21174532 3.7255836 0.17393669 0
-0.21198705 3.7298369 0.26138592 0
-0.21199295 3.7299407 0.34893098 0
-0.078573041 1.3824646 0.16191411 0
-0.077699132 1.3670887 0.19251312 0
-0.077117689 1.3568583 0.22344108 0
-0.077695765 1.3670293 0.25797781 0
-0.074568741 0.90724629 -0.19349638 0
-0.083046339 1.0103897 -0.19094962 0
-0.094405472 1.1485914 -0.18940912 0
-0.1118194 1.3604593 -0.19183642 0
-0.13447969 1.6361574 -0.19186795 0
-0.16878395 2.0535228 -0.19232288 0
-0.22554125 2.7440648 -0.1924829 0
-0.42530206 5.1744699 -0.241708 0
-0.85190749 10.364798 -0.2417988 0
-0.30766508 3.7432306 0.17506735 0
-0.30475983 3.7078841 0.26030362 0
-0.30560872 3.7182119 0.34844437 0
-0.30548459 3.7167015 0.43606383 0
-0.11503975 1.39964 0.19744299 0
-0.11469626 1.3954608 0.23020136 0
-0.11228807 1.3661615 0.2582666 0
-0.096735887 0.89857537 -0.1921066 0
-0.10822804 1.0053254 -0.19044814 0
-0.1243212 1.1548141 -0.19089191 0
-0.14588319 1.3551024 -0.19153923 0
-0.17598644 1.6347302 -0.19216026 0
-0.21941501 2.0381362 -0.19133957 0
-0.29196724 2.7120709 -0.19069484 0
-0.55650848 5.1693826 -0.24204937 0
-1.1132118 10.340574 -0.24181215 0
-0.40052029 3.7204154 0.17441754 0
-0.40019259 3.7173712 0.26159543 0
-0.39923567 3.7084825 0.34836593 0
-0.40020773 3.7175119 0.43720475 0
-0.14910629 1.3850417 0.19585216 0
-0.1511092 1.4036467 0.23210698 0
-0.1472788 1.3680662 0.25924686 0
-0.12036034 0.90322769 -0.19368899 0
-0.13470863 1.0109024 -0.19208755 0
-0.15438922 1.1585927 -0.19209947 0
-0.18013702 1.3518137 -0.19165599 0
-0.21657059 1.6252244 -0.19162436 0
-0.27191794 2.040571 -0.19215123 0
-0.35993522 2.7010849 -0.19050047 0
-0.68623805 5.1497793 -0.24186544 0
-1.3751506 10.31963 -0.24205689 0
-0.49176037 3.6903486 0.17353459 0
-0.49103659 3.684917 0.26010087 0
-0.24275886 1.8217506 0.17165177 0
-0.24410108 1.8318232 0.21609065 0
-0.18568709 1.3934634 0.1976428 0
-0.18455492 1.3849672 0.22971521 0
-0.18242301 1.3689686 0.26020744 0
-0.14270206 0.89732969 -0.19313507 0
-0.15798274 0.99341673 -0.1894623 0
-0.1813934 1.1406262 -0.18981917 0
-0.21558918 1.3556538 -0.19291043 0
-0.25809574 1.6229407 -0.19206199 0
-0.32166347 2.0226631 -0.19116855 0
-0.42736351 2.6873193 -0.19022977 0
-0.81567079 5.1290479 -0.24178164 0
-1.6323607 10.264503 -0.24165329 0
-0.58216912 3.6607578 0.17277902 0
-0.58083445 3.6523652 0.25875556 0
-0.27989781 1.760035 0.16644932 0
-0.28013015 1.7614961 0.20856214 0
-0.27788788 1.7473965 0.24875869 0
-0.21854001 1.3742089 0.26216844 0
-0.16382965 0.88551176 -0.19142045 0
-0.18570466 1.0037478 -0.19226529 0
-0.21047455 1.1376309 -0.1901442 0
-0.25045258 1.3537152 -0.19347246 0
-0.29782468 1.6097651 -0.19133137 0
-0.37133425 2.0070899 -0.19052176 0
-0.49660397 2.6841822 -0.19083416 0
-0.94543624 5.1101546 -0.24193881 0
-1.8909532 10.220745 -0.24166973 0
-0.67219418 3.6332607 0.17222711 0
-0.66870606 3.6144071 0.25718018 0
-0.66693527 3.6048357 0.34239796 0
-0.66836083 3.612541 0.42958736 0
-0.29008219 1.5679163 0.2621558 0
-0.25165626 1.3602213 0.26062864 0
-0.18761136 0.88815719 -0.19295447 0
-0.20958886 0.9921993 -0.19100563 0
-0.23818383 1.1275686 -0.18940681 0
-0.2822887 1.3363622 -0.19194952 0
-0.34028175 1.610903 -0.19242615 0
-0.41948786 1.9858668 -0.18945186 0
-0.56524116 2.6758668 -0.19119635 0
-0.61905855 2.93064 -0.13944563 0
-0.61996293 2.9349213 -0.069744043 0
-0.62090635 2.9393873 8.5766507e-05 0
-0.75552559 3.5766785 0.1703946 0
-0.75351417 3.5671563 0.25509006 0
-0.75266218 3.563123 0.34013197 0
-0.75068247 3.553751 0.42471409 0
-0.28868845 1.3666589 0.26317441 0
-0.20932923 0.88048476 -0.19237414 0
-0.23403402 0.98439848 -0.19058032 0
-0.27007332 1.1359876 -0.19190493 0
-0.31440189 1.3224434 -0.19102922 0
-0.37613994 1.5821272 -0.19006228 0
-0.47283864 1.9888632 -0.19081545 0
-0.52203649 2.1958001 -0.15778576 0
-0.62025636 2.6089344 -0.12484338 0
-0.62138832 2.6136956 -0.062463392 0
-0.61823303 2.6004238 7.63071e-05 0
-0.83514148 3.5127885 0.16830143 0
-0.83483046 3.5114803 0.25253496 0
-0.83364999 3.5065148 0.33662951 0
-0.8353011 3.5134599 0.42228395 0
-0.83468103 3.5108519 0.50735867 0
-0.23123804 0.87401551 -0.19217464 0
-0.25979888 0.98196757 -0.19131823 0
-0.29631335 1.1199821 -0.19040383 0
-0.34608477 1.3081044 -0.19015913 0
-0.4151178 1.5690299 -0.18968713 0
-0.52460635 1.9828662 -0.19144943 0
-0.58112949 2.1965079 -0.15883999 0
-0.64874876 2.45209 -0.11808393 0
-0.64655787 2.443809 -0.058774624 0
-0.64860213 2.4515359 7.2395429e-05 0
-0.91107684 3.4436173 0.16603619 0
-0.91192132 3.4468093 0.24945982 0
-0.91219807 3.4478552 0.33310229 0
-0.91085732 3.4427876 0.41642028 0
-0.91115481 3.443912 0.50084889 0
-0.25529468 0.87502521 -0.19375169 0
-0.287909 0.98681116 -0.193616 0
-0.3227008 1.1060605 -0.18936139 0
-0.34738663 1.1906713 -0.17430694 0
-0.45621264 1.5636737 -0.19037099 0
-0.57082641 1.9565138 -0.19023553 0
-0.7127912 2.4430995 -0.1779165 0
-0.71591836 2.4538178 -0.11899939 0
-0.71462935 2.4493997 -0.059323978 0
-0.71707916 2.4577966 7.3091491e-05 0
-0.98516858 3.3766758 0.16395523 0
-0.98359478 3.3712816 0.24571201 0
-0.98353857 3.371089 0.32797959 0
-0.9818306 3.3652349 0.40990672 0
-0.98083711 3.3618298 0.49235505 0
-0.27445018 0.85940921 -0.19176663 0
-0.31215817 0.97748739 -0.19327091 0
-0.35308522 1.1056458 -0.19075535 0
-0.37917307 1.1873369 -0.175164 0
-0.39422056 1.2344564 -0.15145321 0
-0.39781681 1.2457176 -0.12206086 0
-0.39849389 1.2478378 -0.091575921 0
-0.39633724 1.2410846 -0.060652945 0
-0.39186177 1.2270701 -0.029949397 0
-0.39514735 1.2373586 3.7082118e-05 0
-0.39924166 1.2501794 0.030588403 0
-0.39822227 1.2469873 0.061016321 0
-0.39829597 1.247218 0.091605559 0
-0.39518973 1.2374913 0.12132961 0
-0.39846641 1.2477517 0.1531602 0
-0.39459807 1.2356385 0.1823653 0
-0.39595291 1.239881 0.21399108 0
-0.39597043 1.2399359 0.24523973 0
-0.29730856 0.85584384 -0.19258411 0
-0.33440533 0.96263206 -0.19194132 0
-0.37980327 1.0933163 -0.19022141 0
-0.4305115 1.239287 -0.18437229 0
-0.43067226 1.2397498 -0.15338738 0
-0.43209866 1.2438558 -0.12290788 0
-0.42939919 1.2360851 -0.091479629 0
-0.43434554 1.2503238 -0.061620597 0
-0.43355262 1.2480413 -0.030718537 0
-0.43202421 1.2436415 3.7585218e-05 0
-0.43177015 1.2429101 0.030667411 0
-0.42958593 1.2366226 0.061020259 0
-0.43422589 1.2499794 0.092583835 0
-0.43338639 1.2475626 0.12335023 0
-0.43423772 1.2500134 0.15473384 0
-0.43179867 1.2429922 0.18500014 0
-0.43586603 1.2547007 0.21837789 0
-0.43446514 1.250668 0.24945176 0
-0.31526759 0.83865285 -0.19044562 0
-0.35664165 0.9487133 -0.19090003 0
-0.40500557 1.0773677 -0.1891648 0
-0.47243068 1.2567272 -0.18868075 0
-0.48986199 1.3030968 -0.16270283 0
-0.51225764 1.3626721 -0.13588262 0
-0.50981796 1.3561822 -0.10128775 0
-0.51586264 1.3722619 -0.06825009 0
-0.51103914 1.3594308 -0.033766925 0
-0.51437128 1.3682946 4.1731531e-05 0
-1.204975 3.2053905 0.079814382 0
-1.1957437 3.1808341 0.15839472 0
-1.1623169 3.0919144 0.23111208 0
-1.1621866 3.0915678 0.30847445 0
-1.1568643 3.07741 0.38443136 0
