# .PCD v0.7 - Point Cloud Data file format
VERSION 0.7
FIELDS x y z intensity
SIZE 4 4 4 4
TYPE F F F F
COUNT 1 1 1 1
WIDTH 1336
HEIGHT 1
VIEWPOINT 0 0 0 1 0 0 0
POINTS 1336
DATA ascii
-0.70561039 -0.73748112 -0.19224393 0
-0.79789203 -0.83393091 -0.18968683 0
-0.94411254 -0.98675579 -0.19192299 0
-1.129885 -1.1809192 -0.19101582 0
-1.414133 -1.4780059 -0.1909323 0
-1.8834136 -1.9684827 -0.19045888 0
-3.5934489 -3.7557561 -0.2419883 0
-7.186245 -7.5108304 -0.2416869 0
-0.60835409 -0.66882926 -0.19218087 0
-0.67794353 -0.74533641 -0.18977086 0
-0.77631629 -0.85348821 -0.18961824 0
-0.91536802 -1.0063628 -0.19118215 0
-1.0980045 -1.2071548 -0.19071619 0
-1.377553 -1.5144926 -0.19109346 0
-1.842853 -2.026047 -0.19146727 0
-3.4914672 -3.8385465 -0.24156789 0
-6.9955568 -7.6909704 -0.24172509 0
-0.58845252 -0.68068904 -0.1912602 0
-0.67283082 -0.77829313 -0.19377659 0
-0.76228899 -0.88177335 -0.1915669 0
-0.8890934 -1.0284536 -0.191055 0
-1.075467 -1.2440403 -0.19219406 0
-1.344291 -1.5550008 -0.19186255 0
-1.7944241 -2.0756896 -0.19181757 0
-3.3961093 -3.9284296 -0.24175325 0
-6.8037848 -7.8702388 -0.24188527 0
-0.56679195 -0.69008565 -0.18982051 0
-0.64118075 -0.78065616 -0.19027522 0
-0.73891193 -0.89964676 -0.19133738 0
-0.85929936 -1.046222 -0.19026628 0
-1.0433117 -1.2702622 -0.19211587 0
-1.3039937 -1.5876502 -0.19176915 0
-1.7436723 -2.1229715 -0.19205892 0
-3.2982638 -4.0157318 -0.2419259 0
-6.6028657 -8.0391808 -0.2418787 0
-0.54642832 -0.70061296 -0.18886255 0
-0.62524259 -0.80166608 -0.19148885 0
-0.72119218 -0.92468965 -0.19273089 0
-0.84371513 -1.0817846 -0.19279969 0
-1.0134951 -1.2994711 -0.19260342 0
-1.2663976 -1.6237346 -0.19220582 0
-1.6975139 -2.1764982 -0.19296393 0
-3.191751 -4.0923615 -0.24161236 0
-6.394269 -8.1985283 -0.24174041 0
-0.53476411 -0.72253621 -0.19107316 0
-0.60657001 -0.81955534 -0.19204395 0
-0.6963591 -0.94087201 -0.1923793 0
-0.81096309 -1.0957171 -0.1915739 0
-0.97739381 -1.3205867 -0.19201569 0
-1.2166981 -1.6439179 -0.19089915 0
-1.6334827 -2.2070484 -0.19195616 0
-3.0834684 -4.1661682 -0.24129838 0
-6.1858096 -8.3578367 -0.24175732 0
-0.5165928 -0.73612535 -0.19115797 0
-0.58138978 -0.82845867 -0.19063109 0
-0.66979367 -0.95443082 -0.19163409 0
-0.77929217 -1.1104622 -0.19065239 0
-0.94455194 -1.3459511 -0.19217621 0
-1.1791444 -1.6802366 -0.19159971 0
-1.5719588 -2.2399824 -0.19130898 0
-2.9902914 -4.2610531 -0.24234556 0
-5.9753904 -8.5147076 -0.24185553 0
-0.50046933 -0.75285769 -0.19216172 0
-0.55958027 -0.8417784 -0.19038558 0
-0.64673221 -0.97288144 -0.19200015 0
-0.75322562 -1.1330798 -0.19121076 0
-0.90344113 -1.3590494 -0.19072998 0
-1.1415626 -1.7172564 -0.19247437 0
-1.5128895 -2.2758448 -0.19104987 0
-2.8727634 -4.3215075 -0.2415832 0
-5.7634487 -8.6699753 -0.24205692 0
-0.47912118 -0.76175785 -0.19128597 0
-0.5442493 -0.86530548 -0.19253863 0
-0.62361622 -0.9914915 -0.19250536 0
-0.72133458 -1.1468545 -0.19040237 0
-0.87553 -1.3920108 -0.1921934 0
-1.0919213 -1.7360529 -0.19143127 0
-1.4589072 -2.319526 -0.19156474 0
-2.766223 -4.3980355 -0.24188137 0
-5.5326152 -8.7963409 -0.24160944 0
-0.4605765 -0.77499688 -0.19163036 0
-0.52074152 -0.87623453 -0.19198488 0
-0.59185177 -0.99588948 -0.19039835 0
-0.69607878 -1.1712688 -0.19147797 0
-0.83568192 -1.4061744 -0.19117595 0
-1.0473526 -1.7623457 -0.19135475 0
-1.3993187 -2.3545876 -0.19148262 0
-2.6567106 -4.4703593 -0.24209416 0
-5.3150382 -8.9434395 -0.24188817 0
-0.43683895 -0.77917033 -0.18987566 0
-0.50296575 -0.89711773 -0.19371739 0
-0.5653314 -1.0083567 -0.18999349 0
-0.66781759 -1.1911567 -0.19191267 0
-0.80079198 -1.4283373 -0.19138035 0
-1.0064538 -1.7951672 -0.1920992 0
-1.3433418 -2.3960593 -0.19203685 0
-2.5385811 -4.5279551 -0.24166651 0
-5.090868 -9.0803566 -0.24203905 0
-0.4195492 -0.79469579 -0.19101778 0
-0.4753451 -0.90038246 -0.19177067 0
-0.53668529 -1.0165709 -0.18892884 0
-0.63465244 -1.2021369 -0.19104016 0
-0.76132619 -1.442078 -0.19058616 0
-0.9577958 -1.814224 -0.19149065 0
-1.2857035 -2.4353356 -0.19252266 0
-1.9226978 -3.6419084 -0.19172528 0
-4.8556786 -9.1974611 -0.24181682 0
-0.39532444 -0.79688424 -0.18908532 0
-0.45569873 -0.918585 -0.19313644 0
-0.5183205 -1.0448163 -0.1916859 0
-0.59942687 -1.2083082 -0.18955627 0
-0.72472739 -1.4608856 -0.19059367 0
-0.91544497 -1.8453289 -0.19227381 0
-1.2174224 -2.4540465 -0.19151179 0
-1.8300533 -3.6889715 -0.19171026 0
-4.6171131 -9.3070498 -0.24155737 0
-0.38479629 -0.82747227 -0.19397706 0
-0.43210426 -0.92920411 -0.19301467 0
-0.49045002 -1.0546718 -0.19116215 0
-0.57008976 -1.2259305 -0.19000307 0
-0.68429875 -1.4715273 -0.18966839 0
-0.86609757 -1.8624705 -0.19172119 0
-1.1587076 -2.491704 -0.19210714 0
-1.7389811 -3.7395337 -0.19199586 0
-4.3908334 -9.4421206 -0.24210967 0
-0.35849172 -0.82471538 -0.19114888 0
-0.40692794 -0.93614358 -0.19226153 0
-0.4637621 -1.0668914 -0.19119456 0
-0.53709513 -1.2355951 -0.1893397 0
-0.64824015 -1.4912859 -0.1900458 0
-0.8173942 -1.8804272 -0.19138503 0
-1.0885291 -2.5041771 -0.19088985 0
-1.6406269 -3.774286 -0.19159314 0
-4.1489387 -9.544693 -0.24197769 0
-0.33965188 -0.83864027 -0.1923282 0
-0.38414675 -0.94850332 -0.19274732 0
-0.43386391 -1.0712608 -0.18995473 0
-0.50586003 -1.2490277 -0.18938133 0
-0.61863846 -1.5274909 -0.19260855 0
-0.76984149 -1.9008287 -0.19142295 0
-1.0321699 -2.5485485 -0.19222519 0
-1.5460284 -3.8173251 -0.1917361 0
-3.9061592 -9.6447649 -0.24193826 0
-0.31839487 -0.84697187 -0.19233474 0
-0.36091095 -0.96007013 -0.19318525 0
-0.40711957 -1.0829911 -0.19015218 0
-0.47818425 -1.2720325 -0.19097863 0
-0.57343984 -1.5254246 -0.19046238 0
-0.72042292 -1.9164189 -0.19110101 0
-0.9672401 -2.5729847 -0.19216579 0
-1.4511497 -3.8602471 -0.19199121 0
-3.658318 -9.7316027 -0.24172346 0
-0.29862913 -0.85964531 -0.19343951 0
-0.33457175 -0.9631111 -0.19203685 0
-0.38048658 -1.0952833 -0.19056365 0
-0.44764665 -1.2886128 -0.19171064 0
-0.53564638 -1.5419322 -0.19077475 0
-0.67297292 -1.9372457 -0.19142312 0
-0.90350109 -2.600853 -0.19248277 0
-1.3505324 -3.8876946 -0.19160001 0
-3.4131787 -9.8253078 -0.24183422 0
-0.27596438 -0.86415076 -0.19282465 0
-0.30896369 -0.9674843 -0.19129306 0
-0.35281217 -1.1047908 -0.19060783 0
-0.41237682 -1.2913107 -0.1905029 0
-0.49791744 -1.5591713 -0.19129188 0
-0.62649262 -1.9617896 -0.19222473 0
-0.83332616 -2.6094651 -0.19150259 0
-1.2541766 -3.92731 -0.19193125 0
-3.1645579 -9.9094496 -0.24186234 0
-0.25157258 -0.86226773 -0.19092686 0
-0.28625497 -0.98114198 -0.19250369 0
-0.32514843 -1.1144497 -0.19079769 0
-0.38159245 -1.3079122 -0.19147028 0
-0.46159506 -1.582122 -0.192617 0
-0.57513475 -1.9712805 -0.19167131 0
-0.77193666 -2.6458213 -0.19267952 0
-1.1558162 -3.9615726 -0.19211887 0
-2.9113934 -9.9788322 -0.24168535 0
-0.23162356 -0.87547266 -0.19249503 0
-0.26010409 -0.98312122 -0.191543 0
-0.29609728 -1.1191655 -0.190265 0
-0.34916514 -1.3197472 -0.19185163 0
-0.41975632 -1.5865623 -0.19180669 0
-0.52538323 -1.9858025 -0.19173296 0
-0.70427096 -2.6619484 -0.19249822 0
-1.0548697 -3.9871144 -0.19200525 0
-2.6595416 -10.052328 -0.24176268 0
-0.20912054 -0.87960696 -0.19218235 0
-0.23483671 -0.98777479 -0.19123398 0
-0.26558974 -1.1171287 -0.18871905 0
-0.31431106 -1.3220613 -0.19097403 0
-0.37999669 -1.5983495 -0.19201109 0
-0.4752548 -1.9990261 -0.19179051 0
-0.63556194 -2.6733131 -0.19209887 0
-0.94848067 -3.9895179 -0.1909074 0
-2.4062958 -10.121408 -0.24188642 0
-0.18661837 -0.88345635 -0.19193318 0
-0.21110925 -0.9993968 -0.1923912 0
-0.24321696 -1.1513956 -0.19340923 0
-0.28223914 -1.3361276 -0.19191581 0
-0.33969337 -1.6081176 -0.19209342 0
-0.42480919 -2.0110581 -0.1918551 0
-0.5684343 -2.6909831 -0.19227645 0
-0.84863371 -4.0174546 -0.19115843 0
-2.1509523 -10.182667 -0.24197593 0
-0.16506387 -0.89218277 -0.19286253 0
-0.18643655 -1.0077037 -0.19302303 0
-0.21099861 -1.1404636 -0.19061764 0
-0.24758299 -1.3382049 -0.19125572 0
-0.29884011 -1.6152534 -0.19198371 0
-0.37347162 -2.0186424 -0.1916184 0
-0.49920943 -2.6982651 -0.19183539 0
-0.94397628 -5.1022635 -0.24156521 0
-1.8918418 -10.225549 -0.24178329 0
-0.14251646 -0.89616269 -0.19288388 0
-0.1593895 -1.0022626 -0.19114937 0
-0.18148552 -1.1412053 -0.18991555 0
-0.21171319 -1.3312811 -0.18944217 0
-0.25802562 -1.6224998 -0.19200981 0
-0.3214567 -2.021363 -0.19104566 0
-0.42967072 -2.7018273 -0.19125676 0
-0.81455898 -5.1220565 -0.24145205 0
-1.6345737 -10.278419 -0.2419809 0
-0.11827083 -0.88754725 -0.19032647 0
-0.13547149 -1.0166273 -0.19317538 0
-0.15388469 -1.1548066 -0.19147171 0
-0.17936219 -1.3459991 -0.1908316 0
-0.21662918 -1.625664 -0.1916762 0
-0.27005085 -2.0265598 -0.19083185 0
-0.36238942 -2.7195017 -0.19179937 0
-0.68601263 -5.148088 -0.241786 0
-1.3759792 -10.325848 -0.24220276 0
-0.096847683 -0.8996138 -0.19232862 0
-0.10934743 -1.0157235 -0.19241792 0
-0.12390044 -1.1509057 -0.19024585 0
-0.14492103 -1.3461652 -0.19027598 0
-0.17515904 -1.6270446 -0.19125682 0
-0.21874224 -2.0318871 -0.19075288 0
-0.29324493 -2.7239392 -0.19152935 0
-0.55555391 -5.1605158 -0.24163419 0
-1.1136972 -10.345083 -0.2419176 0
-0.074035898 -0.90076339 -0.19211373 0
-0.083470695 -1.0155526 -0.19192535 0
-0.095153503 -1.1576924 -0.19090991 0
-0.11066589 -1.3464249 -0.18985745 0
-0.13390996 -1.6292257 -0.19105509 0
-0.16669847 -2.0281496 -0.18994655 0
-0.22442386 -2.7304699 -0.19152929 0
-0.42586499 -5.1813192 -0.24202792 0
-0.85232931 -10.369929 -0.24191853 0
-0.051546846 -0.90694845 -0.1930939 0
-0.058048885 -1.0213495 -0.19268264 0
-0.066170052 -1.1642386 -0.19165297 0
-0.077048078 -1.3556335 -0.19082096 0
-0.082230546 -1.4468173 -0.16936719 0
-0.082133405 -1.4451081 -0.13510457 0
-0.081943706 -1.4417704 -0.10095601 0
-0.081876464 -1.4405874 -0.067174278 0
-0.082183316 -1.4459863 -0.033674084 0
-0.082819298 -1.4571762 4.1667165e-05 0
-0.028182624 -0.89323449 -0.18996219 0
-0.031897657 -1.0109806 -0.19051394 0
-0.03661729 -1.1605672 -0.1908357 0
-0.041420527 -1.3128033 -0.18458618 0
-0.041850705 -1.3264376 -0.15510228 0
-0.041883826 -1.3274875 -0.12396979 0
-0.041666187 -1.3205894 -0.092367597 0
-0.041793693 -1.3246306 -0.061698407 0
-0.041965492 -1.3300757 -0.030940244 0
-0.042044044 -1.3325654 3.8061524e-05 0
-0.00570032 -0.90378398 -0.19211395 0
-0.0063755289 -1.0108383 -0.19039616 0
-0.0073051434 -1.1582283 -0.19036017 0
-0.0076961936 -1.2202291 -0.17148791 0
-0.0077658584 -1.2312745 -0.14390598 0
-0.0076308409 -1.2098675 -0.11293169 0
-0.0076667615 -1.2155628 -0.084980987 0
-0.0076257032 -1.2090529 -0.05628816 0
-0.007665941 -1.2154326 -0.028259914 0
-0.0077037918 -1.2214339 3.4870664e-05 0
0.016934756 -0.89465427 -0.19020356 0
0.019117694 -1.0099777 -0.19026437 0
0.022024963 -1.1635672 -0.19126809 0
0.023018962 -1.2160796 -0.17093195 0
0.022913693 -1.2105184 -0.14150262 0
0.023226887 -1.2270641 -0.11455511 0
0.022994734 -1.2147996 -0.084941164 0
0.022804143 -1.2047309 -0.056095876 0
0.02277695 -1.2032943 -0.02798214 0
0.022838097 -1.2065246 3.4450502e-05 0
0.040097538 -0.90741098 -0.19306931 0
0.045487504 -1.0293864 -0.19407514 0
0.051379368 -1.1627197 -0.19128105 0
0.053811084 -1.2177497 -0.17130306 0
0.053218726 -1.2043446 -0.14089309 0
0.053998746 -1.2219965 -0.11417288 0
0.053541567 -1.2116506 -0.084788464 0
0.05352933 -1.2113737 -0.056450114 0
0.053732354 -1.215968 -0.028299389 0
0.053648699 -1.214075 3.4693705e-05 0
0.06266968 -0.90165097 -0.19211912 0
0.070549369 -1.0150188 -0.19164102 0
0.08034014 -1.155882 -0.19042911 0
0.083774842 -1.2052983 -0.16979486 0
0.084926791 -1.2218719 -0.14314874 0
0.084097967 -1.2099472 -0.11320936 0
0.084326319 -1.2132326 -0.085021026 0
0.083860792 -1.2065349 -0.05630533 0
0.08413621 -1.2104975 -0.028212508 0
0.083887294 -1.2069162 3.453864e-05 0
0.085109815 -0.89673299 -0.19146794 0
0.095885426 -1.0102669 -0.19113989 0
0.10974987 -1.1563452 -0.19090097 0
0.11547054 -1.2166194 -0.17174555 0
0.11478871 -1.2094355 -0.14198594 0
0.11478493 -1.2093955 -0.1133927 0
0.11559331 -1.2179128 -0.085526213 0
0.11641406 -1.2265605 -0.057358708 0
0.11510768 -1.2127961 -0.028324772 0
0.1141691 -1.2029071 3.4495384e-05 0
0.10738206 -0.89159238 -0.19088823 0
0.12286549 -1.0201513 -0.19353504 0
0.13991518 -1.1617147 -0.19230914 0
0.14516389 -1.2052947 -0.17060977 0
0.14644849 -1.2159607 -0.14314035 0
0.14739454 -1.2238157 -0.11505688 0
0.14562505 -1.2091237 -0.085140005 0
0.14565258 -1.2093523 -0.056707837 0
0.14616369 -1.213596 -0.028420558 0
0.14562151 -1.2090943 3.4767138e-05 0
0.12915473 -0.88388473 -0.18987547 0
0.14642429 -1.0020709 -0.19074535 0
0.16703597 -1.1431291 -0.18986994 0
0.1770428 -1.211612 -0.17208169 0
0.17736053 -1.2137865 -0.14336568 0
0.17822787 -1.2197222 -0.1150583 0
0.17552334 -1.2012134 -0.084867917 0
0.17476319 -1.1960113 -0.056271177 0
0.17629375 -1.2064859 -0.028349223 0
0.17706488 -1.2117631 3.4961249e-05 0
0.15360981 -0.89310616 -0.19262792 0
0.17220381 -1.0012139 -0.19134861 0
0.19602142 -1.1396925 -0.19006033 0
0.20695943 -1.2032874 -0.17158659 0
0.20947878 -1.2179352 -0.1444342 0
0.2082793 -1.2109612 -0.11469122 0
0.20698354 -1.2034276 -0.085366257 0
0.20901364 -1.2152308 -0.057405353 0
0.20811608 -1.2100123 -0.028546417 0
0.20926075 -1.2166675 3.5243906e-05 0
0.17616381 -0.88929421 -0.19270335 0
0.19812147 -1.000139 -0.19203766 0
0.22700341 -1.1459382 -0.1919962 0
0.24131402 -1.2181797 -0.17452313 0
0.23905018 -1.2067516 -0.14377764 0
0.23928475 -1.2079357 -0.11494005 0
0.23908806 -1.2069427 -0.086016268 0
0.242054 -1.2219152 -0.057991233 0
0.23742378 -1.1985413 -0.028408119 0
0.2388102 -1.2055401 3.5084995e-05 0
0.19590665 -0.87280971 -0.19014217 0
0.22438543 -0.99968928 -0.19297728 0
0.25072107 -1.1170206 -0.18815152 0
0.27238044 -1.2135183 -0.17478454 0
0.27124032 -1.2084388 -0.14474821 0
0.27412459 -1.2212888 -0.11683179 0
0.27376643 -1.2196932 -0.087389566 0
0.27128077 -1.2086189 -0.057666782 0
0.27158591 -1.2099785 -0.028832491 0
0.27161554 -1.2101104 3.5406243e-05 0
0.21844579 -0.86989731 -0.19064806 0
0.25067943 -0.99825853 -0.19386068 0
0.28291753 -1.1266375 -0.19091333 0
0.30299214 -1.2065787 -0.17483079 0
0.30433851 -1.2119403 -0.14604118 0
0.30475411 -1.2135952 -0.11679441 0
0.30537486 -1.2160672 -0.087654077 0
0.30378637 -1.2097416 -0.058067683 0
0.30326992 -1.2076849 -0.028951012 0
0.30553678 -1.216712 3.5813617e-05 0
0.24011227 -0.86334527 -0.19047962 0
0.27343667 -0.98316616 -0.19220877 0
0.31046969 -1.1163217 -0.19043247 0
0.33714163 -1.2122232 -0.1768253 0
0.33616042 -1.2086951 -0.14662582 0
0.33513245 -1.204999 -0.11674397 0
0.3352952 -1.2055842 -0.087480582 0
0.33690742 -1.211381 -0.058535889 0
0.33665287 -1.2104658 -0.029212059 0
0.33541182 -1.2060034 3.5736211e-05 0
0.2607758 -0.85359794 -0.18972076 0
0.29827586 -0.97634685 -0.19228612 0
0.33831751 -1.1074153 -0.19030918 0
0.37103423 -1.214507 -0.1784676 0
0.36889777 -1.2075137 -0.14756498 0
0.36969182 -1.2101128 -0.11810579 0
0.37242451 -1.2190578 -0.089111954 0
0.37221122 -1.2183596 -0.059308171 0
0.37063593 -1.2132032 -0.029494481 0
0.36896843 -1.207745 3.6052279e-05 0
0.28384951 -0.85160565 -0.19080949 0
0.31976309 -0.95935363 -0.19046818 0
0.36900535 -1.1070904 -0.19179276 0
0.43024164 -1.2908115 -0.19121508 0
0.51695824 -1.5509789 -0.19107199 0
0.65153152 -1.9547257 -0.19232292 0
0.86339754 -2.5903664 -0.19088542 0
1.3024205 -3.9075236 -0.19175228 0
3.2940707 -9.8828754 -0.24220909 0
0.30558944 -0.84512258 -0.19102418 0
0.34512484 -0.95445967 -0.19116506 0
0.3987751 -1.1028321 -0.19273728 0
0.46374893 -1.2825204 -0.19165969 0
0.55886686 -1.5455738 -0.19208264 0
0.70221019 -1.9419968 -0.19275291 0
0.93342179 -2.5814238 -0.19190137 0
1.4040186 -3.8828824 -0.19222081 0
3.5346642 -9.7752876 -0.24168175 0
0.32726327 -0.83829033 -0.19128595 0
0.37159729 -0.95185268 -0.19246006 0
0.42572919 -1.0905125 -0.19240081 0
0.48983541 -1.2547216 -0.18929268 0
0.59953088 -1.5357084 -0.19267575 0
0.74618131 -1.9113561 -0.19151993 0
0.99363005 -2.5452001 -0.19101201 0
1.4986522 -3.8388228 -0.19185105 0
3.7774 -9.6758738 -0.24150407 0
0.34806365 -0.82917958 -0.1911507 0
0.39644414 -0.94443464 -0.19292186 0
0.45034656 -1.0728445 -0.19122809 0
0.52442533 -1.2493197 -0.19041392 0
0.63418716 -1.5108013 -0.19149803 0
0.79622263 -1.8968126 -0.19201514 0
1.0619782 -2.5299127 -0.19181517 0
1.599467 -3.810353 -0.19238445 0
4.027916 -9.5955601 -0.24195983 0
0.36547861 -0.81258476 -0.18939126 0
0.41451335 -0.92160594 -0.19033505 0
0.47801432 -1.0627904 -0.19152547 0
0.5568915 -1.2381617 -0.19079477 0
0.67048466 -1.4907184 -0.19103658 0
0.84202623 -1.8721143 -0.19160524 0
1.1258535 -2.50316 -0.19188012 0
1.6874717 -3.7518306 -0.19151904 0
4.2695541 -9.4926891 -0.24200603 0
0.39502573 -0.82217199 -0.19388779 0
0.43915671 -0.91402233 -0.19099712 0
0.50248802 -1.0458345 -0.1906946 0
0.58489233 -1.2173437 -0.18980114 0
0.70433414 -1.4659395 -0.19007872 0
0.89264882 -1.8578811 -0.19239308 0
1.1860083 -2.4684539 -0.19145332 0
1.7848703 -3.7148726 -0.19187093 0
4.5059643 -9.3783197 -0.24191259 0
0.41400301 -0.8087374 -0.19312222 0
0.46397686 -0.9063592 -0.19178177 0
0.53164649 -1.0385489 -0.19175175 0
0.61951423 -1.2101948 -0.19106355 0
0.74430203 -1.4539627 -0.19090076 0
0.93528259 -1.8270351 -0.19158229 0
1.2514166 -2.4445896 -0.19199096 0
1.8763698 -3.6654093 -0.19170113 0
4.7374344 -9.2543783 -0.24172281 0
0.43823022 -0.80529976 -0.19488046 0
0.48252338 -0.88669372 -0.19013698 0
0.55900812 -1.0272435 -0.19220813 0
0.64862132 -1.1919183 -0.1907019 0
0.78201312 -1.4370414 -0.1912096 0
0.97983801 -1.8005681 -0.19133922 0
1.3078648 -2.4033558 -0.19128412 0
1.969855 -3.6198411 -0.19185703 0
4.9724374 -9.1374407 -0.24186942 0
0.45174432 -0.78244251 -0.19204706 0
0.50947136 -0.88242847 -0.19191857 0
0.58486414 -1.0130123 -0.19224612 0
0.67616177 -1.1711441 -0.19004805 0
0.81660432 -1.4143972 -0.1908782 0
1.0230547 -1.7719792 -0.19098426 0
1.3728623 -2.3778625 -0.19195175 0
2.6011381 -4.5052943 -0.24218979 0
5.1991978 -9.0052557 -0.24176696 0
0.47002068 -0.7686342 -0.19150856 0
0.52647072 -0.86094809 -0.1900762 0
0.61170125 -1.0003272 -0.19270734 0
0.70894063 -1.1593448 -0.19097607 0
0.85157877 -1.3926038 -0.1907769 0
1.0739101 -1.7561866 -0.19214228 0
1.345438 -2.2002215 -0.18029557 0
1.3452641 -2.1999371 -0.12004837 0
5.4283032 -8.8770132 -0.24192515 0
0.48971906 -0.75723338 -0.19168651 0
0.55444115 -0.85731065 -0.19230133 0
0.63310784 -0.9789499 -0.19160636 0
0.7356143 -1.1374515 -0.19036739 0
0.88745725 -1.3722403 -0.19099486 0
1.1126201 -1.7204009 -0.19123846 0
1.3111442 -2.0273709 -0.1687894 0
1.2954482 -2.0031006 -0.11105601 0
1.3051152 -2.0180485 -0.055877775 0
0.50680381 -0.74190599 -0.19098368 0
0.57395506 -0.84020811 -0.1916534 0
0.65446121 -0.95806038 -0.19069001 0
0.76982266 -1.1269372 -0.19179837 0
0.92028999 -1.347205 -0.19068247 0
1.1547853 -1.6904808 -0.19109151 0
1.54678 -2.2643187 -0.19170572 0
1.3300788 -1.9470916 -0.10977697 0
1.4666303 -2.1469882 -0.060453676 0
1.3292695 -1.9459068 6.7276807e-05 0
0.53054357 -0.73607224 -0.19286752 0
0.60066754 -0.83336169 -0.19348818 0
0.68283898 -0.9473657 -0.1919305 0
0.79287517 -1.1000291 -0.19056393 0
0.95752311 -1.3284605 -0.19138901 0
1.2000999 -1.6650096 -0.19157515 0
1.424724 -1.9766514 -0.17034088 0
1.3963119 -1.9372327 -0.11117265 0
1.4495411 -2.0110824 -0.057638705 0
0.54268259 -0.71420801 -0.19066675 0
0.62082499 -0.81704885 -0.19327717 0
0.7100839 -0.93451977 -0.19289741 0
0.82871312 -1.0906441 -0.19250017 0
0.98368639 -1.2945997 -0.19002704 0
1.2377288 -1.6289371 -0.1909582 0
1.6603721 -2.1851652 -0.19186008 0
3.1418934 -4.1349502 -0.24176754 0
6.2933016 -8.282423 -0.24185401 0
0.56071615 -0.70052081 -0.19073007 0
0.63500398 -0.79333103 -0.19139686 0
0.723396 -0.90376198 -0.19025666 0
0.85272962 -1.0653427 -0.19177204 0
1.0226161 -1.2775874 -0.19125749 0
1.2846267 -1.6049256 -0.19188315 0
1.7157259 -2.1435118 -0.19194382 0
3.2480657 -4.0579138 -0.24197941 0
6.5051951 -8.1271505 -0.24203718 0
0.5862239 -0.69565731 -0.19337273 0
0.65544367 -0.77779871 -0.19157964 0
0.75471103 -0.8955968 -0.19248641 0
0.87366968 -1.0367621 -0.1905359 0
1.051185 -1.2474152 -0.19065166 0
1.3273355 -1.575116 -0.1922632 0
1.7676132 -2.0975826 -0.19176488 0
3.3448527 -3.9692535 -0.24164966 0
6.6979365 -7.9482751 -0.2416676 0
0.59605372 -0.67214715 -0.19095851 0
0.67103231 -0.75669765 -0.19049314 0
0.77811426 -0.87744999 -0.19274569 0
0.9085409 -1.0245272 -0.19244027 0
1.0759379 -1.2132943 -0.18952675 0
1.3620642 -1.5359483 -0.19161743 0
1.8166443 -2.0485609 -0.19141398 0
3.4485598 -3.8888102 -0.24197409 0
6.8924637 -7.7723699 -0.24153151 0
0.61385936 -0.65800518 -0.19128148 0
0.68452901 -0.73375708 -0.18900713 0
0.7933805 -0.85043663 -0.19114953 0
0.93274695 -0.99982566 -0.19216122 0
1.1158551 -1.196102 -0.1911796 0
1.4072764 -1.508481 -0.19256051 0
1.86542 -1.9995722 -0.19117488 0
3.5430772 -3.7978785 -0.24180327 0
7.1002588 -7.6108756 -0.24200475 0
0.63474822 -0.64687526 -0.19264179 0
0.7123996 -0.72601014 -0.19158211 0
0.82071179 -0.83639169 -0.19258717 0
0.94675595 -0.96484399 -0.18996996 0
1.145627 -1.1675144 -0.19117098 0
1.4366921 -1.4641404 -0.19146812 0
1.9133358 -1.9498905 -0.19098108 0
3.6380787 -3.7075851 -0.24182355 0
7.2877522 -7.4269862 -0.2419292 0
0.65269929 -0.632429 -0.19318399 0
0.73449576 -0.71168512 -0.19263248 0
0.83892882 -0.81287491 -0.19198652 0
0.97951162 -0.94909173 -0.19167496 0
1.1726184 -1.1362014 -0.19082901 0
1.485891 -1.4397449 -0.19312064 0
1.9570603 -1.8962815 -0.19050759 0
3.7314823 -3.6155968 -0.2418894 0
7.4734597 -7.241363 -0.24194984 0
0.65735066 -0.60553646 -0.18997672 0
0.7506389 -0.69147152 -0.19222799 0
0.85407627 -0.78675562 -0.19084799 0
0.99930483 -0.92053694 -0.19094098 0
1.2053692 -1.1103587 -0.19153717 0
1.5107046 -1.3916267 -0.19171965 0
2.5395105 -2.3393393 -0.24138118 0
3.8242064 -3.5227721 -0.24205948 0
7.6512537 -7.048161 -0.24186975 0
0.6757226 -0.59165013 -0.19090989 0
0.76267648 -0.66778529 -0.19093369 0
0.87369144 -0.76498789 -0.19085595 0
1.0281756 -0.90025139 -0.19205478 0
1.2309505 -1.0777973 -0.19121864 0
1.5287448 -1.3385404 -0.18966131 0
2.6020286 -2.2782876 -0.24178101 0
3.9173164 -3.429929 -0.24239637 0
7.8218393 -6.8486567 -0.24172109 0
0.68820208 -0.57255459 -0.19029237 0
0.78745508 -0.65512878 -0.19293606 0
0.89678472 -0.74608636 -0.1917261 0
1.0541451 -0.87700343 -0.19270971 0
1.2483715 -1.0385915 -0.18979244 0
1.5599049 -1.297774 -0.18940318 0
2.6570497 -2.2105513 -0.2416324 0
3.9910686 -3.3203979 -0.24169745 0
7.9922323 -6.6491942 -0.24172366 0
0.70956969 -0.56065029 -0.1922268 0
0.80424726 -0.63545758 -0.1930593 0
0.9143191 -0.72242832 -0.19151567 0
1.0673282 -0.84332502 -0.19116779 0
1.2763834 -1.0085052 -0.19012083 0
1.5942159 -1.2596332 -0.18964866 0
2.7180753 -2.147625 -0.24217564 0
4.0672517 -3.2136459 -0.24132228 0
8.166482 -6.4525595 -0.24199119 0
0.71935391 -0.53946722 -0.19112797 0
0.81568247 -0.61170715 -0.19203706 0
0.92585522 -0.69432932 -0.19020082 0
1.094543 -0.82083386 -0.19227035 0
1.3129003 -0.98458725 -0.19179758 0
1.6275827 -1.2205778 -0.18989278 0
2.7637389 -2.0726187 -0.24150649 0
4.1565323 -3.1171205 -0.24187461 0
8.3243837 -6.2427292 -0.24192426 0
0.73190808 -0.52055651 -0.19091198 0
0.83470684 -0.59367025 -0.19292693 0
0.9599961 -0.68277997 -0.19361266 0
1.1097947 -0.7893216 -0.19138907 0
1.3218778 -0.94016188 -0.18958224 0
1.6817642 -1.1961247 -0.19263071 0
2.8214803 -2.0067272 -0.24204926 0
4.2320509 -3.0099702 -0.24177143 0
8.4747715 -6.0275292 -0.24179667 0
0.74743348 -0.50369245 -0.19158463 0
0.84450519 -0.56910872 -0.19181065 0
0.96219915 -0.64842224 -0.19069563 0
1.1287313 -0.76064754 -0.19128306 0
1.3459103 -0.9070037 -0.18968542 0
1.6900167 -1.1388956 -0.19022295 0
2.872927 -1.9360541 -0.2421937 0
4.3087778 -2.9036684 -0.241891 0
8.626873 -5.8136158 -0.24187289 0
0.74886537 -0.477633 -0.18880156 0
0.86133224 -0.54936534 -0.19242203 0
0.99513233 -0.63470423 -0.19398597 0
1.147859 -0.73211467 -0.19133227 0
1.3668201 -0.87177002 -0.18947107 0
1.7341763 -1.106073 -0.19199011 0
2.9025512 -1.8512729 -0.24067548 0
4.3840461 -2.7961836 -0.24207751 0
8.7754202 -5.5970411 -0.24200003 0
0.77824092 -0.46917433 -0.19316067 0
0.8666712 -0.52248585 -0.19060807 0
1.0022316 -0.6042105 -0.19233592 0
1.1693592 -0.70496595 -0.19188917 0
1.4084382 -0.84909832 -0.19220831 0
1.7573676 -1.0594558 -0.19153628 0
2.9629626 -1.786267 -0.24186942 0
4.4476624 -2.6813405 -0.24177641 0
8.9099703 -5.371511 -0.24189484 0
0.78132325 -0.44454864 -0.19108006 0
0.88983494 -0.50628841 -0.19283077 0
1.0121152 -0.57586205 -0.1913825 0
1.1952602 -0.68006581 -0.1932613 0
1.3992664 -0.796139 -0.18815453 0
1.7832124 -1.0145924 -0.19150119 0
3.0075617 -1.7112089 -0.24190746 0
4.5191913 -2.5712793 -0.24205989 0
9.0350294 -5.1406507 -0.24169065 0
0.79070193 -0.42384177 -0.19069682 0
0.89210975 -0.47819966 -0.19064756 0
1.0264755 -0.55022407 -0.19141102 0
1.201923 -0.64426959 -0.19164839 0
1.4557525 -0.78033042 -0.19304027 0
1.8221804 -0.97674763 -0.19297712 0
3.056987 -1.6386439 -0.24247916 0
4.5737243 -2.451664 -0.24158955 0
9.1625204 -4.9114075 -0.24170817 0
0.81632286 -0.41140637 -0.19430983 0
0.91473019 -0.46100122 -0.19293369 0
1.0437059 -0.52600181 -0.19208729 0
1.2247531 -0.61724502 -0.19274326 0
1.4609097 -0.73626208 -0.19119912 0
1.8376218 -0.92611557 -0.19207582 0
3.0818884 -1.553195 -0.24126807 0
4.641808 -2.3393555 -0.24199003 0
9.2886305 -4.6812382 -0.24184114 0
0.824507 -0.3897635 -0.1938546 0
0.9160201 -0.43302387 -0.19083984 0
1.0526073 -0.49759176 -0.19135323 0
1.2340113 -0.58334565 -0.19182216 0
1.4901882 -0.70444643 -0.19264273 0
1.8630651 -0.88071394 -0.19235061 0
3.1206374 -1.4751973 -0.24130994 0
4.6953301 -2.2195909 -0.24178278 0
9.397644 -4.4424834 -0.24168319 0
0.82527643 -0.36494392 -0.19180882 0
0.92648143 -0.40969756 -0.19080427 0
1.0521108 -0.46525189 -0.18906811 0
1.2340363 -0.54570085 -0.18962471 0
1.502493 -0.66441453 -0.19200444 0
1.8849907 -0.83355814 -0.19238096 0
3.1598723 -1.3973211 -0.24153985 0
4.7514548 -2.1011317 -0.2418651 0
9.5098486 -4.2053318 -0.24176219 0
0.83668727 -0.34502196 -0.19237573 0
0.94500852 -0.38969004 -0.19253299 0
1.0830976 -0.4466334 -0.19254951 0
1.2533263 -0.51682997 -0.19052374 0
1.5212399 -0.62730867 -0.19231562 0
1.8903883 -0.77953315 -0.19086307 0
3.2011211 -1.3200357 -0.24206911 0
4.8055453 -1.9816469 -0.24199551 0
9.6132355 -3.9641778 -0.24176998 0
0.85001993 -0.32567668 -0.1934897 0
0.95191181 -0.36471555 -0.19200288 0
1.0809431 -0.41415259 -0.19024763 0
1.262565 -0.48373926 -0.19001171 0
1.5346327 -0.58797926 -0.1920715 0
1.9218341 -0.73633164 -0.19210048 0
3.2240865 -1.2352767 -0.24137127 0
4.8550963 -1.8601819 -0.24204944 0
9.7141294 -3.7218721 -0.24186794 0
0.85063654 -0.30152792 -0.19183666 0
0.96514022 -0.34211642 -0.19286802 0
1.0978372 -0.38915393 -0.1914314 0
1.273667 -0.4514809 -0.18990715 0
1.5478261 -0.54866296 -0.19192848 0
1.9302247 -0.68421304 -0.19115216 0
3.2609351 -1.1559143 -0.24186879 0
4.901926 -1.7376018 -0.24212064 0
9.8006926 -3.4740834 -0.24176309 0
0.86077225 -0.28088278 -0.19246241 0
0.9676376 -0.3157545 -0.19171348 0
1.1068015 -0.36116579 -0.19134411 0
1.2879187 -0.42026702 -0.19038993 0
1.5640453 -0.51037121 -0.19228116 0
1.9500216 -0.63632101 -0.19146124 0
3.3012371 -1.0772427 -0.24276413 0
4.9344745 -1.6101923 -0.24164402 0
9.8980598 -3.2298839 -0.24207693 0
0.85751957 -0.25606948 -0.19022949 0
0.97060329 -0.28983814 -0.19079098 0
1.1169331 -0.33353463 -0.19157933 0
1.2985916 -0.38778085 -0.19046021 0
1.5542591 -0.46412736 -0.18957755 0
1.9645199 -0.58663797 -0.19137007 0
3.3170984 -0.99054021 -0.242015 0
4.9644275 -1.4824598 -0.24120174 0
9.9661598 -2.9760594 -0.24182841 0
0.86304903 -0.23417325 -0.19008447 0
0.97948629 -0.26576647 -0.19115771 0
1.1150475 -0.30254859 -0.18988566 0
1.3015507 -0.35315299 -0.18952657 0
1.5710335 -0.42627242 -0.19025072 0
1.9726919 -0.53525543 -0.19078939 0
3.3349757 -0.90488726 -0.24157611 0
5.0046182 -1.3579155 -0.24141242 0
10.039382 -2.7240105 -0.24185988 0
0.87762845 -0.21450965 -0.19204198 0
0.98324651 -0.24032477 -0.19064708 0
1.1387566 -0.2783345 -0.19266555 0
1.3193403 -0.32247269 -0.19087109 0
1.5675594 -0.38314229 -0.1885989 0
1.9833897 -0.48477945 -0.19058 0
3.3566127 -0.82042217 -0.24156658 0
5.0401669 -1.2319158 -0.24155046 0
10.111301 -2.471401 -0.24201274 0
0.87067789 -0.18966572 -0.18941326 0
0.99651003 -0.21707658 -0.19209532 0
1.1275272 -0.24561696 -0.18965642 0
1.3287617 -0.28945324 -0.19111635 0
1.6068686 -0.35003516 -0.19220422 0
1.9846544 -0.43233085 -0.18959267 0
3.3859413 -0.73758274 -0.2422604 0
5.0680308 -1.1040038 -0.24147357 0
10.156028 -2.2123568 -0.24166982 0
0.89142609 -0.17074795 -0.19292802 0
1.0025082 -0.19202514 -0.19225611 0
1.1371126 -0.21780789 -0.19028348 0
1.3365657 -0.25601208 -0.19124852 0
1.6035042 -0.30714273 -0.19081378 0
2.5378041 -0.48610294 -0.24118584 0
3.3903341 -0.64940053 -0.24132514 0
5.10076 -0.97702354 -0.24178107 0
10.210221 -1.9557137 -0.24170785 0
0.8950038 -0.14812812 -0.19283178 0
1.0113624 -0.16738611 -0.19308245 0
1.1476794 -0.18994735 -0.1911886 0
1.343519 -0.22235988 -0.19137947 0
1.6218491 -0.26842508 -0.19212942 0
2.5600243 -0.42369831 -0.24220416 0
3.4146979 -0.56515157 -0.24196701 0
5.1252761 -0.84826177 -0.24185133 0
10.260181 -1.6981173 -0.24179897 0
0.89406347 -0.12488554 -0.19188896 0
1.0098628 -0.14106074 -0.1920553 0
1.1400722 -0.15924881 -0.18919154 0
1.3434771 -0.18766102 -0.19063814 0
1.6262695 -0.22716233 -0.19191277 0
2.5694652 -0.35891083 -0.24216321 0
3.4240301 -0.47827905 -0.24169594 0
5.1423006 -0.71829242 -0.24172224 0
10.300832 -1.438852 -0.24182412 0
0.89179999 -0.10170267 -0.19079149 0
1.0160159 -0.11586849 -0.19260798 0
1.1529198 -0.1314813 -0.19071212 0
1.3458081 -0.15347867 -0.19035861 0
1.627077 -0.18555515 -0.19139446 0
2.5717664 -0.29328942 -0.24160551 0
3.4332092 -0.3915301 -0.24156941 0
5.1728015 -0.58991671 -0.24237891 0
10.329863 -1.1780384 -0.24173066 0
0.89478123 -0.07923121 -0.19094068 0
0.9985978 -0.088423975 -0.18882281 0
1.1233205 -0.099467933 -0.1853416 0
1.1261445 -0.099717997 -0.15888157 0
1.6284555 -0.1441967 -0.19106765 0
2.5892737 -0.22927536 -0.24262933 0
3.4520621 -0.30567366 -0.24227595 0
5.174057 -0.4581531 -0.2418189 0
10.357828 -0.91716635 -0.24176639 0
0.90465772 -0.057145376 -0.19267912 0
1.0188774 -0.064360403 -0.19228905 0
1.1233963 -0.070962645 -0.18499969 0
1.120769 -0.070796691 -0.15782084 0
1.6368303 -0.10339522 -0.19168305 0
2.5899351 -0.16360089 -0.24222724 0
3.4575617 -0.21840709 -0.24219793 0
5.177608 -0.32705891 -0.24152218 0
10.384518 -0.65596873 -0.2419259 0
0.90490341 -0.034267396 -0.19248594 0
1.0118022 -0.038315497 -0.19071051 0
1.1320022 -0.042867303 -0.18617944 0
1.1277444 -0.042706065 -0.15860078 0
1.642885 -0.0622137 -0.19214702 0
2.5901217 -0.098084204 -0.24193615 0
3.4640594 -0.13117896 -0.24234398 0
5.1916213 -0.19659926 -0.24186736 0
10.392276 -0.39354059 -0.24179824 0
0.90682685 -0.011441885 -0.19277227 0
1.0183196 -0.012848645 -0.19181676 0
1.1387032 -0.014367584 -0.18716231 0
1.1349533 -0.014320269 -0.15951298 0
1.1412699 -0.01439997 -0.13339461 0
1.1246849 -0.014190708 -0.10498683 0
1.1260384 -0.014207787 -0.07872697 0
1.1294843 -0.014251264 -0.052586932 0
1.122249 -0.014159974 -0.026094867 0
1.1275136 -0.0142264 3.2191259e-05 0
1.1289047 -0.014243951 0.026314123 0
1.1263611 -0.014211858 0.052505981 0
1.136705 -0.014342372 0.07953795 0
1.1332408 -0.014298662 0.10585078 0
1.1250943 -0.014195874 0.13156909 0
1.1312306 -0.014273299 0.15905564 0
1.1237032 -0.014178323 0.18476275 0
1.1303657 -0.014262387 0.21298929 0
0.8973332 0.011322099 -0.19075412 0
1.0152885 0.012810398 -0.19124579 0
1.1328124 0.014293257 -0.18619406 0
1.1231542 0.014171395 -0.15785466 0
1.6438491 0.02074126 -0.19213736 0
2.5986357 0.032788277 -0.24257685 0
3.462338 0.04368604 -0.24206935 0
5.1884761 0.065465584 -0.24156694 0
10.387938 0.13106976 -0.24154341 0
0.88831562 0.033639241 -0.18895748 0
1.0118463 0.03831717 -0.19071883 0
1.1398085 0.04316292 -0.18746336 0
1.1302501 0.042800952 -0.15895317 0
1.6346767 0.061902866 -0.19118699 0
2.589467 0.098059408 -0.24187499 0
3.4420102 0.130344 -0.24080144 0
5.1859179 0.19638328 -0.24160166 0
10.389304 0.39342809 -0.2417291 0
0.89879405 0.056774981 -0.19143024 0
1.016284 0.064196579 -0.1917996 0
1.1274328 0.071217626 -0.18566443 0
1.1340946 0.071638435 -0.15969726 0
1.6317199 0.1030724 -0.19108459 0
2.5887799 0.16352794 -0.24211922 0
3.4504993 0.21796097 -0.24170321 0
5.1745505 0.32686576 -0.24137954 0
10.367064 0.65486616 -0.24151926 0
0.90449822 0.080091633 -0.1930142 0
1.0104098 0.08946991 -0.19105633 0
1.1494572 0.1017823 -0.18965402 0
1.3452835 0.11912235 -0.1897987 0
1.6202948 0.14347409 -0.19011016 0
2.5890653 0.22925691 -0.24260981 0
3.4539568 0.30584145 -0.24240893 0
5.168931 0.45769921 -0.24157934 0
10.360255 0.91738129 -0.24182306 0
0.8880893 0.1012795 -0.18999763 0
1.0144433 0.11568915 -0.19230986 0
1.1522198 0.13140146 -0.19059633 0
1.3521707 0.15420428 -0.19125858 0
1.6383616 0.18684205 -0.19272187 0
2.5683174 0.29289609 -0.24128148 0
3.4410486 0.39242414 -0.24212101 0
5.1526594 0.58761966 -0.24143513 0
10.333459 1.1784484 -0.24181482 0
0.90821874 0.12686279 -0.19492705 0
1.0175802 0.14213873 -0.19352299 0
1.1467808 0.16018589 -0.19030482 0
1.3506951 0.18866926 -0.19166237 0
1.6203834 0.22634014 -0.19121817 0
2.5719571 0.35925889 -0.24239805 0
3.4296651 0.47906619 -0.24209371 0
5.1380496 0.71769863 -0.24152242 0
10.294334 1.4379443 -0.24167158 0
0.88850868 0.14705314 -0.19143237 0
1.0106438 0.16726719 -0.19294526 0
1.1493878 0.1902301 -0.1914732 0
1.3330282 0.2206236 -0.18988511 0
1.6343533 0.27049458 -0.19361071 0
2.5532346 0.42257455 -0.24156177 0
3.4155378 0.56529057 -0.24202652 0
5.1290832 0.84889185 -0.24203096 0
10.259065 1.6979325 -0.24177265 0
0.89058506 0.17058685 -0.19274598 0
0.98570406 0.1888064 -0.18903349 0
1.136562 0.21770243 -0.19019133 0
1.3303684 0.25482503 -0.19036175 0
1.3496773 0.25852355 -0.16060889 0
1.3468298 0.25797811 -0.12799895 0
1.3423743 0.25712469 -0.095550664 0
1.3477575 0.25815579 -0.063885041 0
1.3422616 0.25710312 -0.031775527 0
1.3494339 0.25847691 3.9224509e-05 0
0.89237887 0.19439298 -0.19413425 0
1.0044053 0.21879646 -0.19361728 0
1.137328 0.24775192 -0.19130497 0
1.2030902 0.26207736 -0.17304096 0
1.2062184 0.26275879 -0.14428079 0
1.2100068 0.26358405 -0.11559112 0
1.2037306 0.26221687 -0.086125612 0
1.2063985 0.26279801 -0.057480577 0
1.1971369 0.26078048 -0.028486712 0
1.1940011 0.26009741 3.488619e-05 0
0.88003498 0.21509784 -0.19256859 0
0.990197 0.2420236 -0.19199474 0
1.1206619 0.2739118 -0.18960412 0
1.2079846 0.29525515 -0.17476107 0
1.1943438 0.29192111 -0.14369595 0
1.2090843 0.29552397 -0.11617852 0
1.1996875 0.2932272 -0.086338349 0
1.1992701 0.29312518 -0.057475135 0
1.2114232 0.29609564 -0.028995261 0
1.2054217 0.29462874 3.5425863e-05 0
0.87165481 0.23650828 -0.19197989 0
0.97671717 0.26501513 -0.19061729 0
1.1234487 0.30482814 -0.19131635 0
1.2090234 0.32804731 -0.17605311 0
1.1985317 0.32520062 -0.14514111 0
1.2148961 0.32964078 -0.11749898 0
1.213279 0.329202 -0.08788646 0
1.2102429 0.3283782 -0.058379609 0
1.1990067 0.32532948 -0.028885406 0
1.1925187 0.32356909 3.5275432e-05 0
0.85109484 0.25415093 -0.18880425 0
0.97251582 0.29040924 -0.19116692 0
1.1130509 0.33237535 -0.19091344 0
1.2041552 0.35958058 -0.17660952 0
1.2026652 0.35913566 -0.14669262 0
1.2013083 0.35873047 -0.11702322 0
1.2087008 0.36093795 -0.088186629 0
1.1925292 0.35610884 -0.057940241 0
1.196566 0.35731432 -0.029034618 0
1.2000576 0.35835698 3.5754594e-05 0
0.85267866 0.27824169 -0.19065274 0
0.96798146 0.31586674 -0.19178161 0
1.105667 0.36079556 -0.19114797 0
1.215924 0.39677405 -0.17974712 0
1.2118238 0.39543611 -0.14897962 0
1.2013154 0.39200705 -0.11795014 0
1.1994786 0.3914077 -0.088206448 0
1.1907827 0.38857007 -0.058313306 0
1.2143295 0.39625376 -0.029698867 0
1.2082769 0.39427871 3.6284411e-05 0
0.84059751 0.29796934 -0.18957265 0
0.95254117 0.33765039 -0.19035031 0
1.09349 0.387613 -0.19067338 0
1.2019585 0.42606214 -0.17921521 0
1.2022874 0.42617875 -0.14908212 0
1.2047127 0.42703846 -0.11930396 0
1.2138774 0.43028709 -0.090035237 0
1.2064356 0.42764917 -0.059589423 0
1.2096967 0.42880511 -0.029840747 0
1.2193532 0.43222812 3.693287e-05 0
0.83888531 0.32141057 -0.19095515 0
0.94887286 0.3635512 -0.19138992 0
1.080232 0.41388014 -0.19012247 0
1.1961585 0.45829624 -0.18001775 0
1.2105242 0.46380028 -0.15150672 0
1.2087023 0.46310228 -0.12081807 0
1.2102154 0.463682 -0.090602793 0
1.2076739 0.46270826 -0.060208242 0
1.20531 0.46180254 -0.030010499 0
1.2067584 0.46235749 3.6893092e-05 0
0.83667225 0.34501576 -0.19237228 0
0.93905985 0.38723701 -0.19132102 0
1.0876997 0.44853112 -0.19336765 0
1.2102438 0.49906424 -0.18397459 0
1.2040555 0.49651238 -0.15221706 0
1.2061669 0.497383 -0.12178065 0
1.1947641 0.49268091 -0.090348184 0
1.2048554 0.49684224 -0.060673568 0
1.2169858 0.50184441 -0.030606829 0
1.2036134 0.49633008 3.716808e-05 0
0.8270908 0.36574626 -0.19223051 0
0.93112242 0.41174987 -0.19176008 0
1.0563773 0.46713856 -0.1898348 0
1.2035295 0.53221047 -0.18493696 0
1.2092916 0.53475851 -0.15453607 0
1.200709 0.53096324 -0.1225436 0
1.191889 0.52706295 -0.091107704 0
1.2137649 0.53673667 -0.061784737 0
1.1989132 0.53016913 -0.030479129 0
1.1897155 0.52610183 3.7137121e-05 0
0.8176387 0.38651669 -0.19223976 0
0.92586684 0.43767866 -0.19289127 0
1.0510265 0.49684447 -0.19106585 0
1.2227311 0.5780133 -0.19006869 0
1.4821306 0.7006374 -0.19160108 0
1.8493965 0.87425244 -0.1909394 0
3.130306 1.479768 -0.24205759 0
4.6862378 2.2152929 -0.24131459 0
9.4019127 4.4445014 -0.24179296 0
0.80739945 0.4069092 -0.19218577 0
0.90874934 0.45798701 -0.19167222 0
1.0488601 0.52859932 -0.19303587 0
1.2023147 0.60593665 -0.18921205 0
1.4514881 0.73151386 -0.18996605 0
1.8351976 0.9248938 -0.19182244 0
3.0987575 1.5616965 -0.24258868 0
4.6300559 2.3334329 -0.24137737 0
9.2843075 4.67906 -0.24172859 0
0.79482502 0.42605191 -0.19169122 0
0.8919816 0.478131 -0.19062017 0
1.0249443 0.54940325 -0.19112548 0
1.1962132 0.64120901 -0.19073796 0
1.4408876 0.77236235 -0.19106911 0
1.8010663 0.96542972 -0.19074103 0
3.0542369 1.6371697 -0.24226101 0
4.5747404 2.4522088 -0.24164322 0
9.1661024 4.9133277 -0.24180266 0
0.78958941 0.4492518 -0.19310161 0
0.87768537 0.49937567 -0.1901979 0
1.011451 0.57548416 -0.1912569 0
1.1757734 0.66897845 -0.19011049 0
1.2112039 0.68913734 -0.16286643 0
1.2170942 0.69248873 -0.13070512 0
3.0070305 1.7109067 -0.24186474 0
4.5152411 2.5690317 -0.2418483 0
9.0419617 5.1445947 -0.2418761 0
0.76659513 0.46215349 -0.19027017 0
0.8706733 0.52489859 -0.19148825 0
1.0038182 0.60516697 -0.19264039 0
1.1652632 0.70249659 -0.19121701 0
1.1442784 0.68984556 -0.15615866 0
1.1971722 0.72173333 -0.13048032 0
2.9498153 1.7783408 -0.24079618 0
4.4427223 2.6783624 -0.24150787 0
8.9049845 5.3685045 -0.24175946 0
0.75738299 0.48306561 -0.19094899 0
0.85806626 0.54728228 -0.19169241 0
0.9903937 0.63168192 -0.19306226 0
1.1485422 0.73255038 -0.19144614 0
1.1454358 0.73056912 -0.15878236 0
1.179862 0.75252652 -0.13062215 0
2.9182124 1.8612618 -0.2419741 0
4.3696675 2.7870128 -0.24128354 0
8.768259 5.592474 -0.24180256 0
0.74950939 0.50509143 -0.19211674 0
0.84001029 0.56607962 -0.19078973 0
0.97299689 0.65569878 -0.19283561 0
1.1171623 0.75285131 -0.18932252 0
1.1446265 0.77135932 -0.16131756 0
1.1591694 0.7811597 -0.13047245 0
2.8667266 1.9318758 -0.241671 0
4.3054185 2.9014046 -0.24170241 0
8.6195517 5.808682 -0.24166763 0
0.73890734 0.52553457 -0.19273767 0
0.82875097 0.58943421 -0.19155034 0
0.95189267 0.67701656 -0.19197837 0
1.1003677 0.78261673 -0.18976332 0
1.1412634 0.81170309 -0.16367872 0
1.1388569 0.80999148 -0.13044563 0
2.8123813 2.0002558 -0.24126869 0
4.2326565 3.010401 -0.24180603 0
8.4869328 6.0361781 -0.24214363 0
0.72331935 0.54244101 -0.19218157 0
0.80895579 0.60666263 -0.1904534 0
0.92460763 0.69339371 -0.18994452 0
1.088713 0.8164618 -0.19124624 0
1.1084012 0.83122653 -0.16192292 0
1.0975136 0.82306153 -0.12804873 0
1.1021901 0.82656872 -0.09631376 0
1.0953668 0.82145166 -0.063740976 0
1.0988127 0.82403582 -0.031933829 0
1.0917219 0.81871825 3.8957372e-05 0
1.1023179 0.82666451 0.032114413 0
1.1030232 0.82719338 0.0642654 0
1.0934581 0.8200202 0.095629126 0
0.7122131 0.5627389 -0.1929429 0
0.79746395 0.63009787 -0.19143096 0
0.9185217 0.72574896 -0.19239597 0
1.0560166 0.83438736 -0.18914177 0
1.0945174 0.86480784 -0.16303138 0
1.0950611 0.86523747 -0.13026896 0
1.0972055 0.86693186 -0.097759046 0
1.1023213 0.87097394 -0.065404035 0
1.0928706 0.86350673 -0.032384209 0
1.1056298 0.87358814 4.0227642e-05 0
1.0986819 0.86809838 0.032636404 0
1.1055415 0.87351829 0.065675721 0
1.1031513 0.87162977 0.098369479 0
0.69489223 0.57812047 -0.19214223 0
0.77983677 0.64879072 -0.1910695 0
0.90103495 0.7496224 -0.19263476 0
1.0280559 0.85529834 -0.18794031 0
1.1018641 0.91670358 -0.16751863 0
1.1077118 0.92156869 -0.13449803 0
1.0956532 0.91153646 -0.099638827 0
1.102982 0.91763365 -0.066796124 0
1.1024863 0.91722125 -0.033344503 0
1.0961791 0.91197401 4.0708292e-05 0
1.1027197 0.91741538 0.033433508 0
1.0988418 0.91418916 0.06662719 0
1.1062161 0.92032427 0.10068198 0
0.67010325 0.58672988 -0.18932228 0
0.76578093 0.6705035 -0.1917109 0
0.88194221 0.77221215 -0.19265832 0
0.99807054 0.87389189 -0.18643139 0
1.1012447 0.96422935 -0.17106986 0
1.1058131 0.96822929 -0.13719095 0
1.102268 0.96512532 -0.10242296 0
1.1021063 0.96498376 -0.068196326 0
1.0967795 0.96031958 -0.033894166 0
1.0964916 0.96006751 4.1606505e-05 0
1.1026689 0.96547627 0.034159895 0
1.0952091 0.95894468 0.067852832 0
1.1055696 0.96801609 0.10281406 0
1.0976466 0.96107894 0.13626182 0
1.0895356 0.95397699 0.2728475 0
0.66411299 0.6117658 -0.19193107 0
0.75347018 0.69407958 -0.19295304 0
0.84868169 0.78178626 -0.18964255 0
0.97096515 0.89443105 -0.185526 0
1.0628284 0.97905338 -0.16888697 0
1.1020787 1.0152098 -0.13986197 0
1.0993063 1.0126561 -0.10448939 0
1.1013616 1.0145493 -0.069712505 0
1.0981673 1.0116068 -0.034715027 0
1.1005906 1.0138391 4.2719392e-05 0
1.0888599 1.003033 0.034505375 0
1.0975451 1.0110337 0.069556326 0
1.1011783 1.0143803 0.1047532 0
1.0956507 1.0092884 0.13913201 0
1.0306488 0.94941026 0.2640174 0
0.64069158 0.62079412 -0.18962997 0
0.73259193 0.70984048 -0.19213319 0
0.83633274 0.81035942 -0.19139241 0
0.84259206 0.81642443 -0.16488197 0
0.83836257 0.81232619 -0.13643304 0
0.83384877 0.80795264 -0.10837498 0
0.84662515 0.82033223 -0.082413673 0
0.84736788 0.8210519 -0.054929726 0
0.84651518 0.82022566 -0.027405541 0
0.84212828 0.81597501 3.3475892e-05 0
0.8372004 0.8112002 0.027170576 0
0.83551896 0.80957097 0.054228205 0
0.84535271 0.81909931 0.082357347 0
1.1015041 1.0672957 0.14325038 0
1.0097308 0.97837245 0.19767025 0
1.0033351 0.97217536 0.22969235 0
0.98495299 0.95436412 0.25839972 0
0.63001466 0.64205122 -0.19120519 0
0.70639288 0.71988869 -0.18996675 0
0.81844723 0.83408386 -0.19205576 0
0.83677649 0.8527633 -0.16790217 0
0.84745759 0.86364853 -0.1414154 0
0.83970761 0.85575044 -0.11190794 0
0.83866489 0.85468781 -0.083711982 0
0.83273894 0.84864861 -0.055352263 0
0.83966988 0.855712 -0.027874256 0
0.83921385 0.85524726 3.4207205e-05 0
0.83984149 0.85588682 0.027948454 0
0.83795404 0.85396338 0.055767372 0
0.83040953 0.84627473 0.082955994 0
0.83665055 0.85263497 0.11156932 0
1.0905339 1.1113688 0.18206769 0
0.94568253 0.96375006 0.18983318 0
0.94844681 0.9665671 0.22264071 0
0.95049191 0.96865129 0.25569135 0
0.6149742 0.65920019 -0.19162887 0
0.70074075 0.75113463 -0.19348338 0
0.79508114 0.85225958 -0.19155927 0
0.83398634 0.89396268 -0.1718149 0
0.83565032 0.89574629 -0.14317209 0
0.84098941 0.90146935 -0.11507431 0
0.84047729 0.90092039 -0.086135097 0
0.83935475 0.89971715 -0.057283178 0
0.83298904 0.89289361 -0.028391544 0
0.84279621 0.90340608 3.5271391e-05 0
0.83991587 0.90031862 0.028697979 0
0.84085685 0.90132725 0.057456221 0
0.83616883 0.8963021 0.085763887 0
0.84167159 0.90220058 0.11523871 0
1.0990489 1.1780871 0.18839343 0
0.9286927 0.99547988 0.19140525 0
0.92253262 0.98887676 0.22234552 0
0.92402279 0.9904741 0.25521448 0
0.60265642 0.67959279 -0.19307382 0
0.67523462 0.76143652 -0.19168609 0
0.77598345 0.87504715 -0.19221787 0
0.84687018 0.95498341 -0.17937765 0
0.83681458 0.94364411 -0.14740513 0
0.84001368 0.94725162 -0.1181745 0
0.84522998 0.95313376 -0.089059174 0
0.84046948 0.94776559 -0.058972981 0
0.83047557 0.93649584 -0.029102223 0
0.84302187 0.95064378 3.6273414e-05 0
0.83816242 0.94516397 0.029443759 0
0.83782548 0.94478405 0.058859717 0
0.84552175 0.95346284 0.089163035 0
0.83550537 0.9421677 0.11761279 0
1.0999111 1.2403281 0.1938456 0
1.0999739 1.2403989 0.23308469 0
0.5862003 0.6956293 -0.19336493 0
0.65885174 0.78184295 -0.19257578 0
0.72986579 0.8661136 -0.18614972 0
0.84641594 1.0044208 -0.18459222 0
0.84000492 0.99681294 -0.15235028 0
0.83353508 0.98913538 -0.12073672 0
0.84191066 0.99907452 -0.091337234 0
0.84128684 0.99833423 -0.060778964 0
0.84240103 0.99965638 -0.03039459 0
0.83878827 0.9953692 3.7160367e-05 0
0.83634633 0.9924714 0.030250274 0
0.83522028 0.99113512 0.060414847 0
0.83856523 0.99510449 0.091048956 0
0.83293653 0.98842514 0.12072447 0
0.84215415 0.99936336 0.15281571 0
1.0970747 1.3018713 0.23935674 0
0.56360757 0.70413309 -0.19171359 0
0.63335621 0.79127234 -0.19090021 0
0.72565722 0.906587 -0.19085136 0
0.84146059 1.0512639 -0.18923771 0
0.84445471 1.0550046 -0.15793638 0
0.8286798 1.0352964 -0.1237789 0
0.83768392 1.0465455 -0.093714416 0
0.83787614 1.0467857 -0.062421385 0
0.8365379 1.0451138 -0.03112486 0
0.84039444 1.0499319 3.8393282e-05 0
0.83893394 1.0481073 0.031290703 0
0.84228086 1.0522887 0.062826663 0
0.83872348 1.0478444 0.093907729 0
0.84392232 1.0543394 0.12613344 0
0.83543772 1.0437393 0.15632732 0
1.0925333 1.3649372 0.24580376 0
1.0953802 1.3684938 0.28819308 0
0.54982871 0.72361279 -0.19317746 0
0.61552894 0.81007886 -0.19162837 0
0.70104337 0.92262179 -0.1904415 0
0.72645086 0.95605981 -0.16874586 0
0.72646189 0.95607436 -0.14033681 0
0.72334814 0.95197642 -0.11159898 0
0.731282 0.96241796 -0.084501438 0
0.7222451 0.95052475 -0.055576492 0
0.72824502 0.95842105 -0.027986737 0
0.72759062 0.95755982 3.4333028e-05 0
0.73155034 0.96277106 0.028182838 0
0.72630912 0.95587325 0.05595791 0
0.73092055 0.9619422 0.084528983 0
0.73482096 0.96707547 0.11343896 0
0.72422546 0.95313102 0.13997406 0
0.72582823 0.95524037 0.16867109 0
0.72475129 0.95382309 0.19695212 0
0.72869653 0.95901525 0.22693126 0
0.52629095 0.73017216 -0.19132157 0
0.59386808 0.82392818 -0.19129793 0
0.68330383 0.94801062 -0.19206116 0
0.72783142 1.0097879 -0.17493095 0
0.96006697 1.3319898 -0.19189747 0
0.85283911 1.1832227 -0.13614099 0
0.83925581 1.1643772 -0.10034194 0
0.84002513 1.1654446 -0.066881776 0
0.84292489 1.1694678 -0.033517573 0
0.84190106 1.1680473 4.1105035e-05 0
0.83709013 1.1613727 0.033367351 0
0.83785486 1.1624336 0.066790968 0
0.83223301 1.1546339 0.099583961 0
0.83924574 1.1643633 0.13405371 0
0.84398592 1.1709398 0.16877882 0
0.83942503 1.1646121 0.20183556 0
1.09986 1.5259376 0.3092559 0
0.51180094 0.74922121 -0.19286679 0
0.5735783 0.83965659 -0.19152761 0
0.65761864 0.96268249 -0.19160998 0
0.76904684 1.1258014 -0.19160508 0
0.92633355 1.3560522 -0.19193469 0
1.1587083 1.6962237 -0.19174069 0
0.84836066 1.2419082 -0.10514461 0
0.83414102 1.2210922 -0.068845153 0
0.83659643 1.2246866 -0.034484033 0
0.84609944 1.238598 4.282267e-05 0
0.83908898 1.2283355 0.034671757 0
0.83972061 1.2292601 0.069390841 0
0.83874828 1.2278367 0.10403858 0
0.84353405 1.2348427 0.13967243 0
0.84002507 1.2297058 0.17413792 0
0.84021568 1.2299849 0.20942326 0
1.099172 1.6090689 0.32037941 0
1.0973271 1.6063682 0.36653131 0
0.49164644 0.76021361 -0.19244093 0
0.55573612 0.85931301 -0.19275047 0
0.63076001 0.9753195 -0.1908958 0
0.74306655 1.1489747 -0.19229592 0
0.88886434 1.3744161 -0.1912977 0
1.1057926 1.7098439 -0.19006495 0
1.4797354 2.2880569 -0.19049288 0
0.84502959 1.3066361 -0.072442584 0
0.84242082 1.3026023 -0.036067773 0
0.83645052 1.2933707 4.3972461e-05 0
0.84226835 1.3023665 0.036149848 0
0.84244448 1.3026389 0.07230974 0
0.83680302 1.2939157 0.10781376 0
0.83753765 1.2950517 0.14404579 0
0.84479564 1.3062744 0.18190345 0
0.84558672 1.3074976 0.21891749 0
