# .PCD v0.7 - Point Cloud Data file format
VERSION 0.7
FIELDS x y z intensity
SIZE 4 4 4 4
TYPE F F F F
COUNT 1 1 1 1
WIDTH 1353
HEIGHT 1
VIEWPOINT 0 0 0 1 0 0 0
POINTS 1353
DATA ascii
0.84027988 0.85633361 0.083942018 0
0.83794749 0.8539567 0.11174227 0
1.1067559 1.1279007 0.18477601 0
0.95271546 0.97091734 0.19124496 0
0.94016629 0.95812839 0.22069693 0
0.95980233 0.97813964 0.25819594 0
0.61713201 0.66151321 -0.19230126 0
0.694628 0.74458236 -0.19179559 0
0.79804915 0.85544103 -0.19227435 0
0.83900094 0.89933789 -0.172848 0
0.84059048 0.90104175 -0.14401847 0
0.84361809 0.90428704 -0.11543399 0
0.83340007 0.89333421 -0.085409805 0
0.83858842 0.89889574 -0.057230879 0
0.8451277 0.90590525 -0.028805278 0
0.84102249 0.90150481 3.5197161e-05 0
0.83861852 0.89892793 0.02865365 0
0.84253836 0.9031297 0.057571121 0
0.84021574 0.90064001 0.086178966 0
0.84810686 0.90909863 0.1161198 0
1.0993291 1.1783876 0.18844149 0
0.93051833 0.99743676 0.19178151 0
0.93245876 0.99951673 0.22473787 0
0.92200023 0.98830611 0.25465584 0
0.59883654 0.67528528 -0.19185005 0
0.67273337 0.75861591 -0.19097604 0
0.78399521 0.88408172 -0.19420245 0
0.84980398 0.95829177 -0.17999907 0
0.83532912 0.94196898 -0.14714345 0
0.83443797 0.9409641 -0.1173901 0
0.83435088 0.94086587 -0.08791288 0
0.84131497 0.94871897 -0.059032302 0
0.84198296 0.94947225 -0.029505474 0
0.84358138 0.95127475 3.629749e-05 0
0.8408758 0.94822377 0.029539078 0
0.84049946 0.94779938 0.059047569 0
0.83883709 0.94592476 0.088458113 0
0.83202392 0.93824184 0.11712271 0
1.0962968 1.2362523 0.19320861 0
1.0921648 1.2315928 0.23142992 0
0.57814467 0.68606991 -0.1907077 0
0.65417635 0.77629483 -0.19120921 0
0.73122329 0.86772448 -0.18649594 0
0.85152042 1.0104781 -0.18570544 0
0.83782828 0.99423003 -0.1519555 0
0.84021527 0.99706262 -0.12170434 0
0.8421312 0.99933618 -0.091361158 0
0.8390637 0.99569607 -0.060618352 0
0.84196246 0.99913591 -0.030378764 0
0.83830386 0.99479437 3.7138911e-05 0
0.8355239 0.99149549 0.030220527 0
0.84227735 0.99950963 0.060925316 0
0.83215809 0.98750132 0.090353288 0
0.8360675 0.99214053 0.12117826 0
0.84025174 0.9971059 0.15247051 0
1.0916454 1.2954285 0.23817219 0
0.56981939 0.7118938 -0.19382659 0
0.63670242 0.79545289 -0.19190878 0
0.7313565 0.91370732 -0.1923503 0
0.84740359 1.0586886 -0.19057426 0
0.8467893 1.0579212 -0.158373 0
0.84208012 1.0520378 -0.12578049 0
0.83403927 1.0419922 -0.093306676 0
0.83678043 1.0454168 -0.062339753 0
0.83916622 1.0483974 -0.031222651 0
0.84050155 1.0500658 3.8398175e-05 0
0.83640969 1.0449537 0.031196553 0
0.83868319 1.047794 0.062558308 0
0.83853954 1.0476146 0.093887135 0
0.84345484 1.0537554 0.12606357 0
0.8384831 1.047544 0.15689717 0
1.0990459 1.3730736 0.247269 0
1.0949397 1.3679435 0.28807721 0
0.54013032 0.71084905 -0.18977003 0
0.61655039 0.81142318 -0.19194637 0
0.69865364 0.91947675 -0.18979232 0
0.73320401 0.96494746 -0.17031455 0
0.72428417 0.95320833 -0.13991612 0
0.73240656 0.96389788 -0.11299651 0
0.73539501 0.96783096 -0.084976703 0
0.73346555 0.96529162 -0.056439903 0
0.72952765 0.96010906 -0.028036028 0
0.73084265 0.96183974 3.4486482e-05 0
0.72646594 0.95607972 0.027986964 0
0.7347393 0.96696806 0.056607414 0
0.73178285 0.96307713 0.084628709 0
0.72687614 0.95661956 0.11221248 0
0.73231083 0.96377194 0.14153676 0
0.72297722 0.95148826 0.16800857 0
0.72653925 0.95617622 0.197438 0
0.73314053 0.9648639 0.22831522 0
0.52756941 0.73194587 -0.19178633 0
0.59536284 0.82600194 -0.19177942 0
0.67830884 0.94108063 -0.19065718 0
0.72880709 1.0111415 -0.17516544 0
0.95507842 1.3250687 -0.19090036 0
0.8504132 1.1798569 -0.13575374 0
0.84100556 1.1668049 -0.10055114 0
0.83960718 1.1648648 -0.066848502 0
0.84142578 1.1673878 -0.033457965 0
0.83938581 1.1645576 4.0982231e-05 0
0.83378482 1.1567868 0.033235595 0
0.8376112 1.1620955 0.066771545 0
0.83813202 1.1628181 0.10028982 0
0.83276463 1.1553714 0.13301846 0
0.83806473 1.1627247 0.16759472 0
0.83573771 1.1594963 0.20094895 0
1.0951221 1.5193644 0.30792373 0
0.50959402 0.74599051 -0.19203514 0
0.57490832 0.84160358 -0.1919717 0
0.66408688 0.97215134 -0.19349465 0
0.76769799 1.1238267 -0.19126901 0
0.91687614 1.3422074 -0.18997513 0
1.1602799 1.6985241 -0.19200073 0
0.84579098 1.2381465 -0.10482614 0
0.83341032 1.2200226 -0.06878484 0
0.83450621 1.2216268 -0.034397874 0
0.84497792 1.2369564 4.2765911e-05 0
0.83792025 1.2266246 0.034623463 0
0.83728307 1.2256918 0.069189414 0
0.84524262 1.2373438 0.10484415 0
0.83722109 1.2256011 0.13862711 0
0.84139603 1.2317127 0.17442212 0
0.84321356 1.2343735 0.21017048 0
1.1033648 1.6152067 0.32160154 0
1.0931811 1.6002989 0.36514643 0
0.4886072 0.75551414 -0.19125131 0
0.55841041 0.86344814 -0.19367802 0
0.63072729 0.9752689 -0.1908859 0
0.73654079 1.1388842 -0.19060716 0
0.88496184 1.3683817 -0.19045781 0
1.1113973 1.71851 -0.19102827 0
1.4813107 2.2904928 -0.19069567 0
0.85323483 1.3193235 -0.073146001 0
0.83613026 1.2928754 -0.035798445 0
0.8407445 1.3000103 4.4198197e-05 0
0.841627 1.3013749 0.036122322 0
0.84021705 1.2991947 0.072118551 0
0.84451038 1.3058332 0.10880677 0
0.83139384 1.2855517 0.14298913 0
0.84005499 1.2989441 0.18088268 0
0.84547609 1.3073266 0.21888885 0
0.83965641 1.2983278 0.25420773 0
1.0993059 1.6998137 0.38140088 0
0.47448006 0.77592671 -0.19332552 0
0.53060335 0.86770624 -0.19156823 0
0.60608697 0.99114615 -0.19093865 0
0.70673615 1.1557398 -0.19038223 0
0.84570879 1.3830044 -0.18946184 0
1.0685874 1.7474824 -0.19118996 0
1.4284397 2.3359561 -0.19141823 0
0.85266066 1.3943731 -0.076089539 0
0.85307801 1.3950555 -0.038019434 0
0.83735859 1.3693492 4.5822489e-05 0
0.84476048 1.3814536 0.037741251 0
0.84023154 1.3740474 0.075072549 0
0.84410089 1.380375 0.11320667 0
0.8389008 1.3718712 0.1501874 0
0.84201646 1.3769664 0.18872809 0
0.8358295 1.3668487 0.22525097 0
0.84080344 1.3749827 0.2649771 0
1.0991032 1.7973855 0.39694315 0
0.4500851 0.77956867 -0.19134168 0
0.5115459 0.88602167 -0.19270004 0
0.58165014 1.0074455 -0.19118968 0
0.68185788 1.1810101 -0.19164905 0
0.8156625 1.4127661 -0.19065805 0
1.0341063 1.791121 -0.19304737 0
1.3670586 2.3678102 -0.19114029 0
1.3680156 2.3694677 -0.12737478 0
0.85125458 1.4744132 -0.039584037 0
0.83857256 1.4524473 4.7879716e-05 0
0.838278 1.4519371 0.039076392 0
0.84159845 1.4576883 0.078456841 0
0.83583778 1.4477105 0.11696162 0
0.83728307 1.4502139 0.15640078 0
0.83678943 1.4493589 0.19569325 0
0.8376146 1.4507881 0.23552495 0
0.83924592 1.4536136 0.27596042 0
0.84274054 1.4596665 0.31756118 0
0.43089142 0.79181385 -0.19161689 0
0.48911685 0.89880997 -0.19273512 0
0.55662072 1.0228564 -0.19138725 0
0.65171999 1.1976124 -0.19161294 0
0.77552277 1.4251146 -0.18962264 0
0.98072362 1.8021954 -0.19151217 0
1.2893599 2.3693511 -0.18857767 0
1.2912155 2.372761 -0.1257599 0
1.2899828 2.3704956 -0.062747374 0
0.84972578 1.5614715 5.0750547e-05 0
0.83876109 1.5413225 0.04089928 0
0.83979428 1.5432211 0.081893571 0
0.84300613 1.5491233 0.12339658 0
0.83590001 1.5360649 0.16333225 0
0.83626688 1.5367391 0.20457642 0
0.83491164 1.5342487 0.24557503 0
0.8384729 1.5407929 0.28840154 0
0.83943683 1.5425643 0.33088157 0
0.4121024 0.80502462 -0.19223562 0
0.46216309 0.90281612 -0.19103207 0
0.52946806 1.0342935 -0.19096605 0
0.6245575 1.2200466 -0.19261894 0
0.74789762 1.4609865 -0.19182296 0
0.93648988 1.8293935 -0.19182959 0
1.2422298 2.4266436 -0.19058155 0
1.2427436 2.4276471 -0.12696609 0
1.240499 2.4232624 -0.063295208 0
1.2450562 2.4321647 7.8003417e-05 0
0.84631962 1.6532496 0.043288704 0
0.83571059 1.6325253 0.085486114 0
0.83843684 1.637851 0.12873763 0
0.83260369 1.6264561 0.17065489 0
0.83747733 1.6359766 0.21490499 0
0.84087789 1.6426195 0.25944147 0
0.8410387 1.6429336 0.30345011 0
0.83871245 1.6383893 0.34678507 0
0.39184132 0.81554419 -0.19232479 0
0.44099799 0.91785461 -0.19179794 0
0.50040591 1.041501 -0.18990445 0
0.5909006 1.2298487 -0.19175087 0
0.70702243 1.4715346 -0.19080421 0
0.88789159 1.8479799 -0.19136776 0
1.1820235 2.4601603 -0.19081008 0
1.7810748 3.7069731 -0.19146292 0
4.5025134 9.3711376 -0.24172734 0
0.85004705 1.7692134 0.091491126 0
0.83864522 1.7454827 0.13549078 0
0.83531719 1.7385561 0.18014745 0
0.83981156 1.7479103 0.22675225 0
0.83688706 1.7418234 0.27168748 0
0.83943969 1.7471362 0.31868172 0
0.83522403 1.7383622 0.36336794 0
0.37170556 0.82642949 -0.19261809 0
0.41666633 0.92639267 -0.19132364 0
0.47353521 1.0528319 -0.18973084 0
0.55614823 1.2365091 -0.19054011 0
0.6728164 1.4959025 -0.19170095 0
0.84392613 1.8763384 -0.19203757 0
1.1207389 2.4917884 -0.19100843 0
1.688044 3.7531028 -0.19158399 0
4.2683039 9.4899092 -0.24193515 0
1.0635301 2.3645937 0.12085336 0
0.84581333 1.8805343 0.14427096 0
0.83965033 1.8668318 0.19118249 0
0.83742213 1.8618777 0.23871908 0
0.84160292 1.8711731 0.28845826 0
0.8375929 1.8622574 0.33571717 0
0.83772999 1.8625622 0.3847872 0
0.34641811 0.82525945 -0.19024698 0
0.39173719 0.93322146 -0.19063132 0
0.45061275 1.0734786 -0.19134113 0
0.52566385 1.2522701 -0.19086362 0
0.63544661 1.5138017 -0.19187835 0
0.79622871 1.8968271 -0.1920166 0
1.0610647 2.5277364 -0.19165017 0
1.5919577 3.7924635 -0.19148122 0
4.0255075 9.5898218 -0.24181513 0
0.99604416 2.3728402 0.11995178 0
0.8507942 2.0268164 0.15379709 0
0.83965218 2.0002732 0.20261346 0
0.83510429 1.989439 0.2522915 0
0.84304601 2.0083582 0.30622891 0
0.83548307 1.9903413 0.354893 0
0.83674705 1.9933524 0.40731457 0
0.32961276 0.84430867 -0.19265924 0
0.37275898 0.95482844 -0.19306174 0
0.42311016 1.0838039 -0.1912172 0
0.49557647 1.2694275 -0.19151127 0
0.59596014 1.526562 -0.19152822 0
0.75032985 1.9219826 -0.19258472 0
0.99366844 2.5452986 -0.19101939 0
1.4984295 3.8382525 -0.19182253 0
3.780587 9.6840372 -0.24170785 0
0.92448372 2.3680806 0.11849391 0
0.84487331 2.1641574 0.16254883 0
0.83757001 2.1454496 0.21510902 0
0.83899468 2.1490991 0.26976758 0
0.84142059 2.155313 0.32529449 0
0.8398152 2.1512008 0.37967512 0
0.8375898 2.1455004 0.43394607 0
0.30863684 0.85355037 -0.19292913 0
0.34510896 0.95441574 -0.19115625 0
0.39872879 1.102704 -0.1927149 0
0.43761697 1.2102512 -0.1808598 0
0.43304306 1.1976018 -0.14883697 0
0.4342472 1.2009319 -0.11919851 0
0.93313187 2.580622 -0.19184178 0
1.4029685 3.8799784 -0.19207704 0
3.5388002 9.786726 -0.24196455 0
0.8572613 2.3707981 0.11750983 0
0.84668094 2.3415377 0.17421126 0
0.83459514 2.3081138 0.22923322 0
0.83688831 2.3144557 0.28778109 0
0.83701146 2.3147962 0.34606621 0
0.83751398 2.316186 0.40493441 0
0.83889973 2.3200183 0.46481341 0
0.28652325 0.85962743 -0.19260684 0
0.3198584 0.95963955 -0.19052495 0
0.36417967 1.0926123 -0.18928456 0
0.40126246 1.2038682 -0.17833567 0
0.40414712 1.2125227 -0.14937606 0
0.40127519 1.2039064 -0.11845078 0
0.86727345 2.601995 -0.19174235 0
1.304058 3.9124365 -0.19199337 0
3.2870924 9.8619394 -0.24169599 0
0.79133338 2.3741593 0.11664934 0
0.84870106 2.5462742 0.18779024 0
0.84027505 2.5209944 0.2481904 0
0.83817756 2.5147014 0.30995068 0
0.84001231 2.5202062 0.37348679 0
0.83723116 2.511862 0.43531117 0
0.83944905 2.5185163 0.50017822 0
0.26472461 0.8665235 -0.19259362 0
0.29960904 0.98071074 -0.19314556 0
0.33649182 1.1014392 -0.18928219 0
0.38263503 1.2524799 -0.18404759 0
0.38073641 1.2462651 -0.15230063 0
0.38215601 1.250912 -0.12208773 0
0.72311121 2.366961 -0.17302258 0
0.72488612 2.3727708 -0.11550342 0
0.72392505 2.3696251 -0.057608541 0
0.72577578 2.3756831 7.0916292e-05 0
0.7274043 2.3810136 0.058027636 0
0.72501332 2.3731873 0.11566567 0
0.83984816 2.7490764 0.20111977 0
0.83726019 2.7406054 0.26764533 0
0.83525753 2.7340498 0.33428174 0
0.83566076 2.7353697 0.40211967 0
0.83793145 2.7428024 0.4715184 0
0.24063915 0.86523974 -0.1908976 0
0.27337429 0.98294193 -0.19216493 0
0.31288385 1.125002 -0.19191326 0
0.36397797 1.3087155 -0.19090052 0
0.43588337 1.5672579 -0.19012278 0
0.55225992 1.9857004 -0.1923807 0
0.65859944 2.3680534 -0.17183264 0
0.66111135 2.3770852 -0.11486461 0
0.65804505 2.3660603 -0.057099916 0
0.66077381 2.3758719 7.0401671e-05 0
0.65908957 2.3698158 0.057331074 0
0.66037709 2.3744452 0.11487806 0
0.81277198 2.9223948 0.21223123 0
0.80982256 2.9117899 0.28227714 0
0.81032795 2.9136069 0.35362235 0
0.80901915 2.9089012 0.42449319 0
0.81132144 2.9171791 0.49781695 0
0.21868882 0.87086505 -0.19086017 0
0.24776056 0.98663485 -0.19160338 0
0.28336614 1.1284238 -0.19121605 0
0.33232072 1.3233713 -0.1917538 0
0.39650765 1.5789772 -0.19026986 0
0.4977836 1.9822794 -0.19077133 0
0.59745049 2.379174 -0.17149079 0
0.59562802 2.3719165 -0.11385217 0
0.59472734 2.36833 -0.056774367 0
0.59591419 2.3730562 6.9850321e-05 0
0.59502178 2.3695025 0.056942046 0
0.595541 2.3715701 0.11397547 0
0.76750666 3.0563736 0.22048411 0
0.76869345 3.0610998 0.29477698 0
0.76924819 3.063309 0.36931753 0
0.76833558 3.0596747 0.4435243 0
0.19650178 0.8754611 -0.19071978 0
0.22377379 0.99696434 -0.19245125 0
0.25480267 1.1352053 -0.19121455 0
0.29725412 1.3243362 -0.19074579 0
0.35428825 1.5784366 -0.18906699 0
0.44647905 1.989168 -0.19028918 0
0.54942632 2.4478221 -0.17538354 0
0.55054545 2.4528079 -0.11703072 0
0.55162078 2.4575989 -0.058561955 0
0.55349165 2.465934 7.2149989e-05 0
0.55245036 2.4612949 0.058794133 0
0.55239564 2.4610512 0.11756836 0
0.71427578 3.1822648 0.22819261 0
0.71136045 3.1692762 0.3033686 0
0.71288425 3.1760652 0.38062122 0
0.71457922 3.1836169 0.45873025 0
0.17487404 0.88278329 -0.19129248 0
0.19762851 0.99765044 -0.19155984 0
0.22604878 1.141119 -0.19118878 0
0.26579583 1.3417665 -0.19222885 0
0.31949535 1.6128476 -0.19216169 0
0.3979449 2.0088696 -0.1911522 0
0.41372764 2.0885425 -0.14884603 0
0.41397253 2.0897787 -0.099179424 0
0.4124929 2.0823095 -0.04935541 0
0.41362149 2.0880067 6.0767536e-05 0
0.41627744 2.1014142 0.049930617 0
0.41340476 2.0869126 0.099165134 0
0.41581222 2.0990658 0.14971878 0
0.41455063 2.0926971 0.19925161 0
0.41633511 2.1017053 0.25053033 0
0.40811408 2.0602045 0.29527855 0
0.29580578 1.49326 0.25027752 0
0.27227178 1.374458 0.26399386 0
0.15587316 0.90626562 -0.19546619 0
0.17203781 1.0002488 -0.19116415 0
0.19498621 1.1336737 -0.18905661 0
0.23112114 1.3437665 -0.19161867 0
0.27724981 1.6119642 -0.19116186 0
0.34669098 2.0157037 -0.19090909 0
0.36823586 2.1409681 -0.15187158 0
0.88087642 5.1215229 -0.24193169 0
1.7624618 10.247168 -0.24174954 0
0.58134717 3.3800232 0.15986256 0
0.5799641 3.3719821 0.239391 0
0.57843727 3.3631051 0.31871921 0
0.26115963 1.5184139 0.18015696 0
0.2701785 1.5708507 0.22409326 0
0.27169308 1.5796567 0.26352477 0
0.23486441 1.3655304 0.26105744 0
0.12996778 0.88944894 -0.19107078 0
0.14741156 1.0088273 -0.19203144 0
0.16681209 1.141597 -0.18961546 0
0.19660632 1.3454971 -0.19109701 0
0.23752168 1.6255059 -0.19199571 0
0.29580298 2.0243604 -0.19096109 0
0.39336237 2.692019 -0.19019605 0
0.7507785 5.1380358 -0.24173963 0
1.5043159 10.294952 -0.24190411 0
0.50612617 3.4637303 0.16316548 0
0.50480139 3.4546645 0.24427865 0
0.50286019 3.4413793 0.32483098 0
0.22199057 1.519217 0.17953031 0
0.27705297 1.8960427 0.26940092 0
0.20071401 1.3736086 0.26155004 0
0.10737577 0.89154023 -0.19087707 0
0.12087857 1.0036539 -0.19040529 0
0.13811998 1.1468092 -0.1898417 0
0.16284491 1.3521 -0.1913901 0
0.19570066 1.6249011 -0.19127995 0
0.24650714 2.0467467 -0.19242465 0
0.32689783 2.7142303 -0.19112153 0
0.62052697 5.1522307 -0.2415937 0
1.2427645 10.318664 -0.2416473 0
0.42537066 3.5318491 0.1658158 0
0.42353028 3.5165687 0.24782112 0
0.42282274 3.5106938 0.33026111 0
0.42327398 3.5144405 0.41391745 0
0.2288221 1.8999082 0.26904389 0
0.16464366 1.367035 0.25942451 0
0.085668549 0.9026199 -0.19272491 0
0.096667811 1.0185102 -0.19269951 0
0.10999282 1.1589049 -0.19132355 0
0.12832299 1.3520352 -0.19086169 0
0.15523235 1.6355572 -0.19201201 0
0.19387414 2.0426943 -0.19152263 0
0.25785664 2.716826 -0.19078529 0
0.49094176 5.1726546 -0.24189334 0
0.98264962 10.353381 -0.24180251 0
0.34038317 3.5863409 0.16791731 0
0.33940947 3.576082 0.25133145 0
0.33964229 3.5785348 0.33572978 0
0.33936903 3.5756557 0.41998458 0
0.3390182 3.5719593 0.50444889 0
0.17145547 1.806487 0.29833925 0
0.13005701 1.3703051 0.25933954 0
0.062653966 0.90142483 -0.19207093 0
0.070433296 1.0133488 -0.19132572 0
0.079617873 1.1454906 -0.18871713 0
0.094227113 1.3556789 -0.19097954 0
0.11318313 1.6284057 -0.19077632 0
0.14205959 2.0438619 -0.19123502 0
0.18995573 2.7329605 -0.19152065 0
0.35971209 5.1753054 -0.24151585 0
0.72172314 10.383687 -0.24200781 0
0.25318632 3.6426814 0.17020184 0
0.25109106 3.6125362 0.25336742 0
0.13253555 1.9068358 0.1785242 0
0.13310446 1.9150211 0.22446592 0
0.13291003 1.9122237 0.26949367 0
0.12419594 1.786851 0.29448494 0
0.094986863 1.3666097 0.25810426 0
0.039909955 0.90316588 -0.19216609 0
0.044738181 1.0124291 -0.19087811 0
0.050908685 1.1520683 -0.18952873 0
0.060338151 1.3654579 -0.19208142 0
0.072600856 1.642964 -0.19220601 0
0.089189395 2.0183642 -0.18857865 0
0.10972666 2.4831243 -0.1737632 0
0.11244825 2.5447142 -0.1185839 0
0.45944503 10.397284 -0.24197738 0
0.16212538 3.6689122 0.17118177 0
0.16181724 3.6619391 0.25646421 0
0.085853986 1.9428835 0.18163839 0
0.08491414 1.9216148 0.22491595 0
0.085511364 1.93513 0.27233103 0
0.075945556 1.7186549 0.28283978 0
0.060583659 1.3710138 0.25856492 0
0.016889418 0.892259 -0.18969433 0
0.019313373 1.0203153 -0.19221181 0
0.02201516 1.1630492 -0.19118296 0
0.025753215 1.3605287 -0.19123571 0
0.031073522 1.6415977 -0.19189332 0
0.038652964 2.0420158 -0.19063659 0
0.052084725 2.7516086 -0.19239783 0
0.046384025 2.4504435 -0.11409999 0
0.047799416 2.5252178 -0.058722958 0
0.070077032 3.7021325 0.17259425 0
0.06989979 3.6927691 0.25841755 0
0.069780588 3.6864717 0.34437054 0
0.069658175 3.6800048 0.43038437 0
0.031472895 1.6626964 0.27341288 0
0.026006619 1.3739159 0.25890601 0
-0.0056866636 0.90161878 -0.1916537 0
-0.0063607371 1.0084929 -0.18995443 0
-0.0072866748 1.1553001 -0.18987891 0
-0.0085998001 1.3634957 -0.19162223 0
-0.01032465 1.6369703 -0.19132194 0
-0.012871306 2.0407417 -0.19048733 0
-0.015064953 2.3885436 -0.16698505 0
-0.016488289 2.6142135 -0.12170622 0
-0.015373191 2.4374149 -0.056672111 0
-0.015610109 2.4749782 7.0658039e-05 0
-0.023387125 3.7080216 0.17284128 0
-0.023449754 3.7179515 0.26013836 0
-0.023359863 3.7036994 0.34592476 0
-0.023382004 3.7072098 0.43349704 0
-0.010263382 1.6272562 0.26754248 0
-0.0086358162 1.3692061 0.2579774 0
-0.028449487 0.90169257 -0.19176094 0
-0.031764459 1.006759 -0.18971841 0
-0.036470041 1.1559 -0.19006827 0
-0.043051649 1.364501 -0.1918551 0
-0.051516689 1.6327963 -0.19092526 0
-0.06487748 2.0562599 -0.19202751 0
-0.075274959 2.385803 -0.16687313 0
-0.07481686 2.3712838 -0.11044923 0
-0.074875414 2.3731396 -0.055204011 0
-0.078232981 2.4795561 7.0822556e-05 0
-0.12026176 3.8116376 0.088884234 0
-0.11761858 3.7278636 0.17384918 0
-0.11725309 3.7162795 0.26014557 0
-0.11736853 3.7199383 0.34760743 0
-0.11746881 3.7231164 0.43556502 0
-0.051427543 1.6299708 0.26811683 0
-0.043108243 1.3662947 0.25755182 0
-0.051131446 0.89963961 -0.1915378 0
-0.058060061 1.0215461 -0.19271973 0
-0.066630013 1.1723315 -0.19298521 0
-0.077610873 1.3655357 -0.19221482 0
-0.09291444 1.6347965 -0.19137241 0
-0.11565326 2.034878 -0.19024274 0
-0.14235726 2.5047255 -0.17538652 0
-0.13562799 2.3863263 -0.11127388 0
-0.14310202 2.5178292 -0.058635127 0
-0.13602346 2.3932846 6.8434681e-05 0
-0.21556549 3.792798 0.088543586 0
-0.21235852 3.7363727 0.1744404 0
-0.21203186 3.7306252 0.26144117 0
-0.21191578 3.7285829 0.34880394 0
-0.078678861 1.3843267 0.16213219 0
-0.077977225 1.3719816 0.19320215 0
-0.077874206 1.370169 0.22563303 0
-0.077996299 1.3723171 0.25897568 0
-0.073465765 0.89382684 -0.1906343 0
-0.08448638 1.02791 -0.19426072 0
-0.094871424 1.1542605 -0.19034398 0
-0.11126083 1.3536634 -0.19087814 0
-0.13376251 1.6274318 -0.19084471 0
-0.16788691 2.042609 -0.19130075 0
-0.22537455 2.7420368 -0.19234064 0
-0.42534155 5.1749506 -0.24173042 0
-0.85159248 10.360965 -0.24170938 0
-0.3070043 3.7351911 0.17469136 0
-0.30546182 3.7164245 0.26090318 0
-0.3056981 3.7192993 0.34854627 0
-0.30533323 3.7148602 0.43584776 0
-0.1146846 1.395319 0.19683343 0
-0.11462019 1.3945353 0.23004869 0
-0.11303678 1.3752706 0.25998867 0
-0.097176023 0.90266377 -0.19298066 0
-0.11090206 1.0301644 -0.19515361 0
-0.12336593 1.1459407 -0.18942513 0
-0.14664839 1.3622105 -0.19254394 0
-0.17600359 1.6348895 -0.19217898 0
-0.21879372 2.0323653 -0.19079778 0
-0.29067999 2.7001138 -0.18985409 0
-0.55607659 5.1653705 -0.24186151 0
-1.1123343 10.332424 -0.24162155 0
-0.39976698 3.7134178 0.17408949 0
-0.40014583 3.7169368 0.26156485 0
-0.39932856 3.7093453 0.348447 0
-0.39906636 3.7069099 0.43595788 0
-0.1494554 1.3882846 0.19631073 0
-0.14926246 1.3864924 0.22927032 0
-0.14745513 1.3697041 0.25955722 0
-0.11789413 0.88472039 -0.18972027 0
-0.13559566 1.0175592 -0.19335243 0
-0.1537441 1.1537516 -0.1912968 0
-0.18009348 1.3514869 -0.19160965 0
-0.21739934 1.6314437 -0.19235766 0
-0.27121082 2.0352645 -0.19165155 0
-0.36144072 2.7123823 -0.19129726 0
-0.68537545 5.1433063 -0.24156143 0
-1.3730879 10.304151 -0.24169382 0
-0.4933545 3.7023113 0.17409712 0
-0.48998281 3.6770091 0.2595427 0
-0.24334829 1.8261739 0.17206855 0
-0.24274962 1.8216813 0.21489425 0
-0.18698624 1.4032127 0.19902559 0
-0.18678904 1.4017328 0.23249601 0
-0.18243615 1.3690672 0.26022619 0
-0.14032392 0.88237572 -0.18991646 0
-0.16005424 1.0064425 -0.19194655 0
-0.18373942 1.1553782 -0.19227415 0
-0.21401262 1.3457402 -0.19149971 0
-0.25792608 1.6218739 -0.19193575 0
-0.32065707 2.0163348 -0.19057043 0
-0.42888299 2.6968739 -0.19090612 0
-0.81527817 5.1265788 -0.24166526 0
-1.6341153 10.275537 -0.24191305 0
-0.58409375 3.6728601 0.17335023 0
-0.58161944 3.6573014 0.25910527 0
-0.27854338 1.7515184 0.16564389 0
-0.27965441 1.7585046 0.20820795 0
-0.27854681 1.7515399 0.24934855 0
-0.21754408 1.3679464 0.26097369 0
-0.164042 0.88665944 -0.19166854 0
-0.1870272 1.0108962 -0.19363455 0
-0.21017431 1.136008 -0.18987295 0
-0.24991378 1.3508029 -0.19305624 0
-0.29759547 1.6085261 -0.19118412 0
-0.37233844 2.0125177 -0.191037 0
-0.49529982 2.6771331 -0.19033301 0
-0.94550234 5.1105123 -0.24195573 0
-1.8922728 10.227879 -0.24183838 0
-0.67053264 3.6242797 0.17180139 0
-0.66652572 3.6026223 0.25634164 0
-0.66873235 3.6145492 0.34332058 0
-0.66915786 3.6168489 0.43009967 0
-0.29099873 1.5728701 0.2629841 0
-0.2548264 1.3773559 0.26391178 0
-0.18608467 0.88092989 -0.1913843 0
-0.21126577 1.0001378 -0.19253385 0
-0.23863058 1.1296835 -0.18976209 0
-0.28224939 1.3361762 -0.19192278 0
-0.3402155 1.6105893 -0.19238867 0
-0.4178234 1.9779872 -0.18870014 0
-0.56337672 2.6670406 -0.19056569 0
-0.61624306 2.9173112 -0.13881142 0
-0.62073618 2.9385817 -0.069831029 0
-0.61815673 2.9263706 8.5386702e-05 0
-0.75552106 3.5766571 0.17039359 0
-0.7541315 3.5700786 0.25529903 0
-0.75313818 3.5653763 0.34034708 0
-0.75332028 3.5662384 0.4262065 0
-0.2875028 1.361046 0.26209354 0
-0.20729966 0.87194794 -0.19050896 0
-0.23359872 0.98256749 -0.19022584 0
-0.26952431 1.1336784 -0.19151482 0
-0.31376699 1.3197728 -0.19064344 0
-0.3755253 1.5795418 -0.18975171 0
-0.47238415 1.9869515 -0.19063205 0
-0.52166647 2.1942437 -0.15767391 0
-0.61972624 2.6067047 -0.12473667 0
-0.61916351 2.6043377 -0.062239747 0
-0.61773956 2.5983484 7.6246193e-05 0
-0.83458072 3.5104299 0.16818842 0
-0.83605951 3.51665 0.25290674 0
-0.83411121 3.5084548 0.33681577 0
-0.8330335 3.503922 0.42113757 0
-0.83348668 3.5058279 0.50663269 0
-0.23031993 0.87054533 -0.19141163 0
-0.26091957 0.98620355 -0.19214351 0
-0.29562187 1.1173685 -0.1899595 0
-0.34748793 1.3134078 -0.19093008 0
-0.41362235 1.5633776 -0.18900378 0
-0.52395707 1.9804121 -0.19121249 0
-0.58053213 2.1942501 -0.15867671 0
-0.64895499 2.4528694 -0.11812147 0
-0.64799142 2.4492273 -0.058904938 0
-0.64883846 2.4524291 7.2421804e-05 0
-0.91493589 3.4582033 0.16673946 0
-0.91033345 3.4408076 0.24902545 0
-0.91212672 3.4475856 0.33307624 0
-0.90998042 3.4394732 0.41601938 0
-0.90987885 3.4390893 0.50014752 0
-0.25315961 0.86770731 -0.19213133 0
-0.28554872 0.97872132 -0.19202875 0
-0.32202035 1.1037283 -0.18896212 0
-0.34577334 1.1851419 -0.17349745 0
-0.45663413 1.5651184 -0.19054689 0
-0.57138449 1.9584266 -0.19042151 0
-0.71474898 2.4498098 -0.17840517 0
-0.71382046 2.4466274 -0.11865068 0
-0.71379828 2.4465513 -0.059254993 0
-0.71408623 2.4475384 7.2786424e-05 0
-0.98765028 3.3851819 0.16436823 0
-0.98574156 3.3786399 0.2462483 0
-0.98472255 3.3751471 0.32837442 0
-0.9831773 3.3698506 0.41046894 0
-0.98214775 3.366322 0.49301293 0
-0.27188918 0.85138971 -0.18997718 0
-0.31185982 0.97655314 -0.19308618 0
-0.35026687 1.0968205 -0.18923274 0
-0.37734962 1.181627 -0.17432164 0
-0.39294383 1.2304585 -0.15096271 0
-0.39719367 1.2437663 -0.12186965 0
-0.39681906 1.2425933 -0.091191038 0
-0.39710408 1.2434858 -0.060770296 0
-0.39788312 1.2459253 -0.030409599 0
-0.40194798 1.2586539 3.7720314e-05 0
-0.39520085 1.2375261 0.030278813 0
-0.39715144 1.2436341 0.060852244 0
-0.39664105 1.2420359 0.091224939 0
-0.39598191 1.2399719 0.12157282 0
-0.39667279 1.2421353 0.15247078 0
-0.39686659 1.2427421 0.1834137 0
-0.39722708 1.243871 0.21467967 0
-0.39889508 1.2490941 0.24705109 0
-0.29690161 0.85467237 -0.1923205 0
-0.33598444 0.96717775 -0.19284771 0
-0.37961167 1.0927647 -0.19012545 0
-0.43263844 1.2454096 -0.18528317 0
-0.43143407 1.2419426 -0.1536587 0
-0.43290579 1.2461792 -0.12313746 0
-0.43338111 1.2475475 -0.092327945 0
-0.43156525 1.2423204 -0.061226159 0
-0.43256062 1.2451856 -0.030648252 0
-0.43504515 1.2523377 3.7848033e-05 0
-0.43633291 1.2560446 0.030991489 0
-0.43027079 1.2385941 0.061117537 0
-0.43171811 1.2427603 0.092049137 0
-0.43700421 1.2579771 0.12437994 0
-0.43211377 1.2438993 0.15397701 0
-0.42966613 1.2368535 0.18408649 0
-0.43201053 1.2436022 0.21644619 0
-0.43043354 1.2390625 0.24713698 0
-0.3195802 0.85012501 -0.19305077 0
-0.35923833 0.95562083 -0.19228996 0
-0.40816367 1.0857686 -0.19063985 0
-0.47769514 1.2707313 -0.19078329 0
-0.48786813 1.2977928 -0.16204059 0
-0.51193994 1.3618269 -0.13579834 0
-0.51364213 1.3663551 -0.10204752 0
-0.51131654 1.3601687 -0.067648627 0
-0.51682192 1.3748137 -0.034149021 0
-0.50866038 1.3531029 4.1268202e-05 0
-1.2063615 3.2090788 0.079906218 0
-1.1952236 3.1794505 0.15832584 0
-1.1598542 3.0853634 0.2306224 0
-1.1601478 3.0861444 0.3079333 0
-1.1580316 3.0805149 0.38481924 0
-1.1582001 3.0809634 0.46275702 0
-0.34148684 0.84317106 -0.19336724 0
-0.38060296 0.93975323 -0.1909692 0
-0.43502262 1.0741218 -0.19046204 0
-0.5090999 1.2570273 -0.19059424 0
-0.51037532 1.2601765 -0.15890162 0
-0.51581925 1.2736182 -0.12825972 0
-0.51355457 1.2680265 -0.095641345 0
-0.51411361 1.2694068 -0.063759595 0
-0.51277697 1.2661065 -0.031760193 0
-0.51595217 1.2739463 3.9238672e-05 0
-1.2737149 3.1449513 0.15815835 0
-1.1992491 2.9610865 0.2235243 0
-1.2032632 2.9709978 0.29937893 0
-1.1967157 2.9548311 0.37277314 0
-1.199532 2.9617851 0.44926077 0
-0.36460975 0.83879 -0.19441102 0
-0.40641439 0.93496215 -0.1920189 0
-0.46331477 1.0658624 -0.19101016 0
-0.51420569 1.1829376 -0.1812706 0
-0.51356733 1.1814691 -0.15056351 0
-0.51272905 1.1795406 -0.1200506 0
-0.50705647 1.1664908 -0.08891993 0
-0.51363856 1.1816329 -0.059982937 0
-0.5152747 1.1853969 -0.03005226 0
-0.51157099 1.1768764 3.6634858e-05 0
-1.3524059 3.1112294 0.15812868 0
-1.2293199 2.8280683 0.21575654 0
-1.2249098 2.8179226 0.28697786 0
-1.226482 2.8215396 0.35974813 0
-1.223353 2.8143413 0.43144175 0
-1.2272083 2.8232105 0.50612003 0
-0.3830682 0.82375616 -0.19310592 0
-0.43501347 0.93546015 -0.19431418 0
-0.48529512 1.0435866 -0.18915294 0
-0.51612425 1.1098821 -0.17201711 0
-0.51505929 1.107592 -0.14275996 0
-0.51027757 1.0973092 -0.11295612 0
-0.50960833 1.0958701 -0.084490165 0
-0.51426154 1.1058766 -0.056778125 0
-0.51624739 1.1101469 -0.028465778 0
-0.51171738 1.1004055 3.4645404e-05 0
-1.4341472 3.0840139 0.15853465 0
-1.2463021 2.6800685 0.20679939 0
-1.2436047 2.674268 0.27545682 0
-1.2410836 2.6688468 0.34416386 0
-1.243166 2.6733246 0.41450176 0
-1.2469772 2.6815205 0.48620635 0
-0.40575254 0.81790483 -0.19407311 0
-0.4520461 0.9112221 -0.19158836 0
-0.51206023 1.032197 -0.18937072 0
-0.5129053 1.0339005 -0.16219564 0
-0.51208562 1.0322481 -0.13467172 0
-0.51186889 1.0318114 -0.10750946 0
-0.51136714 1.0308 -0.080442786 0
-0.50944632 1.0269281 -0.053367894 0
-0.51708305 1.0423219 -0.027052669 0
-0.5113045 1.0306736 3.284579e-05 0
-1.2520787 2.523906 0.19712521 0
-1.2342581 2.4879837 0.25939509 0
-1.2416517 2.5028872 0.32669961 0
-1.2366469 2.4927988 0.39122587 0
-1.2395998 2.4987514 0.45859385 0
-0.42318657 0.80158556 -0.19267385 0
-0.47285941 0.89567417 -0.19076787 0
-0.53727955 1.0176965 -0.18913803 0
-0.53391194 1.0113177 -0.16071573 0
-0.53637761 1.0159881 -0.13427378 0
-0.53539228 1.0141218 -0.10704017 0
-0.53291363 1.0094267 -0.079799071 0
-0.53301191 1.0096129 -0.053150244 0
-0.53236526 1.008388 -0.026512232 0
-0.53820992 1.0194588 3.2910808e-05 0
-1.2526038 2.3726392 0.18772019 0
-1.2404438 2.3496065 0.24815309 0
-1.2431059 2.3546486 0.31134629 0
-1.2448189 2.3578935 0.37486494 0
-1.2385783 2.3460727 0.43617117 0
-1.2453184 2.3588395 0.50256222 0
-0.43840349 0.78196096 -0.19055571 0
-0.5004341 0.89260221 -0.19274233 0
-0.55704516 0.99357682 -0.18720868 0
-0.56210172 1.002596 -0.16153279 0
-0.56088805 1.0004312 -0.13404599 0
-0.55398458 0.98811781 -0.10573758 0
-0.5582422 0.99571192 -0.079803281 0
-0.56202626 1.0024614 -0.05350348 0
-0.56456059 1.0069817 -0.026841337 0
-0.55337769 0.98703527 3.2304684e-05 0
-1.301017 2.3205667 0.062007237 0
-1.2963235 2.3121951 0.12355841 0
-1.2511551 2.2316303 0.17900516 0
-1.2402432 2.2121668 0.23686802 0
-1.2439904 2.2188506 0.29744706 0
-1.2452782 2.2211478 0.35800746 0
-1.2418245 2.2149875 0.41749451 0
-1.2410408 2.2135897 0.47813725 0
-0.45832801 0.77121341 -0.19069485 0
-0.52516723 0.8836816 -0.19361654 0
-0.58571923 0.98557037 -0.18842551 0
-0.58454567 0.98359567 -0.16079734 0
-0.58761424 0.98875904 -0.1344264 0
-0.58789581 0.98923284 -0.10741049 0
-0.58822113 0.98978025 -0.080492109 0
-0.58588392 0.98584753 -0.053388979 0
-0.58408797 0.98282552 -0.026581928 0
-0.5848766 0.98415256 3.2683063e-05 0
-1.3573483 2.2839651 0.061924901 0
-1.3497138 2.2711189 0.12314455 0
-1.250798 2.1046765 0.17129953 0
-1.2373121 2.0819843 0.22620046 0
-1.2341479 2.0766599 0.28247142 0
-1.239491 2.0856507 0.34110156 0
-1.2450644 2.0950286 0.40067935 0
-1.2456521 2.0960176 0.45938614 0
-0.47563654 0.7562176 -0.18989475 0
-0.5447973 0.86617672 -0.19273251 0
-0.60981458 0.96954817 -0.18824491 0
-0.61219788 0.97333735 -0.16159481 0
-0.60929853 0.96872765 -0.13375117 0
-0.62419605 0.99241334 -0.10943155 0
-0.61626959 0.97981095 -0.08092051 0
-0.61441737 0.97686619 -0.053725287 0
-0.61213261 0.97323358 -0.026731845 0
-0.61493558 0.9776901 3.297337e-05 0
-1.2577131 1.9996462 0.16528207 0
-1.2446165 1.9788239 0.21833582 0
-1.2453693 1.9800208 0.27351469 0
-1.2370605 1.9668106 0.3266679 0
-1.2407078 1.9726093 0.38313326 0
-1.2450424 1.979501 0.44059592 0
-0.50369573 0.75771111 -0.19340052 0
-0.5645805 0.84930032 -0.1920868 0
-0.64235574 0.96629786 -0.19070086 0
-0.63759494 0.95913619 -0.16185723 0
-0.63898367 0.96122521 -0.13489904 0
-0.64058399 0.96363264 -0.10800634 0
-0.63687843 0.9580583 -0.080425926 0
-0.63925648 0.96163559 -0.053757865 0
-0.63420659 0.95403904 -0.026635803 0
-0.63815564 0.95997959 3.2908792e-05 0
-1.2561512 1.8896323 0.15875877 0
-1.2383785 1.8628968 0.20892695 0
-1.2442414 1.8717164 0.26280811 0
-1.2475479 1.8766904 0.31682858 0
-1.2376019 1.8617285 0.36754704 0
-1.247196 1.8761609 0.42446575 0
-0.52150011 0.74311811 -0.19297385 0
-0.58596265 0.83497483 -0.19213049 0
-0.66479683 0.94731057 -0.19020444 0
-0.66348517 0.94544148 -0.16232041 0
-0.66080362 0.94162035 -0.13444547 0
-0.66257656 0.94414675 -0.10766236 0
-0.6640355 0.9462257 -0.080813795 0
-0.66731215 0.95089483 -0.054081731 0
-0.66694051 0.95036519 -0.026994595 0
-0.66770279 0.95145148 3.318358e-05 0
-1.3026038 1.8561616 0.15865831 0
-1.2516665 1.7835779 0.20350936 0
-1.2437676 1.7723222 0.25317919 0
-1.2423747 1.7703373 0.30407056 0
-1.2403463 1.7674471 0.35500103 0
-1.2464976 1.7762123 0.40884066 0
-0.54225236 0.7326538 -0.19374874 0
-0.60495502 0.81737322 -0.19153263 0
-0.69341862 0.93689913 -0.19156696 0
-0.6923992 0.93552178 -0.16356555 0
-0.68821883 0.92987347 -0.13520528 0
-0.68780941 0.92932034 -0.10791686 0
-0.69199574 0.93497664 -0.081318803 0
-0.69172239 0.93460727 -0.054131087 0
-0.69340366 0.93687892 -0.027099997 0
-0.69260204 0.93579578 3.3236644e-05 0
-1.3448499 1.8170679 0.15816765 0
-1.2447271 1.6817888 0.19541739 0
-1.240746 1.67641 0.24387373 0
-1.2426798 1.6790228 0.29368004 0
-1.2446903 1.6817391 0.34398642 0
-1.2435579 1.6802092 0.39384198 0
-0.55397666 0.71029121 -0.1914715 0
-0.62258482 0.79825842 -0.19067487 0
-0.71839726 0.92110604 -0.19198398 0
-0.72079372 0.92417872 -0.16471058 0
-0.71491563 0.91664201 -0.13586174 0
-0.71696121 0.91926479 -0.10881583 0
-0.72072381 0.92408907 -0.081927866 0
-0.72648209 0.93147212 -0.054993965 0
-0.72396713 0.92824757 -0.027370149 0
-0.71761161 0.92009872 3.3311797e-05 0
-1.3915538 1.7842058 0.1583139 0
-1.2508874 1.603848 0.18996891 0
-1.2435334 1.5944189 0.23643667 0
-1.2365415 1.5854541 0.2826826 0
-1.2383842 1.5878168 0.331063 0
-1.2396691 1.5894642 0.37978429 0
-0.57229656 0.69678766 -0.19166403 0
-0.64122254 0.78070706 -0.19028762 0
-0.73701811 0.89734095 -0.19084699 0
-0.75004959 0.91320717 -0.16607617 0
-0.74965936 0.91273206 -0.13804261 0
-0.74852896 0.91135579 -0.11008088 0
-0.74390084 0.90572089 -0.081937872 0
-0.74322855 0.9049024 -0.054515421 0
-0.73986173 0.90080321 -0.027102899 0
-0.7478826 0.91056877 3.3639448e-05 0
-1.4373031 1.7499583 0.15844344 0
-1.2467207 1.5179187 0.18345955 0
-1.2372434 1.5063797 0.22793937 0
-1.2402121 1.5099941 0.27472183 0
-1.2361532 1.5050524 0.32020962 0
-1.2486917 1.5203184 0.370675 0
-0.58800024 0.68016583 -0.19111319 0
-0.66373169 0.76776779 -0.19115603 0
-0.76255345 0.8820793 -0.19163337 0
-0.7710762 0.89193791 -0.16569459 0
-0.77349049 0.89473063 -0.13822858 0
-0.77690035 0.89867496 -0.11088231 0
-0.77563757 0.89721423 -0.082912907 0
-0.77682656 0.89858961 -0.055298675 0
-0.76887381 0.88939035 -0.027334677 0
-0.77314007 0.89432532 3.3749497e-05 0
-1.4827126 1.7151191 0.15862681 0
-1.2619306 1.4597309 0.18021889 0
-1.2444998 1.4395678 0.22251162 0
-1.24053 1.4349759 0.26668477 0
-1.2362517 1.430027 0.31078687 0
-1.2423074 1.4370319 0.35789928 0
-0.60546494 0.66565287 -0.19126819 0
-0.68040931 0.74804735 -0.1904611 0
-0.78068483 0.85829103 -0.19068527 0
-0.80000377 0.87953043 -0.16708738 0
-0.80856907 0.88894719 -0.14044315 0
-0.8060801 0.88621086 -0.11181904 0
-0.80122113 0.88086879 -0.083244637 0
-0.80493802 0.88495517 -0.05569211 0
-0.80397183 0.88389295 -0.027780512 0
-0.80178678 0.88149071 3.4017987e-05 0
-1.2573832 1.382377 0.17453121 0
-1.2413179 1.3647146 0.21571556 0
-1.2389969 1.3621628 0.2588819 0
-1.2435343 1.3671514 0.30384642 0
-1.2406499 1.3639803 0.34739339 0
-0.62621164 0.65449607 -0.19254246 0
-0.70513815 0.73698753 -0.19211526 0
-0.80796617 0.84446007 -0.19208181 0
-0.83268702 0.87029749 -0.16927198 0
-0.83070713 0.8682282 -0.14043748 0
-0.83869541 0.87657726 -0.11323833 0
-0.83314019 0.87077117 -0.084250726 0
-0.8323558 0.86995131 -0.056052104 0
-0.83400512 0.87167513 -0.028049156 0
-0.83305889 0.87068617 3.4401477e-05 0
-1.2554435 1.3121488 0.16961108 0
-1.2400566 1.296067 0.20974502 0
-1.2410284 1.2970827 0.25238577 0
-1.244664 1.3008825 0.29600573 0
-1.2411575 1.2972177 0.3382602 0
-0.64073503 0.63670826 -0.19200583 0
-0.72738677 0.72281539 -0.19314507 0
-0.81549197 0.81036687 -0.18894842 0
-0.85290945 0.8475492 -0.16898054 0
-0.85755956 0.85217011 -0.14129601 0
-0.85576284 0.85038465 -0.11260901 0
-0.8619225 0.85650563 -0.084948219 0
-0.86339575 0.85796958 -0.056666099 0
-0.85923147 0.85383153 -0.028163835 0
-0.85696554 0.85157979 3.4490164e-05 0
-1.2714916 1.2635008 0.041779276 0
-1.2717688 1.2637762 0.08357089 0
-1.2728276 1.2648284 0.12554863 0
-1.2456298 1.2378014 0.16401237 0
-1.2480924 1.2402486 0.20574409 0
-1.2434908 1.2356759 0.24646556 0
-1.2429878 1.235176 0.28810138 0
-1.2331513 1.2254014 0.32754493 0
-0.65286636 0.61681563 -0.19091523 0
-0.73961133 0.69877064 -0.19164704 0
-0.83036798 0.7845158 -0.18774767 0
-0.8876254 0.83861148 -0.17161049 0
-0.89283872 0.84353697 -0.14355522 0
-0.88538373 0.83649361 -0.11369244 0
-0.89168763 0.84244943 -0.085758895 0
-0.8813346 0.83266807 -0.056446183 0
-0.89122903 0.84201616 -0.028506987 0
-0.89344388 0.8441087 3.5089688e-05 0
-1.2873347 1.2162491 0.041278053 0
-1.2879398 1.2168208 0.082589112 0
-1.2941715 1.2227083 0.1245703 0
-1.2456 1.176819 0.16004664 0
-1.250573 1.1815175 0.20117317 0
-1.2438087 1.1751268 0.24057342 0
-1.2401485 1.1716686 0.28049982 0
-1.2418562 1.173282 0.32188901 0
-0.66986328 0.60162145 -0.19138433 0
-0.75315541 0.67642826 -0.19067207 0
-0.86098915 0.77327651 -0.19019783 0
-0.91943347 0.82576686 -0.17367542 0
-0.92028093 0.82652801 -0.14456739 0
-0.92067516 0.82688206 -0.11550756 0
-0.92317939 0.82913119 -0.086747393 0
-0.92045248 0.82668203 -0.057596892 0
-0.92361456 0.82952201 -0.028864009 0
-0.91554189 0.82227176 3.5131314e-05 0
-1.3346629 1.1986952 0.041812222 0
-1.3311527 1.1955425 0.083398648 0
-1.3345418 1.1985863 0.12550436 0
-1.2454658 1.1185849 0.15635207 0
-1.2463834 1.1194091 0.19589195 0
-1.2430873 1.1164488 0.23490895 0
-1.2444212 1.1176468 0.27499843 0
-1.2449043 1.1180806 0.31526425 0
-0.68086755 0.58114696 -0.19027711 0
-0.76580769 0.65364659 -0.18963823 0
-0.88316262 0.75381362 -0.19083245 0
-0.95425177 0.81449097 -0.17631315 0
-0.95384455 0.81414342 -0.14656532 0
-0.95978916 0.81921738 -0.11778325 0
-0.95108324 0.81178653 -0.087416328 0
-0.94529831 0.80684882 -0.057858914 0
-0.94819075 0.80931765 -0.028984465 0
-0.94663292 0.80798799 3.5530513e-05 0
-1.4100121 1.2035002 0.043207407 0
-1.408917 1.2025654 0.086341634 0
-1.3995076 1.1945342 0.12873766 0
-1.2574884 1.0733151 0.15441146 0
-1.2483517 1.0655167 0.19191352 0
-1.2430888 1.0610247 0.22977555 0
-1.2364658 1.0553716 0.26726902 0
-1.2461133 1.0636061 0.30867398 0
-0.69690496 0.56507319 -0.19071257 0
-0.78605533 0.63735926 -0.19060801 0
-0.90508205 0.73386997 -0.19150555 0
-0.98259133 0.79671699 -0.17777738 0
-0.98170865 0.79600132 -0.14771278 0
-0.98287886 0.79695016 -0.11811078 0
-0.98302478 0.79706848 -0.088474952 0
-0.98643881 0.79983664 -0.059122581 0
-0.97910511 0.7938903 -0.029307634 0
-0.97931719 0.79406226 3.5993584e-05 0
-1.2575181 1.0196366 0.15120693 0
-1.2499714 1.0135174 0.18817006 0
-1.2398053 1.0052744 0.2244073 0
-1.2438174 1.0085276 0.2632722 0
-1.2464638 1.0106733 0.30234581 0
-0.7154333 0.55076849 -0.19191779 0
-0.81193233 0.62505722 -0.19299595 0
-0.91994065 0.70820624 -0.19080667 0
-1.0038905 0.77283412 -0.17804521 0
-1.0193388 0.7847268 -0.15034685 0
-1.0118812 0.77898574 -0.11919538 0
-1.0092199 0.77693689 -0.089039356 0
-1.0206869 0.78576458 -0.059967518 0
-1.0188336 0.78433788 -0.029894756 0
-1.0115932 0.77876395 3.6445839e-05 0
-1.2569383 0.96764022 0.14815344 0
-1.2463855 0.95951623 0.18392602 0
-1.2409518 0.95533311 0.22018044 0
-1.2437543 0.95749062 0.25806153 0
-1.2379389 0.95301372 0.29434988 0
-0.72802019 0.53175199 -0.19163305 0
-0.81937027 0.59847474 -0.19111265 0
-0.93679559 0.6842432 -0.19065994 0
-1.0420069 0.76109034 -0.18134074 0
-1.0490431 0.76622969 -0.15182734 0
-1.0479634 0.76544106 -0.12113143 0
-1.0553278 0.77082008 -0.091361761 0
-1.0454183 0.76358211 -0.060269076 0
-1.0556245 0.7710368 -0.030393597 0
-1.0496885 0.7667011 3.7109352e-05 0
-1.2462233 0.9102518 0.14413668 0
-1.2374092 0.90381384 0.17917813 0
-1.2363495 0.90303987 0.21525139 0
-1.2481561 0.91166341 0.25411975 0
-1.243984 0.90861619 0.29024205 0
-0.73794723 0.51095825 -0.19079076 0
-0.83069414 0.57517672 -0.1903073 0
-0.96293932 0.66674387 -0.19249463 0
-1.082422 0.74947429 -0.18502334 0
-1.0753666 0.74458909 -0.1528686 0
-1.079657 0.74755973 -0.12257491 0
-1.0799072 0.74773306 -0.091826618 0
-1.0762411 0.74519461 -0.060942333 0
-1.0893786 0.75429106 -0.030807506 0
-1.0771421 0.7458185 3.7402533e-05 0
-1.2515867 0.86660475 0.1065122 0
-1.2493633 0.86506528 0.14192943 0
-1.2337195 0.85423338 0.17546608 0
-1.2386917 0.85767615 0.21182293 0
-1.235653 0.85557222 0.2470991 0
-1.2423855 0.86023378 0.28471279 0
-0.75461721 0.49480778 -0.19181077 0
-0.854949 0.56059605 -0.19256119 0
-0.97508347 0.63936907 -0.1916354 0
-1.116695 0.73222476 -0.18766303 0
-1.1098428 0.72773165 -0.15510917 0
-1.1110802 0.72854298 -0.12401535 0
-1.1076816 0.7263146 -0.092600085 0
-1.1135362 0.7301535 -0.061990928 0
-1.1092083 0.72731566 -0.030839341 0
-1.1153479 0.73134136 3.8076112e-05 0
-1.2428424 0.81494045 0.10398454 0
-1.2368405 0.811005 0.13813752 0
-1.2292131 0.80600363 0.17187718 0
-1.2265764 0.80427474 0.20621423 0
-1.2300905 0.80657893 0.24183878 0
-1.2446992 0.816158 0.28043312 0
-0.75770009 0.46992859 -0.18951929 0
-0.87260514 0.54119319 -0.19339985 0
-0.99179322 0.61511409 -0.1918072 0
-1.1505502 0.71357584 -0.19026527 0
-1.1497259 0.71306461 -0.15811756 0
-1.1500143 0.71324342 -0.12631156 0
-1.1469979 0.71137267 -0.094355851 0
-1.1551119 0.71640503 -0.063278712 0
-1.1466653 0.71116638 -0.031371728 0
-1.1484225 0.71225619 3.8579245e-05 0
-1.2500597 0.77529204 0.068564259 0
-1.2497051 0.7750721 0.10288926 0
-1.2409551 0.76964527 0.13638413 0
-1.2391462 0.76852345 0.17049961 0
-1.232412 0.76434684 0.2038871 0
-1.2368033 0.76707035 0.23927611 0
-1.2301474 0.76294225 0.27272928 0
-0.77184558 0.45214352 -0.19014254 0
-0.88305169 0.51728755 -0.19276015 0
-1.0036325 0.58792323 -0.19116627 0
-1.168911 0.68474263 -0.190383 0
-1.1882868 0.69609284 -0.16095328 0
-1.1833252 0.69318628 -0.12800789 0
-1.1804932 0.69152737 -0.095645048 0
-1.1937059 0.69926733 -0.064405605 0
-1.1842806 0.69374603 -0.031911645 0
-1.1852776 0.69433004 3.9216146e-05 0
-1.2520603 0.73345107 0.067637116 0
-1.243983 0.72871947 0.10087179 0
-1.2411531 0.72706163 0.13434635 0
-1.2450813 0.72936279 0.16872962 0
-1.2360023 0.72404438 0.20139371 0
-1.2438875 0.72866344 0.23701322 0
-1.2377684 0.72507894 0.27027559 0
-0.79110247 0.43699652 -0.1921082 0
-0.89372611 0.49368471 -0.19230911 0
-1.0189422 0.5628528 -0.19131561 0
-1.1840554 0.65405959 -0.19010042 0
-1.4314942 0.7907421 -0.19113158 0
-1.799805 0.99419302 -0.19192095 0
-3.0199296 1.6681768 -0.24119046 0
-4.5481472 2.5123477 -0.24189404 0
-9.103488 5.0286689 -0.24180576 0
-1.2629439 0.69763666 0.03362859 0
-1.2461137 0.68833983 0.066356242 0
-1.2490185 0.68994451 0.099836297 0
-1.2469742 0.68881518 0.13305227 0
-1.2378378 0.68376833 0.16535664 0
-1.2367827 0.68318552 0.19864805 0
-1.2369581 0.68328243 0.23233292 0
-1.2472394 0.68896168 0.2684612 0
-0.80531615 0.41868541 -0.19293225 0
-0.8927176 0.4641256 -0.18951117 0
-1.0352937 0.53825122 -0.19177398 0
-1.2004422 0.62411225 -0.19014177 0
-1.4467756 0.75218141 -0.19057648 0
-1.8299558 0.9513976 -0.19251423 0
-3.069186 1.5956757 -0.24183089 0
-4.6073742 2.3953829 -0.24175163 0
-9.2199202 4.7934546 -0.24160799 0
-1.2429587 0.64621657 0.032651756 0
-1.2366778 0.64295113 0.064968966 0
-1.2463554 0.6479826 0.098284893 0
-1.2441518 0.64683694 0.13096748 0
-1.2376704 0.64346725 0.16311283 0
-1.2437931 0.64665043 0.19708988 0
-1.2384104 0.64385194 0.2294804 0
-1.2404711 0.64492333 0.26341692 0
-0.80777031 0.39439881 -0.19107459 0
-0.91071421 0.4446618 -0.19088836 0
-1.051066 0.51318938 -0.1922351 0
-1.2114928 0.5915187 -0.18946706 0
-1.4670562 0.71629912 -0.19080575 0
-1.8513417 0.90392894 -0.19230272 0
-3.1124265 1.5196613 -0.24213874 0
-4.6667333 2.2785609 -0.24177171 0
-9.3473091 4.5638809 -0.24185069 0
-1.2585766 0.61450773 3.9984407e-05 0
-1.244194 0.60748535 0.032271162 0
-1.2496885 0.61016804 0.064822793 0
-1.2500012 0.61032069 0.097326674 0
-1.2416157 0.60622644 0.12904878 0
-1.2479116 0.60930043 0.16238412 0
-1.2439635 0.60737276 0.19462579 0
-1.2428097 0.60680944 0.22738524 0
-1.2367243 0.60383821 0.25930238 0
-0.82095951 0.37549108 -0.19189158 0
-0.94035208 0.43009892 -0.19476321 0
-1.0516355 0.48099783 -0.1900584 0
-1.2457451 0.56977981 -0.19251351 0
-1.4796532 0.67676491 -0.19016205 0
-1.8716559 0.85605943 -0.19210735 0
-3.1462855 1.4390504 -0.24187024 0
-4.724153 2.1607368 -0.24184418 0
-9.4596834 4.3266768 -0.24185577 0
-1.2522091 0.57273632 3.9310355e-05 0
-1.261783 0.57711524 0.032339275 0
-1.2383198 0.56638366 0.063471377 0
-1.2386411 0.56653064 0.095298506 0
-1.239073 0.56672817 0.12725732 0
-1.2429103 0.56848323 0.15981542 0
-1.2401171 0.56720567 0.19172318 0
-1.2424666 0.56828028 0.22462675 0
-1.2372462 0.56589258 0.25633556 0
-0.83253109 0.35566568 -0.19243684 0
-0.94125539 0.4021138 -0.19278689 0
-1.0607636 0.4531689 -0.18958065 0
-1.2501247 0.5340659 -0.19104643 0
-1.5140976 0.64683777 -0.19242935 0
-1.881665 0.80386633 -0.19099142 0
-3.1787665 1.3580012 -0.24165541 0
-4.7762189 2.0404489 -0.24179618 0
-9.5582533 4.0833826 -0.24166401 0
-1.2555795 0.53639621 3.8978749e-05 0
-1.2408042 0.53008407 0.031448685 0
-1.2380608 0.52891207 0.062753893 0
-1.2397233 0.52962232 0.094323285 0
-1.2252309 0.523431 0.12443924 0
-1.2430856 0.53105873 0.1580642 0
-1.2407814 0.53007436 0.18969713 0
-1.2356825 0.52789605 0.22092111 0
-1.2443954 0.53161824 0.25495568 0
-0.83906567 0.33368227 -0.19193949 0
-0.93980193 0.37374336 -0.19049649 0
-1.0763719 0.42805496 -0.19037873 0
-1.2745286 0.50685853 -0.19275951 0
-1.5215625 0.60509968 -0.19137616 0
-1.9176644 0.76262277 -0.19263037 0
-3.2163396 1.279084 -0.24198051 0
-4.8150187 1.9148517 -0.24123695 0
-1.2409009 0.49348536 -0.031049253 0
-1.2491592 0.49676955 3.8377981e-05 0
-1.2438993 0.49467778 0.031200754 0
-1.2546023 0.49893415 0.062934011 0
-1.2458653 0.49545962 0.093809299 0
-1.2402629 0.49323162 0.12466192 0
-1.2343453 0.49087828 0.15532801 0
-1.232812 0.49026856 0.18652755 0
-1.2347077 0.49102244 0.21846162 0
-1.2396477 0.49298698 0.25135368 0
-0.85280168 0.31446466 -0.19320457 0
-0.96382695 0.35540444 -0.1934865 0
-1.0846579 0.39995998 -0.18999831 0
-1.2608696 0.46493685 -0.18885885 0
-1.5421296 0.56864947 -0.1920967 0
-1.9241863 0.70953023 -0.1914257 0
-3.249397 1.1981924 -0.24211529 0
-4.8650322 1.7939464 -0.24139735 0
-1.2483521 0.46032107 -0.030935138 0
-1.233294 0.45476854 3.752597e-05 0
-1.2479937 0.46018896 0.031002248 0
-1.2430513 0.45836645 0.061754603 0
-1.2459749 0.45944452 0.092914835 0
-1.2492284 0.46064419 0.12435487 0
-1.237087 0.45616716 0.15417512 0
-1.247201 0.45989659 0.18688889 0
-1.2349011 0.4553611 0.21639343 0
-1.2417104 0.457872 0.24934933 0
-0.86545676 0.29454657 -0.19432551 0
-0.96043938 0.32687265 -0.19108942 0
-1.1020684 0.37507418 -0.19132894 0
-1.2880226 0.43836117 -0.19120787 0
-1.5511603 0.52791655 -0.1915009 0
-1.9365091 0.65906489 -0.19093597 0
-3.2643509 1.110978 -0.24106348 0
-1.2404435 0.42216825 -0.061001271 0
-1.2530538 0.42646003 -0.030775124 0
-1.2378265 0.42127761 3.7328467e-05 0
-1.2385602 0.42152733 0.030493902 0
-1.2332624 0.41972429 0.060722675 0
-1.2388541 0.42162734 0.091561101 0
-1.2339948 0.41997355 0.12174452 0
-1.2407637 0.42227724 0.15325625 0
-1.2450274 0.42372835 0.18490179 0
-1.2337307 0.41988364 0.2142631 0
-1.2369205 0.42096928 0.24617548 0
-0.87117577 0.2721675 -0.19400546 0
-0.98101091 0.30648154 -0.19358169 0
-1.1032133 0.34465927 -0.18995701 0
-1.2951145 0.40461192 -0.19068398 0
-1.5553856 0.48592421 -0.19044779 0
-1.9655713 0.61407197 -0.1922121 0
-3.2960958 1.0297465 -0.2414116 0
-1.2463714 0.38938385 -0.060790136 0
-1.2490805 0.39023024 -0.03042596 0
-1.2420274 0.38802674 3.7147987e-05 0
-1.2387335 0.38699767 0.030248057 0
-1.2458316 0.38921523 0.060838494 0
-1.2457114 0.38917771 0.091312885 0
-1.2430215 0.38833731 0.12162937 0
-1.2360719 0.38616619 0.15142468 0
-1.2341746 0.38557342 0.18178686 0
-1.2374834 0.38660714 0.21315236 0
-1.2371099 0.38649046 0.24419403 0
-0.87973678 0.25066191 -0.19444115 0
-0.98412102 0.28040394 -0.1927375 0
-1.1176268 0.31844351 -0.19099408 0
-1.3058462 0.37207258 -0.19082063 0
-1.5827082 0.45095837 -0.19233841 0
-1.9677054 0.56065494 -0.19097622 0
-1.2514522 0.35657415 -0.090970345 0
-1.2467123 0.35522363 -0.060350265 0
