# .PCD v0.7 - Point Cloud Data file format
VERSION 0.7
FIELDS x y z intensity
SIZE 4 4 4 4
TYPE F F F F
COUNT 1 1 1 1
WIDTH 1356
HEIGHT 1
VIEWPOINT 0 0 0 1 0 0 0
POINTS 1356
DATA ascii
1.8554368 0.87710786 -0.19156304 0
3.118274 1.4740801 -0.24112718 0
4.6977859 2.2207518 -0.24190924 0
9.406251 4.4465523 -0.24190453 0
0.80437493 0.40538493 -0.19146585 0
0.91027987 0.45875838 -0.19199505 0
1.0474967 0.5279122 -0.19278495 0
1.218462 0.61407453 -0.19175322 0
1.4504706 0.73100102 -0.18983288 0
1.8373563 0.92598176 -0.19204807 0
3.089417 1.5569892 -0.24185745 0
4.6420679 2.3394866 -0.24200357 0
9.2814217 4.6776052 -0.24165344 0
0.80230641 0.43006217 -0.19349553 0
0.89603239 0.48030233 -0.19148584 0
1.0234545 0.54860473 -0.19084768 0
1.196009 0.64109945 -0.19070539 0
1.4461958 0.77520776 -0.19177301 0
1.8043562 0.96719331 -0.19108947 0
3.0469396 1.6332581 -0.24168219 0
4.5714598 2.4504502 -0.24146993 0
9.1667738 4.9136872 -0.24182037 0
0.78130776 0.44453982 -0.19107626 0
0.88794357 0.50521225 -0.1924209 0
1.0109297 0.5751875 -0.19115832 0
1.1759703 0.66909051 -0.19014233 0
1.2166781 0.69225204 -0.16360253 0
1.208949 0.68785429 -0.12983038 0
3.0041203 1.7092509 -0.24163067 0
4.511466 2.5668838 -0.2416461 0
9.0324993 5.1392107 -0.24162295 0
0.77395964 0.4665933 -0.19209805 0
0.87238836 0.52593255 -0.19186544 0
0.99928969 0.60243696 -0.19177134 0
1.1640167 0.70174515 -0.19101247 0
1.1442307 0.68981689 -0.15615216 0
1.1996663 0.72323704 -0.13075216 0
2.965168 1.7875965 -0.24204944 0
4.4375215 2.6752272 -0.24122517 0
8.9082928 5.3704996 -0.24184929 0
0.76037335 0.48497286 -0.1917029 0
0.85508996 0.54538399 -0.19102751 0
0.98215765 0.6264289 -0.19145675 0
1.1471223 0.73164475 -0.19120947 0
1.1463844 0.73117417 -0.15891387 0
1.1743572 0.74901551 -0.13001272 0
2.9128621 1.8578494 -0.24153045 0
4.3810587 2.7942781 -0.24191253 0
8.7654877 5.5907059 -0.24172612 0
0.75894409 0.51144946 -0.19453508 0
0.85434836 0.57574201 -0.1940463 0
0.95129603 0.64107466 -0.18853478 0
1.1266294 0.75923109 -0.19092686 0
1.1458015 0.77215117 -0.16148315 0
1.1576141 0.78011155 -0.13029738 0
2.8658481 1.9312838 -0.24159694 0
4.3083186 2.9033587 -0.2418652 0
8.6197748 5.8088322 -0.24167387 0
0.73526049 0.52294081 -0.19178642 0
0.83094877 0.5909974 -0.19205832 0
0.95214087 0.67719311 -0.19202842 0
1.1075282 0.78770953 -0.1909982 0
1.1461331 0.81516659 -0.16437712 0
1.1538819 0.82067782 -0.13216661 0
2.8240409 2.0085485 -0.24226895 0
4.2223935 3.0031016 -0.24121973 0
8.4821329 6.0327649 -0.24200669 0
0.72200054 0.54145199 -0.19183116 0
0.8127566 0.60951298 -0.19134822 0
0.93308806 0.69975346 -0.19168669 0
1.0840845 0.81299073 -0.19043319 0
1.0972699 0.8228789 -0.1602968 0
1.1014198 0.82599097 -0.12850448 0
1.0953621 0.82144815 -0.095717095 0
1.1048694 0.828578 -0.064293951 0
1.1012166 0.82583863 -0.032003693 0
1.1034195 0.82749069 3.9374794e-05 0
1.1108572 0.83306843 0.032363191 0
1.106995 0.830172 0.064496815 0
1.0872613 0.81537312 0.095087193 0
0.71376425 0.56396455 -0.19336313 0
0.80263901 0.63418686 -0.19267324 0
0.92225331 0.72869736 -0.19317758 0
1.0565321 0.8347947 -0.18923411 0
1.0962371 0.86616665 -0.16328754 0
1.0967644 0.86658335 -0.1304716 0
1.1085314 0.87588078 -0.098768167 0
1.0864661 0.85844636 -0.064463302 0
1.0964997 0.86637414 -0.032491744 0
1.0982828 0.86778307 3.9960327e-05 0
1.092496 0.8632108 0.032452654 0
1.0954922 0.86557817 0.065078743 0
1.0944293 0.86473829 0.097591728 0
0.69615829 0.5791738 -0.19249231 0
0.77844906 0.64763618 -0.19072948 0
0.89504576 0.74463964 -0.19135432 0
1.0223594 0.85055912 -0.18689893 0
1.1012815 0.91621888 -0.16743006 0
1.1025249 0.91725338 -0.13386825 0
1.1047231 0.91908216 -0.10046364 0
1.0964159 0.91217095 -0.066398486 0
1.0947124 0.91075373 -0.033109382 0
1.0956479 0.91153204 4.0688567e-05 0
1.1070166 0.92099029 0.033563785 0
1.1009423 0.91593671 0.06675455 0
1.1021649 0.9169538 0.10031326 0
0.68093145 0.5962109 -0.19238153 0
0.7663638 0.67101383 -0.19185682 0
0.87628096 0.76725525 -0.19142163 0
0.99573934 0.87185079 -0.18599595 0
1.0969611 0.96047866 -0.17040443 0
1.0978838 0.96128654 -0.13620721 0
1.1044321 0.96702015 -0.10262404 0
1.0961049 0.9597289 -0.06782496 0
1.1004179 0.96350539 -0.034006607 0
1.0988512 0.96213359 4.1696039e-05 0
1.1004266 0.96351296 0.034090433 0
1.0995165 0.96271616 0.068119697 0
1.1023746 0.96521854 0.10251692 0
1.0924383 0.95651865 0.13561527 0
1.095697 0.95937192 0.27439049 0
0.66716319 0.61457556 -0.19281258 0
0.74767268 0.68873912 -0.19146839 0
0.85306263 0.78582191 -0.1906215 0
0.96701461 0.89079183 -0.18477115 0
1.057948 0.97455764 -0.16811146 0
1.1023207 1.0154328 -0.13989268 0
1.0989102 1.0122911 -0.10445172 0
1.0983849 1.0118071 -0.069524087 0
1.0930272 1.0068718 -0.034552537 0
1.1019567 1.0150975 4.2772415e-05 0
1.102532 1.0156274 0.034938633 0
1.0940717 1.007834 0.069336198 0
1.1066414 1.0194129 0.10527291 0
1.0956997 1.0093336 0.13913822 0
1.0418707 0.95974761 0.26689208 0
0.65388453 0.63357735 -0.19353478 0
0.72960895 0.70695013 -0.19135085 0
0.84530151 0.81904972 -0.19344491 0
0.84154707 0.81541187 -0.16467749 0
0.84618282 0.81990367 -0.13770568 0
0.84311205 0.81692821 -0.10957892 0
0.82977521 0.80400556 -0.080773436 0
0.83969134 0.81361377 -0.054432105 0
0.84813172 0.82179201 -0.027457876 0
0.83423615 0.80832797 3.3162167e-05 0
0.84754938 0.82122773 0.027506443 0
0.83496255 0.80903178 0.054192092 0
0.84190315 0.81575686 0.082021274 0
1.0978926 1.0637963 0.14278071 0
1.0130301 0.98156917 0.19831611 0
1.0004963 0.96942472 0.22904249 0
0.98998845 0.95924318 0.25972074 0
0.63281745 0.64490753 -0.19205581 0
0.72232515 0.73612535 -0.19425133 0
0.81809795 0.8337279 -0.19197381 0
0.84380454 0.85992563 -0.16931239 0
0.84358668 0.85970366 -0.14076947 0
0.83610195 0.85207587 -0.1114274 0
0.83818299 0.85419667 -0.083663881 0
0.84033364 0.85638845 -0.055857085 0
0.83949304 0.85553175 -0.027868384 0
0.84575641 0.86191481 3.4473891e-05 0
0.8391149 0.85514641 0.027924275 0
0.83923692 0.8552708 0.055852752 0
0.8488372 0.86505449 0.084796876 0
0.83816272 0.85417604 0.11177097 0
1.0955167 1.1164467 0.18289958 0
0.94115698 0.95913804 0.18892474 0
0.94120502 0.95918697 0.22094075 0
0.95098257 0.96915132 0.25582334 0
0.61826706 0.66272992 -0.19265495 0
0.69253397 0.74233776 -0.19121741 0
0.80058092 0.85815489 -0.19288434 0
0.84528714 0.90607613 -0.17414306 0
0.8414076 0.90191764 -0.14415848 0
0.84530985 0.90610051 -0.11566548 0
0.83651584 0.89667404 -0.085729115 0
0.83937037 0.8997339 -0.057284243 0
0.84003955 0.90045118 -0.028631855 0
0.84072691 0.90118796 3.5184788e-05 0
0.83708656 0.89728582 0.028601307 0
0.83390301 0.89387333 0.056981064 0
0.83969843 0.90008551 0.086125903 0
0.83193344 0.89176208 0.11390539 0
1.1033607 1.1827091 0.18913254 0
0.93695408 1.0043353 0.19310792 0
0.92929065 0.99612081 0.22397432 0
0.92754745 0.9942522 0.25618798 0
0.59969187 0.6762498 -0.19212407 0
0.67459536 0.7607156 -0.19150461 0
0.7770707 0.87627321 -0.1924872 0
0.8462764 0.95431381 -0.17925188 0
0.83964515 0.94683605 -0.14790373 0
0.83370817 0.94014114 -0.11728743 0
0.84243113 0.9499777 -0.088764265 0
0.83658767 0.94338816 -0.058700603 0
0.84213269 0.94964111 -0.029510722 0
0.83708245 0.94394612 3.6017853e-05 0
0.84001082 0.9472484 0.029508693 0
0.84031695 0.94759357 0.059034746 0
0.84060729 0.94792098 0.088644788 0
0.83324242 0.93961591 0.11729424 0
1.0974398 1.2375413 0.19341005 0
1.0968349 1.2368592 0.23241955 0
0.58219087 0.69087142 -0.19204238 0
0.65589809 0.77833802 -0.19171247 0
0.73275918 0.86954713 -0.18688767 0
0.84662265 1.0046661 -0.18463729 0
0.84022802 0.9970777 -0.15239073 0
0.83154994 0.98677969 -0.12044917 0
0.84101552 0.99801224 -0.091240123 0
0.83883983 0.99543035 -0.060602177 0
0.83855927 0.99509746 -0.030255973 0
0.84474516 1.0024381 3.7424274e-05 0
0.83957392 0.99630147 0.030367013 0
0.83314377 0.98867106 0.060264647 0
0.8393653 0.99605393 0.09113583 0
0.843741 1.0012465 0.12229044 0
0.83993351 0.99672824 0.15241277 0
1.0972276 1.3020526 0.23939008 0
0.56467873 0.70547134 -0.19207795 0
0.63896304 0.7982772 -0.19259018 0
0.72209466 0.90213621 -0.18991441 0
0.84889305 1.0605495 -0.19090922 0
0.85156167 1.0638835 -0.15926556 0
0.83809137 1.0470546 -0.1251847 0
0.83552098 1.0438434 -0.093472444 0
0.83476889 1.0429038 -0.062189896 0
0.83447152 1.0425322 -0.031047976 0
0.84285653 1.0530078 3.8505761e-05 0
0.83740884 1.0462019 0.031233821 0
0.84096187 1.0506408 0.062728278 0
0.83920676 1.0484481 0.093961835 0
0.83854157 1.0476171 0.12532923 0
0.84301615 1.0532073 0.15774539 0
1.096071 1.3693569 0.24659969 0
1.0988375 1.3728132 0.2891027 0
0.54176718 0.71300328 -0.19034512 0
0.62067747 0.81685466 -0.19323123 0
0.70010495 0.92138678 -0.19018659 0
0.7278921 0.95795661 -0.16908066 0
0.72446942 0.95345211 -0.1399519 0
0.72808391 0.9582091 -0.11232962 0
0.73249048 0.96400833 -0.084641077 0
0.72628713 0.9558444 -0.055887528 0
0.73085845 0.96186054 -0.028087171 0
0.72318059 0.95175588 3.4124929e-05 0
0.73145819 0.96264982 0.02817929 0
0.72591704 0.95535725 0.055927705 0
0.72843665 0.9586733 0.084241733 0
0.73093629 0.961963 0.11283927 0
0.73639703 0.96914965 0.1423265 0
0.72552425 0.9548403 0.16860045 0
0.72999477 0.96072388 0.19837704 0
0.72543573 0.95472383 0.22591577 0
0.52446234 0.72763515 -0.19065681 0
0.59448248 0.82478058 -0.19149584 0
0.68168592 0.94576597 -0.1916064 0
0.72352034 1.0038067 -0.17389481 0
0.95439291 1.3241177 -0.19076334 0
0.85559052 1.1870399 -0.1365802 0
0.83771855 1.1622444 -0.10015815 0
0.83773291 1.1622645 -0.066699274 0
0.8421216 1.1683532 -0.033485632 0
0.8384009 1.1631912 4.0934145e-05 0
0.83915269 1.1642343 0.033449564 0
0.83901739 1.1640464 0.066883646 0
0.83957207 1.164816 0.10046214 0
0.83400464 1.1570919 0.13321654 0
0.84576142 1.1734031 0.16913387 0
0.83709365 1.1613775 0.20127499 0
1.0981652 1.5235863 0.30877939 0
0.51085663 0.7478388 -0.19251093 0
0.57077795 0.83555716 -0.19059251 0
0.64948452 0.95077509 -0.18923996 0
0.7601527 1.1127813 -0.18938914 0
0.92343152 1.3518038 -0.19133338 0
1.153988 1.6893137 -0.19095957 0
0.84465379 1.2364818 -0.10468519 0
0.83207768 1.2180717 -0.068674855 0
0.83899033 1.2281911 -0.034582708 0
0.83282393 1.2191641 4.2150772e-05 0
0.84299868 1.2340589 0.034833308 0
0.83871794 1.2277923 0.069307983 0
0.83815712 1.2269714 0.10396526 0
0.83976883 1.2293307 0.13904898 0
0.84299165 1.2340486 0.17475289 0
0.83902508 1.2282419 0.20912649 0
1.0978509 1.6071351 0.31999439 0
1.0996614 1.6097853 0.36731097 0
0.49853876 0.77087098 -0.19513874 0
0.55016774 0.85070282 -0.19081914 0
0.62265617 0.96278888 -0.18844323 0
0.73452383 1.1357654 -0.1900852 0
0.88672566 1.3711091 -0.19083741 0
1.111549 1.7187448 -0.19105436 0
1.4856946 2.2972715 -0.19126004 0
0.85278702 1.3186312 -0.073107615 0
0.84229594 1.3024092 -0.036062427 0
0.83674109 1.2938199 4.3987737e-05 0
0.83828193 1.2962025 0.035978753 0
0.84193385 1.3018492 0.072265908 0
0.83534288 1.2916579 0.10762564 0
0.83466053 1.2906029 0.14355096 0
0.84715384 1.3099208 0.18241122 0
0.84198511 1.3019285 0.21798505 0
0.83880866 1.297017 0.25395107 0
1.1022487 1.7043639 0.38242188 0
0.4701564 0.76885611 -0.19156386 0
0.53408062 0.8733927 -0.19282365 0
0.60100025 0.98282772 -0.18933615 0
0.70709258 1.1563226 -0.19047824 0
0.84784496 1.3864977 -0.18994041 0
1.0630311 1.7383959 -0.19019581 0
1.4239897 2.3286786 -0.19082189 0
0.84735513 1.3856968 -0.075616084 0
0.845761 1.3830898 -0.037693333 0
0.84198266 1.376911 4.6075529e-05 0
0.84552383 1.382702 0.037775353 0
0.84231156 1.3774489 0.075258397 0
0.83983511 1.3733991 0.11263456 0
0.84395909 1.3801432 0.15109299 0
0.83846104 1.3711522 0.18793118 0
0.83917063 1.3723125 0.22615139 0
0.83412695 1.3640645 0.26287299 0
1.1046139 1.8063972 0.39893332 0
0.45345992 0.78541398 -0.1927764 0
0.51119381 0.8854118 -0.19256741 0
0.5825386 1.0089844 -0.19148172 0
0.68120414 1.1798778 -0.1914653 0
0.81251961 1.4073224 -0.18992341 0
1.0301414 1.7842535 -0.1923072 0
1.364717 2.3637543 -0.19081287 0
1.3774632 2.3858314 -0.12825446 0
0.84315956 1.4603922 -0.039207611 0
0.84539574 1.4642653 4.8269296e-05 0
0.84036988 1.4555603 0.039173909 0
0.83963865 1.4542938 0.078274138 0
0.83991349 1.4547698 0.11753195 0
0.84337926 1.4607728 0.15753952 0
0.83502179 1.4462973 0.19527987 0
0.84758008 1.4680487 0.2383271 0
0.83635175 1.4486008 0.27500877 0
0.84574789 1.4648753 0.31869441 0
0.42969638 0.78961784 -0.19108546 0
0.49042723 0.90121794 -0.19325148 0
0.55182242 1.0140388 -0.18973741 0
0.65441841 1.2025712 -0.19240631 0
0.78090572 1.4350064 -0.19093883 0
0.98322475 1.8067915 -0.19200058 0
1.2935158 2.3769879 -0.1891855 0
1.2891041 2.368881 -0.12555425 0
1.2949121 2.379554 -0.062987149 0
0.85310161 1.5676749 5.0952167e-05 0
0.83875847 1.5413177 0.040899154 0
0.83922416 1.5421735 0.081837974 0
0.8393631 1.5424287 0.12286332 0
0.83370924 1.5320392 0.16290419 0
0.84057015 1.5446469 0.20562913 0
0.8361733 1.5365671 0.24594612 0
0.83741492 1.5388488 0.28803763 0
0.84009212 1.5437684 0.33113986 0
0.40819669 0.79739499 -0.19041371 0
0.46595955 0.91023231 -0.19260131 0
0.52831894 1.0320487 -0.19055159 0
0.61218584 1.1958792 -0.18880342 0
0.74838591 1.4619402 -0.19194819 0
0.93679488 1.8299892 -0.19189207 0
1.2459413 2.4338937 -0.19115093 0
1.2432284 2.4285944 -0.12701564 0
1.2447457 2.4315584 -0.063511893 0
1.2440743 2.4302468 7.7941913e-05 0
0.84800637 1.6565446 0.043374982 0
0.83540362 1.6319257 0.085454717 0
0.83736652 1.6357602 0.12857328 0
0.83727837 1.6355879 0.17161304 0
0.83878237 1.638526 0.21523988 0
0.84271932 1.6462166 0.26000962 0
0.83946091 1.6398515 0.30288085 0
0.83906168 1.6390716 0.34692946 0
0.39213568 0.81615692 -0.19246928 0
0.43701115 0.90955675 -0.190064 0
0.50582743 1.0527849 -0.19196191 0
0.58479214 1.2171352 -0.18976863 0
0.71363831 1.4853042 -0.19258963 0
0.89074618 1.8539211 -0.191983 0
1.1809933 2.4580159 -0.19064377 0
1.7838918 3.712836 -0.19176574 0
4.5089359 9.3845043 -0.24207212 0
0.85463697 1.7787665 0.091985136 0
0.84061807 1.7495888 0.13580951 0
0.83646923 1.7409538 0.18039592 0
0.84401095 1.7566506 0.22788611 0
0.84188342 1.7522225 0.27330953 0
0.83402026 1.7358568 0.31662428 0
0.84026891 1.748862 0.36556271 0
0.37137279 0.82568955 -0.19244564 0
0.41789496 0.92912441 -0.19188781 0
0.47568047 1.0576015 -0.19059038 0
0.55370075 1.2310674 -0.18970159 0
0.67259783 1.4954165 -0.19163866 0
0.84340036 1.8751694 -0.19191791 0
1.1183928 2.4865725 -0.19060861 0
1.6928152 3.7637112 -0.19212551 0
4.2628212 9.4777193 -0.24162439 0
1.0675954 2.3736322 0.12131532 0
0.84587592 1.8806734 0.14428164 0
0.8351745 1.8568804 0.19016337 0
0.83805668 1.8632886 0.23889998 0
0.83668143 1.8602309 0.28677142 0
0.83419335 1.854699 0.33435458 0
0.83698773 1.860912 0.38444626 0
0.35085446 0.83582801 -0.19268335 0
0.39717728 0.94618118 -0.19327863 0
0.44949389 1.0708132 -0.19086602 0
0.52289051 1.2456634 -0.18985665 0
0.63884783 1.5219043 -0.19290537 0
0.7979337 1.9008888 -0.19242777 0
1.062153 2.530329 -0.19184673 0
1.5954465 3.8007748 -0.19190085 0
4.0247416 9.5879974 -0.24176915 0
0.99601614 2.3727734 0.11994842 0
0.85283792 2.0316851 0.15416653 0
0.83602947 1.9916431 0.20173927 0
0.84104645 2.0035949 0.25408667 0
0.83948493 1.9998748 0.3049354 0
0.83633053 1.9923602 0.35525298 0
0.84138948 2.0044119 0.40957442 0
0.3287577 0.84211844 -0.19215947 0
0.37409353 0.95824695 -0.19375294 0
0.42042905 1.0769361 -0.19000553 0
0.49219182 1.2607577 -0.19020331 0
0.59785253 1.5314094 -0.19213638 0
0.74744135 1.9145836 -0.19184333 0
0.78218019 2.0035679 -0.15036362 0
0.79108208 2.02637 -0.10127094 0
3.7813113 9.6858931 -0.24175414 0
0.92649615 2.3732357 0.11875185 0
0.85099733 2.1798441 0.16372706 0
0.83877861 2.1485455 0.21541941 0
0.83953643 2.1504867 0.26994175 0
0.83469534 2.1380861 0.32269448 0
0.83662593 2.1430314 0.37823328 0
0.84142935 2.1553357 0.43593535 0
0.30395532 0.84060335 -0.19000271 0
0.34719899 0.96019584 -0.19231392 0
0.39268517 1.0859902 -0.18979388 0
0.43727055 1.2092931 -0.18071662 0
0.43672183 1.2077757 -0.15010136 0
0.43707666 1.2087569 -0.11997518 0
0.93274748 2.5795591 -0.19176276 0
0.72982198 2.0183585 -0.099918164 0
0.75335926 2.083452 -0.051510744 0
0.77385706 2.1401396 6.4969085e-05 0
0.85746968 2.3713744 0.11753839 0
0.84946096 2.349226 0.17478327 0
0.84240633 2.329716 0.23137867 0
0.8382386 2.3181901 0.28824541 0
0.83888513 2.319978 0.34684086 0
0.83777279 2.3169017 0.40505955 0
0.83871526 2.3195081 0.46471119 0
0.28292695 0.84883779 -0.19018933 0
0.3231034 0.96937525 -0.19245785 0
0.36883023 1.1065649 -0.19170173 0
0.40294567 1.2089182 -0.17908376 0
0.40824482 1.2248167 -0.15089062 0
0.40380362 1.2114921 -0.11919713 0
0.87047917 2.6116128 -0.19245107 0
0.67044109 2.0114582 -0.09870746 0
0.70101982 2.1032004 -0.051545151 0
0.71847779 2.1555779 6.4866603e-05 0
0.79045832 2.3715341 0.11652035 0
0.85109609 2.5534596 0.18832019 0
0.83915919 2.5176466 0.24786082 0
0.83813906 2.514586 0.30993643 0
0.84132034 2.5241303 0.37406835 0
0.8409152 2.5229149 0.43722665 0
0.83944303 2.5184982 0.50017464 0
0.26499403 0.86740541 -0.19278963 0
0.2960768 0.9691487 -0.19086848 0
0.33887854 1.1092517 -0.19062476 0
0.37975222 1.2430437 -0.18266097 0
0.38010746 1.2442064 -0.15204903 0
0.38145551 1.248619 -0.12186395 0
0.63041091 2.0635252 -0.1508417 0
0.63034928 2.0633233 -0.10043991 0
0.72375536 2.3690696 -0.057595033 0
0.72560149 2.3751125 7.0899259e-05 0
0.72455472 2.371686 0.057800315 0
0.72498208 2.3730853 0.1156607 0
0.83968955 2.7485573 0.20108178 0
0.83495933 2.7330737 0.26690984 0
0.83227181 2.7242765 0.33308682 0
0.8364768 2.7380409 0.40251234 0
0.83464211 2.7320354 0.46966743 0
0.24166018 0.86891091 -0.19170757 0
0.27313596 0.98208499 -0.19199739 0
0.31130674 1.1193314 -0.19094591 0
0.36232692 1.3027791 -0.19003458 0
0.44113344 1.586135 -0.19241275 0
0.54987895 1.9771392 -0.19155127 0
0.65784633 2.3653457 -0.17163615 0
0.66012597 2.3735423 -0.11469341 0
0.66135359 2.3779564 -0.057387002 0
0.65943813 2.3710692 7.0259361e-05 0
0.65955991 2.3715069 0.057371981 0
0.66269213 2.3827691 0.11528078 0
0.80848116 2.9069667 0.21111082 0
0.81107348 2.9162877 0.28271317 0
0.81293172 2.9229691 0.35475862 0
0.8116349 2.9183064 0.42586565 0
0.81435275 2.9280787 0.49967694 0
0.22022271 0.87697333 -0.19219887 0
0.2470344 0.98374319 -0.19104181 0
0.28150538 1.1210139 -0.18996041 0
0.3289668 1.3100152 -0.18981855 0
0.39656126 1.5791907 -0.19029558 0
0.49745926 1.9809878 -0.19064702 0
0.59345537 2.3632646 -0.17034402 0
0.59683096 2.3767068 -0.11408211 0
0.59326762 2.3625169 -0.056635018 0
0.5952155 2.3702738 6.9768423e-05 0
0.59440953 2.3670642 0.056883454 0
0.59626222 2.3744421 0.11411349 0
0.76854807 3.0605206 0.22078328 0
0.76768392 3.0570796 0.29438984 0
0.77016073 3.0669427 0.36975563 0
0.76976532 3.0653682 0.44434962 0
0.19772528 0.88091207 -0.19190727 0
0.22248645 0.99122894 -0.19134411 0
0.25646603 1.1426158 -0.19246279 0
0.29526928 1.3154933 -0.18947214 0
0.35772592 1.5937521 -0.1909015 0
0.44760218 1.9941719 -0.19076787 0
0.54997164 2.4502516 -0.17555763 0
0.5525431 2.4617081 -0.11745537 0
0.55316383 2.4644735 -0.058725767 0
0.54875809 2.444845 7.1532952e-05 0
0.5524981 2.4615076 0.058799211 0
0.55215371 2.4599731 0.11751687 0
0.71489149 3.1850078 0.22838932 0
0.71076143 3.1666076 0.30311316 0
0.71236986 3.1737735 0.3803466 0
0.71412098 3.1815753 0.4584361 0
0.17584667 0.88769329 -0.19235644 0
0.19843897 1.0017416 -0.1923454 0
0.22483586 1.1349962 -0.19016293 0
0.2641241 1.3333274 -0.19101983 0
0.31837666 1.6072003 -0.19148886 0
0.3964467 2.0013065 -0.19043255 0
0.4165054 2.1025651 -0.14984538 0
0.41509759 2.0954583 -0.099448971 0
0.4143607 2.0917382 -0.049578894 0
0.41336793 2.0867267 6.0730283e-05 0
0.41534913 2.0967278 0.049819268 0
0.41556749 2.0978303 0.099683918 0
0.41198334 2.0797372 0.14834014 0
0.41603327 2.1001816 0.19996423 0
0.41578639 2.0989354 0.25020015 0
0.40340927 2.0364542 0.29187453 0
0.29487181 1.4885453 0.2494873 0
0.2702466 1.3642344 0.26203021 0
0.15233754 0.88570905 -0.19103248 0
0.17209089 1.0005574 -0.19122313 0
0.19525537 1.1352385 -0.18931757 0
0.23155679 1.3462994 -0.19197986 0
0.27701202 1.6105818 -0.19099791 0
0.34425667 2.0015502 -0.18956861 0
0.36834085 2.1415787 -0.15191488 0
0.88046741 5.1191449 -0.24181937 0
1.7625934 10.247933 -0.2417676 0
0.58211082 3.3844631 0.16007257 0
0.58007932 3.3726518 0.23943855 0
0.58190578 3.3832712 0.32063034 0
0.26194665 1.5229899 0.18069988 0
0.27168044 1.5795832 0.22533901 0
0.27086172 1.574823 0.26271838 0
0.23689656 1.3773454 0.26331621 0
0.1312397 0.89815336 -0.19294067 0
0.14633702 1.0014735 -0.19063164 0
0.16572191 1.1341363 -0.18837625 0
0.19808824 1.3556389 -0.1925374 0
0.23705025 1.6222798 -0.19161464 0
0.29595447 2.0253973 -0.19105887 0
0.39371532 2.6944344 -0.19036672 0
0.75267416 5.1510091 -0.24235001 0
1.5043902 10.295462 -0.24191609 0
0.50598001 3.4627302 0.16311836 0
0.50417536 3.4503801 0.24397571 0
0.50492948 3.4555409 0.3261677 0
0.22117704 1.5136496 0.17887239 0
0.27531445 1.8841449 0.26771042 0
0.20207967 1.3829546 0.26332963 0
0.10766556 0.89394635 -0.19139221 0
0.12160247 1.0096643 -0.19154556 0
0.13841055 1.1492217 -0.19024107 0
0.16272922 1.3511395 -0.19125414 0
0.19624971 1.6294599 -0.19181658 0
0.24537553 2.0373511 -0.19154131 0
0.32654601 2.711309 -0.19091584 0
0.62147057 5.1600657 -0.24196108 0
1.2421747 10.313767 -0.24153264 0
0.42471272 3.5263863 0.16555932 0
0.42348993 3.5162337 0.24779752 0
0.42200786 3.5039279 0.32962462 0
0.42381781 3.5189559 0.41444924 0
0.22875793 1.8993754 0.26896846 0
0.16471125 1.3675963 0.25953102 0
0.084693953 0.89235139 -0.1905324 0
0.09476655 0.99847817 -0.1889095 0
0.1104912 1.1641561 -0.19219045 0
0.12863657 1.3553389 -0.19132808 0
0.15510568 1.6342226 -0.19185533 0
0.19342709 2.0379841 -0.191081 0
0.25733519 2.7113318 -0.19039947 0
0.49134761 5.1769304 -0.24209329 0
0.98229915 10.349689 -0.24171628 0
0.33984578 3.5806789 0.1676522 0
0.33881795 3.5698495 0.25089341 0
0.33941555 3.5761459 0.33550566 0
0.33925551 3.5744598 0.41984412 0
0.33950722 3.5771117 0.50517654 0
0.17192425 1.8114262 0.29915494 0
0.1294423 1.3638284 0.2581138 0
0.061583564 0.88602453 -0.18878952 0
0.070728511 1.0175961 -0.19212765 0
0.079784527 1.1478883 -0.18911214 0
0.094813637 1.3641174 -0.1921683 0
0.11430938 1.6446096 -0.19267468 0
0.1408771 2.0268488 -0.18964319 0
0.19057105 2.7418134 -0.19214106 0
0.3599413 5.1786032 -0.24166971 0
0.72138441 10.378813 -0.24189423 0
0.25153124 3.6188693 0.16908924 0
0.25117424 3.6137328 0.25345135 0
0.1316264 1.8937557 0.17729959 0
0.13273141 1.9096539 0.22383681 0
0.13243407 1.9053761 0.26852861 0
0.12420577 1.7869924 0.29450822 0
0.09544 1.3731291 0.25933555 0
0.04017742 0.90921867 -0.19345394 0
0.045180235 1.0224329 -0.19276416 0
0.051027097 1.1547478 -0.18996958 0
0.060723364 1.3741753 -0.19330773 0
0.072594315 1.6428159 -0.1921887 0
0.08951816 2.0258043 -0.18927377 0
0.121174 2.7421787 -0.19189122 0
0.22943386 5.1921091 -0.24195273 0
0.45928517 10.393665 -0.24189317 0
0.16188638 3.6635034 0.1709294 0
0.16176361 3.6607254 0.25637919 0
0.085574426 1.9365571 0.18104693 0
0.084790334 1.9188131 0.22458804 0
0.085629106 1.9377944 0.272706 0
0.07637421 1.7283554 0.2844362 0
0.060237225 1.3631738 0.25708637 0
0.017122926 0.9045952 -0.19231699 0
0.019149864 1.0116773 -0.19058454 0
0.022016775 1.1631346 -0.19119699 0
0.025677396 1.3565233 -0.1906727 0
0.031186005 1.6475402 -0.19258796 0
0.038437136 2.0306137 -0.18957213 0
0.052188568 2.7570946 -0.19278143 0
0.098366313 5.1966405 -0.24197114 0
0.19668877 10.390965 -0.24163783 0
0.070087321 3.7026763 0.1726196 0
0.069734111 3.6840165 0.25780502 0
0.069760472 3.6854091 0.34427127 0
0.069844998 3.6898744 0.43153867 0
0.0317153 1.6755025 0.27551872 0
0.02576614 1.3612115 0.25651196 0
-0.0056950049 0.90294135 -0.19193484 0
-0.0064189569 1.0177237 -0.19169307 0
-0.0072987131 1.1572088 -0.19019261 0
-0.008613402 1.3656522 -0.1919253 0
-0.010332 1.6381357 -0.19145814 0
-0.012835412 2.0350506 -0.18995611 0
-0.017312516 2.7448943 -0.19189781 0
-0.032821517 5.2038422 -0.24226788 0
-0.065587819 10.398929 -0.24178454 0
-0.023458026 3.7192631 0.17336527 0
-0.023464875 3.7203491 0.26030612 0
-0.023370076 3.7053187 0.34607601 0
-0.02337504 3.7061057 0.43336794 0
-0.010332505 1.6382155 0.26934436 0
-0.0086684618 1.3743821 0.25895262 0
-0.028619044 0.90706658 -0.19290383 0
-0.032222755 1.0212845 -0.19245566 0
-0.036587141 1.1596115 -0.19067855 0
-0.043127421 1.3669025 -0.19219278 0
-0.051779207 1.6411167 -0.19189817 0
-0.064700328 2.0506451 -0.19150317 0
-0.086771935 2.7501941 -0.19236016 0
-0.11967459 3.7930279 -0.17667097 0
-0.11941727 3.7848721 -0.088043757 0
-0.11960874 3.7909405 0.00010827909 0
-0.11962143 3.791343 0.088410981 0
-0.1176784 3.7297592 0.17393757 0
-0.11742827 3.7218313 0.26053423 0
-0.11740241 3.7210121 0.34770778 0
-0.11706591 3.7103465 0.43407109 0
-0.05165207 1.6370871 0.26928741 0
-0.043127272 1.3668978 0.25766551 0
-0.051148664 0.89994258 -0.1916023 0
-0.057751242 1.0161126 -0.19169466 0
-0.065954715 1.1604497 -0.19102928 0
-0.077583522 1.3650545 -0.19214708 0
-0.093069524 1.6375251 -0.19169183 0
-0.11617697 2.0440924 -0.1911042 0
-0.1557924 2.741112 -0.19193883 0
-0.21555908 3.7926855 -0.17685211 0
-0.21493007 3.7816184 -0.088066205 0
-0.21452704 3.7745271 0.00010793057 0
-0.21505052 3.7837377 0.088332064 0
-0.21267053 3.7418623 0.1746967 0
-0.21188217 3.7279913 0.26125661 0
-0.21148299 3.720968 0.3480916 0
-0.079193786 1.3933865 0.16319327 0
-0.077808671 1.3690159 0.19278452 0
-0.077414289 1.3620769 0.22430046 0
-0.077806801 1.368983 0.2583465 0
-0.073936507 0.89955419 -0.19185582 0
-0.08403147 1.0223753 -0.19321474 0
-0.093317918 1.1353595 -0.18722712 0
-0.11207692 1.3635924 -0.19227821 0
-0.13462952 1.6379803 -0.1920817 0
-0.16795687 2.0434601 -0.19138046 0
-0.22565961 2.7455049 -0.1925839 0
-0.42554638 5.1774426 -0.24184684 0
-0.85173017 10.36264 -0.24174847 0
-0.30669701 3.7314527 0.17451651 0
-0.30535713 3.7151508 0.26081377 0
-0.30591485 3.7219365 0.34879342 0
-0.30572918 3.7196774 0.43641296 0
-0.11532152 1.4030681 0.19792658 0
-0.11530574 1.4028761 0.23142461 0
-0.11322486 1.3775589 0.26042125 0
-0.096687607 0.8981269 -0.19201073 0
-0.10986812 1.0205601 -0.19333418 0
-0.12415285 1.1532503 -0.19063343 0
-0.14654599 1.3612592 -0.19240949 0
-0.17507926 1.6263034 -0.19116971 0
-0.21918307 2.0359819 -0.1911373 0
-0.29163706 2.7090037 -0.19047919 0
-0.55592006 5.1639171 -0.24179345 0
-1.1136322 10.344481 -0.2419035 0
-0.39845425 3.7012239 0.17351782 0
-0.39990333 3.7146842 0.26140633 0
-0.3999733 3.7153344 0.3490096 0
-0.39942881 3.7102766 0.43635383 0
-0.15091076 1.4018034 0.19822235 0
-0.14963703 1.3899719 0.22984569 0
-0.14750829 1.370198 0.25965083 0
-0.12005518 0.90093768 -0.19319791 0
-0.13400143 1.0055954 -0.19107914 0
-0.154056 1.1560922 -0.19168487 0
-0.17970683 1.3485854 -0.19119827 0
-0.21725178 1.6303363 -0.1922271 0
-0.2709789 2.033524 -0.19148766 0
-0.35950327 2.6978431 -0.19027184 0
-0.68740594 5.1585441 -0.24227707 0
-1.3740191 10.311139 -0.24185775 0
-0.49251911 3.6960423 0.17380232 0
-0.49199697 3.6921241 0.2606096 0
-0.24304722 1.8239146 0.17185567 0
-0.24225208 1.8179476 0.21445382 0
-0.18594247 1.3953799 0.19791462 0
-0.18602189 1.3959758 0.23154114 0
-0.18210608 1.3665901 0.25975537 0
-0.14236683 0.89522183 -0.19268137 0
-0.15989044 1.0054126 -0.19175014 0
-0.1801572 1.1328527 -0.18852554 0
-0.21557781 1.3555822 -0.19290026 0
-0.25800797 1.6223888 -0.19199668 0
-0.32216606 2.0258236 -0.19146723 0
-0.42712632 2.6858277 -0.19012418 0
-0.81664705 5.1351867 -0.24207102 0
-1.6332812 10.270292 -0.24178956 0
-0.58355677 3.6694834 0.17319085 0
-0.58095175 3.6531029 0.25880781 0
-0.27966326 1.7585602 0.16630985 0
-0.27956319 1.757931 0.20814003 0
-0.2802524 1.7622648 0.25087535 0
-0.21810879 1.3714974 0.26165113 0
-0.16399638 0.88641292 -0.19161525 0
-0.1857011 1.0037286 -0.19226161 0
-0.21129534 1.1420673 -0.19088569 0
-0.24847595 1.3430314 -0.19194554 0
-0.29529464 1.5960898 -0.189706 0
-0.37078974 2.0041466 -0.19024238 0
-0.49732804 2.6880958 -0.19111241 0
-0.9431411 5.0977492 -0.24135149 0
-1.8921698 10.227322 -0.24182522 0
-0.67042375 3.6236911 0.17177349 0
-0.66880548 3.6149445 0.25721842 0
-0.6685254 3.6134305 0.3432143 0
-0.66886628 3.6152732 0.42991227 0
-0.28955019 1.5650407 0.261675 0
-0.25272074 1.3659748 0.26173106 0
-0.18814901 0.89070243 -0.19350742 0
-0.21236822 1.0053569 -0.19353856 0
-0.23844926 1.1288252 -0.1896179 0
-0.28085887 1.3295934 -0.19097728 0
-0.33940607 1.6067575 -0.19193095 0
-0.42419574 2.0081539 -0.19157806 0
-0.5634802 2.6675303 -0.19060069 0
-0.61943573 2.9324253 -0.13953058 0
-0.61829311 2.9270163 -0.069556192 0
-0.61845189 2.9277678 8.5427469e-05 0
-0.75616992 3.5797288 0.17053992 0
-0.75285327 3.5640275 0.25486633 0
-0.75351292 3.5671501 0.34051642 0
-0.75507104 3.5745268 0.42719704 0
-0.28873068 1.3668588 0.26321292 0
-0.20827608 0.87605488 -0.19140628 0
-0.23710641 0.99732161 -0.19308226 0
-0.27028984 1.1368984 -0.19205879 0
-0.31298843 1.316498 -0.19017041 0
-0.37607342 1.5818474 -0.19002868 0
-0.47407171 1.9940497 -0.19131306 0
-0.52269906 2.1985869 -0.157986 0
-0.61964959 2.6063821 -0.12472124 0
-0.62185192 2.6156456 -0.062509991 0
-0.61939907 2.6053286 7.6451026e-05 0
-0.83612686 3.5169332 0.16850001 0
-0.83379275 3.5071154 0.25222105 0
-0.83345926 3.5057127 0.3365525 0
-0.83313644 3.5043547 0.42118958 0
-0.83385026 3.5073574 0.5068537 0
-0.23240486 0.87842578 -0.19314435 0
-0.25950003 0.980838 -0.19109814 0
-0.29757825 1.1247631 -0.19121663 0
-0.34640279 1.3093064 -0.19033386 0
-0.41503695 1.5687244 -0.18965019 0
-0.52381653 1.9798809 -0.19116122 0
-0.58129919 2.1971495 -0.15888637 0
-0.64564866 2.4403725 -0.11751966 0
-0.64791155 2.4489257 -0.058897682 0
-0.64904505 2.4532099 7.2444862e-05 0
-0.91753572 3.46803 0.16721326 0
-0.91391295 3.4543371 0.25000465 0
-0.91316468 3.4515088 0.33345526 0
-0.9105165 3.4414995 0.41626447 0
-0.91376168 3.4537654 0.50228184 0
-0.25283682 0.86660087 -0.19188634 0
-0.28441325 0.97482949 -0.19126517 0
-0.32456988 1.1124668 -0.19045818 0
-0.34615019 1.1864334 -0.17368653 0
-0.45702514 1.5664586 -0.19071004 0
-0.57199097 1.9605051 -0.19062361 0
-0.71406019 2.447449 -0.17823324 0
-0.71375698 2.4464097 -0.11864012 0
-0.71399301 2.4472187 -0.059271157 0
-0.71140122 2.4383354 7.2512739e-05 0
-0.98660243 3.3815904 0.16419385 0
-0.98313445 3.3697038 0.24559702 0
-0.98467088 3.37497 0.32835719 0
-0.98452443 3.3744681 0.41103137 0
-0.98177189 3.3650336 0.49282426 0
-0.2740587 0.85818332 -0.19149308 0
-0.30809915 0.96477705 -0.19075778 0
-0.35065019 1.0980208 -0.18943982 0
-0.37736663 1.1816802 -0.17432949 0
-0.3942059 1.2344104 -0.15144758 0
-0.39764971 1.2451944 -0.12200959 0
-0.39537546 1.2380728 -0.090859286 0
-0.3953301 1.2379308 -0.060498819 0
-0.39516515 1.2374142 -0.030201869 0
-0.39647129 1.2415043 3.7206362e-05 0
-0.39949077 1.2509595 0.030607492 0
-0.39801168 1.2463279 0.060984056 0
-0.40134296 1.2567594 0.092306353 0
-0.39782193 1.2457336 0.12213775 0
-0.39682478 1.2426112 0.15252919 0
-0.39567941 1.2390246 0.18286505 0
-0.39760134 1.2450429 0.21488196 0
-0.39453617 1.2354447 0.24435145 0
-0.29362434 0.84523833 -0.19019762 0
-0.33534539 0.96533811 -0.19248089 0
-0.37866977 1.0900533 -0.18965371 0
-0.43068618 1.2397898 -0.18444709 0
-0.43047535 1.2391829 -0.15331726 0
-0.43138158 1.2417916 -0.12270391 0
-0.43201515 1.2436155 -0.09203694 0
-0.43327525 1.2472428 -0.061468754 0
-0.43122607 1.241344 -0.030553693 0
-0.43233332 1.2445313 3.761211e-05 0
-0.4338946 1.2490257 0.030818304 0
-0.43476292 1.2515253 0.06175562 0
-0.43455732 1.2509334 0.092654504 0
-0.43360826 1.2482014 0.12341338 0
-0.43174109 1.2428265 0.15384419 0
-0.4341234 1.2496842 0.18599615 0
-0.42922869 1.2355943 0.21505244 0
-0.43090671 1.2404246 0.24740864 0
-0.31733176 0.84414387 -0.19169255 0
-0.36001894 0.95769727 -0.19270779 0
-0.41024059 1.0912935 -0.1916099 0
-0.47528091 1.2643092 -0.18981908 0
-0.48917416 1.301267 -0.16247438 0
-0.51126486 1.3600311 -0.13561927 0
-0.51174468 1.3613075 -0.10167054 0
-0.51150775 1.3606772 -0.067673922 0
-0.51336372 1.3656143 -0.033920519 0
-0.51560181 1.371568 4.1831365e-05 0
-1.205736 3.2074151 0.079864793 0
-1.1954153 3.1799605 0.15835123 0
-1.1603633 3.0867178 0.23072363 0
-1.1632888 3.0944998 0.30876699 0
-1.1601559 3.0861659 0.38552517 0
-1.1605572 3.0872333 0.46369874 0
-0.33722439 0.83264655 -0.19095363 0
-0.38113824 0.94107497 -0.19123779 0
-0.43617085 1.0769569 -0.19096476 0
-0.51011968 1.2595453 -0.19097604 0
-0.51268244 1.2658731 -0.15961993 0
-0.5139789 1.2690741 -0.1278021 0
-0.510445 1.2603486 -0.095062234 0
-0.51643276 1.2751329 -0.064047202 0
-0.51081759 1.2612684 -0.031638831 0
-0.51431531 1.2699047 3.9114191e-05 0
-1.2767466 3.152437 0.1585348 0
-1.2014157 2.9664359 0.22392812 0
-1.201512 2.9666736 0.29894319 0
-1.2008793 2.965112 0.37407014 0
-1.2036124 2.9718599 0.450789 0
-0.36081055 0.83004987 -0.19238529 0
-0.40396148 0.92931926 -0.19085997 0
-0.46190441 1.0626178 -0.19042869 0
-0.51434803 1.1832651 -0.18132079 0
-0.51490009 1.1845351 -0.15095423 0
-0.51347059 1.1812465 -0.12022423 0
-0.51104552 1.1756675 -0.089619465 0
-0.51598102 1.1870219 -0.060256492 0
-0.51567549 1.1863189 -0.030075634 0
-0.51018482 1.1736876 3.6535592e-05 0
-1.3550053 3.1172094 0.15843262 0
-1.2243695 2.8166797 0.21488769 0
-1.2229759 2.8134735 0.28652477 0
-1.2301862 2.8300612 0.36083463 0
-1.2257309 2.8198118 0.43228039 0
-1.226408 2.8213692 0.50578994 0
-0.37726045 0.81126708 -0.19017822 0
-0.4286797 0.92183989 -0.19148497 0
-0.49096829 1.0557863 -0.19136415 0
-0.51390541 1.1051106 -0.17127758 0
-0.51271635 1.1025537 -0.14211057 0
-0.51002121 1.096758 -0.11289938 0
-0.50869018 1.0938958 -0.084337942 0
-0.51053429 1.0978613 -0.056366608 0
-0.51389986 1.1050987 -0.028336335 0
-0.51803768 1.1139969 3.5073317e-05 0
-1.4274925 3.0697036 0.15779902 0
-1.2509583 2.6900814 0.207572 0
-1.2469788 2.6815238 0.27620417 0
-1.2400463 2.666616 0.34387621 0
-1.2440526 2.6752312 0.41479737 0
-1.2443707 2.6759152 0.48519003 0
-0.40306151 0.81248033 -0.19278598 0
-0.45309269 0.91333187 -0.19203193 0
-0.50975442 1.027549 -0.18851799 0
-0.51373786 1.0355787 -0.16245893 0
-0.50893116 1.0258895 -0.13384216 0
-0.51227152 1.0326228 -0.10759401 0
-0.51078415 1.0296247 -0.08035107 0
-0.51357532 1.0352511 -0.053800434 0
-0.51447374 1.037062 -0.026916154 0
-0.51674646 1.0416434 3.3195378e-05 0
-1.2529271 2.5256159 0.19725877 0
-1.2381159 2.4957602 0.26020589 0
-1.2404138 2.500392 0.3263739 0
-1.2420514 2.5036933 0.39293566 0
-1.2398056 2.4991663 0.45866999 0
-0.42094156 0.79733312 -0.19165172 0
-0.47333449 0.89657402 -0.19095953 0
-0.53337145 1.0102941 -0.18776228 0
-0.53237504 1.0084066 -0.16025309 0
-0.53459269 1.0126072 -0.13382696 0
-0.53399283 1.011471 -0.10676038 0
-0.53052241 1.0048974 -0.079441011 0
-0.53192794 1.0075598 -0.053042158 0
-0.53674698 1.0166878 -0.026730444 0
-0.53501517 1.0134075 3.2715452e-05 0
-1.2499454 2.3676038 0.18732181 0
-1.2431289 2.3546925 0.24869023 0
-1.2400172 2.348798 0.31057271 0
-1.2446223 2.3575211 0.37480575 0
-1.2397968 2.3483806 0.43660024 0
-1.2400179 2.3487995 0.50042313 0
-0.43983266 0.78451008 -0.19117689 0
-0.49493229 0.8827889 -0.19062331 0
-0.55667102 0.99290949 -0.18708295 0
-0.55982524 0.99853551 -0.16087858 0
-0.55856287 0.99628389 -0.13349029 0
-0.56831419 1.0136769 -0.10847264 0
-0.55906892 0.99718648 -0.079921462 0
-0.55842257 0.99603361 -0.053160414 0
-0.55521101 0.99030536 -0.026396824 0
-0.56060374 0.99992412 3.2726526e-05 0
-1.2939754 2.3080068 0.061671626 0
-1.2997309 2.3182726 0.12388317 0
-1.250247 2.2300105 0.17887522 0
-1.2405081 2.2126396 0.23691863 0
-1.2429388 2.216975 0.29719561 0
-1.2429669 2.217025 0.35734296 0
-1.2412333 2.213933 0.41729575 0
-1.2419308 2.2151773 0.47848016 0
-0.46507218 0.7825616 -0.19350088 0
-0.51881641 0.87299532 -0.19127515 0
-0.58037281 0.97657412 -0.18670556 0
-0.58830595 0.989923 -0.16183172 0
-0.58791059 0.98925775 -0.1344942 0
-0.59059131 0.99376851 -0.10790297 0
-0.58447975 0.98348475 -0.079980142 0
-0.58114928 0.97788072 -0.052957535 0
-0.58030105 0.97645342 -0.026409587 0
-0.58875942 0.990686 3.2900036e-05 0
-1.3528192 2.2763443 0.061718278 0
-1.3562069 2.2820446 0.12373697 0
-1.2518387 2.1064277 0.17144205 0
-1.2386392 2.0842173 0.22644308 0
-1.2412448 2.0886016 0.28409573 0
-1.242817 2.0912471 0.34201685 0
-1.2431804 2.0918586 0.40007305 0
-1.2424352 2.0906048 0.4581998 0
-0.47696975 0.75833732 -0.19042704 0
-0.54118323 0.86043072 -0.19145396 0
-0.61595684 0.97931373 -0.19014096 0
-0.61553282 0.9786396 -0.16247509 0
-0.61086851 0.97122377 -0.1340958 0
-0.60914171 0.96847832 -0.10679228 0
-0.61541307 0.97844923 -0.080808051 0
-0.61118788 0.97173154 -0.053442895 0
-0.61085296 0.97119904 -0.026675964 0
-0.61291862 0.97448331 3.286522e-05 0
-1.2538656 1.993529 0.16477646 0
-1.2351053 1.9637018 0.21666731 0
-1.241232 1.9734429 0.27260605 0
-1.2393091 1.9703856 0.32726166 0
-1.2393336 1.9704245 0.38270891 0
-1.2380077 1.9683164 0.43810648 0
-0.49876514 0.75029403 -0.19150737 0
-0.56169963 0.84496659 -0.19110665 0
-0.64091527 0.96413094 -0.19027323 0
-0.63920152 0.96155298 -0.16226506 0
-0.63803071 0.95979172 -0.13469785 0
-0.64026779 0.96315694 -0.10795302 0
-0.63612008 0.95691752 -0.080330156 0
-0.63917834 0.96151805 -0.053751294 0
-0.63726401 0.95863831 -0.02676421 0
-0.63569021 0.95627081 3.2781652e-05 0
-1.2531419 1.8851054 0.15837844 0
-1.2394382 1.864491 0.20910573 0
-1.2376282 1.8617681 0.26141125 0
-1.234516 1.8570864 0.313519 0
-1.2407167 1.8664141 0.36847207 0
-1.2425034 1.8691019 0.4228687 0
-0.51278615 0.73070103 -0.18974937 0
-0.57990044 0.82633638 -0.19014275 0
-0.66337001 0.94527739 -0.18979622 0
-0.66140479 0.94247699 -0.16181144 0
-0.66079748 0.94161159 -0.13444422 0
-0.66683835 0.95021969 -0.10835487 0
-0.66559428 0.94844693 -0.081003502 0
-0.6673333 0.95092493 -0.054083444 0
-0.65965617 0.93998528 -0.026699761 0
-0.66336298 0.94526738 3.2967895e-05 0
-1.2984794 1.8502846 0.15815596 0
-1.2530519 1.7855519 0.20373459 0
-1.2403532 1.7674569 0.25248417 0
-1.2414714 1.7690504 0.30384952 0
-1.2414443 1.7690117 0.35531533 0
-1.2437298 1.7722684 0.40793288 0
-0.53924114 0.72858524 -0.19267282 0
-0.60196167 0.81332886 -0.19058491 0
-0.69146305 0.93425685 -0.19102669 0
-0.69823527 0.943407 -0.1649442 0
-0.69798714 0.94307178 -0.13712434 0
-0.69180638 0.93472075 -0.10854398 0
-0.69144481 0.93423229 -0.081254065 0
-0.69797421 0.94305432 -0.054620326 0
-0.68526989 0.92588913 -0.026782108 0
-0.68995327 0.93221694 3.3109533e-05 0
-1.3462356 1.8189402 0.15833063 0
-1.2457745 1.6832039 0.19558182 0
-1.234856 1.6684517 0.24271601 0
-1.2451086 1.6823043 0.294254 0
-1.2443686 1.6813045 0.34389752 0
-1.2383795 1.6732123 0.39220193 0
-0.55107743 0.7065739 -0.19046943 0
-0.6266048 0.80341268 -0.19190603 0
-0.71830976 0.9209938 -0.19196059 0
-0.71750051 0.91995627 -0.16395803 0
-0.71858221 0.92134315 -0.13655852 0
-0.71978498 0.9228853 -0.1092444 0
-0.72231585 0.92613029 -0.08210884 0
-0.71698141 0.91929072 -0.054274775 0
-0.71555054 0.91745609 -0.027051954 0
-0.71764386 0.92014009 3.3313296e-05 0
-1.3954133 1.7891543 0.15875299 0
-1.2446283 1.5958228 0.18901837 0
-1.2366806 1.5856324 0.23513374 0
-1.2450805 1.5964024 0.28463468 0
-1.2384802 1.5879399 0.33108866 0
-1.2393795 1.5890929 0.37969556 0
-0.57399392 0.69885427 -0.19223249 0
-0.64656091 0.78720671 -0.19187182 0
-0.73572409 0.89576542 -0.1905119 0
-0.74403888 0.90588897 -0.16474527 0
-0.74109203 0.90230107 -0.13646501 0
-0.73901379 0.8997708 -0.10868154 0
-0.75099254 0.91435522 -0.082718991 0
-0.75225163 0.91588819 -0.055177256 0
-0.75044227 0.91368526 -0.027490487 0
-0.74639404 0.90875643 3.3572494e-05 0
-1.4349042 1.7470375 0.158179 0
-1.2473378 1.5186701 0.18355036 0
-1.2380552 1.5073682 0.22808893 0
-1.242505 1.5127859 0.27522972 0
-1.2461964 1.5172802 0.32281116 0
-1.2377203 1.5069604 0.36741811 0
-0.59613955 0.68958098 -0.19375865 0
-0.66059023 0.76413393 -0.19025128 0
-0.76081884 0.88007277 -0.19119745 0
-0.77289385 0.89404047 -0.16608518 0
-0.78161663 0.90413052 -0.13968079 0
-0.77142775 0.89234453 -0.11010124 0
-0.78361756 0.90644503 -0.083765939 0
-0.77027166 0.8910073 -0.054832064 0
-0.77361274 0.89487207 -0.027503151 0
-0.77767807 0.89957458 3.3947592e-05 0
-1.4698517 1.7002424 0.1572509 0
-1.250563 1.4465815 0.17859547 0
-1.2325727 1.4257712 0.22037911 0
-1.2343102 1.4277811 0.26534763 0
-1.2384642 1.4325863 0.3113431 0
-1.2493076 1.4451294 0.359916 0
-0.60444665 0.66453344 -0.19094652 0
-0.69012755 0.75873166 -0.19318144 0
-0.78049809 0.85808575 -0.19063967 0
-0.79988658 0.87940162 -0.16706291 0
-0.80743068 0.88769561 -0.14024542 0
-0.80101281 0.88063979 -0.1111161 0
-0.80157846 0.88126165 -0.083281763 0
-0.80454975 0.88452834 -0.055665247 0
-0.80431515 0.88427043 -0.027792377 0
-0.80631036 0.88646394 3.4209912e-05 0
-1.2557356 1.3805656 0.17430252 0
-1.2330942 1.3556734 0.21428645 0
-1.2416401 1.3650689 0.25943419 0
-1.2421521 1.3656318 0.30350867 0
-1.2430103 1.3665754 0.34805435 0
-0.6223532 0.6504634 -0.19135611 0
-0.70031899 0.7319507 -0.19080229 0
-0.79748923 0.83350986 -0.18959108 0
-0.82976097 0.8672393 -0.16867715 0
-0.83246571 0.87006617 -0.14073479 0
-0.82888663 0.86632544 -0.11191397 0
-0.83267063 0.87028039 -0.084203236 0
-0.83777726 0.87561762 -0.05641719 0
-0.83310771 0.8707372 -0.028018974 0
-0.83961481 0.8775382 3.4672204e-05 0
-1.2486298 1.3050274 0.16869055 0
-1.2431134 1.2992618 0.21026203 0
-1.23536 1.2911582 0.25123301 0
-1.2483126 1.3046958 0.29687345 0
-1.2459402 1.3022164 0.33956367 0
-0.63921362 0.63519639 -0.1915499 0
-0.72118616 0.71665376 -0.19149859 0
-0.82668233 0.82148695 -0.19154122 0
-0.85803741 0.85264498 -0.16999651 0
-0.85698044 0.85159463 -0.1412006 0
-0.85315943 0.84779763 -0.11226643 0
-0.85298467 0.84762394 -0.084067337 0
-0.85353804 0.84817386 -0.05601912 0
-0.86120152 0.85578918 -0.02822841 0
-0.85407764 0.84871006 3.4373934e-05 0
-1.2695159 1.2615374 0.041714355 0
-1.274775 1.2667636 0.083768442 0
-1.2802821 1.272236 0.12628391 0
-1.2446194 1.2367973 0.16387932 0
-1.2493832 1.2415313 0.20595688 0
-1.245277 1.237451 0.24681962 0
-1.2460415 1.2382106 0.28880921 0
-1.2424754 1.2346668 0.33002153 0
-0.66292381 0.62631774 -0.1938563 0
-0.74926913 0.70789516 -0.19414955 0
-0.84205043 0.79555315 -0.19038908 0
-0.89258307 0.8432954 -0.17256899 0
-0.89186442 0.84261644 -0.14339857 0
-0.89074844 0.84156209 -0.11438133 0
-0.89442605 0.84503663 -0.086022265 0
-0.88707727 0.83809364 -0.056813981 0
-0.88349146 0.83470583 -0.02825949 0
-0.88186198 0.83316636 3.4634813e-05 0
-1.2906967 1.2194256 0.041385856 0
-1.2857261 1.2147294 0.082447156 0
-1.2880965 1.216969 0.12398557 0
-1.246936 1.1780813 0.1602183 0
-1.2529006 1.1837165 0.20154761 0
-1.2482121 1.179287 0.2414251 0
-1.2400686 1.1715931 0.28048173 0
-1.2399852 1.1715143 0.32140407 0
-0.66768837 0.59966809 -0.19076294 0
-0.75324947 0.67651272 -0.19069587 0
-0.86718559 0.77884173 -0.19156666 0
-0.9198724 0.82616109 -0.17375833 0
-0.91850054 0.824929 -0.14428771 0
-0.92800289 0.83346331 -0.11642689 0
-0.91687262 0.8234669 -0.086154774 0
-0.913535 0.82046932 -0.057164036 0
-0.90679061 0.814412 -0.028338242 0
-0.91252351 0.81956089 3.5015491e-05 0
-1.3332759 1.1974494 0.041768771 0
-1.3323992 1.1966621 0.083476752 0
-1.3352386 1.1992121 0.12556988 0
-1.2479057 1.1207762 0.15665838 0
-1.2511387 1.1236799 0.19663933 0
-1.2509731 1.1235311 0.23639916 0
-1.2349845 1.1091714 0.27291307 0
-1.2462093 1.1192526 0.31559473 0
-0.69182026 0.59049553 -0.19333799 0
-0.77478319 0.66130757 -0.19186085 0
-0.88644242 0.75661308 -0.19154115 0
-0.95369464 0.81401545 -0.17621022 0
-0.94813025 0.80926603 -0.14568727 0
-0.9489519 0.80996734 -0.11645332 0
-0.95470655 0.81487918 -0.087749355 0
-0.94736463 0.80861253 -0.057985388 0
-0.9452076 0.80677146 -0.028893277 0
-0.94708455 0.80837345 3.5547462e-05 0
-1.4095974 1.2031462 0.0431947 0
-1.4068294 1.2007835 0.086213693 0
-1.4078004 1.2016124 0.12950049 0
-1.253166 1.0696259 0.1538807 0
-1.2491745 1.066219 0.19204001 0
-1.2422036 1.060269 0.2296119 0
-1.2377132 1.0564364 0.26753867 0
-1.2330959 1.0524954 0.30544946 0
-0.69701606 0.56516331 -0.19074297 0
-0.79058105 0.64102882 -0.19170544 0
-0.89315289 0.72419745 -0.18898147 0
-0.97110432 0.78740299 -0.17569908 0
-0.97628343 0.79160237 -0.14689648 0
-0.98461765 0.79835999 -0.11831972 0
-0.98437232 0.79816109 -0.08859624 0
-0.97516954 0.79069918 -0.058447152 0
-0.98399121 0.7978521 -0.029453889 0
-0.97562015 0.79106456 3.5857702e-05 0
-1.2497467 1.0133352 0.15027246 0
-1.2463075 1.0105466 0.18761849 0
-1.2376416 1.00352 0.22401567 0
-1.2479773 1.0119005 0.26415268 0
-1.2309992 0.99813426 0.29859471 0
-0.7106638 0.54709673 -0.19063836 0
-0.80599058 0.62048298 -0.19158359 0
-0.92640471 0.71318251 -0.19214739 0
-1.0110788 0.77836794 -0.17932008 0
-1.0202816 0.78545254 -0.1504859 0
-1.0138391 0.7804929 -0.119426 0
-1.0139971 0.78061455 -0.089460827 0
-1.0140302 0.78064007 -0.059576429 0
-1.008813 0.77662367 -0.02960073 0
-1.0143107 0.78085601 3.6543748e-05 0
-1.2516295 0.96355325 0.14752769 0
-1.2372518 0.95248479 0.18257819 0
-1.2393388 0.95409143 0.21989425 0
-1.2434754 0.95727599 0.25800368 0
-1.2464559 0.95957047 0.29637501 0
-0.73344743 0.53571606 -0.19306162 0
-0.82394493 0.60181618 -0.19217966 0
-0.93963099 0.68631423 -0.19123702 0
-1.0529902 0.76911265 -0.18325217 0
-1.0367928 0.75728196 -0.15005437 0
-1.0476238 0.76519299 -0.12109217 0
-1.0496155 0.76664776 -0.090867236 0
-1.0526321 0.76885116 -0.060684957 0
-1.05449 0.77020818 -0.030360933 0
-1.0446962 0.76305467 3.6932859e-05 0
-1.2410216 0.90645236 0.14353505 0
-1.2393461 0.90522867 0.17945862 0
-1.2424738 0.90751314 0.21631765 0
-1.2411672 0.90655869 0.25269684 0
-1.2404004 0.90599865 0.28940594 0
-0.73981047 0.5122484 -0.1912725 0
-0.84384114 0.58427972 -0.1933192 0
-0.95053291 0.65815359 -0.19001454 0
-1.0783136 0.7466296 -0.18432105 0
-1.0874153 0.75293171 -0.15458138 0
-1.0853232 0.75148308 -0.12321821 0
-1.0692935 0.74038404 -0.090924121 0
-1.0790865 0.74716479 -0.061103456 0
-1.0845612 0.75095552 -0.030671272 0
-1.0842168 0.75071704 3.7648191e-05 0
-1.2521075 0.86696535 0.10655653 0
-1.2520796 0.86694598 0.14223799 0
-1.2400473 0.85861486 0.17636606 0
-1.2435662 0.86105132 0.2126565 0
-1.2432384 0.86082435 0.24861598 0
-1.2484179 0.86441064 0.2860952 0
-0.7449857 0.48849234 -0.18936262 0
-0.84611475 0.55480337 -0.19057144 0
-0.97350878 0.63833648 -0.19132592 0
-1.1206256 0.73480207 -0.18832359 0
-1.1051176 0.72463334 -0.15444879 0
-1.1180891 0.73313886 -0.12479767 0
-1.1141481 0.73055476 -0.093140677 0
-1.1088378 0.72707272 -0.061729364 0
-1.1069342 0.72582453 -0.030776115 0
-1.1104972 0.72816086 3.7910522e-05 0
-1.2500002 0.8196339 0.10458341 0
-1.2394978 0.81274736 0.13843429 0
-1.2407912 0.81359541 0.1734961 0
-1.2376434 0.81153136 0.20807482 0
-1.2505296 0.81998104 0.24585718 0
-1.2426848 0.81483716 0.27997926 0
-0.76125377 0.47213262 -0.19040816 0
-0.8663125 0.53729045 -0.19200517 0
-0.98846757 0.61305153 -0.19116403 0
-1.1507728 0.71371382 -0.19030207 0
-1.1448543 0.71004319 -0.15744759 0
-1.148445 0.7122702 -0.12613919 0
-1.1477251 0.7118237 -0.09441568 0
-1.1528151 0.71498054 -0.063152894 0
-1.1483812 0.71223062 -0.031418674 0
-1.1488763 0.71253765 3.8594491e-05 0
-1.2540289 0.77775371 0.068781964 0
-1.2474058 0.773646 0.10269996 0
-1.2471598 0.77349347 0.13706604 0
-1.2283453 0.76182461 0.16901344 0
-1.2401634 0.76915431 0.20516948 0
-1.2383139 0.76800722 0.23956835 0
-1.2302603 0.76301229 0.27275434 0
-0.77915448 0.45642504 -0.19194308 0
-0.88037419 0.51571912 -0.19217569 0
-1.0000703 0.58583653 -0.19048777 0
-1.1640377 0.68188781 -0.18958926 0
-1.1900244 0.69711065 -0.16118863 0
-1.1841489 0.69366884 -0.128097 0
-1.1874114 0.69558007 -0.09620557 0
-1.188446 0.69618613 -0.06412182 0
-1.1834359 0.69325125 -0.031888884 0
-1.1967838 0.70107037 3.9596838e-05 0
-1.2438574 0.7286458 0.067193985 0
-1.2399763 0.7263723 0.1005469 0
-1.2431263 0.72821754 0.13455994 0
-1.2383033 0.72539228 0.16781107 0
-1.2481169 0.73114097 0.20336764 0
-1.2462963 0.73007452 0.23747219 0
-1.2432214 0.72827327 0.27146631 0
-0.7904765 0.43665075 -0.19195619 0
-0.90170085 0.49808988 -0.19402508 0
-1.0186653 0.56269985 -0.19126362 0
-1.177966 0.6506958 -0.18912275 0
-1.4252471 0.78729123 -0.19029747 0
