# .PCD v0.7 - Point Cloud Data file format
VERSION 0.7
FIELDS x y z intensity
SIZE 4 4 4 4
TYPE F F F F
COUNT 1 1 1 1
WIDTH 1359
HEIGHT 1
VIEWPOINT 0 0 0 1 0 0 0
POINTS 1359
DATA ascii
1.3233309 -1.3486135 -0.31053111 0
1.5565201 -1.5862578 -0.31232131 0
1.8632094 -1.8988065 -0.31091407 0
2.7173102 -2.7692251 -0.36213624 0
3.6248119 -3.6940649 -0.3618134 0
5.4446902 -5.5487123 -0.36190924 0
10.895955 -11.104125 -0.36170959 0
0.61618125 -0.597045 -0.31230873 0
0.66747206 -0.64674294 -0.31400883 0
0.71189106 -0.68978244 -0.30939662 0
0.76714736 -0.74332273 -0.30631942 0
0.85350889 -0.82700217 -0.31106088 0
0.94370842 -0.91440046 -0.31144676 0
1.0556871 -1.0229015 -0.31245911 0
1.2010372 -1.1637375 -0.31498992 0
1.360355 -1.3181076 -0.31131345 0
1.5951117 -1.5455737 -0.3121382 0
1.9057037 -1.8465198 -0.31012946 0
2.7817345 -2.6953444 -0.36154088 0
3.7171726 -3.6017315 -0.36184356 0
5.5712261 -5.3982053 -0.36114886 0
11.172173 -10.825208 -0.36169395 0
0.62799704 -0.57849663 -0.31079826 0
0.67527401 -0.62204707 -0.31019449 0
0.73693025 -0.67884338 -0.31273299 0
0.79888618 -0.73591578 -0.31147701 0
0.87905949 -0.80976963 -0.31282464 0
0.96412557 -0.88813055 -0.31068832 0
1.0745395 -0.98984146 -0.31054583 0
1.2111731 -1.1157051 -0.31016427 0
1.3922747 -1.2825319 -0.31111136 0
1.6245334 -1.4964833 -0.31040576 0
1.9634857 -1.8087184 -0.31200442 0
2.8514194 -2.6266627 -0.3618663 0
3.8028142 -3.5030661 -0.36145857 0
5.7147055 -5.264257 -0.36172175 0
11.4495 -10.547019 -0.36193907 0
0.64137655 -0.56157732 -0.3103064 0
0.69370478 -0.60739493 -0.31151965 0
0.74896914 -0.65578341 -0.31071913 0
0.81849623 -0.71666002 -0.31197116 0
0.88874769 -0.77817088 -0.30918461 0
0.98108208 -0.85901713 -0.30906749 0
1.1123258 -0.97393167 -0.31426206 0
1.2418996 -1.0873842 -0.31090575 0
1.4242972 -1.2470881 -0.31113458 0
1.6671255 -1.4597039 -0.31140539 0
2.3321319 -2.0419712 -0.3622787 0
2.9203267 -2.5569835 -0.3623057 0
3.8983619 -3.4133329 -0.36223656 0
5.8487873 -5.121089 -0.36191228 0
11.716556 -10.258798 -0.3620809 0
0.66382092 -0.55227053 -0.31432143 0
0.70653081 -0.5878033 -0.31051832 0
0.76692176 -0.63804597 -0.311387 0
0.83429414 -0.69409686 -0.31121629 0
0.91887808 -0.76446712 -0.31285468 0
1.008122 -0.83871418 -0.31081823 0
1.1224768 -0.93385255 -0.31037217 0
1.2657801 -1.0530746 -0.31013152 0
1.4542122 -1.2098422 -0.31090009 0
1.7100338 -1.4226747 -0.31261364 0
2.3795767 -1.9797057 -0.36177185 0
2.977602 -2.477237 -0.36153954 0
3.9749405 -3.3069799 -0.36148158 0
5.9704089 -4.967124 -0.36156547 0
11.96102 -9.9510555 -0.36175895 0
0.67372072 -0.53232503 -0.31254777 0
0.72506255 -0.57289159 -0.31220877 0
0.7753672 -0.61263865 -0.30843976 0
0.85136312 -0.67268509 -0.31115121 0
0.92389327 -0.72999316 -0.30819106 0
1.0264435 -0.81102085 -0.31005728 0
1.1551025 -0.91267776 -0.31292436 0
1.3011572 -1.0280796 -0.31234238 0
1.4879084 -1.1756368 -0.31166118 0
1.7244673 -1.3625484 -0.3088671 0
2.4303336 -1.9202725 -0.36200488 0
3.0388134 -2.4010489 -0.36149862 0
4.062717 -3.210063 -0.36198083 0
6.0952663 -4.8160353 -0.36165047 0
12.214172 -9.6507492 -0.36193332 0
0.68174964 -0.51126653 -0.31018749 0
0.7380178 -0.55346388 -0.31167305 0
0.79666626 -0.59744632 -0.31081513 0
0.86473656 -0.64849442 -0.30995828 0
0.9491834 -0.71182388 -0.31053543 0
1.054056 -0.79047137 -0.31227225 0
1.1760321 -0.88194519 -0.31246459 0
1.3127905 -0.98450488 -0.30907178 0
1.5129567 -1.1346161 -0.3108106 0
1.7555219 -1.3165238 -0.30837968 0
2.4784212 -1.8586497 -0.36206496 0
3.1032517 -2.3272307 -0.36206156 0
4.1372008 -3.1026232 -0.36152503 0
6.2252107 -4.6684904 -0.36225399 0
12.452486 -9.3385296 -0.36189568 0
0.75624204 -0.53786355 -0.31353658 0
0.80736983 -0.57422727 -0.30923823 0
0.8780418 -0.62449145 -0.30897945 0
0.97284496 -0.69191849 -0.31246376 0
1.0731521 -0.76326013 -0.31212309 0
1.1916506 -0.84754014 -0.3108319 0
1.3396727 -0.9528181 -0.30964038 0
1.5502843 -1.1026119 -0.31266236 0
1.7965093 -1.277735 -0.30981606 0
2.5209281 -1.7929649 -0.36154869 0
3.1592593 -2.2469664 -0.36186424 0
4.2173324 -2.9995022 -0.36179671 0
6.3329511 -4.5041976 -0.36179307 0
12.680127 -9.0185127 -0.36178115 0
0.71322745 -0.48064119 -0.31306452 0
0.76551419 -0.51587701 -0.3118833 0
0.82661819 -0.55705476 -0.31112662 0
0.90189505 -0.6077835 -0.31187594 0
0.98835993 -0.66605186 -0.3119483 0
1.0967976 -0.73912758 -0.3134748 0
1.202682 -0.81048268 -0.30827543 0
1.3584589 -0.91546005 -0.30854383 0
1.575099 -1.061453 -0.31216457 0
1.8291382 -1.232649 -0.30997914 0
2.5630565 -1.7272336 -0.36122352 0
3.2077212 -2.1616707 -0.36105096 0
4.2860842 -2.8883753 -0.36132577 0
6.4473085 -4.3448162 -0.36194625 0
12.907263 -8.6981535 -0.36188281 0
0.72619635 -0.46317452 -0.313526 0
0.76267767 -0.48644263 -0.30562836 0
0.85105205 -0.54280859 -0.31506634 0
0.91922051 -0.58628702 -0.31265065 0
1.0036887 -0.64016157 -0.31158766 0
1.1066343 -0.70582116 -0.31109565 0
1.2221055 -0.77946979 -0.30811337 0
1.3981246 -0.89173633 -0.31234172 0
1.6049166 -1.02363 -0.31285417 0
1.8841903 -1.2017534 -0.31406853 0
2.6104405 -1.6649621 -0.36186394 0
3.2762105 -2.0895963 -0.36270821 0
4.3701816 -2.7873406 -0.36236933 0
6.5500841 -4.177702 -0.36168143 0
13.129464 -8.3740892 -0.36207163 0
0.72892845 -0.43944556 -0.30981842 0
0.80114579 -0.48298287 -0.31605813 0
0.84177011 -0.50747389 -0.30679074 0
0.93418264 -0.56318617 -0.31280538 0
1.0259494 -0.61850917 -0.31355229 0
1.1213992 -0.67605245 -0.31035081 0
1.2551967 -0.75671434 -0.31154189 0
1.4016385 -0.84499902 -0.30826408 0
1.6245477 -0.97938323 -0.31176314 0
1.8809681 -1.1339701 -0.30866253 0
2.6513205 -1.5983888 -0.36182335 0
3.3079574 -1.9942523 -0.36053574 0
4.4288068 -2.6699734 -0.36152765 0
6.6493969 -4.0086899 -0.36146346 0
13.317479 -8.0286446 -0.36155331 0
0.74413246 -0.42338821 -0.31163952 0
0.79966688 -0.45498559 -0.31084543 0
0.87541348 -0.49808303 -0.31437057 0
0.95558745 -0.5436995 -0.3152774 0
1.0477461 -0.5961349 -0.31551501 0
1.145772 -0.65190858 -0.31244302 0
1.2592078 -0.7164501 -0.3079513 0
1.4248776 -0.81071103 -0.30877665 0
1.6458523 -0.9364388 -0.31121689 0
1.9321548 -1.0993359 -0.31240958 0
2.6932685 -1.5323861 -0.36215457 0
3.3714135 -1.9182293 -0.36205986 0
4.4933376 -2.5565693 -0.361413 0
6.7577109 -3.8449271 -0.36196092 0
13.545564 -7.7070041 -0.36234924 0
0.8076126 -0.43290648 -0.30958831 0
0.87017411 -0.46644145 -0.30816329 0
0.95017904 -0.5093267 -0.30915332 0
1.0426848 -0.55891275 -0.30964431 0
1.1509663 -0.6169551 -0.3095147 0
1.2919909 -0.69254887 -0.31159475 0
1.443217 -0.77361095 -0.30842146 0
1.6803347 -0.90071368 -0.31333876 0
1.9534767 -1.0471267 -0.31148472 0
2.7304101 -1.463588 -0.36206642 0
3.4228885 -1.8347789 -0.36249933 0
4.5627952 -2.4458058 -0.36191931 0
6.8457909 -3.6695654 -0.36160281 0
13.709743 -7.348866 -0.36166432 0
0.76775384 -0.3869288 -0.31294823 0
0.84090841 -0.42379686 -0.31815025 0
0.88994533 -0.44851026 -0.31105715 0
0.97520047 -0.49147674 -0.31315872 0
1.067641 -0.53806448 -0.31292298 0
1.1753221 -0.59233302 -0.31194475 0
1.3111055 -0.66076452 -0.31208324 0
1.4644029 -0.73802257 -0.30886996 0
1.6815021 -0.84743518 -0.30946952 0
1.9880272 -1.0019162 -0.3128621 0
2.7629223 -1.392444 -0.36160231 0
3.4616761 -1.7445985 -0.36182868 0
4.6203413 -2.3285367 -0.36170706 0
6.9533324 -3.5043063 -0.36249605 0
13.899539 -7.0050211 -0.3618919 0
0.77623498 -0.36694422 -0.3125307 0
0.83186924 -0.39324382 -0.31087631 0
0.91194177 -0.43109596 -0.31484219 0
0.98067921 -0.46358973 -0.31106168 0
1.0730983 -0.50727832 -0.31067097 0
1.1788247 -0.55725765 -0.30904305 0
1.3204566 -0.62421036 -0.31046018 0
1.5095357 -0.71359241 -0.31449041 0
1.7109613 -0.80881095 -0.31103525 0
2.3336506 -1.1031705 -0.3627567 0
2.7919366 -1.3198129 -0.36092505 0
3.5064123 -1.6575621 -0.36201665 0
4.6735787 -2.2093086 -0.36139444 0
7.0244951 -3.320641 -0.36172155 0
14.065617 -6.6491423 -0.36173141 0
0.78834862 -0.34861413 -0.31376544 0
0.84174609 -0.37222692 -0.31095749 0
0.90853614 -0.40176201 -0.31006691 0
0.99007082 -0.43781731 -0.31043676 0
1.0740744 -0.47496438 -0.30738515 0
1.1900409 -0.52624571 -0.30840334 0
1.3364384 -0.59098387 -0.3106119 0
1.5221908 -0.67312509 -0.31348771 0
1.7471709 -0.77261311 -0.31397292 0
2.3511765 -1.0397093 -0.36128691 0
2.8198602 -1.2469651 -0.36035156 0
3.5574875 -1.5731497 -0.36307493 0
4.7303519 -2.0918 -0.36158693 0
7.1034179 -3.1411889 -0.36158797 0
14.229061 -6.2922058 -0.36173543 0
0.8021099 -0.3307634 -0.31581932 0
0.84841436 -0.34985784 -0.31006014 0
0.90915173 -0.37490389 -0.30694994 0
0.98592603 -0.40656307 -0.30582237 0
1.1067152 -0.4563725 -0.31333032 0
1.2102988 -0.49908692 -0.31029001 0
1.3513532 -0.557253 -0.31071055 0
1.5329232 -0.63212645 -0.31231281 0
1.7598934 -0.72572142 -0.31286803 0
2.3943875 -0.98736566 -0.3639816 0
2.8638752 -1.1809667 -0.36205196 0
3.586992 -1.479156 -0.36216068 0
4.772059 -1.9678382 -0.3608636 0
7.1804304 -2.9609702 -0.3615889 0
14.395562 -5.9362502 -0.3620441 0
0.81379181 -0.31179625 -0.31721941 0
0.86381018 -0.33096027 -0.31253442 0
0.93581563 -0.35854846 -0.3127974 0
1.004496 -0.38486263 -0.30847129 0
1.0986514 -0.42093736 -0.30794138 0
1.2212955 -0.46792719 -0.30998275 0
1.3540978 -0.51880914 -0.30823278 0
1.5583097 -0.59705091 -0.31431478 0
1.7713652 -0.67868096 -0.31176296 0
2.4018829 -0.92025757 -0.36147517 0
2.8887043 -1.1067783 -0.36154431 0
3.6187932 -1.3865047 -0.36172315 0
4.837935 -1.8536067 -0.36219206 0
7.263679 -2.7830064 -0.36212865 0
14.528158 -5.5663195 -0.3617304 0
0.80542374 -0.28550118 -0.31104961 0
0.86520457 -0.30669188 -0.31013954 0
0.93424302 -0.33116418 -0.30937946 0
1.0197359 -0.36146912 -0.31025091 0
1.1188421 -0.39659962 -0.31069607 0
1.2311879 -0.43642321 -0.30959928 0
1.3889289 -0.49233818 -0.31323305 0
1.5627986 -0.55397034 -0.31230062 0
1.7840904 -0.63241237 -0.31109431 0
2.4247968 -0.85952562 -0.36154366 0
2.9164267 -1.0337952 -0.36163321 0
3.6552107 -1.2956744 -0.36197931 0
4.8814387 -1.7303395 -0.36206415 0
7.3176036 -2.5938947 -0.3614381 0
14.668064 -5.1994367 -0.36183122 0
0.81754982 -0.26677865 -0.31303263 0
0.89458746 -0.29191718 -0.3179298 0
0.95842785 -0.31274924 -0.31467423 0
1.0337588 -0.33733085 -0.31182769 0
1.1347286 -0.37027881 -0.31241298 0
1.2479039 -0.4072096 -0.31111923 0
1.3836386 -0.45150185 -0.30937153 0
1.5471976 -0.50487357 -0.306539 0
1.8064531 -0.58947247 -0.31230003 0
2.4442208 -0.79758555 -0.3613233 0
2.9492292 -0.96237737 -0.36257339 0
3.6959908 -1.2060567 -0.36288777 0
4.9265013 -1.6075906 -0.36228171 0
7.3859158 -2.4101341 -0.36169249 0
14.794057 -4.8275204 -0.36181837 0
0.81556243 -0.24354039 -0.30981946 0
0.88639247 -0.26469138 -0.31254363 0
0.96344137 -0.28769946 -0.31383628 0
1.0534383 -0.31457406 -0.31526861 0
1.1356903 -0.33913583 -0.31022239 0
1.2594888 -0.37610412 -0.31154168 0
1.4017266 -0.41857868 -0.31095472 0
1.5813459 -0.47221598 -0.31084436 0
1.8064116 -0.5394243 -0.3098405 0
2.4677665 -0.73691577 -0.36193931 0
2.9564409 -0.882842 -0.36060581 0
3.7171183 -1.1099927 -0.36209619 0
4.9591784 -1.4808924 -0.36182094 0
7.4589791 -2.2273741 -0.36240208 0
14.905883 -4.4511423 -0.36169058 0
0.82763296 -0.2245637 -0.31215236 0
0.88263255 -0.23948689 -0.30898821 0
0.97244853 -0.26385689 -0.31450087 0
1.0462266 -0.28387529 -0.31086707 0
1.1599797 -0.31474018 -0.31458712 0
1.2686876 -0.3442362 -0.31156877 0
1.4064875 -0.38162574 -0.30977547 0
1.5985932 -0.4337503 -0.31198335 0
1.8203973 -0.49393293 -0.31000236 0
2.4891911 -0.67539847 -0.36246601 0
2.9811442 -0.80888128 -0.36101386 0
3.73331 -1.0129683 -0.36106801 0
4.9934921 -1.3548967 -0.3617143 0
7.5100002 -2.0377071 -0.36226687 0
15.012588 -4.0734029 -0.36166993 0
0.82471186 -0.2015758 -0.30903339 0
0.89947397 -0.21984912 -0.31284186 0
0.97192478 -0.23755752 -0.31229296 0
1.049194 -0.25644365 -0.30972698 0
1.1508607 -0.28129297 -0.31008992 0
1.2786047 -0.31251612 -0.31196785 0
1.4209749 -0.34731418 -0.3109366 0
1.5898318 -0.38858616 -0.30826125 0
1.8323859 -0.44787112 -0.31002027 0
2.4962895 -0.61014223 -0.36114225 0
3.0057673 -0.73466867 -0.36163509 0
3.7473073 -0.91591555 -0.36007133 0
5.029202 -1.2292358 -0.36193842 0
7.5448422 -1.8441077 -0.36158726 0
15.117684 -3.6950591 -0.36183986 0
0.83359569 -0.18158785 -0.31054604 0
0.89563131 -0.19510148 -0.30969408 0
0.97281408 -0.21191473 -0.31076118 0
1.0669922 -0.23243017 -0.3131496 0
1.1614579 -0.25300831 -0.31112558 0
1.2805133 -0.27894294 -0.31061682 0
1.4392265 -0.31351653 -0.31309924 0
1.6197586 -0.35284308 -0.31223777 0
1.8479788 -0.40255785 -0.31084046 0
2.5108759 -0.54696125 -0.36114031 0
3.0150814 -0.65679574 -0.3606464 0
3.7829831 -0.82407302 -0.36138576 0
5.0418048 -1.0982907 -0.3607356 0
7.5964832 -1.6547939 -0.3619453 0
15.204988 -3.3122063 -0.36181337 0
0.90443313 -0.17323938 -0.31112662 0
0.99527949 -0.19064051 -0.31629989 0
1.0527024 -0.20163958 -0.30736426 0
1.1854316 -0.22706316 -0.3159118 0
1.2807094 -0.24531309 -0.30906409 0
1.4501843 -0.27777514 -0.31385797 0
1.6283818 -0.31190792 -0.3122831 0
1.854857 -0.35528803 -0.31039023 0
2.5111451 -0.48099658 -0.35931852 0
3.0325563 -0.58087015 -0.36086813 0
3.8184686 -0.73140746 -0.36289662 0
5.0850234 -0.97400934 -0.36195371 0
7.6384583 -1.4631063 -0.3620705 0
15.27546 -2.9259336 -0.36161789 0
0.91956401 -0.15219298 -0.31491002 0
0.98360115 -0.16279148 -0.31118369 0
1.0726722 -0.17753324 -0.3117874 0
1.1776417 -0.19490628 -0.31242537 0
1.2844094 -0.21257691 -0.30856398 0
1.4374378 -0.23790397 -0.30970111 0
1.643885 -0.27207214 -0.31383938 0
1.8715039 -0.30974433 -0.31176841 0
2.5276031 -0.41833243 -0.36004806 0
3.0484099 -0.50452882 -0.36112437 0
3.8446436 -0.63630992 -0.36374211 0
5.105197 -0.84493858 -0.3617565 0
7.6554613 -1.2670215 -0.3612456 0
15.345137 -2.5397058 -0.36163476 0
0.87178779 -0.121774 -0.32041299 0
0.91125441 -0.12728682 -0.31086519 0
1.0010097 -0.13982412 -0.31547433 0
1.0851728 -0.15158027 -0.31420878 0
1.1759658 -0.16426252 -0.3107819 0
1.2963578 -0.18107924 -0.31023768 0
1.4410311 -0.20128766 -0.30928224 0
1.6428211 -0.22947431 -0.31243104 0
1.8693945 -0.26112279 -0.31022036 0
2.5366828 -0.35433167 -0.3599529 0
3.0833204 -0.43068767 -0.36385638 0
3.8543401 -0.53838611 -0.36325821 0
5.1242709 -0.71577394 -0.36171278 0
7.7009263 -1.0756891 -0.36199462 0
15.39331 -2.1501849 -0.36137605 0
0.85874623 -0.097933151 -0.31461111 0
0.90767276 -0.10351283 -0.3086538 0
0.98134434 -0.11191449 -0.30828831 0
1.0849319 -0.12372781 -0.31313512 0
1.1877612 -0.13545468 -0.31289604 0
1.2895936 -0.14706786 -0.30763265 0
1.4519794 -0.16558665 -0.31063613 0
1.6405125 -0.18708736 -0.31099495 0
1.8833488 -0.2147809 -0.31153724 0
2.5786831 -0.29407823 -0.36474335 0
3.079365 -0.35117701 -0.36222833 0
3.852072 -0.43929806 -0.36188427 0
5.1542087 -0.58779639 -0.36266336 0
7.728869 -0.88141584 -0.36214706 0
15.458639 -1.7629344 -0.36174995 0
0.84536976 -0.074855916 -0.30891997 0
0.92499381 -0.081906483 -0.31374094 0
1.0164311 -0.090003081 -0.31849569 0
1.0799876 -0.095630892 -0.31091246 0
1.1324792 -0.10027892 -0.29757139 0
1.1429628 -0.10120723 -0.2719579 0
1.4461677 -0.12805545 -0.30860305 0
1.649834 -0.14608973 -0.31196374 0
1.8677127 -0.16538249 -0.30816218 0
2.5730729 -0.22784081 -0.36302081 0
3.0782661 -0.27257472 -0.36117479 0
3.8452039 -0.34048563 -0.36031696 0
5.1485691 -0.45589623 -0.36134186 0
7.7462187 -0.68591321 -0.36203355 0
15.492831 -1.3718613 -0.36162466 0
0.86234754 -0.05447273 -0.31452152 0
0.92130506 -0.058196954 -0.31189227 0
0.99808234 -0.06304682 -0.31214818 0
1.0736947 -0.067823097 -0.3085098 0
1.1294565 -0.071345456 -0.29620969 0
1.1367285 -0.071804814 -0.26995733 0
1.4639113 -0.092472278 -0.31179211 0
1.6557612 -0.10459105 -0.31248584 0
1.8962966 -0.11978517 -0.31228009 0
2.5623393 -0.16185772 -0.3608152 0
3.091948 -0.19531202 -0.36208642 0
3.8718193 -0.2445749 -0.36211726 0
5.1699867 -0.32657748 -0.36215118 0
7.7680573 -0.49069229 -0.36236 0
15.527197 -0.98082125 -0.36173379 0
0.84555608 -0.032019999 -0.30800438 0
0.92552316 -0.035048235 -0.31292111 0
0.99180233 -0.037558135 -0.309789 0
1.1091475 -0.042001832 -0.31829068 0
1.1273491 -0.042691097 -0.2952804 0
1.1328901 -0.042900924 -0.26870304 0
1.4574561 -0.055191774 -0.31002182 0
1.6425745 -0.062201947 -0.30960229 0
1.8964641 -0.071816377 -0.31190985 0
2.5627151 -0.097046353 -0.36040846 0
3.0953517 -0.11721653 -0.36202326 0
3.8687253 -0.14650309 -0.36136699 0
5.1750655 -0.19597232 -0.36204517 0
7.7604699 -0.29387787 -0.36154494 0
15.548265 -0.58879054 -0.36176321 0
0.91053736 -0.011488703 -0.30765837 0
1.0033313 -0.01265953 -0.31319055 0
1.092315 -0.01378228 -0.31326064 0
1.1335967 -0.014303152 -0.29672772 0
1.1344688 -0.014314157 -0.26890618 0
1.1357952 -0.014330893 -0.24144612 0
1.1255708 -0.014201886 -0.21201925 0
1.1250508 -0.014195325 -0.18491834 0
1.1339269 -0.014307319 -0.15936872 0
1.1285509 -0.014239486 -0.13190797 0
1.1190708 -0.014119872 -0.10446277 0
1.1169987 -0.014093728 -0.078094959 0
1.1364964 -0.014339739 -0.052913409 0
1.1343882 -0.014313139 -0.02637713 0
1.1357651 -0.014330513 3.2426844e-05 0
1.1386768 -0.014367251 0.026541905 0
1.1243548 -0.014186544 0.052412458 0
1.1265527 -0.014214275 0.078827567 0
1.1352371 -0.01432385 0.10603724 0
1.1215569 -0.01415124 0.1311554 0
1.1429472 -0.014421133 0.16070305 0
0.98415762 -0.012417606 0.16181822 0
0.92403561 0.011659016 -0.31221923 0
0.99591982 0.012566015 -0.31087703 0
1.0913359 0.013769927 -0.31297988 0
1.1348438 0.014318888 -0.29705417 0
1.1337841 0.014305517 -0.26874387 0
1.4613422 0.018438481 -0.31065053 0
1.6574345 0.020912673 -0.31220424 0
1.9040483 0.024024323 -0.31295782 0
2.5712562 0.032442816 -0.36137938 0
3.0894499 0.038981125 -0.36110297 0
3.870012 0.048829865 -0.36125702 0
5.1736484 0.065278493 -0.36171558 0
7.7563739 0.097866029 -0.36112407 0
15.561776 0.19635066 -0.36184704 0
0.8646698 0.032743808 -0.3149668 0
0.91082245 0.034491543 -0.30795076 0
1.0030746 0.037985001 -0.31330988 0
1.0896003 0.041261606 -0.31268123 0
1.1292703 0.042763848 -0.29578361 0
1.1556282 0.043761987 -0.27409616 0
1.4675543 0.055574179 -0.31216988 0
1.6644324 0.063029669 -0.31372219 0
1.8931675 0.071691543 -0.31136766 0
2.5682585 0.097256273 -0.36118805 0
3.0828598 0.11674348 -0.36056226 0
3.8636541 0.14631104 -0.36089328 0
5.1742921 0.19594303 -0.36199108 0
7.7494593 0.29346094 -0.36103198 0
15.549852 0.58885062 -0.36180013 0
0.91682816 0.05791416 -0.31037667 0
1.0088979 0.063730016 -0.31553072 0
1.0941451 0.069114901 -0.31438586 0
1.140829 0.072063833 -0.29919222 0
1.1353432 0.071717307 -0.26962835 0
1.4736154 0.093085267 -0.31385896 0
1.6431584 0.10379495 -0.31010735 0
1.8897491 0.11937158 -0.31120184 0
2.5898774 0.16359726 -0.36469299 0
3.0918565 0.19530624 -0.36207569 0
3.8604794 0.24385858 -0.36105666 0
5.1714878 0.32667229 -0.36225632 0
7.7561255 0.48993856 -0.36180341 0
15.518364 0.98026329 -0.36152801 0
0.84869742 0.075150579 -0.31013596 0
0.90380257 0.080030032 -0.30655324 0
1.0068071 0.089150898 -0.31548008 0
1.0777601 0.095433652 -0.3102712 0
1.1830629 0.10475802 -0.31086284 0
1.3011165 0.11521144 -0.30958921 0
1.469606 0.13013089 -0.31360468 0
1.6446468 0.1456304 -0.31098288 0
1.8795519 0.16643082 -0.31011558 0
2.5489898 0.22570829 -0.35962304 0
3.0790102 0.27264062 -0.36126211 0
3.8666139 0.34238145 -0.36232322 0
5.1531968 0.45630598 -0.36166662 0
7.7489552 0.68615556 -0.36216143 0
15.481723 1.3708776 -0.36136538 0
0.84350967 0.096195541 -0.30902901 0
0.9177736 0.10466475 -0.31208858 0
0.99072325 0.11298408 -0.31123465 0
1.075192 0.12261707 -0.31032398 0
1.180434 0.13461907 -0.31096581 0
1.3069152 0.14904325 -0.31176472 0
1.443593 0.16463026 -0.30884197 0
1.6503083 0.18820448 -0.31285194 0
1.8962781 0.2162554 -0.31367597 0
2.5608459 0.29204404 -0.36222035 0
3.0806153 0.35131958 -0.36237541 0
3.8490427 0.43895259 -0.36159968 0
5.1395283 0.58612221 -0.36163041 0
7.7287078 0.88139743 -0.36213949 0
15.453728 1.7623743 -0.36163503 0
0.84137076 0.11752526 -0.30923364 0
0.90156186 0.12593295 -0.30755866 0
0.99422598 0.13887654 -0.3133364 0
1.0784994 0.15064812 -0.31227651 0
1.1825057 0.16517603 -0.31251025 0
1.3055866 0.18236835 -0.31244627 0
1.4528862 0.20294361 -0.31182665 0
1.6284162 0.22746219 -0.30969152 0
1.8759052 0.26203221 -0.31130075 0
2.5471103 0.3557882 -0.36143255 0
3.0640671 0.42799833 -0.36158434 0
3.8480849 0.53751236 -0.36266872 0
5.1312118 0.71674347 -0.36220273 0
7.7014675 1.0757648 -0.36202005 0
15.423979 2.1544688 -0.36209601 0
0.83897978 0.13885583 -0.30954435 0
0.92023385 0.15230383 -0.31513941 0
0.96389365 0.15952978 -0.30494881 0
1.085402 0.17964008 -0.3154875 0
1.1809455 0.19545306 -0.31330186 0
1.2948345 0.21430233 -0.31106848 0
1.443904 0.23897417 -0.31109431 0
1.633252 0.27031231 -0.31180939 0
1.8809748 0.31131181 -0.31334615 0
2.5470166 0.42154545 -0.36281341 0
3.053885 0.50543499 -0.36177295 0
3.8150065 0.63140482 -0.36093813 0
5.1126122 0.84616578 -0.36228195 0
7.6741862 1.2701206 -0.36212918 0
15.329842 2.5371742 -0.3612743 0
0.84953457 0.16272385 -0.31485361 0
0.89115191 0.17069544 -0.30655786 0
0.98510206 0.18869108 -0.3130655 0
1.0709577 0.20513627 -0.31269434 0
1.1632954 0.22282307 -0.31001261 0
1.2891306 0.24692614 -0.31109634 0
1.3533721 0.25923127 -0.29290527 0
1.3450047 0.25762853 -0.25793841 0
1.3524742 0.25905928 -0.22632191 0
1.3424329 0.2571359 -0.19208805 0
1.3350964 0.25573063 -0.15887378 0
1.3435833 0.25735629 -0.12769042 0
5.0789833 0.97285235 -0.36152375 0
7.6307988 1.461639 -0.36170742 0
15.270512 2.9249856 -0.36150077 0
0.83659291 0.18224075 -0.31166264 0
0.91269267 0.19881807 -0.3155936 0
0.98244369 0.21401241 -0.31383732 0
1.0611231 0.23115169 -0.31142712 0
1.1762202 0.25622407 -0.31508002 0
1.209299 0.26342985 -0.2933422 0
1.2172925 0.26517114 -0.26481819 0
1.207867 0.26311791 -0.23283821 0
1.2157874 0.26484329 -0.20450228 0
1.1916323 0.25958139 -0.17139296 0
1.2035002 0.26216668 -0.14395566 0
1.2051232 0.26252019 -0.11512458 0
5.0562625 1.1014402 -0.36177006 0
7.5975094 1.6550174 -0.36199418 0
15.195321 3.3101006 -0.36158335 0
0.83692533 0.20456101 -0.31360999 0
0.89942378 0.21983685 -0.3128244 0
0.97069597 0.23725718 -0.31189814 0
1.0563529 0.2581934 -0.31184033 0
1.1578656 0.28300512 -0.31197733 0
1.2032239 0.29409158 -0.29357561 0
1.2178234 0.29765996 -0.26648316 0
1.2103959 0.29584455 -0.23469032 0
1.2064718 0.2948854 -0.20412223 0
1.2064866 0.29488903 -0.17454436 0
1.2044151 0.29438272 -0.14490767 0
1.2107122 0.29592186 -0.11633494 0
5.037065 1.2311578 -0.36250433 0
7.5404835 1.8430424 -0.36137837 0
15.101211 3.6910326 -0.36144558 0
0.82826042 0.22473396 -0.31238902 0
0.88732916 0.24076124 -0.31063238 0
0.96531844 0.26192227 -0.31219494 0
1.0414571 0.28258115 -0.30944991 0
1.1449287 0.31065637 -0.3105053 0
1.2066685 0.32740837 -0.2963379 0
1.1886549 0.3225207 -0.26179838 0
1.2101035 0.32834038 -0.23616523 0
1.1981766 0.32510427 -0.20404206 0
1.1938665 0.32393476 -0.17384604 0
1.2162527 0.33000886 -0.14728709 0
1.192871 0.32366467 -0.11536881 0
4.9876895 1.3533221 -0.36129397 0
7.4983006 2.0345325 -0.3617025 0
15.012662 4.0734229 -0.36167175 0
0.81879157 0.24450466 -0.31104615 0
0.88134313 0.26318359 -0.31076324 0
0.95851225 0.28622755 -0.31223065 0
1.0334283 0.30859873 -0.3092801 0
1.1278328 0.33678946 -0.30807602 0
1.2068772 0.36039343 -0.2985279 0
1.2168528 0.3633723 -0.26994288 0
1.2149749 0.36281154 -0.23882698 0
1.2018293 0.35888603 -0.20614094 0
1.2140416 0.36253282 -0.17805953 0
1.204564 0.35970265 -0.14692421 0
1.2106138 0.36150923 -0.1179297 0
4.9542212 1.4794121 -0.36145926 0
7.4469714 2.2237885 -0.3618187 0
14.901877 4.4499464 -0.3615934 0
0.80982482 0.26425788 -0.31007478 0
0.88753164 0.28961477 -0.31542224 0
0.95205146 0.31066853 -0.3125807 0
1.0205123 0.33300835 -0.30783197 0
1.1221734 0.36618185 -0.3089563 0
1.2022223 0.39230302 -0.29973021 0
1.2124182 0.39563006 -0.27108788 0
1.1968038 0.39053488 -0.23711713 0
1.2017949 0.39216352 -0.20776658 0
1.2022583 0.39231476 -0.17772697 0
1.2151936 0.39653575 -0.1493939 0
1.2103369 0.39495093 -0.11883592 0
4.9101939 1.6022693 -0.36108252 0
7.3879323 2.4107921 -0.36179125 0
14.793706 4.8274059 -0.36180982 0
0.79900593 0.28322622 -0.3085711 0
0.86495727 0.30660424 -0.3100509 0
0.93670732 0.33203772 -0.31019554 0
1.0280875 0.36442953 -0.31279182 0
1.1196394 0.39688221 -0.31091747 0
1.2130932 0.4300091 -0.30504909 0
1.2009796 0.42571515 -0.27084649 0
1.2056817 0.4273819 -0.24093644 0
1.2203807 0.43259233 -0.21279947 0
1.2049042 0.42710632 -0.17965442 0
1.2007635 0.42563853 -0.14889315 0
1.2138186 0.43026623 -0.12020571 0
1.4875956 0.52731287 -0.11033735 0
7.3298402 2.5982325 -0.36204252 0
14.654936 5.1947827 -0.36150736 0
0.86632597 0.3319242 -0.31344467 0
0.95251179 0.36494544 -0.31837812 0
1.0059924 0.38543597 -0.30893081 0
1.1052482 0.42346486 -0.3097904 0
1.2104931 0.46378842 -0.30724096 0
1.1931634 0.4571487 -0.27159932 0
1.2056324 0.4619261 -0.24317895 0
1.2066898 0.46233121 -0.21237923 0
1.2027688 0.4608289 -0.18101257 0
1.1927364 0.45698512 -0.14928046 0
1.2038006 0.46122423 -0.12032811 0
4.8265824 1.849257 -0.36134213 0
7.2386656 2.7734227 -0.3608816 0
14.520789 5.5634961 -0.3615469 0
0.84992433 0.35048047 -0.31061196 0
0.93175346 0.38422409 -0.3145808 0
1.0124227 0.41748938 -0.31404129 0
1.1061118 0.45612362 -0.31315947 0
1.1974556 0.49379084 -0.30699736 0
1.1891314 0.4903582 -0.27341163 0
1.2049775 0.49689257 -0.24549821 0
1.2014219 0.49542633 -0.2135848 0
1.2141389 0.50067043 -0.18456671 0
1.2027601 0.49597821 -0.15205331 0
1.2110592 0.49940047 -0.12227461 0
4.7834835 1.9725492 -0.36172754 0
7.1924477 2.9659259 -0.36219406 0
14.387809 5.933053 -0.3618491 0
0.78833979 0.34861022 -0.31376192 0
0.83741719 0.37031266 -0.3093583 0
0.92599356 0.40948185 -0.31602481 0
0.99136484 0.43838954 -0.31084251 0
1.0904411 0.48220187 -0.31206909 0
1.2052273 0.53296119 -0.31233889 0
1.2006037 0.53091669 -0.2790415 0
1.1993829 0.53037679 -0.247007 0
1.1995113 0.5304336 -0.2155565 0
1.1905391 0.52646601 -0.18294083 0
1.2165443 0.53796571 -0.15546291 0
1.2187186 0.5389272 -0.12438166 0
4.7351499 2.0939214 -0.36195368 0
7.1024141 3.1407449 -0.36153686 0
14.239885 6.2969923 -0.3620106 0
0.76896173 0.36350599 -0.30960229 0
0.83643985 0.39540443 -0.31258437 0
0.91524059 0.43265539 -0.31598112 0
0.98357195 0.46495718 -0.31197923 0
1.0866469 0.51368308 -0.3145934 0
1.1841807 0.5597896 -0.31044725 0
1.3074411 0.61805761 -0.30740005 0
1.489897 0.70430875 -0.310399 0
1.7175614 0.81193089 -0.31223509 0
2.3441441 1.1081311 -0.36438787 0
2.7946494 1.3210953 -0.36127573 0
3.5054216 1.6570938 -0.36191434 0
4.6802764 2.2124748 -0.36191237 0
7.0234957 3.3201687 -0.36167008 0
14.073542 6.6528883 -0.36193523 0
0.76029861 0.38317153 -0.30990934 0
0.8207792 0.41365227 -0.31053457 0
0.90228498 0.45472914 -0.31537017 0
0.96729207 0.4874911 -0.31061915 0
1.068768 0.53863245 -0.31325331 0
1.1679085 0.58859676 -0.30997714 0
1.2999831 0.65515912 -0.30943578 0
1.4700421 0.74086457 -0.31005937 0
1.7051604 0.85935831 -0.31382367 0
1.9819846 0.99887085 -0.31191117 0
2.7463007 1.3840671 -0.35942692 0
3.4682698 1.7479216 -0.36251789 0
4.6275225 2.3321559 -0.36226925 0
6.9363856 3.4957657 -0.36161259 0
13.897386 7.0039363 -0.36183587 0
0.76156491 0.40822342 -0.31452507 0
0.80847663 0.43336961 -0.30991951 0
0.87478822 0.46891475 -0.30979732 0
0.95236605 0.510499 -0.30986488 0
1.0527431 0.56430435 -0.31263131 0
1.1590325 0.62127888 -0.31168386 0
1.2930347 0.69310838 -0.31184646 0
1.4608557 0.78306592 -0.31219092 0
1.673678 0.89714551 -0.31209746 0
1.9409974 1.0404373 -0.30949488 0
2.7422621 1.4699411 -0.36363807 0
3.4030361 1.8241374 -0.36039686 0
4.5462546 2.4369395 -0.36060733 0
6.8523488 3.6730804 -0.36194921 0
13.715796 7.3521104 -0.36182401 0
0.74451369 0.42360514 -0.3117992 0
0.80296779 0.4568637 -0.31212857 0
0.8649956 0.49215558 -0.3106294 0
0.95211095 0.54172152 -0.3141304 0
1.0317409 0.58702844 -0.31069526 0
1.1388361 0.64796233 -0.31055167 0
1.2115556 0.68933743 -0.29629749 0
1.2166724 0.69224876 -0.26365775 0
1.6504759 0.93906939 -0.31209114 0
1.9298966 1.0980511 -0.31204447 0
2.6949117 1.5333209 -0.36237553 0
3.3696885 1.9172479 -0.36187461 0
4.5050421 2.5632288 -0.36235446 0
6.7646127 3.8488541 -0.36233062 0
13.525492 7.6955838 -0.36181229 0
0.73025608 0.44024596 -0.31038269 0
0.79656768 0.48022291 -0.31425205 0
0.85841304 0.51750731 -0.31285638 0
0.93276173 0.56232953 -0.31232959 0
1.0154483 0.61217844 -0.31034294 0
1.1219944 0.67641133 -0.31051555 0
1.1398852 0.68719709 -0.28292137 0
1.1363598 0.68507177 -0.24992102 0
1.6229192 0.97840148 -0.31145063 0
1.8933156 1.1414139 -0.31068873 0
2.6431475 1.5934615 -0.360708 0
3.3256638 2.0049269 -0.36246559 0
4.443727 2.6789684 -0.36274561 0
6.6411576 4.0037227 -0.36101556 0
13.343837 8.0445347 -0.36226889 0
0.72763908 0.46409467 -0.31414887 0
0.78088522 0.49805555 -0.31292468 0
0.84647012 0.53988618 -0.31337008 0
0.91580784 0.58411038 -0.31148991 0
0.99939227 0.63742131 -0.31025386 0
1.1059899 0.70541024 -0.31091455 0
1.1438614 0.72956496 -0.2883867 0
1.138393 0.72607726 -0.25431755 0
1.6117799 1.0280075 -0.31419209 0
1.8703109 1.1929009 -0.31175503 0
2.6151743 1.6679814 -0.36252016 0
3.2825551 2.093643 -0.36341065 0
4.360621 2.7812426 -0.36157656 0
6.5392671 4.1708026 -0.3610841 0
13.121235 8.3688402 -0.36184472 0
0.70858318 0.47751144 -0.31102598 0
0.76724803 0.51704544 -0.31258973 0
0.82226598 0.55412179 -0.30948851 0
0.90211934 0.60793465 -0.31195351 0
0.98581564 0.66433728 -0.31114528 0
1.0929381 0.73652667 -0.3123717 0
1.1354569 0.76517993 -0.29104409 0
1.1366204 0.76596397 -0.25815815 0
1.5690441 1.0573726 -0.31096458 0
1.8464613 1.244323 -0.31291485 0
2.5739172 1.7345526 -0.36275414 0
3.2015221 2.1574931 -0.36035323 0
4.2804604 2.8845854 -0.36085168 0
6.4464688 4.3442497 -0.36189908 0
12.896517 8.6909122 -0.3615815 0
0.70545322 0.50174093 -0.31511024 0
0.75467414 0.53674847 -0.31288654 0
0.82835376 0.58915174 -0.31727549 0
0.88906431 0.63233101 -0.31285822 0
0.97047913 0.69023585 -0.31170389 0
1.0791485 0.76752508 -0.31386718 0
1.1895612 0.84605408 -0.31028691 0
1.1513162 0.81885296 -0.26610529 0
1.5412397 1.0961791 -0.31083828 0
1.8113586 1.2882962 -0.31237689 0
2.5237699 1.794986 -0.36195624 0
3.1570244 2.2453768 -0.36160824 0
4.2210221 3.0021262 -0.36211321 0
6.329412 4.5016809 -0.36159089 0
12.672034 9.0127563 -0.36155021 0
0.74218649 0.55659014 -0.31343356 0
0.80335939 0.60246569 -0.31342641 0
0.86885226 0.65158093 -0.31143352 0
0.94947296 0.71204108 -0.31063017 0
1.0621903 0.79657149 -0.3146821 0
1.0927305 0.81947464 -0.2903319 0
1.1003133 0.82516122 -0.25904804 0
1.1019866 0.82641613 -0.22638397 0
1.0877119 0.81571096 -0.19107038 0
1.0838314 0.81280094 -0.15833361 0
1.1047524 0.82849026 -0.12889332 0
1.085393 0.81397188 -0.094845943 0
1.111542 0.83358192 -0.06468223 0
1.0980848 0.82348996 -0.031912677 0
0.67705983 0.53496337 -0.31409687 0
0.71996444 0.56886345 -0.31001356 0
0.78323716 0.61885691 -0.31157041 0
0.85973787 0.67930222 -0.31421196 0
0.94113952 0.74361986 -0.31394407 0
1.0250568 0.80992526 -0.30963844 0
1.107944 0.8754167 -0.30014884 0
1.1102653 0.87725073 -0.26651883 0
1.1002619 0.8693468 -0.23046373 0
1.1100676 0.87709457 -0.19882278 0
1.1012642 0.87013876 -0.16403635 0
1.1047106 0.8728618 -0.13141687 0
1.0907297 0.86181515 -0.097182073 0
1.0923861 0.86312395 -0.064814553 0
1.0977663 0.8673749 -0.032529276 0
0.66069627 0.54967093 -0.31284189 0
0.70149702 0.58361542 -0.30830601 0
0.76275933 0.634583 -0.30969697 0
0.83922422 0.69819856 -0.3130554 0
0.91459739 0.76090574 -0.31139722 0
1.0059608 0.83691627 -0.31015193 0
1.0972363 0.91285348 -0.30339301 0
1.111117 0.92440164 -0.27223718 0
1.1167874 0.92911917 -0.2387611 0
1.1002681 0.91537589 -0.20114154 0
1.1056675 0.91986781 -0.16809686 0
1.0933764 0.90964216 -0.13275743 0
1.0903033 0.9070856 -0.099152312 0
1.0904502 0.90720773 -0.066037208 0
1.1034305 0.91800678 -0.033373058 0
1.0981575 0.91361988 4.0781761e-05 0
1.1499085 0.95667452 0.1397077 0
0.6995272 0.61249298 -0.3141343 0
0.75537604 0.66139317 -0.31337711 0
0.81406319 0.71277851 -0.31028149 0
0.9000079 0.78803015 -0.31310189 0
0.9821592 0.85996026 -0.30940682 0
1.0558944 0.92452139 -0.29831868 0
1.1020017 0.96489209 -0.27588272 0
1.1054311 0.96789479 -0.24147895 0
1.107677 0.96986133 -0.20690499 0
1.0974956 0.96094668 -0.17048746 0
1.101559 0.96450448 -0.13666318 0
1.0941572 0.95802367 -0.1016693 0
1.0947201 0.95851648 -0.067739278 0
1.090098 0.9544695 -0.033687688 0
1.0914754 0.95567548 4.1416166e-05 0
0.63841814 0.58809632 -0.3159557 0
0.67083168 0.61795491 -0.30815387 0
0.73012942 0.67257863 -0.30984694 0
0.79650217 0.73371971 -0.3105475 0
0.87838238 0.80914587 -0.31258366 0
0.9441731 0.8697508 -0.30425864 0
1.0249485 0.94415921 -0.29621381 0
1.0976006 1.0110847 -0.28107995 0
1.1066037 1.0193783 -0.24727665 0
1.0994457 1.0127844 -0.21007526 0
1.0880969 1.0023301 -0.17290221 0
1.1029255 1.0159899 -0.13996945 0
1.103959 1.0169419 -0.10493162 0
1.0951961 1.0088698 -0.069322251 0
1.0967052 1.0102599 -0.034668803 0
1.1021171 1.0152452 4.277864e-05 0
1.104309 1.0172644 0.034994949 0
0.61462581 0.5955379 -0.31152037 0
0.66172016 0.64116967 -0.31130287 0
0.72028524 0.69791591 -0.31304482 0
0.78435022 0.75999135 -0.31318849 0
0.84309351 0.81691027 -0.30726501 0
0.8322168 0.80637133 -0.2746518 0
0.82945305 0.80369347 -0.24549903 0
0.84740728 0.8210901 -0.22224522 0
0.8315686 0.80574328 -0.19030215 0
0.84606946 0.81979382 -0.16556245 0
0.83085883 0.80505556 -0.1352119 0
0.83082712 0.8050248 -0.10798226 0
0.84269243 0.81652164 -0.082030848 0
0.830616 0.8048203 -0.053843807 0
0.84007895 0.81398934 -0.027197173 0
1.0982369 1.0641298 4.3656604e-05 0
1.0981297 1.064026 0.035638798 0
1.0093994 0.9780513 0.065513678 0
1.0140326 0.98254061 0.09879075 0
1.0182085 0.98658681 0.13241778 0
0.98973233 0.95899498 0.16114633 0
1.0189749 0.98732948 0.19947994 0
1.0242604 0.99245077 0.23448277 0
0.63924223 0.65145516 -0.30836514 0
0.70011759 0.71349353 -0.3120068 0
0.76126385 0.77580798 -0.31168938 0
0.83599097 0.8519628 -0.31241363 0
0.8356263 0.85159117 -0.28278029 0
0.83148396 0.84736973 -0.25234976 0
0.84609455 0.86225939 -0.22753604 0
0.83553839 0.85150158 -0.19606636 0
0.83301198 0.8489269 -0.16714682 0
0.83506584 0.85101998 -0.13934758 0
0.83537346 0.8513335 -0.11133032 0
0.83617049 0.85214573 -0.083462998 0
0.83573788 0.8517049 -0.055551603 0
0.84253639 0.85863322 -0.027969413 0
1.090759 1.1115983 4.4460445e-05 0
1.0968803 1.1178365 0.036502257 0
0.94578284 0.96385229 0.062943578 0
0.95049918 0.96865869 0.094952673 0
0.96576285 0.98421401 0.12878676 0
0.93697566 0.95487684 0.15643072 0
0.97000235 0.98853451 0.19471507 0
0.96611488 0.98457271 0.22678816 0
0.62411547 0.66899884 -0.30911478 0
0.68094856 0.72991914 -0.31157488 0
0.73326761 0.78600073 -0.30825087 0
0.82255328 0.88170737 -0.31560761 0
0.83969605 0.90008301 -0.29175225 0
0.84195274 0.90250194 -0.26235646 0
0.83412153 0.89410758 -0.23031151 0
0.84354079 0.90420425 -0.20323467 0
0.83143097 0.89122349 -0.17128846 0
0.83893967 0.8992722 -0.14373565 0
0.83681929 0.8969993 -0.1145037 0
0.84146714 0.90198141 -0.086236544 0
0.84488654 0.90564674 -0.057660703 0
0.83441252 0.89441949 -0.028440062 0
0.83805001 0.89831859 3.5072761e-05 0
1.0987793 1.1777984 0.037542742 0
0.93408573 1.0012608 0.063826606 0
0.93013465 0.99702549 0.095401742 0
0.93493325 1.0021693 0.12800777 0
0.89628553 0.96074212 0.15363677 0
0.92919737 0.99602085 0.19150926 0
0.92057568 0.98677909 0.22187386 0
0.57297921 0.64612699 -0.31434762 0
0.6104061 0.68833184 -0.31083024 0
0.66882622 0.75420994 -0.31463787 0
0.72740525 0.82026738 -0.31438938 0
0.79758155 0.8994025 -0.31463578 0
0.85730368 0.96674883 -0.30625015 0
0.83148474 0.93763381 -0.26638386 0
0.84793693 0.95618635 -0.24071296 0
0.84142959 0.94884825 -0.20842944 0
0.83291483 0.93924648 -0.17642172 0
0.84224892 0.94977218 -0.14836238 0
0.83262557 0.93892026 -0.11713512 0
0.838018 0.94500113 -0.088299274 0
0.84561914 0.95357263 -0.059334312 0
0.83508086 0.94168901 -0.029263606 0
0.84710562 0.95524889 3.6449128e-05 0
1.0933924 1.2329772 0.038409721 0
1.1028522 1.2436447 0.077478625 0
1.1001581 1.2406065 0.11601527 0
0.85423994 0.96329397 0.15054911 0
0.55978411 0.6642819 -0.31620589 0
0.59342206 0.70419919 -0.31113306 0
0.6494444 0.77067953 -0.31457031 0
0.70752597 0.83960348 -0.3148559 0
0.72081703 0.85537565 -0.29277644 0
0.84207493 0.99926937 -0.30972087 0
0.83561218 0.99160028 -0.27563635 0
0.84322596 1.0006353 -0.24646653 0
0.84638554 1.0043848 -0.21586768 0
0.84123629 0.99827427 -0.1834626 0
0.84153014 0.99862289 -0.1526269 0
0.8398006 0.99657053 -0.12164427 0
0.83785659 0.99426365 -0.090897419 0
0.83320308 0.9887414 -0.060194951 0
0.84108299 0.99809229 -0.030347032 0
0.84270626 1.0000186 3.7333946e-05 0
0.84485388 1.0025671 0.030557988 0
1.093088 1.2971405 0.079067469 0
1.1018957 1.3075922 0.1196406 0
0.79915524 0.94833767 0.14501321 0
0.54188907 0.67699957 -0.31564882 0
0.57873565 0.72303313 -0.31290111 0
0.61892366 0.77324134 -0.30914146 0
0.68537986 0.85626727 -0.3145178 0
0.73312366 0.91591507 -0.30706671 0
0.81963629 1.0239981 -0.31087464 0
0.84514052 1.0558614 -0.28747827 0
0.84189403 1.0518054 -0.25375569 0
0.83256763 1.0401536 -0.21896933 0
0.83539534 1.0436864 -0.18787371 0
0.83393145 1.0418575 -0.15596823 0
0.83571249 1.0440826 -0.12482937 0
0.84368372 1.0540414 -0.094385639 0
0.84722412 1.0584645 -0.06311781 0
0.83715087 1.0458796 -0.031147666 0
0.84297633 1.0531576 3.8511233e-05 0
0.83965647 1.0490099 0.031317651 0
1.1025412 1.3774403 0.082239769 0
1.0968981 1.3703902 0.12281425 0
1.0952058 1.368276 0.16369051 0
0.76462209 0.95526713 0.14307629 0
0.51470405 0.67738634 -0.3096737 0
0.56376088 0.74194854 -0.31482905 0
0.6090548 0.80155849 -0.31421688 0
0.65424663 0.86103404 -0.31010467 0
0.72636414 0.95594573 -0.31424102 0
0.72661406 0.95627463 -0.28465638 0
0.7246291 0.95366228 -0.25459206 0
0.73112917 0.96221685 -0.2276174 0
0.7225157 0.95088089 -0.19627456 0
0.72935808 0.9598859 -0.16942118 0
0.73137832 0.96254474 -0.14128657 0
0.73671228 0.96956456 -0.1136608 0
0.72785014 0.95790142 -0.084104873 0
0.72341865 0.95206928 -0.055666801 0
0.71603078 0.94234627 -0.027517339 0
0.71889681 0.94611818 3.3922792e-05 0
0.72558481 0.95492005 0.027953019 0
0.73386931 0.96582299 0.056540381 0
0.73487777 0.96715021 0.084986627 0
0.72213179 0.95037562 0.11148006 0
0.73027378 0.9610911 0.14114305 0
0.50371665 0.69885272 -0.31357542 0
0.54144847 0.75120163 -0.31285706 0
0.58761466 0.81525224 -0.31367126 0
0.63904792 0.88661033 -0.31340739 0
0.69538271 0.96476883 -0.31127289 0
0.73292637 1.0168567 -0.29708889 0
0.85248792 1.1827354 -0.30990335 0
0.85178995 1.181767 -0.27438021 0
0.84872591 1.1775161 -0.23855755 0
0.84475565 1.1720077 -0.20303316 0
0.8439889 1.170944 -0.16869587 0
0.83811128 1.1627893 -0.13378994 0
0.84728163 1.1755122 -0.10130151 0
0.83548218 1.1591418 -0.066520065 0
0.84037757 1.1659336 -0.033416282 0
0.84034014 1.1658816 4.1028827e-05 0
0.8343845 1.1576189 0.0332595 0
0.83844787 1.1632564 0.06683825 0
1.1031057 1.5304406 0.13199623 0
1.093846 1.5175937 0.1747213 0
1.0995607 1.5255224 0.21988821 0
0.47794583 0.69966102 -0.30842724 0
0.52492714 0.76843655 -0.31441712 0
0.55712014 0.81556362 -0.30828282 0
0.6087386 0.89112741 -0.30947459 0
0.66935843 0.97986829 -0.31059504 0
0.74135888 1.0852692 -0.31151062 0
0.8287245 1.213163 -0.31229609 0
0.93428814 1.3676968 -0.31197476 0
0.85197431 1.2471982 -0.24823931 0
0.84924835 1.2432078 -0.21158698 0
0.83534187 1.2228501 -0.17308137 0
0.83785474 1.2265286 -0.13864648 0
0.83884609 1.2279799 -0.10396539 0
0.83676535 1.224934 -0.069061741 0
0.84254801 1.2333992 -0.034729354 0
0.84929097 1.24327 4.2984197e-05 0
0.83219135 1.2182381 0.034386743 0
0.83675486 1.2249186 0.069145761 0
0.83748543 1.225988 0.10388194 0
1.0906696 1.5966223 0.18059315 0
1.1031828 1.6149403 0.22869073 0
0.46161366 0.7137751 -0.30941465 0
0.5026862 0.77728397 -0.31274638 0
0.54434645 0.84170163 -0.31287009 0
0.58989656 0.91213399 -0.3115001 0
0.64252079 0.99350476 -0.30967855 0
0.71809566 1.1103631 -0.31341144 0
0.79640591 1.2314513 -0.3117303 0
0.89849663 1.3893101 -0.31163287 0
1.0322847 1.5961814 -0.31241488 0
0.84569001 1.3076574 -0.21885355 0
0.84995818 1.314257 -0.18292448 0
0.84615004 1.3083687 -0.14543727 0
0.84274077 1.3030971 -0.10848975 0
0.8383432 1.2962973 -0.071869381 0
0.83480227 1.290822 -0.03574159 0
0.84344018 1.3041785 4.4339908e-05 0
0.83887374 1.2971176 0.036004152 0
0.83828312 1.2962043 0.071952552 0
0.8337599 1.2892103 0.10742169 0
0.84684789 1.3094478 0.14564703 0
1.0988873 1.6991665 0.23661509 0
1.0974216 1.6969001 0.28411609 0
0.44782808 0.73234224 -0.31246418 0
0.47740743 0.78071392 -0.30917987 0
0.52747989 0.86259836 -0.3155885 0
0.5686329 0.92989671 -0.31256545 0
0.62014419 1.0141342 -0.31113103 0
0.68329531 1.1174065 -0.31043288 0
0.76343912 1.2484672 -0.31106105 0
0.86511117 1.4147336 -0.31233844 0
0.98955488 1.6182388 -0.31174448 0
1.1443691 1.8714098 -0.30827281 0
0.85368055 1.3960408 -0.19124775 0
0.83248359 1.3613771 -0.14894664 0
0.83624208 1.3675233 -0.11206071 0
0.84512639 1.3820521 -0.075417198 0
0.84162772 1.3763306 -0.037509125 0
0.83659822 1.3681058 4.5780878e-05 0
0.83319145 1.3625346 0.037224382 0
0.83522487 1.3658599 0.074625216 0
0.83389139 1.3636793 0.11183742 0
0.83547467 1.3662684 0.14957403 0
1.0946957 1.7901778 0.24536316 0
1.1059953 1.8086562 0.29805902 0
0.42721197 0.73995131 -0.31101122 0
0.45648333 0.79065073 -0.30845419 0
0.49513686 0.85760045 -0.30908951 0
0.54279113 0.94013983 -0.31130454 0
0.59683853 1.0337526 -0.31242889 0
0.65389425 1.1325758 -0.30996343 0
0.73116177 1.2664068 -0.31083393 0
0.82412267 1.4274194 -0.31044814 0
0.95263618 1.6500108 -0.3131336 0
1.1054623 1.9147129 -0.31071109 0
1.3291944 2.3022275 -0.31069422 0
0.85477823 1.4805163 -0.15957034 0
0.84109634 1.4568186 -0.11760095 0
0.84243184 1.4591318 -0.078438126 0
0.83619481 1.448329 -0.038883746 0
0.83639896 1.4486825 4.775561e-05 0
0.83606958 1.4481121 0.038973447 0
0.84136099 1.4572769 0.078434706 0
0.83831996 1.4520098 0.11730896 0
0.84281802 1.4598007 0.15743469 0
0.84065068 1.4560467 0.19659625 0
1.0975578 1.901022 0.30861717 0
0.41228569 0.75762361 -0.31396547 0
0.44129014 0.81092268 -0.31191838 0
0.46920976 0.86222827 -0.30639175 0
0.51551855 0.94732618 -0.3092773 0
0.56778365 1.0433694 -0.31090537 0
0.62269729 1.1442797 -0.30876705 0
0.698915 1.2843388 -0.31080666 0
0.79049087 1.4526204 -0.31149071 0
0.91422981 1.6800052 -0.31434676 0
1.061327 1.9503136 -0.31204197 0
1.2723954 2.3381767 -0.3111127 0
1.2882327 2.3672798 -0.25156143 0
0.85075659 1.5633657 -0.12442894 0
0.83763021 1.5392444 -0.081582271 0
0.83049715 1.5261365 -0.040397059 0
0.83469099 1.5338432 4.9852581e-05 0
0.83726144 1.5385667 0.040826157 0
0.83331311 1.5313113 0.081261553 0
0.83846343 1.5407755 0.12273163 0
0.83687407 1.5378549 0.16352259 0
0.83435428 1.5332245 0.20410854 0
1.1034585 2.0277355 0.32456353 0
0.39557874 0.77274638 -0.31599438 0
0.41659304 0.81379688 -0.30888122 0
0.45344278 0.88578135 -0.3105956 0
0.4958224 0.96856809 -0.31202734 0
0.54169947 1.058187 -0.31114766 0
0.59697181 1.1661593 -0.31050643 0
0.66845244 1.3057935 -0.3118166 0
0.75344944 1.4718317 -0.31143335 0
0.86456007 1.6888815 -0.31182545 0
1.0176789 1.9879925 -0.31386098 0
1.2093681 2.3624494 -0.31018224 0
1.2472013 2.4363551 -0.25547537 0
1.2440892 2.4302757 -0.1908668 0
0.84583801 1.6523088 -0.08641585 0
0.84476316 1.6502092 -0.043103188 0
0.83534098 1.6318034 5.2334548e-05 0
0.84368271 1.6480986 0.04315383 0
0.8400414 1.6409854 0.085929126 0
0.84273434 1.646246 0.12939748 0
0.83746296 1.6359485 0.17165087 0
0.83896554 1.6388837 0.21528688 0
0.83303398 1.6272968 0.25702137 0
0.36680731 0.76344061 -0.30830508 0
0.40347803 0.83976382 -0.31477174 0
0.42827511 0.89137435 -0.30866826 0
0.47001562 0.97824931 -0.31122544 0
0.51225573 1.0661641 -0.30959308 0
0.56664383 1.1793629 -0.31011534 0
0.63770741 1.3272684 -0.31300157 0
0.71383679 1.4857174 -0.31046042 0
0.82149065 1.7097787 -0.31175637 0
0.96663296 2.0118651 -0.31367832 0
1.1540124 2.4018605 -0.31143343 0
1.4465826 3.0107901 -0.31178272 0
2.2466533 4.6759872 -0.36266968 0
3.3683004 7.0104856 -0.36208737 0
0.84815592 1.7652775 -0.045535114 0
0.83783704 1.7438006 5.5230703e-05 0
0.84417588 1.7569938 0.045432795 0
0.83640617 1.7408226 0.090022951 0
0.83423394 1.7363014 0.1347781 0
0.84716344 1.7632117 0.18270226 0
0.83393186 1.7356728 0.22516473 0
0.83677942 1.7415994 0.27165255 0
0.35530534 0.78996617 -0.31529525 0
0.37370762 0.8308807 -0.30780858 0
0.4073891 0.90576625 -0.3099927 0
0.44493264 0.9892385 -0.31104988 0
0.48460686 1.0774479 -0.30921954 0
0.53795248 1.1960536 -0.31083503 0
0.60243136 1.3394125 -0.31218037 0
0.68098432 1.5140626 -0.31269243 0
0.77536672 1.7239072 -0.31066534 0
0.91272944 2.0293119 -0.31270719 0
1.0936106 2.431473 -0.31159493 0
1.3664399 3.0380666 -0.31093693 0
2.1209993 4.7157116 -0.36148363 0
3.1887624 7.0897169 -0.36190754 0
6.376039 14.17613 -0.36140537 0
0.84544784 1.8797216 5.8841095e-05 0
0.83844393 1.8641496 0.047641285 0
0.83805197 1.863278 0.095231339 0
0.83636153 1.8595196 0.14265876 0
0.83835447 1.8639507 0.19088744 0
0.84010571 1.8678442 0.23948407 0
0.83625883 1.8592913 0.28662658 0
0.83652502 1.8598832 0.33528918 0
0.33069092 0.7877931 -0.31099766 0
0.35614726 0.84843683 -0.31088343 0
0.38765618 0.92349941 -0.31261367 0
0.42004839 1.0006663 -0.31121054 0
0.45901567 1.0934966 -0.31040171 0
0.50820524 1.2106792 -0.31120342 0
0.56993306 1.3577311 -0.31299761 0
0.64291334 1.5315894 -0.31286132 0
0.73694879 1.7556067 -0.31292635 0
0.8587296 2.0457206 -0.31179667 0
1.0320882 2.4587066 -0.31164753 0
1.2910365 3.0755901 -0.31134328 0
1.9988358 4.761755 -0.36103097 0
3.012449 7.1764493 -0.36233842 0
6.0235982 14.349801 -0.36184189 0
0.99650228 2.3739316 7.3500691e-05 0
0.85059196 2.0263348 0.051221222 0
0.83285451 1.9840794 0.10029916 0
0.83711225 1.9942225 0.15132383 0
0.84019911 2.0015762 0.20274542 0
0.84007525 2.001281 0.25379327 0
0.83840793 1.9973092 0.30454418 0
0.83654046 1.9928603 0.35534215 0
0.31486705 0.80653721 -0.31515971 0
0.33771878 0.86507237 -0.31375584 0
0.36641279 0.93857253 -0.3144854 0
0.39763641 1.0185524 -0.31355214 0
0.43604669 1.116941 -0.31383273 0
0.47398981 1.2141329 -0.30891776 0
0.51947641 1.3306476 -0.30363488 0
0.60270452 1.5438378 -0.31215662 0
0.68581414 1.7567246 -0.30994165 0
0.80218726 2.0548162 -0.30999839 0
0.96442193 2.4703829 -0.30994356 0
1.2144258 3.1107724 -0.31170273 0
1.8825432 4.822166 -0.36189359 0
2.8229194 7.2309556 -0.36137807 0
5.6554704 14.486583 -0.36157653 0
0.92718995 2.3750126 7.2786446e-05 0
0.84566522 2.1661856 0.054199558 0
0.83938175 2.1500905 0.10758613 0
0.83647424 2.1426427 0.16093288 0
0.8410275 2.1543062 0.21599698 0
0.84125662 2.1548929 0.27049488 0
0.83530891 2.1396577 0.32293171 0
0.84058291 2.1531672 0.3800222 0
0.2929157 0.81007278 -0.31355259 0
0.317839 0.87899935 -0.315797 0
0.33872238 0.93675333 -0.31091234 0
0.36584407 1.0117598 -0.30852038 0
0.40560985 1.1217339 -0.31220362 0
0.4350726 1.2032146 -0.30324927 0
0.43131712 1.1928287 -0.26961666 0
0.43630344 1.2066185 -0.24166898 0
0.64167625 1.7745872 -0.31013706 0
0.75420839 2.0858004 -0.31170174 0
0.9034186 2.4984484 -0.31050512 0
1.1338692 3.1357708 -0.31124094 0
1.7567182 4.8582902 -0.36116216 0
2.6387661 7.2976375 -0.36126712 0
5.2898703 14.629395 -0.3616935 0
0.85846478 2.3741264 7.2072318e-05 0
0.84936404 2.348958 0.058217742 0
0.839526 2.3217504 0.11507875 0
0.84386832 2.3337593 0.17363255 0
0.83941126 2.3214331 0.23055603 0
0.83797777 2.3174686 0.2881557 0
0.84362203 2.3330781 0.34879938 0
0.27186444 0.81564808 -0.31295505 0
0.29271156 0.87819362 -0.31275374 0
0.31706917 0.95127136 -0.31297523 0
0.34657821 1.0398045 -0.31430471 0
0.37552351 1.1266462 -0.3108339 0
0.4082123 1.224719 -0.30597502 0
0.40281019 1.2085117 -0.27077731 0
0.40128908 1.203948 -0.23902948 0
0.60439008 1.813292 -0.3141354 0
0.70474392 2.1143737 -0.31321388 0
0.84433776 2.5331833 -0.31207412 0
1.060534 3.1818154 -0.31305468 0
1.638943 4.9171591 -0.36234796 0
2.4592676 7.3782978 -0.36207214 0
4.9210467 14.764131 -0.3618387 0
0.79325795 2.3799334 7.1618007e-05 0
0.84837472 2.545295 0.062533252 0
0.84270859 2.5282953 0.12422248 0
0.83947271 2.5185871 0.18574829 0
0.83265132 2.4981215 0.2459386 0
0.84243739 2.5274818 0.31152594 0
