# .PCD v0.7 - Point Cloud Data file format
VERSION 0.7
FIELDS x y z intensity
SIZE 4 4 4 4
TYPE F F F F
COUNT 1 1 1 1
WIDTH 1355
HEIGHT 1
VIEWPOINT 0 0 0 1 0 0 0
POINTS 1355
DATA ascii
0.91546834 -1.6822811 -0.31477261 0
1.0576102 -1.9434835 -0.31094918 0
1.2701689 -2.3340852 -0.3105683 0
1.5974387 -2.9354823 -0.31194207 0
2.476212 -4.5503321 -0.36216289 0
3.7156401 -6.8279271 -0.36189041 0
7.4393454 -13.670675 -0.36186481 0
0.42835876 -0.74193764 -0.31184608 0
0.46502644 -0.80544776 -0.3142269 0
0.49619678 -0.85943627 -0.30975118 0
0.54986918 -0.95239943 -0.315364 0
0.5899387 -1.0218017 -0.30881703 0
0.65540326 -1.1351894 -0.31067878 0
0.72906786 -1.26278 -0.30994377 0
0.81857198 -1.4178053 -0.30835718 0
0.9492588 -1.6441611 -0.31202346 0
1.10509 -1.9140681 -0.31060642 0
1.3360717 -2.3141394 -0.31230175 0
1.6686945 -2.8902576 -0.31151256 0
2.5845544 -4.4765706 -0.36136889 0
3.8823006 -6.724328 -0.36147776 0
7.7793007 -13.474117 -0.36174387 0
0.48878551 -0.7993207 -0.31654856 0
0.52481288 -0.85823697 -0.31399286 0
0.57009399 -0.93228608 -0.31336859 0
0.62225515 -1.0175864 -0.31219012 0
0.68992782 -1.1282527 -0.31344613 0
0.75893807 -1.2411065 -0.30922711 0
0.86265904 -1.4107236 -0.3114531 0
0.98198777 -1.6058643 -0.30936059 0
1.1478821 -1.8771546 -0.30921915 0
1.3907449 -2.274313 -0.31156483 0
1.7398729 -2.8452489 -0.3112953 0
2.7064962 -4.4259877 -0.36268434 0
4.0604992 -6.6402159 -0.36234993 0
8.1188049 -13.276843 -0.36183369 0
0.46983811 -0.72649229 -0.31492743 0
0.49743563 -0.76916522 -0.30947974 0
0.55041975 -0.85109246 -0.31636077 0
0.5896892 -0.91181332 -0.31139061 0
0.64605576 -0.99897075 -0.31138232 0
0.71336842 -1.1030536 -0.31134826 0
0.79241449 -1.2252795 -0.31016797 0
0.89929247 -1.3905407 -0.3119089 0
1.0309181 -1.5940684 -0.31200132 0
1.2074617 -1.8670506 -0.31247535 0
1.4538171 -2.2479804 -0.31288448 0
1.8117056 -2.8013694 -0.31139809 0
2.811934 -4.3479834 -0.36199269 0
4.2241726 -6.5316725 -0.36212933 0
8.4545031 -13.072866 -0.36197478 0
0.48074511 -0.70375884 -0.31023365 0
0.51531279 -0.75436217 -0.30865839 0
0.56222367 -0.82303464 -0.31110686 0
0.61771947 -0.90427452 -0.31404036 0
0.66280305 -0.97027194 -0.3075532 0
0.74031788 -1.0837454 -0.31107324 0
0.82582206 -1.2089142 -0.31120235 0
0.93011636 -1.3615897 -0.31058174 0
1.0722482 -1.5696553 -0.31242037 0
1.2550603 -1.8372725 -0.31269348 0
1.4987972 -2.194077 -0.31054816 0
1.8875089 -2.7631087 -0.31234112 0
2.9204869 -4.2752771 -0.36196101 0
4.3766608 -6.4069581 -0.36122414 0
8.7668085 -12.833659 -0.3613629 0
0.50270921 -0.69745505 -0.31294826 0
0.53956264 -0.74858522 -0.3117674 0
0.57878983 -0.80300874 -0.30896053 0
0.64558703 -0.89568263 -0.31661436 0
0.7002129 -0.97147018 -0.31343502 0
0.7747497 -1.0748819 -0.31404179 0
0.85802954 -1.1904238 -0.31191787 0
0.9651714 -1.3390716 -0.31090286 0
1.1073978 -1.5363955 -0.31126434 0
1.2960131 -1.7980789 -0.31149083 0
1.5607959 -2.1654365 -0.31197071 0
1.9577212 -2.7161279 -0.31251627 0
3.0327387 -4.2075992 -0.36259609 0
4.5401812 -6.2990136 -0.36148366 0
9.0902224 -12.611707 -0.36145827 0
0.52516228 -0.69115013 -0.31596595 0
0.56277466 -0.74065053 -0.31427827 0
0.60745502 -0.79945308 -0.31339154 0
0.65637112 -0.86383003 -0.31111166 0
0.72991449 -0.96061826 -0.31577697 0
0.79426152 -1.0453033 -0.31115773 0
0.87957388 -1.1575804 -0.30903053 0
1.0033751 -1.3205113 -0.31237382 0
1.1470983 -1.5096612 -0.3116143 0
1.3366057 -1.759066 -0.31047755 0
1.6115682 -2.1209357 -0.3113203 0
2.3397171 -3.0792303 -0.36097422 0
3.1326451 -4.1227789 -0.36198485 0
4.7036924 -6.1903858 -0.36194739 0
9.4171648 -12.393644 -0.36190528 0
0.53183103 -0.66443372 -0.30979005 0
0.57667583 -0.7204597 -0.31178743 0
0.62150311 -0.77646393 -0.31042984 0
0.68377829 -0.85426635 -0.31378284 0
0.74016154 -0.92470771 -0.31001452 0
0.82076871 -1.0254128 -0.31130415 0
0.90969884 -1.1365161 -0.30943805 0
1.0327268 -1.2902189 -0.31127468 0
1.17874 -1.472638 -0.31001437 0
1.3847677 -1.7300351 -0.31142312 0
1.663172 -2.0778546 -0.31105915 0
2.4274197 -3.0326538 -0.36258075 0
3.2350481 -4.0416503 -0.36191532 0
4.8422766 -6.0496125 -0.36074737 0
9.7117872 -12.133249 -0.36134407 0
0.55018055 -0.65288556 -0.31078109 0
0.58765024 -0.69734991 -0.30810687 0
0.64396071 -0.76417214 -0.31191418 0
0.69455057 -0.82420594 -0.30908176 0
0.7555117 -0.89654696 -0.30686849 0
0.84599823 -1.0039251 -0.31116387 0
0.93882698 -1.1140827 -0.30968294 0
1.061733 -1.2599322 -0.31033397 0
1.2140284 -1.4406574 -0.3096337 0
1.4166787 -1.6811373 -0.30895904 0
1.7177595 -2.0384226 -0.31154713 0
2.4996967 -2.9663281 -0.36207855 0
3.3361869 -3.9589703 -0.36193636 0
5.0095191 -5.9446716 -0.36191386 0
10.031537 -11.904176 -0.36194688 0
0.56954026 -0.64224893 -0.31246093 0
0.61111158 -0.68912739 -0.3111895 0
0.65882176 -0.74292833 -0.30993143 0
0.7195217 -0.81137735 -0.31098205 0
0.78247637 -0.88236898 -0.30867699 0
0.87193757 -0.98325092 -0.31147775 0
0.97217703 -1.0962871 -0.31145763 0
1.0964999 -1.2364814 -0.31127518 0
1.2490668 -1.4085252 -0.30940473 0
1.4724331 -1.6604069 -0.31187963 0
1.7755316 -2.0021996 -0.31276038 0
2.5734944 -2.9020321 -0.36204338 0
3.4345264 -3.8729854 -0.36188504 0
5.1530504 -5.8108993 -0.36157259 0
10.325304 -11.643454 -0.361828 0
0.58587277 -0.62800592 -0.31262594 0
0.62946171 -0.67472959 -0.31176269 0
0.68237853 -0.73145193 -0.31222916 0
0.73964244 -0.79283398 -0.31093073 0
0.81824398 -0.87708819 -0.31395417 0
0.89444286 -0.95876694 -0.310774 0
1.0044448 -1.0766797 -0.31298977 0
1.1261407 -1.2071275 -0.31094173 0
1.2924352 -1.385381 -0.311387 0
1.5201 -1.6294183 -0.31316561 0
1.8054888 -1.9353309 -0.30933464 0
2.6463041 -2.8366137 -0.3620992 0
3.5337288 -3.7878578 -0.36214912 0
5.3033237 -5.6847134 -0.36193424 0
10.610477 -11.373532 -0.36164683 0
0.60525566 -0.6168192 -0.31456149 0
0.64569074 -0.65802681 -0.31147584 0
0.69666052 -0.70997041 -0.31046617 0
0.76220387 -0.776766 -0.31207427 0
0.84469759 -0.86083579 -0.31566736 0
0.91923827 -0.93680054 -0.31107503 0
1.0307885 -1.050482 -0.31283736 0
1.1614518 -1.1836417 -0.31234351 0
1.3235266 -1.3488129 -0.31057706 0
1.5642982 -1.5941845 -0.31388199 0
1.8543131 -1.8897403 -0.30942956 0
2.7116594 -2.7634664 -0.36138317 0
3.6293724 -3.6987126 -0.3622686 0
5.439579 -5.5435038 -0.36156952 0
10.889883 -11.097937 -0.36150798 0
0.66232389 -0.64175469 -0.31158689 0
0.72084785 -0.69846112 -0.31328937 0
0.78039932 -0.75616312 -0.31161088 0
0.86265552 -0.83586472 -0.31439438 0
0.93702775 -0.90792722 -0.30924198 0
1.0460464 -1.0135602 -0.30960566 0
1.1869751 -1.1501123 -0.31130195 0
1.3602703 -1.3180255 -0.31129405 0
1.5991939 -1.5495291 -0.31293702 0
1.9072249 -1.8479939 -0.31037703 0
2.7773759 -2.6911213 -0.3609744 0
3.7212815 -3.6057129 -0.36224353 0
5.5861712 -5.4126859 -0.36211765 0
11.167905 -10.821073 -0.36155581 0
0.6329819 -0.58308852 -0.31326526 0
0.68048328 -0.62684572 -0.31258744 0
0.74100655 -0.68259841 -0.3144629 0
0.79553354 -0.73282743 -0.31016982 0
0.86576295 -0.79752117 -0.30809289 0
0.96031857 -0.88462359 -0.3094615 0
1.080013 -0.99488348 -0.31212768 0
1.2263886 -1.1297213 -0.31406075 0
1.3878455 -1.2784517 -0.31012163 0
1.630725 -1.5021868 -0.31158882 0
1.9573504 -1.8030667 -0.31102949 0
2.8524611 -2.6276224 -0.3619985 0
3.8067782 -3.5067177 -0.36183536 0
5.7103758 -5.2602687 -0.36144769 0
11.437317 -10.535796 -0.36155394 0
0.64998627 -0.56911582 -0.31447187 0
0.69843721 -0.61153859 -0.31364483 0
0.75765836 -0.66339153 -0.31432393 0
0.80716687 -0.70674026 -0.30765295 0
0.8979485 -0.78622693 -0.31238544 0
0.97879159 -0.85701162 -0.30834594 0
1.1086792 -0.97073883 -0.31323183 0
1.2347502 -1.0811242 -0.30911589 0
1.4334549 -1.2551063 -0.31313503 0
1.6768122 -1.4681854 -0.31321478 0
2.3314888 -2.0414083 -0.3621788 0
2.9168134 -2.5539074 -0.36186984 0
3.8994777 -3.4143097 -0.36234021 0
5.8420053 -5.1151505 -0.36149257 0
11.707862 -10.251185 -0.36181223 0
0.65265357 -0.54297978 -0.30903366 0
0.70672834 -0.58796763 -0.31060517 0
0.76663983 -0.63781142 -0.31127253 0
0.83582056 -0.6953668 -0.3117857 0
0.90851158 -0.75584263 -0.30932516 0
1.0099539 -0.84023821 -0.31138301 0
1.1192318 -0.93115288 -0.30947492 0
1.2566144 -1.0454493 -0.30788583 0
1.4455843 -1.202664 -0.30905548 0
1.7036428 -1.4173577 -0.3114453 0
2.3770516 -1.9776049 -0.36138797 0
2.9728706 -2.4733007 -0.36096504 0
3.9854479 -3.3157215 -0.3624371 0
5.9690089 -4.9659591 -0.36148068 0
11.966535 -9.9556427 -0.36192572 0
0.66913992 -0.5287056 -0.31042269 0
0.72757101 -0.57487363 -0.31328893 0
0.78084451 -0.61696643 -0.31061864 0
0.85352623 -0.67439425 -0.31194177 0
0.93990624 -0.74264544 -0.31353268 0
1.0430382 -0.8241328 -0.31507003 0
1.1521008 -0.91030616 -0.3121112 0
1.303558 -1.0299765 -0.31291866 0
1.4931306 -1.179763 -0.31275505 0
1.7316759 -1.3682442 -0.31015825 0
2.4282465 -1.9186233 -0.36169401 0
3.0392928 -2.4014277 -0.36155567 0
4.0604177 -3.2082462 -0.36177596 0
6.0952125 -4.8159928 -0.36164725 0
12.215231 -9.6515856 -0.3619647 0
0.68509299 -0.5137738 -0.31170866 0
0.74731129 -0.56043333 -0.3155978 0
0.80335844 -0.60246497 -0.31342605 0
0.87182015 -0.65380663 -0.31249735 0
0.94995594 -0.7124033 -0.31078821 0
1.0536885 -0.79019576 -0.31216338 0
1.1819999 -0.88642067 -0.31405023 0
1.3164858 -0.98727602 -0.30994174 0
1.5151542 -1.1362641 -0.31126204 0
1.7614188 -1.320946 -0.30941555 0
2.4895484 -1.8669945 -0.3636905 0
3.1005106 -2.325175 -0.36174175 0
4.1410217 -3.1054885 -0.36185893 0
6.2117438 -4.6583915 -0.36147034 0
12.452398 -9.3384638 -0.36189312 0
0.69198066 -0.4921588 -0.30909234 0
0.76384383 -0.54327023 -0.31668827 0
0.80652666 -0.57362759 -0.30891532 0
0.88094139 -0.62655377 -0.30999982 0
0.96844739 -0.6887908 -0.31105131 0
1.0752952 -0.7647844 -0.31274641 0
1.1951178 -0.85000604 -0.31173626 0
1.3546748 -0.96348816 -0.31310785 0
1.5521642 -1.103949 -0.31304151 0
1.7919744 -1.2745095 -0.30903399 0
2.5242655 -1.7953385 -0.36202735 0
3.1639724 -2.2503185 -0.36240408 0
4.2103877 -2.9945629 -0.36120093 0
6.3377013 -4.507576 -0.36206445 0
12.671746 -9.0125523 -0.36154202 0
0.71104145 -0.47916803 -0.31210497 0
0.76619893 -0.51633847 -0.31216231 0
0.82672697 -0.55712801 -0.31116754 0
0.89003068 -0.59978819 -0.30777326 0
0.98783165 -0.66569585 -0.31178159 0
1.0897369 -0.7343694 -0.3114568 0
1.210844 -0.81598306 -0.31036755 0
1.3644696 -0.91951078 -0.30990908 0
1.572186 -1.05949 -0.31158724 0
1.8272392 -1.2313693 -0.30965734 0
2.568332 -1.7307888 -0.361967 0
3.2182975 -2.168798 -0.36224139 0
4.2975535 -2.8961043 -0.36229265 0
6.4432473 -4.3420792 -0.36171824 0
12.903397 -8.6955481 -0.36177438 0
0.71884167 -0.45848361 -0.31035072 0
0.7817052 -0.49857852 -0.31325325 0
0.83437592 -0.53217238 -0.3088927 0
0.90746427 -0.57878882 -0.30865204 0
1.0052289 -0.64114392 -0.31206581 0
1.1080821 -0.70674455 -0.31150267 0
1.2322936 -0.78596783 -0.31068197 0
1.3958637 -0.89029419 -0.3118366 0
1.5965402 -1.0182875 -0.31122133 0
1.8794614 -1.1987373 -0.31328031 0
2.6167297 -1.6689734 -0.36273578 0
3.2658181 -2.082968 -0.36155769 0
4.3630643 -2.7828014 -0.36177918 0
6.550498 -4.1779661 -0.36170426 0
13.114038 -8.3642502 -0.36164623 0
0.72571665 -0.4375093 -0.30845329 0
0.78124028 -0.47098252 -0.30820525 0
0.85948569 -0.51815397 -0.31324732 0
0.92122585 -0.55537498 -0.30846688 0
1.0285231 -0.62006074 -0.31433889 0
1.1269987 -0.67942828 -0.31190053 0
1.251436 -0.75444716 -0.31060848 0
1.4065574 -0.84796447 -0.30934593 0
1.6263891 -0.98049337 -0.31211653 0
1.8918889 -1.140554 -0.31045461 0
2.6575565 -1.6021482 -0.36267436 0
3.3182158 -2.0004368 -0.36165383 0
4.4350147 -2.6737161 -0.36203441 0
6.6482954 -4.0080256 -0.36140358 0
13.326233 -8.0339222 -0.36179098 0
0.79526782 -0.45248264 -0.30913544 0
0.88251215 -0.50212198 -0.3169198 0
0.95083368 -0.54099476 -0.31370896 0
1.0342178 -0.5884378 -0.31144118 0
1.1363187 -0.64652991 -0.30986518 0
1.2748032 -0.72532332 -0.31176528 0
1.43646 -0.81730109 -0.3112866 0
1.6562462 -0.94235253 -0.31318226 0
1.9376302 -1.1024513 -0.31329492 0
2.6904287 -1.5307703 -0.36177272 0
3.3577859 -1.9104757 -0.36059642 0
4.5026045 -2.5618417 -0.36215836 0
6.7491927 -3.8400807 -0.36150467 0
13.516431 -7.6904287 -0.36156994 0
0.75090194 -0.40250772 -0.3101213 0
0.81249595 -0.43552411 -0.31146029 0
0.87735796 -0.47029221 -0.31070736 0
0.96839303 -0.51909 -0.31507948 0
1.0556318 -0.5658527 -0.31348914 0
1.1582376 -0.62085277 -0.31147009 0
1.2822802 -0.68734366 -0.3092528 0
1.4599451 -0.78257775 -0.31199631 0
1.6786177 -0.89979339 -0.31301859 0
1.9561143 -1.0485405 -0.31190529 0
2.7204523 -1.4582504 -0.360746 0
3.4157505 -1.8309528 -0.36174339 0
4.5497713 -2.4388244 -0.36088628 0
6.8653836 -3.6800675 -0.36263773 0
13.713165 -7.3506999 -0.3617546 0
0.76317626 -0.3846218 -0.3110823 0
0.83157802 -0.41909459 -0.3146202 0
0.88627863 -0.44666234 -0.30977556 0
0.96874624 -0.48822397 -0.31108612 0
1.0691692 -0.53883457 -0.31337085 0
1.1773781 -0.59336919 -0.31249046 0
1.3039454 -0.65715599 -0.31037894 0
1.4784768 -0.74511546 -0.31183839 0
1.7015618 -0.85754472 -0.31316137 0
1.9764732 -0.99609321 -0.31104383 0
2.7608092 -1.391379 -0.36132574 0
3.4550276 -1.7412479 -0.36113378 0
4.6161923 -2.3264458 -0.36138225 0
6.9378581 -3.4965076 -0.36168933 0
13.89972 -7.0051126 -0.36189663 0
0.77025449 -0.36411709 -0.31012279 0
0.8289938 -0.39188454 -0.30980173 0
0.90448421 -0.42757058 -0.31226751 0
0.98098987 -0.46373659 -0.31116024 0
1.0831507 -0.51203042 -0.31358126 0
1.1868979 -0.56107408 -0.31115958 0
1.3267552 -0.62718779 -0.31194106 0
1.4973823 -0.70784718 -0.31195843 0
1.7240776 -0.81501132 -0.31341967 0
2.3238502 -1.0985377 -0.36123329 0
2.7966378 -1.3220353 -0.36153278 0
3.5048151 -1.6568071 -0.36185172 0
4.6680379 -2.2066894 -0.36096597 0
7.0300193 -3.3232527 -0.36200601 0
14.058487 -6.6457715 -0.36154807 0
0.77978587 -0.34482762 -0.31035745 0
0.84001893 -0.37146315 -0.31031942 0
0.9177416 -0.40583277 -0.31320855 0
0.98523104 -0.43567711 -0.30891925 0
1.08114 -0.47808886 -0.30940723 0
1.1971679 -0.52939731 -0.31025028 0
1.3434865 -0.59410059 -0.31224999 0
1.5118784 -0.66856486 -0.31136391 0
1.7340472 -0.7668097 -0.31161454 0
2.3480124 -1.0383101 -0.36080068 0
2.8378601 -1.2549247 -0.36265177 0
3.5414853 -1.5660734 -0.36144179 0
4.7243714 -2.0891552 -0.36112979 0
7.1088128 -3.1435745 -0.36186257 0
14.224889 -6.2903609 -0.36162937 0
0.79418027 -0.32749349 -0.31269714 0
0.85918492 -0.35429925 -0.31399634 0
0.91991472 -0.37934217 -0.31058377 0
1.0106065 -0.41674045 -0.31347796 0
1.1002929 -0.45372418 -0.31151205 0
1.207594 -0.49797156 -0.30959657 0
1.3477386 -0.55576247 -0.30987948 0
1.5262218 -0.629363 -0.31094748 0
1.7465898 -0.72023547 -0.31050295 0
2.3898923 -0.98551202 -0.36329827 0
2.8542085 -1.1769805 -0.36082992 0
3.5690475 -1.4717562 -0.36034894 0
4.7830648 -1.9723766 -0.36169586 0
7.187912 -2.9640553 -0.36196566 0
14.392406 -5.9349489 -0.3619647 0
0.7917546 -0.30335292 -0.30862921 0
0.86759937 -0.33241206 -0.31390539 0
0.93777758 -0.35930017 -0.31345317 0
1.0267076 -0.39337283 -0.31529227 0
1.1163756 -0.42772818 -0.31290931 0
1.2269011 -0.47007495 -0.31140554 0
1.3687295 -0.52441508 -0.31156334 0
1.5330809 -0.5873847 -0.30922607 0
1.7716552 -0.67879206 -0.31181401 0
2.406117 -0.92187983 -0.36211237 0
2.8965831 -1.109797 -0.36253041 0
3.6212153 -1.3874326 -0.36196524 0
4.8348241 -1.8524148 -0.36195919 0
7.2595916 -2.7814403 -0.36192489 0
14.522193 -5.564034 -0.36158186 0
0.81494653 -0.28887677 -0.31472725 0
0.85756481 -0.30398378 -0.307401 0
0.94619519 -0.33540091 -0.3133375 0
1.0318928 -0.36577839 -0.31394956 0
1.1214169 -0.39751232 -0.31141108 0
1.2357411 -0.43803719 -0.31074426 0
1.383175 -0.49029854 -0.31193542 0
1.5629922 -0.55403894 -0.31233931 0
1.7823592 -0.63179868 -0.31079245 0
2.4271588 -0.86036289 -0.36189586 0
2.9145257 -1.0331215 -0.3613975 0
3.6436894 -1.2915905 -0.36083832 0
4.867063 -1.7252437 -0.36099789 0
7.3182425 -2.5941212 -0.36146966 0
14.667562 -5.1992588 -0.36181885 0
0.81448519 -0.26577863 -0.31185919 0
0.89375621 -0.29164594 -0.3176344 0
0.95300531 -0.31097978 -0.31289387 0
1.0329772 -0.3370758 -0.31159192 0
1.1311251 -0.36910293 -0.31142086 0
1.2605349 -0.41133124 -0.31426829 0
1.3952626 -0.45529491 -0.31197056 0
1.5598389 -0.50899863 -0.30904356 0
1.8042898 -0.58876657 -0.31192604 0
2.4349263 -0.79455256 -0.35994929 0
2.9514706 -0.96310872 -0.36284894 0
3.6818357 -1.2014376 -0.36149794 0
4.9269843 -1.6077482 -0.3623172 0
7.3989997 -2.4144034 -0.36233324 0
14.800295 -4.829556 -0.36197093 0
0.82903165 -0.24756251 -0.31493622 0
0.89057815 -0.26594132 -0.3140195 0
0.96965939 -0.28955626 -0.31586179 0
1.0584515 -0.31607109 -0.31676894 0
1.1444395 -0.34174848 -0.31261227 0
1.2548726 -0.37472564 -0.31039983 0
1.3962458 -0.416942 -0.30973884 0
1.5710247 -0.46913385 -0.30881551 0
1.8390442 -0.54916894 -0.31543773 0
2.4685547 -0.73715115 -0.36205491 0
2.9591913 -0.88366336 -0.36094129 0
3.7216008 -1.1113313 -0.36253285 0
4.9469104 -1.4772289 -0.36092585 0
7.4387808 -2.2213426 -0.36142072 0
14.902636 -4.4501724 -0.36161178 0
0.82497805 -0.22384335 -0.31115103 0
0.88605851 -0.24041647 -0.31018755 0
0.96202248 -0.26102796 -0.31112897 0
1.0552562 -0.28632531 -0.31355006 0
1.1480744 -0.31150988 -0.31135842 0
1.2653382 -0.34332737 -0.31074619 0
1.3978909 -0.37929323 -0.3078821 0
1.5860909 -0.43035799 -0.30954337 0
1.8188864 -0.493523 -0.30974507 0
2.4906979 -0.67580724 -0.36268538 0
2.9947696 -0.81257832 -0.36266387 0
3.732024 -1.0126194 -0.36094365 0
4.9767518 -1.3503546 -0.36050171 0
7.5062542 -2.0366907 -0.36208618 0
15.017548 -4.074749 -0.36178944 0
0.82780164 -0.20233099 -0.31019118 0
0.9041816 -0.22099975 -0.3144792 0
0.96797371 -0.2365918 -0.31102341 0
1.0499653 -0.25663215 -0.3099547 0
1.1421942 -0.27917469 -0.30775478 0
1.2841047 -0.31386042 -0.31330976 0
1.4078475 -0.3441056 -0.3080641 0
1.5913004 -0.3889451 -0.30854601 0
1.8401077 -0.44975847 -0.31132671 0
2.4961202 -0.61010087 -0.36111775 0
3.0060508 -0.73473787 -0.36166918 0
3.7547717 -0.91774005 -0.36078858 0
5.022912 -1.2276983 -0.36148575 0
7.5496974 -1.8452945 -0.36181995 0
15.117683 -3.6950591 -0.36183986 0
0.83646429 -0.18221273 -0.31161469 0
0.88789308 -0.19341581 -0.30701834 0
0.988657 -0.2153659 -0.31582215 0
1.0655371 -0.23211323 -0.31272256 0
1.1633133 -0.25341249 -0.31162259 0
1.2909335 -0.28121287 -0.31314448 0
1.41846 -0.30899283 -0.30858156 0
1.611443 -0.35103163 -0.31063479 0
1.8262366 -0.39782158 -0.30718327 0
2.5224516 -0.54948288 -0.36280525 0
3.0229194 -0.65850317 -0.36158395 0
3.77999 -0.823421 -0.36109981 0
5.0701685 -1.1044694 -0.36276498 0
7.5979033 -1.6551032 -0.36201295 0
15.191332 -3.3092318 -0.36148843 0
0.84237975 -0.16135338 -0.31220189 0
0.91448396 -0.17516455 -0.31458414 0
0.97947198 -0.18761268 -0.31127629 0
1.0556087 -0.20219627 -0.30821285 0
1.1604924 -0.22228619 -0.30926564 0
1.2963463 -0.24830826 -0.31283763 0
1.4372345 -0.27529466 -0.31105527 0
1.6334506 -0.31287882 -0.31325516 0
1.8502896 -0.35441318 -0.30962592 0
2.5285444 -0.48432928 -0.36180815 0
3.0336227 -0.58107436 -0.36099502 0
3.8113492 -0.73004377 -0.36222002 0
5.0855355 -0.97410744 -0.36199015 0
7.6200299 -1.4595764 -0.36119696 0
15.279701 -2.9267459 -0.3617183 0
0.83917385 -0.13888796 -0.30961597 0
0.90014547 -0.1489791 -0.30826002 0
0.98951161 -0.16376969 -0.31305358 0
1.0702966 -0.17714006 -0.31109688 0
1.1810503 -0.19547041 -0.31332967 0
1.2933162 -0.21405105 -0.31070375 0
1.4454867 -0.2392361 -0.31143528 0
1.6244614 -0.26885742 -0.31013116 0
1.87396 -0.31015083 -0.31217757 0
2.5267422 -0.41818994 -0.35992542 0
3.0628009 -0.50691062 -0.36282915 0
3.8247426 -0.63301623 -0.36185926 0
5.1058631 -0.84504879 -0.36180371 0
7.6847143 -1.2718631 -0.36262602 0
15.360138 -2.5421884 -0.36198828 0
0.83893251 -0.11718468 -0.30833751 0
0.91038364 -0.12716518 -0.31056812 0
0.98749197 -0.13793592 -0.31121412 0
1.0793601 -0.15076835 -0.31252575 0
1.1738335 -0.16396467 -0.31021839 0
1.2834733 -0.17927951 -0.30715424 0
1.4568861 -0.20350234 -0.31268513 0
1.6514834 -0.23068428 -0.31407845 0
1.8812852 -0.26278371 -0.31219357 0
2.5364752 -0.35430264 -0.35992342 0
3.0583014 -0.42719296 -0.36090395 0
3.8302593 -0.53502244 -0.36098871 0
5.1200256 -0.71518093 -0.36141312 0
7.695981 -1.0749984 -0.36176217 0
15.408039 -2.1522424 -0.36172181 0
0.84808493 -0.09671732 -0.31070524 0
0.90675569 -0.10340825 -0.30834195 0
1.0025723 -0.11433537 -0.31495702 0
1.0839796 -0.12361923 -0.31286028 0
1.1847315 -0.13510917 -0.31209791 0
1.2980597 -0.14803335 -0.30965224 0
1.4649072 -0.16706097 -0.31340191 0
1.6327245 -0.1861992 -0.30951858 0
1.8793061 -0.21431985 -0.3108685 0
2.5603676 -0.29198948 -0.36215267 0
3.0660162 -0.34965467 -0.36065808 0
3.853301 -0.43943822 -0.36199972 0
5.1402812 -0.58620805 -0.3616834 0
7.7154856 -0.87988955 -0.36151996 0
15.443264 -1.761181 -0.36139014 0
0.85864025 -0.076030999 -0.31376934 0
0.9253791 -0.081940591 -0.31387162 0
0.98215002 -0.086967558 -0.30775383 0
1.0931239 -0.096794084 -0.31469423 0
1.1200631 -0.099179491 -0.29430893 0
1.1445397 -0.10134686 -0.27233312 0
1.4603437 -0.12931071 -0.31162813 0
1.6584853 -0.14685579 -0.31359959 0
1.8957767 -0.1678675 -0.31279257 0
2.564939 -0.22712056 -0.36187324 0
3.0895021 -0.27356967 -0.36249313 0
3.8684614 -0.34254503 -0.36249632 0
5.1529303 -0.45628241 -0.36164793 0
7.7468262 -0.68596703 -0.36206195 0
15.494872 -1.3720421 -0.36167231 0
0.86016154 -0.054334644 -0.31372422 0
0.93373024 -0.058981828 -0.3160986 0
0.98431617 -0.062177237 -0.30784282 0
1.0808681 -0.068276227 -0.31057096 0
1.1422135 -0.072151288 -0.29955533 0
1.1448444 -0.072317474 -0.27188474 0
1.4590243 -0.092163578 -0.31075126 0
1.6546122 -0.10451847 -0.31226897 0
1.8896872 -0.11936767 -0.31119165 0
2.5668755 -0.16214427 -0.36145398 0
3.0817935 -0.19467059 -0.36089727 0
3.8682144 -0.24434718 -0.36178008 0
5.1703191 -0.32659847 -0.36217445 0
7.757803 -0.49004453 -0.36188167 0
15.522394 -0.98051786 -0.36162192 0
0.85521299 -0.032385692 -0.31152204 0
0.91490328 -0.034646075 -0.30933049 0
0.99724811 -0.037764359 -0.31149 0
1.0864229 -0.041141283 -0.3117694 0
1.1399273 -0.043167416 -0.29857492 0
1.1527976 -0.043654792 -0.27342477 0
1.4631938 -0.055409051 -0.31124231 0
1.6609885 -0.062899254 -0.31307304 0
1.8837034 -0.071333148 -0.30981109 0
2.5630169 -0.097057775 -0.36045086 0
3.1036582 -0.1175311 -0.36299479 0
3.8890955 -0.14727448 -0.36326972 0
5.1608911 -0.19543555 -0.36105353 0
7.7661123 -0.29409155 -0.36180782 0
15.558424 -0.58917522 -0.36199957 0
0.85217321 -0.010752293 -0.31021711 0
0.91646469 -0.01156349 -0.30966112 0
0.986678 -0.012449407 -0.30799219 0
1.0991888 -0.013869012 -0.31523198 0
1.1276032 -0.01422753 -0.29515889 0
1.1411511 -0.01439847 -0.27049008 0
1.1220466 -0.014157419 -0.23852345 0
1.1385506 -0.01436566 -0.2144642 0
1.1214232 -0.014149554 -0.1843221 0
1.1412729 -0.014400007 -0.16040117 0
1.1280023 -0.014232566 -0.13184385 0
1.1505291 -0.014516798 -0.10739933 0
1.1237717 -0.014179185 -0.078568488 0
1.1224704 -0.014162767 -0.05226038 0
1.1386828 -0.014367327 -0.026476992 0
1.1211284 -0.014145834 3.2008957e-05 0
1.1325214 -0.014289585 0.026398428 0
1.1429813 -0.014421564 0.053280745 0
1.1292087 -0.014247786 0.079013407 0
1.1298947 -0.014256443 0.10553823 0
1.13696 -0.01434559 0.13295667 0
1.1482569 -0.014488128 0.16144961 0
0.98004395 -0.012365702 0.16114184 0
0.85927325 0.010841877 -0.31280172 0
0.92874295 0.011718411 -0.31380978 0
0.9962585 0.012570288 -0.31098273 0
1.0932853 0.013794524 -0.31353894 0
1.1369357 0.014345283 -0.29760176 0
1.1419232 0.014408212 -0.2706731 0
1.4669377 0.018509081 -0.31184003 0
1.6658238 0.021018526 -0.31378451 0
1.9070971 0.024062792 -0.31345895 0
2.5658929 0.032375146 -0.36062559 0
3.1001327 0.039115913 -0.36235157 0
3.8715169 0.048848853 -0.3613975 0
5.1757402 0.065304883 -0.36186185 0
7.7663751 0.097992212 -0.3615897 0
15.561127 0.19634247 -0.36183193 0
0.85087734 0.032221507 -0.30994272 0
0.91270351 0.034562774 -0.30858678 0
1.0047318 0.038047753 -0.31382751 0
1.1031201 0.04177358 -0.31656098 0
1.1280886 0.0427191 -0.29547408 0
1.1550963 0.043741841 -0.27396998 0
1.4613117 0.055337783 -0.31084198 0
1.6551094 0.062676623 -0.31196493 0
1.8950874 0.071764246 -0.31168342 0
2.5802777 0.097711422 -0.36287838 0
3.0989726 0.11735365 -0.36244676 0
3.8697937 0.14654355 -0.36146677 0
5.1695433 0.1957632 -0.36165887 0
7.7613606 0.29391161 -0.36158645 0
15.541324 0.58852768 -0.36160171 0
0.85048854 0.053723622 -0.31019622 0
0.91462994 0.057775304 -0.30963251 0
1.0031449 0.063366607 -0.31373143 0
1.0805565 0.068256542 -0.3104814 0
1.1127976 0.070293151 -0.29184076 0
1.1438533 0.072254874 -0.27164939 0
1.4570191 0.092036918 -0.31032416 0
1.6503969 0.1042522 -0.31147346 0
1.8980604 0.11989659 -0.31257054 0
2.5635998 0.16193736 -0.36099273 0
3.0792127 0.19450757 -0.36059505 0
3.8760128 0.24483979 -0.36250943 0
5.1722507 0.32672048 -0.36230978 0
7.7642345 0.4904508 -0.36218166 0
15.539873 0.98162198 -0.36202911 0
0.85613221 0.075808913 -0.31285283 0
0.93001264 0.082350887 -0.31544322 0
1.0019926 0.088724568 -0.31397143 0
1.0848844 0.096064493 -0.31232217 0
1.1884512 0.10523514 -0.31227869 0
1.3128206 0.11624782 -0.31237409 0
1.4727877 0.13041261 -0.31428361 0
1.6625658 0.14721711 -0.31437117 0
1.8854481 0.16695291 -0.31108841 0
2.5667949 0.22728491 -0.36213508 0
3.0923607 0.27382278 -0.36282852 0
3.8627999 0.34204373 -0.36196584 0
5.1565485 0.45660278 -0.36190188 0
7.7380214 0.6851874 -0.36165044 0
15.503654 1.3728197 -0.36187729 0
0.85243362 0.097213246 -0.31229842 0
0.90564781 0.10328191 -0.30796522 0
0.99019587 0.11292394 -0.31106898 0
1.0729772 0.12236448 -0.30968475 0
1.1828452 0.13489406 -0.31160101 0
1.2934858 0.14751172 -0.30856112 0
1.4314201 0.16324203 -0.3062377 0
1.6465853 0.18777992 -0.31214619 0
1.8930738 0.21588996 -0.31314591 0
2.5541101 0.29127586 -0.36126757 0
3.0822113 0.35150158 -0.36256313 0
3.8401883 0.43794283 -0.36076784 0
5.1408353 0.58627123 -0.36172238 0
7.7231307 0.88076144 -0.36187819 0
15.459817 1.7630687 -0.36177748 0
0.8722012 0.12183175 -0.32056493 0
0.91996151 0.12850305 -0.3138355 0
0.98643589 0.1377884 -0.31088129 0
1.0801247 0.15087515 -0.31274712 0
1.1741822 0.16401339 -0.31031057 0
1.2908541 0.18031047 -0.30892056 0
1.4461101 0.20199712 -0.31037235 0
1.6370115 0.22866282 -0.31132621 0
1.8697419 0.26117131 -0.310278 0
2.5439842 0.35535154 -0.36098894 0
3.0656652 0.42822155 -0.36177292 0
3.8395848 0.53632504 -0.36186758 0
5.1132965 0.71424103 -0.36093813 0
7.7044468 1.0761809 -0.36216012 0
15.416983 2.1534917 -0.36193177 0
0.84113765 0.13921297 -0.31034052 0
0.9089008 0.15042815 -0.31125835 0
0.98330718 0.16274282 -0.31109068 0
1.0731766 0.17761672 -0.31193399 0
1.1671541 0.1931705 -0.30964303 0
1.2963969 0.21456091 -0.31144384 0
1.4471519 0.2395117 -0.31179407 0
1.6302451 0.26981464 -0.31123534 0
1.8756835 0.31043607 -0.31246468 0
2.5346024 0.41949084 -0.36104509 0
3.0660658 0.507451 -0.36321592 0
3.828402 0.63362187 -0.36220548 0
5.0960312 0.84342152 -0.36110702 0
7.6715884 1.2696906 -0.36200663 0
15.343464 2.5394287 -0.36159533 0
0.84296626 0.16146572 -0.31241927 0
0.90796626 0.17391613 -0.31234205 0
0.97129238 0.18604591 -0.30867681 0
1.0710709 0.20515797 -0.31272739 0
1.1622386 0.22262065 -0.30973095 0
1.2770965 0.24462107 -0.30819222 0
1.3488706 0.25836903 -0.29193103 0
1.3515334 0.2588791 -0.25919047 0
1.3455364 0.25773036 -0.22516094 0
1.3475188 0.25811011 -0.19281581 0
1.3481295 0.25822705 -0.16042471 0
1.3336382 0.25545135 -0.12674527 0
5.0816569 0.97336453 -0.36171409 0
7.6231217 1.4601687 -0.36134353 0
15.275222 2.9258878 -0.36161226 0
0.83782375 0.18250887 -0.31212115 0
0.91080606 0.1984071 -0.31494126 0
0.96863723 0.21100487 -0.30942693 0
1.0720332 0.2335283 -0.31462908 0
1.1687346 0.25459343 -0.31307483 0
1.2088194 0.26332539 -0.29322588 0
1.1967788 0.26070249 -0.2603555 0
1.2276659 0.26743084 -0.23665479 0
1.2107326 0.26374215 -0.20365204 0
1.1963782 0.26061523 -0.17207557 0
1.2086999 0.26329935 -0.14457762 0
1.2108096 0.26375893 -0.11566781 0
5.0584388 1.1019143 -0.36192578 0
7.582633 1.6517767 -0.36128539 0
15.190453 3.3090398 -0.36146748 0
0.83548695 0.20420943 -0.31307098 0
0.89677697 0.21918991 -0.31190383 0
0.97205681 0.23758979 -0.3123354 0
1.0553126 0.25793916 -0.31153324 0
1.142325 0.27920669 -0.30779004 0
1.2159736 0.29720786 -0.29668641 0
1.206682 0.29493678 -0.26404521 0
1.2065535 0.29490536 -0.2339453 0
1.2097496 0.29568657 -0.20467679 0
1.2090069 0.29550505 -0.17490898 0
1.2131603 0.29652023 -0.14595984 0
1.1921933 0.29139546 -0.11455549 0
5.0155792 1.2259061 -0.36095804 0
7.5376682 1.8423543 -0.36124346 0
15.109956 3.6931701 -0.36165488 0
0.84465986 0.22918367 -0.31857428 0
0.8937515 0.24250382 -0.31288069 0
0.95875263 0.26014075 -0.31007147 0
1.049764 0.28483507 -0.31191814 0
1.1531168 0.31287807 -0.31272593 0
1.210513 0.32845151 -0.29728204 0
1.2072604 0.32756898 -0.2658962 0
1.2017286 0.32606801 -0.23453078 0
1.188872 0.32257959 -0.20245753 0
1.2093543 0.3281371 -0.1761013 0
1.211926 0.32883492 -0.14676315 0
1.2132612 0.3291972 -0.11734086 0
4.9970808 1.3558704 -0.36197424 0
7.4928746 2.0330603 -0.36144078 0
15.017147 4.0746398 -0.36177978 0
0.81844091 0.24439995 -0.31091297 0
0.88330138 0.26376835 -0.3114537 0
0.95968425 0.28657752 -0.31261241 0
1.0404775 0.31070372 -0.31138974 0
1.1385002 0.33997494 -0.31098992 0
1.2161881 0.36317378 -0.30083099 0
1.2058206 0.36007789 -0.26749551 0
1.2052841 0.3599177 -0.23692206 0
1.2134039 0.36234242 -0.20812625 0
1.2180334 0.36372483 -0.178645 0
1.218119 0.36375043 -0.14857757 0
1.2032765 0.3593182 -0.11721496 0
4.9557595 1.4798715 -0.36157149 0
7.4436851 2.2228072 -0.36165902 0
14.91049 4.452518 -0.36180237 0
0.82526106 0.26929495 -0.31598517 0
0.88118351 0.28754327 -0.31316614 0
0.952604 0.31084883 -0.31276211 0
1.0348501 0.33768699 -0.31215689 0
1.1205802 0.36566195 -0.30851763 0
1.2161546 0.3968493 -0.3032037 0
1.2114142 0.39530244 -0.27086341 0
1.1878513 0.38761353 -0.2353434 0
1.2027849 0.39248657 -0.20793773 0
1.2133752 0.39594236 -0.17937034 0
1.2045698 0.393069 -0.14808781 0
1.2050638 0.3932302 -0.11831818 0
4.9217091 1.6060268 -0.3619293 0
7.3868985 2.4104548 -0.36174062 0
14.796299 4.8282523 -0.36187321 0
0.80929059 0.28687188 -0.31254297 0
0.8692854 0.30813843 -0.31160235 0
0.94566083 0.33521149 -0.31316054 0
1.0261304 0.3637358 -0.3121964 0
1.1115297 0.39400759 -0.30866548 0
1.19965 0.42524385 -0.30166864 0
1.2009786 0.42571482 -0.27084625 0
1.2030143 0.42643639 -0.2404034 0
1.2012131 0.42579794 -0.2094572 0
1.2039807 0.42677894 -0.17951672 0
1.1977724 0.42457828 -0.14852226 0
1.1904104 0.42196867 -0.11788758 0
1.4961613 0.5303492 -0.11097269 0
7.3339405 2.5996859 -0.36224502 0
14.664324 5.1981106 -0.36173895 0
0.80422783 0.30813187 -0.31349131 0
0.85758859 0.32857656 -0.31028339 0
0.92612082 0.35483396 -0.30955687 0
1.0020725 0.38393408 -0.30772704 0
1.1057231 0.42364681 -0.30992353 0
1.1903615 0.45607516 -0.30213127 0
1.20307 0.46094432 -0.27385437 0
1.2097799 0.46351513 -0.24401549 0
1.198323 0.45912555 -0.21090667 0
1.1954515 0.45802537 -0.17991136 0
1.2083032 0.46294937 -0.15122877 0
1.2218843 0.46815282 -0.1221357 0
4.8373823 1.853395 -0.36215067 0
7.2601891 2.7816694 -0.36195466 0
14.536464 5.5695014 -0.36193717 0
0.79248106 0.32679278 -0.31202811 0
0.84718394 0.34935045 -0.30961046 0
0.91825223 0.37865663 -0.3100225 0
1.0077535 0.41556397 -0.31259298 0
1.1102316 0.45782256 -0.3143259 0
1.2046072 0.49673992 -0.30883083 0
1.2141812 0.5006879 -0.27917123 0
1.2128483 0.50013828 -0.2471018 0
1.2065318 0.49753353 -0.21449323 0
1.2021592 0.4957304 -0.18274562 0
1.1995777 0.49466586 -0.15165098 0
1.2096821 0.49883258 -0.12213557 0
4.7817569 1.9718372 -0.36159694 0
7.1843328 2.9625795 -0.36178544 0
14.393996 5.9356046 -0.3620047 0
0.78278154 0.34615234 -0.31154972 0
0.84877825 0.37533659 -0.3135553 0
0.91986293 0.40677083 -0.31393254 0
0.99223733 0.43877536 -0.3111161 0
1.105181 0.48871994 -0.31628743 0
1.2056994 0.53317004 -0.31246129 0
1.2168082 0.53808242 -0.28280771 0
1.2170384 0.53818417 -0.25064304 0
1.2231636 0.54089284 -0.21980689 0
1.1937127 0.5278694 -0.1834285 0
1.2057056 0.53317279 -0.15407781 0
1.1938708 0.52793932 -0.12184571 0
4.7286897 2.0910647 -0.36145985 0
7.0959044 3.1378663 -0.36120552 0
14.234921 6.2947969 -0.36188442 0
0.7683804 0.36323118 -0.30936825 0
0.83153844 0.39308745 -0.31075269 0
0.91141081 0.43084493 -0.31465888 0
0.99012178 0.46805343 -0.31405678 0
1.0764481 0.5088619 -0.31164077 0
1.1834402 0.55943954 -0.31025311 0
1.3102812 0.61940014 -0.30806777 0
1.4888524 0.70381492 -0.31018135 0
1.7106706 0.80867356 -0.31098241 0
2.3206882 1.097043 -0.36074176 0
2.7973981 1.3223947 -0.3616311 0
3.5160844 1.6621343 -0.3630152 0
4.6719761 2.2085509 -0.36127052 0
7.0209885 3.3189833 -0.36154094 0
14.071684 6.6520104 -0.36188745 0
0.76207614 0.38406736 -0.3106339 0
0.82981271 0.4182049 -0.3139523 0
0.91311252 0.46018595 -0.31915465 0
0.97249168 0.49011156 -0.31228885 0
1.0511755 0.52976626 -0.30809698 0
1.1663144 0.58779341 -0.30955404 0
1.3031405 0.65675038 -0.31018734 0
1.4783128 0.74503285 -0.31180382 0
1.6956099 0.85454518 -0.31206599 0
1.9790282 0.99738091 -0.31144592 0
2.7619619 1.39196 -0.3614766 0
3.4590147 1.7432572 -0.36155051 0
4.6222572 2.3295026 -0.36185706 0
6.9459252 3.5005732 -0.3621099 0
13.892152 7.001298 -0.36169958 0
0.75796372 0.40629306 -0.31303778 0
0.82765287 0.4436487 -0.31727049 0
0.89197195 0.47812578 -0.31588277 0
0.95885193 0.51397562 -0.31197515 0
1.054597 0.56529814 -0.31318188 0
1.1545349 0.61886805 -0.3104744 0
1.2923653 0.69274956 -0.31168506 0
1.4513012 0.77794433 -0.31014907 0
1.6635263 0.8917039 -0.31020445 0
1.9459925 1.0431149 -0.31029135 0
2.7321742 1.4645337 -0.36230034 0
3.4122519 1.8290774 -0.36137286 0
4.5634732 2.4461691 -0.36197314 0
6.8463812 3.6698816 -0.36163399 0
13.708301 7.3480921 -0.36162627 0
0.74294502 0.42271256 -0.31114221 0
0.80490559 0.45796624 -0.31288183 0
0.87336737 0.49691886 -0.3136358 0
0.9414925 0.53567994 -0.31062704 0
1.0321448 0.58725828 -0.31081691 0
1.1382539 0.64763105 -0.31039289 0
1.2006524 0.68313384 -0.29363099 0
1.2045202 0.68533456 -0.26102433 0
1.6462625 0.93667215 -0.31129444 0
1.9469607 1.1077601 -0.31480357 0
2.6831181 1.5266107 -0.36078969 0
3.3706133 1.9177741 -0.36197394 0
4.4894137 2.5543368 -0.3610974 0
6.7647161 3.848913 -0.36233616 0
13.506865 7.6849856 -0.36131403 0
0.73846757 0.44519636 -0.31387284 0
0.7811656 0.47093752 -0.3081758 0
0.86502701 0.52149469 -0.31526691 0
0.92522728 0.5577873 -0.30980673 0
1.0158143 0.61239904 -0.31045479 0
1.1203649 0.67542899 -0.31006461 0
1.1458148 0.69077176 -0.2843931 0
1.1423025 0.68865442 -0.251228 0
1.6227769 0.97831559 -0.3114233 0
1.9004279 1.1457018 -0.31185585 0
2.654933 1.6005666 -0.36231634 0
3.3188331 2.000809 -0.3617211 0
4.4251471 2.667767 -0.36122891 0
6.6510448 4.0096831 -0.36155301 0
13.329825 8.036087 -0.3618885 0
0.71883768 0.45848107 -0.31034899 0
0.78290105 0.49934128 -0.3137325 0
0.83354861 0.5316447 -0.30858645 0
0.90603513 0.57787728 -0.30816594 0
1.0087245 0.64337343 -0.31315097 0
1.1043226 0.70434678 -0.31044582 0
1.1388994 0.72640014 -0.28713569 0
1.1371522 0.72528577 -0.25404033 0
1.5962052 1.0180739 -0.311156 0
1.872039 1.1940031 -0.31204307 0
2.6199801 1.6710466 -0.36318633 0
3.2669461 2.0836873 -0.36168256 0
4.3677349 2.7857802 -0.36216646 0
6.5569725 4.1820955 -0.3620618 0
13.124932 8.3711987 -0.36194667 0
0.7112788 0.47932798 -0.31220919 0
0.76831359 0.5177635 -0.31302384 0
0.82735366 0.55755037 -0.31140342 0
0.89416832 0.60257649 -0.30920404 0
0.98846406 0.66612202 -0.31198117 0
1.0899333 0.73450178 -0.31151292 0
1.1450771 0.77166295 -0.29350996 0
1.1406143 0.76865542 -0.25906527 0
1.577601 1.0631391 -0.31266046 0
1.8303672 1.2334772 -0.31018743 0
2.5604999 1.7255107 -0.36086318 0
3.2074556 2.1614916 -0.36102107 0
4.2858067 2.8881884 -0.36130241 0
6.4366031 4.3376017 -0.36134523 0
12.896377 8.6908169 -0.36157757 0
0.70081276 0.4984405 -0.31303746 0
0.74781102 0.53186715 -0.3100411 0
0.82323414 0.58551049 -0.31531459 0
0.89024949 0.633174 -0.31327531 0
0.9638797 0.68554217 -0.30958426 0
1.0867261 0.77291441 -0.31607106 0
1.1958355 0.8505165 -0.31192347 0
1.14059 0.8112241 -0.26362613 0
1.5441359 1.0982389 -0.31142238 0
1.805722 1.2842873 -0.31140482 0
2.5244088 1.7954404 -0.36204788 0
3.1458347 2.2374184 -0.36032656 0
4.2131987 2.9965618 -0.36144206 0
6.3367939 4.5069308 -0.36201262 0
12.683564 9.020957 -0.3618792 0
0.68266916 0.5119561 -0.31060582 0
0.72966206 0.54719764 -0.30814433 0
0.78714556 0.5903064 -0.30710068 0
0.86899203 0.65168571 -0.31148362 0
0.96301454 0.72219634 -0.31506044 0
1.0510746 0.78823549 -0.31138897 0
1.0963064 0.82215631 -0.29128197 0
1.1004261 0.8252458 -0.25907457 0
1.0994903 0.82454395 -0.22587112 0
1.090582 0.81786335 -0.19157454 0
1.1067985 0.83002466 -0.16168879 0
1.0956908 0.82169473 -0.12783609 0
1.0939658 0.82040101 -0.095595077 0
1.0984867 0.82379138 -0.063922532 0
1.1056973 0.82919884 -0.032133911 0
0.68124318 0.53826874 -0.31603757 0
0.71841162 0.56763655 -0.30934492 0
0.77902609 0.61552966 -0.30989525 0
0.85068375 0.67214835 -0.31090289 0
0.93656659 0.74000669 -0.31241861 0
1.0269984 0.81145936 -0.31022492 0
1.0932508 0.86380708 -0.29616836 0
1.0888958 0.86036611 -0.26138908 0
1.098882 0.86825651 -0.23017471 0
1.0904492 0.86159354 -0.19530895 0
1.1001955 0.86929429 -0.16387716 0
1.0958425 0.86585492 -0.13036193 0
1.1054633 0.87345654 -0.098494805 0
1.0869114 0.85879821 -0.064489722 0
1.090084 0.86130494 -0.032301635 0
0.71313363 0.59329659 -0.31342027 0
0.76719123 0.63827014 -0.31149641 0
0.83602244 0.69553477 -0.31186101 0
0.9096359 0.756778 -0.30970794 0
1.0040479 0.83532476 -0.30956215 0
1.0940567 0.91020823 -0.30251381 0
1.100683 0.915721 -0.26968071 0
1.0995146 0.91474897 -0.23506829 0
1.1004928 0.91556281 -0.2011826 0
1.096274 0.91205293 -0.16666877 0
1.1108266 0.92416 -0.13487624 0
1.0823362 0.9004572 -0.09842778 0
1.1158706 0.92835647 -0.067576654 0
1.0999727 0.91513002 -0.033268478 0
1.1038197 0.91833061 4.0992036e-05 0
1.1507837 0.95740259 0.13981402 0
0.64310944 0.56309462 -0.3111448 0
0.68825275 0.60262126 -0.30907133 0
0.76002479 0.66546351 -0.31530568 0
0.81916946 0.71724951 -0.31222776 0
0.90519702 0.79257363 -0.31490713 0
0.98328352 0.86094469 -0.30976102 0
1.0585167 0.92681748 -0.29905957 0
1.0895181 0.95396167 -0.2727575 0
1.1054798 0.96793753 -0.24148963 0
1.0960315 0.95966476 -0.20472971 0
1.1095395 0.97149205 -0.17235839 0
1.1125526 0.97413039 -0.13802709 0
1.1005635 0.96363288 -0.10226458 0
1.0905606 0.95487446 -0.06748189 0
1.113026 0.97454482 -0.034396242 0
1.1089844 0.97100598 4.2080545e-05 0
0.63136601 0.58160001 -0.31246558 0
0.68335629 0.62949228 -0.31390718 0
0.73294282 0.67517024 -0.31104085 0
0.81312722 0.74903429 -0.31702942 0
0.86626762 0.79798603 -0.30827248 0
0.94116485 0.86697966 -0.30328923 0
1.0240884 0.943367 -0.29596525 0
1.0912594 1.0052433 -0.27945605 0
1.0978012 1.0112695 -0.24530965 0
1.0976809 1.0111587 -0.20973806 0
1.1042756 1.0172336 -0.17547306 0
1.0918911 1.0058252 -0.13856909 0
1.097576 1.0110621 -0.10432491 0
1.099665 1.0129864 -0.06960512 0
1.0993849 1.0127283 -0.034753513 0
1.1001619 1.0134442 4.2702752e-05 0
1.0868777 1.001207 0.034442559 0
0.62124068 0.60194731 -0.31487307 0
0.66637588 0.64568079 -0.31349313 0
0.72059458 0.69821566 -0.31317928 0
0.78490382 0.76052773 -0.31340951 0
0.83192509 0.80608869 -0.30319467 0
0.84390444 0.81769598 -0.27850902 0
0.83472699 0.80880356 -0.24705999 0
0.83716059 0.81116158 -0.21955787 0
0.83514458 0.80920821 -0.19112051 0
0.84118015 0.81505632 -0.16460569 0
0.82877833 0.80303967 -0.13487333 0
0.84167963 0.81554025 -0.10939275 0
0.83012968 0.80434901 -0.080807939 0
0.84081203 0.81469965 -0.054504752 0
0.83633101 0.81035775 -0.027075833 0
1.0980464 1.0639453 4.3649034e-05 0
1.0943828 1.0603955 0.035517193 0
1.0096761 0.97831941 0.065531634 0
0.9980253 0.96703047 0.097231269 0
1.0035295 0.97236371 0.1305088 0
1.0092539 0.97791028 0.16432479 0
1.0092682 0.97792411 0.19757967 0
1.0095915 0.97823745 0.23112464 0
0.59570515 0.60708624 -0.30959794 0
0.64543068 0.65776181 -0.31135041 0
0.69962651 0.71299309 -0.31178796 0
0.75328076 0.76767242 -0.30842081 0
0.82686335 0.84266078 -0.30900261 0
0.83740276 0.85340154 -0.28338146 0
0.83458894 0.85053402 -0.25329211 0
0.83898371 0.85501271 -0.22562376 0
0.84434944 0.86048096 -0.19813396 0
0.8431496 0.85925817 -0.16918096 0
0.84586483 0.86202532 -0.14114961 0
0.84513021 0.86127663 -0.11263061 0
0.83403373 0.84996819 -0.083249718 0
0.84344012 0.85955423 -0.05606357 0
0.83746415 0.85346413 -0.027801031 0
1.1015143 1.1225591 4.4898839e-05 0
1.1010056 1.1220405 0.036639538 0
0.94171888 0.95971066 0.062673114 0
0.95393127 0.97215635 0.095295526 0
0.95987594 0.97821462 0.12800172 0
0.93625683 0.95414424 0.15631071 0
0.97217834 0.99075204 0.19515187 0
0.96589744 0.98435116 0.22673713 0
0.5788213 0.62044734 -0.30886322 0
0.63557106 0.68127829 -0.31478858 0
0.67746252 0.72618234 -0.3099798 0
0.74054486 0.79380131 -0.31131011 0
0.81472766 0.87331897 -0.31260499 0
0.83493656 0.89498121 -0.29009855 0
0.8330456 0.89295429 -0.25958097 0
0.84023374 0.90065932 -0.23199917 0
0.84178716 0.90232444 -0.20281217 0
0.83051091 0.89023733 -0.17109892 0
0.83351982 0.8934626 -0.14280707 0
0.83345938 0.89339781 -0.11404395 0
0.85077709 0.91196096 -0.087190665 0
0.83560812 0.89570105 -0.057027481 0
0.82423019 0.88350493 -0.028093008 0
0.83534348 0.89541739 3.4959488e-05 0
1.1056246 1.1851358 0.03777663 0
0.93649954 1.0038482 0.063991547 0
0.93821406 1.0056859 0.096230425 0
0.93144238 0.99842727 0.12752981 0
0.89613283 0.96057838 0.15361059 0
0.92012173 0.98629248 0.18963875 0
0.92136919 0.98762965 0.22206511 0
0.57024318 0.64304161 -0.31284657 0
0.61576116 0.69437051 -0.31355715 0
0.65999568 0.74425215 -0.31048369 0
0.72142792 0.81352687 -0.3118059 0
0.7880314 0.88863319 -0.31086838 0
0.85811937 0.96766871 -0.30654156 0
0.83923894 0.94637793 -0.26886809 0
0.83308965 0.93944359 -0.23649809 0
0.83462042 0.9411698 -0.20674275 0
0.84284985 0.95044982 -0.17852609 0
0.83453566 0.94107425 -0.1470037 0
0.83698797 0.94383961 -0.11774883 0
0.84554756 0.95349193 -0.089092635 0
0.84368891 0.95139599 -0.059198875 0
0.84359658 0.95129186 -0.029562019 0
0.8336311 0.94005424 3.5869351e-05 0
1.097621 1.2377455 0.038558263 0
1.099773 1.2401724 0.077262305 0
1.1040796 1.2450287 0.11642881 0
0.83821148 0.94521934 0.1477243 0
0.55270904 0.65588611 -0.3122094 0
0.58905923 0.69902194 -0.30884561 0
0.64842123 0.76946539 -0.31407475 0
0.7135464 0.84674776 -0.31753507 0
0.72602898 0.86156052 -0.29489341 0
0.84761554 1.0058444 -0.31175876 0
0.83843005 0.9949441 -0.27656585 0
0.83475482 0.99058282 -0.2439905 0
0.842632 0.99993044 -0.21491034 0
0.83560002 0.99158579 -0.18223341 0
0.8390975 0.99573618 -0.15218569 0
0.84275639 1.0000781 -0.12207242 0
0.8425594 0.99984431 -0.091407612 0
0.83783817 0.99424177 -0.060529817 0
0.84406739 1.0016338 -0.030454712 0
0.84621626 1.0041838 3.7489448e-05 0
0.82732773 0.98176926 0.029924076 0
1.0926214 1.2965866 0.07903371 0
1.0923109 1.2962182 0.11859992 0
0.80957639 0.96070421 0.14690422 0
0.53252059 0.66529518 -0.31019169 0
0.57669753 0.72048688 -0.31179917 0
0.61427945 0.76743913 -0.30682173 0
0.68361574 0.85406321 -0.31370825 0
0.7234273 0.90380114 -0.30300543 0
0.81055754 1.0126557 -0.30743122 0
0.85512769 1.0683386 -0.29087543 0
0.83764821 1.0465009 -0.25247595 0
0.82859856 1.0351949 -0.21792543 0
0.83873206 1.047855 -0.1886241 0
0.84511536 1.0558299 -0.15805992 0
0.83290368 1.0405735 -0.12440982 0
0.83575261 1.0441327 -0.093498357 0
0.84129393 1.0510557 -0.062676005 0
0.82912177 1.0358486 -0.03084893 0
0.84005433 1.049507 3.8377741e-05 0
0.84054869 1.0501246 0.031350929 0
1.1034912 1.3786272 0.082310624 0
1.1024623 1.3773419 0.12343726 0
1.1015686 1.3762252 0.1646415 0
0.7716797 0.96408445 0.14439692 0
0.51250285 0.67448938 -0.30834934 0
0.56079406 0.73804396 -0.31317225 0
0.60691994 0.79874885 -0.31311548 0
0.65927565 0.8676526 -0.31248841 0
0.721928 0.95010746 -0.31232184 0
0.72663879 0.95630711 -0.28466603 0
0.71994233 0.94749409 -0.25294539 0
0.73991084 0.97377408 -0.23035133 0
0.73154616 0.96276557 -0.19872773 0
0.72340685 0.95205373 -0.16803879 0
0.71935886 0.94672626 -0.13896465 0
0.7268607 0.95659918 -0.11214089 0
0.72809666 0.95822585 -0.084133364 0
0.73101014 0.96206021 -0.056250963 0
0.73014897 0.96092683 -0.028059907 0
0.73692191 0.96984047 3.4773348e-05 0
0.7351653 0.96752864 0.028322104 0
0.73427862 0.9663617 0.056571916 0
0.72734928 0.95724225 0.084115982 0
0.72986996 0.96055967 0.11267465 0
0.73121727 0.96233279 0.1413254 0
0.49910054 0.69244838 -0.31070179 0
0.53339851 0.74003309 -0.30820563 0
0.58725506 0.81475329 -0.31347927 0
0.63463557 0.88048869 -0.31124344 0
0.69239122 0.96061844 -0.30993381 0
0.73226219 1.0159352 -0.29681966 0
0.86087203 1.1943674 -0.31295121 0
0.8525542 1.1828274 -0.2746264 0
0.84444696 1.1715794 -0.23735482 0
0.83742726 1.1618403 -0.2012718 0
0.84427696 1.1713436 -0.16875346 0
0.83278668 1.1554021 -0.13293996 0
0.84437561 1.1714804 -0.10095407 0
0.84322256 1.1698807 -0.067136347 0
0.84117639 1.1670419 -0.033448048 0
0.8388356 1.1637943 4.0955365e-05 0
0.83527279 1.1588513 0.033294909 0
0.83845741 1.1632696 0.06683901 0
1.1029564 1.5302336 0.13197838 0
1.1029725 1.5302558 0.1761791 0
1.0996586 1.5256582 0.21990781 0
0.48530611 0.71043563 -0.31317696 0
0.51426053 0.7528218 -0.3080281 0
0.56122929 0.82157892 -0.31055659 0
0.61199278 0.89589119 -0.31112897 0
0.66815966 0.97811347 -0.31003881 0
0.74279487 1.0873713 -0.31211406 0
0.82612085 1.2093515 -0.31131494 0
0.93212283 1.364527 -0.31125173 0
0.83989215 1.2295113 -0.24471892 0
0.86070877 1.2599846 -0.2144423 0
0.83011729 1.2152019 -0.17199884 0
0.83576781 1.2234737 -0.13830115 0
0.83976865 1.2293304 -0.10407973 0
0.83571595 1.2233977 -0.068975136 0
0.8385132 1.2274926 -0.034563042 0
0.83419341 1.2211689 4.2220083e-05 0
0.84075731 1.2307777 0.034740694 0
0.82974213 1.2146528 0.068566263 0
0.84594834 1.2383769 0.10493168 0
1.1055207 1.6183628 0.1830522 0
1.1036549 1.6156312 0.22878858 0
0.46284175 0.71567404 -0.31023782 0
0.49888745 0.77141011 -0.31038299 0
0.54615664 0.8445006 -0.31391048 0
0.58806306 0.90929884 -0.31053188 0
0.64586771 0.99867994 -0.31129166 0
0.7029025 1.0868706 -0.30678046 0
0.79599726 1.2308195 -0.31157038 0
0.88842607 1.3737384 -0.30814004 0
1.0331351 1.5974963 -0.31267223 0
0.84540164 1.3072114 -0.21877892 0
0.85405159 1.3205866 -0.18380544 0
0.83384311 1.2893389 -0.14332193 0
0.84028935 1.2993065 -0.10817416 0
0.83564866 1.2921308 -0.071638383 0
0.84059405 1.2997776 -0.03598956 0
0.84329164 1.3039489 4.4332101e-05 0
0.83584887 1.2924403 0.035874326 0
0.83787471 1.2955729 0.071917504 0
0.83474511 1.2907337 0.10754862 0
0.84917796 1.3130505 0.14604777 0
1.0975766 1.6971396 0.23633285 0
1.0966127 1.6956493 0.28390664 0
0.44873044 0.73381788 -0.31309378 0
0.48342022 0.79054677 -0.31307387 0
0.51777196 0.84672284 -0.30978033 0
0.56911165 0.93067968 -0.31282863 0
0.61584908 1.0071104 -0.30897614 0
0.68570489 1.1213468 -0.31152758 0
0.76878095 1.2572029 -0.31323758 0
0.86585063 1.4159428 -0.31260541 0
0.9987368 1.6332543 -0.31463712 0
1.1562309 1.8908076 -0.31146818 0
0.84445226 1.3809497 -0.18918036 0
0.83728725 1.3692325 -0.1498061 0
0.83950704 1.3728627 -0.11249824 0
0.83774191 1.369976 -0.074758217 0
0.83934408 1.3725961 -0.03740735 0
0.83790153 1.3702371 4.5852201e-05 0
0.84597582 1.3834411 0.037795547 0
0.83774447 1.3699802 0.074850336 0
0.83574349 1.366708 0.11208581 0
0.84188682 1.3767543 0.15072198 0
1.0984817 1.796369 0.24621174 0
1.1014055 1.8011506 0.2968221 0
0.42997867 0.74474335 -0.31302536 0
0.45431355 0.78689253 -0.306988 0
0.49765596 0.86196363 -0.31066206 0
0.54071063 0.93653637 -0.31011131 0
0.59227979 1.0258566 -0.31004253 0
0.65716469 1.1382403 -0.31151375 0
0.72805536 1.2610263 -0.30951333 0
0.82772315 1.4336556 -0.31180444 0
0.95000386 1.6454517 -0.31226838 0
1.1066791 1.9168204 -0.31105307 0
1.3235902 2.2925208 -0.30938423 0
0.85266489 1.4768559 -0.15917581 0
0.83965385 1.4543202 -0.11739926 0
0.84140813 1.4573586 -0.07834281 0
0.8352443 1.4466826 -0.038839545 0
0.84649932 1.4661769 4.8332306e-05 0
0.83779979 1.4511088 0.039054099 0
0.8429206 1.4599783 0.078580104 0
0.84128302 1.457142 0.11772359 0
0.83300555 1.4428049 0.15560175 0
0.84017235 1.4552183 0.19648439 0
1.0939196 1.8947206 0.30759418 0
