# .PCD v0.7 - Point Cloud Data file format
VERSION 0.7
FIELDS x y z intensity
SIZE 4 4 4 4
TYPE F F F F
COUNT 1 1 1 1
WIDTH 1358
HEIGHT 1
VIEWPOINT 0 0 0 1 0 0 0
POINTS 1358
DATA ascii
1.0011413 0.19176333 -0.19199398 0
1.143447 0.21902123 -0.19134347 0
1.3361105 0.25592488 -0.19118339 0
1.3447343 0.25757676 -0.16002069 0
1.3543522 0.25941899 -0.12871386 0
1.3383185 0.25634784 -0.095261969 0
1.3537532 0.25930426 -0.064169243 0
1.3355522 0.25581795 -0.031616695 0
1.3479789 0.25819823 3.9182218e-05 0
0.86907196 0.18931587 -0.18906389 0
1.003836 0.21867247 -0.19350755 0
1.1367794 0.24763241 -0.1912127 0
1.1938208 0.26005816 -0.17170773 0
1.1944155 0.26018766 -0.142869 0
1.2126496 0.26415974 -0.11584358 0
1.2131255 0.26426342 -0.086797804 0
1.2137079 0.26439029 -0.057828847 0
1.2061247 0.26273838 -0.028700585 0
1.1997194 0.26134309 3.5053268e-05 0
0.87060773 0.21279365 -0.19050571 0
0.99340075 0.24280667 -0.19261594 0
1.137347 0.27798995 -0.19242704 0
1.2064893 0.29488972 -0.17454475 0
1.1991227 0.29308915 -0.14427091 0
1.197926 0.29279667 -0.11510635 0
1.2048464 0.29448813 -0.086709619 0
1.2098913 0.29572123 -0.057984155 0
1.2050462 0.29453698 -0.02884263 0
1.1995404 0.29319122 3.5253019e-05 0
0.87357503 0.2370293 -0.19240281 0
0.97724128 0.26515731 -0.19071957 0
1.1206665 0.30407324 -0.19084257 0
1.206194 0.32727966 -0.17564113 0
1.2116592 0.3287625 -0.14673083 0
1.2127867 0.32906845 -0.11729497 0
1.210585 0.32847106 -0.087691322 0
1.2050585 0.3269715 -0.058129523 0
1.2138455 0.32935572 -0.029242888 0
1.2042035 0.32673952 3.5621073e-05 0
0.86470592 0.25821546 -0.19182369 0
0.97127771 0.29003954 -0.19092356 0
1.1150093 0.33296016 -0.19124936 0
1.2019434 0.35892013 -0.17628513 0
1.2001928 0.35839736 -0.14639105 0
1.2058766 0.36009464 -0.11746824 0
1.1973041 0.35753477 -0.087355137 0
1.2089397 0.36100933 -0.058737565 0
1.2145802 0.36269367 -0.029471735 0
1.2066052 0.36031219 3.5949673e-05 0
0.85241312 0.27815506 -0.19059338 0
0.96548694 0.31505275 -0.1912874 0
1.108793 0.36181563 -0.1916884 0
1.2007413 0.39181972 -0.17750269 0
1.2093754 0.39463714 -0.1486786 0
1.211715 0.39540058 -0.11897122 0
1.1976295 0.39080429 -0.08807046 0
1.2120792 0.39551944 -0.059356209 0
1.2016585 0.39211902 -0.029388973 0
1.2130018 0.39582053 3.6426303e-05 0
0.84163684 0.29833776 -0.18980704 0
0.95644248 0.33903328 -0.19112992 0
1.1007335 0.39018059 -0.19193643 0
1.2083849 0.42834014 -0.18017341 0
1.201898 0.42604071 -0.14903383 0
1.2061335 0.42754206 -0.11944465 0
1.2161528 0.43109363 -0.090204 0
1.2005886 0.42557654 -0.05930062 0
1.2080069 0.42820612 -0.029799065 0
1.1963131 0.42406103 3.6235011e-05 0
0.840128 0.32188669 -0.19123802 0
0.95248657 0.36493576 -0.19211881 0
1.097766 0.42059815 -0.1932085 0
1.1975095 0.45881388 -0.18022108 0
1.2033949 0.46106881 -0.15061446 0
1.2109753 0.46397313 -0.12104526 0
1.204463 0.46147802 -0.090172134 0
1.2084026 0.46298745 -0.060244571 0
1.2045302 0.4615038 -0.029991083 0
1.2059454 0.462046 3.6868238e-05 0
0.83529246 0.34444678 -0.19205503 0
0.94326437 0.38897079 -0.19217762 0
1.076214 0.44379482 -0.19132575 0
1.2014415 0.49543446 -0.18263651 0
1.2060744 0.49734491 -0.1524723 0
1.1994039 0.49459419 -0.12109783 0
1.2115135 0.4995878 -0.091614775 0
1.1999731 0.49482894 -0.06042771 0
1.2058135 0.49723732 -0.030325849 0
1.2082961 0.49826106 3.7312682e-05 0
0.82088023 0.36299989 -0.19078706 0
0.92745817 0.41012949 -0.19100544 0
1.0629618 0.47005031 -0.19101807 0
1.2031599 0.53204703 -0.18488017 0
1.2059304 0.53327215 -0.15410653 0
1.1995878 0.53046739 -0.12242918 0
1.1966658 0.52917528 -0.091472834 0
1.2110389 0.53553116 -0.061645973 0
1.2138889 0.5367915 -0.030859845 0
1.2006458 0.53093523 3.7478309e-05 0
0.81705636 0.38624141 -0.19210283 0
0.92097408 0.43536574 -0.19187193 0
1.0516882 0.49715731 -0.19118616 0
1.2265325 0.57981026 -0.1906596 0
1.471524 0.6956234 -0.19022992 0
1.8548807 0.87684494 -0.19150563 0
3.1257548 1.4776165 -0.24170566 0
4.6861153 2.2152348 -0.24130827 0
9.3967257 4.4420495 -0.24165957 0
0.81144381 0.40894744 -0.19314846 0
0.90531659 0.45625702 -0.1909482 0
1.0443072 0.52630484 -0.19219796 0
1.2063481 0.60796934 -0.1898468 0
1.4602711 0.73594028 -0.19111554 0
1.8285184 0.92152768 -0.19112431 0
3.0837853 1.5541509 -0.24141657 0
4.6322179 2.3345225 -0.24149007 0
9.2901621 4.6820102 -0.24188101 0
0.79447556 0.42586458 -0.19160692 0
0.90036029 0.48262221 -0.19241072 0
1.0275602 0.55080551 -0.19161329 0
1.1958662 0.64102292 -0.19068262 0
1.4400519 0.77191436 -0.19095829 0
1.8126959 0.97166359 -0.19197266 0
3.0500522 1.6349267 -0.24192908 0
4.5815306 2.4558487 -0.24200189 0
9.1718912 4.9164305 -0.24195535 0
0.78037554 0.44400939 -0.19084828 0
0.87854654 0.49986565 -0.19038452 0
1.0184805 0.57948375 -0.19258614 0
1.1908662 0.67756581 -0.19255085 0
1.2012506 0.68347418 -0.16152802 0
1.2213492 0.69490975 -0.13116206 0
3.0082347 1.711592 -0.2419616 0
4.5038819 2.5625687 -0.24123986 0
9.0464249 5.1471343 -0.24199548 0
0.77385658 0.46653116 -0.19207248 0
0.86554641 0.52180779 -0.1903607 0
1.0041502 0.60536712 -0.1927041 0
1.1641477 0.70182413 -0.19103397 0
1.1450521 0.69031203 -0.15626423 0
1.1994122 0.72308379 -0.13072446 0
2.9555628 1.7818059 -0.24126536 0
4.4430389 2.6785533 -0.24152508 0
8.9078236 5.3702168 -0.24183655 0
0.76820821 0.48997003 -0.19367822 0
0.8448748 0.53886867 -0.18874544 0
0.97801912 0.62378925 -0.19065 0
1.1491828 0.73295903 -0.19155292 0
1.1385217 0.72615921 -0.15782392 0
1.1830711 0.75457335 -0.13097744 0
2.9120965 1.857361 -0.24146695 0
4.3825579 2.7952342 -0.24199532 0
8.7674828 5.5919785 -0.24178115 0
0.73861593 0.49775037 -0.18932448 0
0.85537618 0.57643467 -0.19427976 0
0.96611595 0.65106171 -0.19147189 0
1.1169423 0.75270301 -0.18928522 0
1.1487143 0.77411407 -0.16189367 0
1.1622139 0.78321141 -0.13081513 0
2.867816 1.9326099 -0.24176283 0
4.3082943 2.9033425 -0.24186383 0
8.6210861 5.8097162 -0.24171065 0
0.73462665 0.52249002 -0.19162109 0
0.8279078 0.58883452 -0.19135547 0
0.95245665 0.6774177 -0.19209211 0
1.0977558 0.7807591 -0.18931291 0
1.1442517 0.81382853 -0.16410731 0
1.1381502 0.80948889 -0.13036469 0
2.8205552 2.0060692 -0.2419699 0
4.2335601 3.0110435 -0.24185766 0
8.4726276 6.0260043 -0.2417355 0
0.72434998 0.5432139 -0.1924554 0
0.8168419 0.61257666 -0.19231004 0
0.93418294 0.70057452 -0.19191161 0
1.0869761 0.81515914 -0.19094113 0
1.1005224 0.82531798 -0.16077194 0
1.1010129 0.82568592 -0.12845702 0
1.0910771 0.81823468 -0.095342651 0
1.0996003 0.82462645 -0.06398733 0
1.1026824 0.82693785 -0.032046292 0
1.1007607 0.82549667 3.9279912e-05 0
1.0939987 0.82042563 0.031872045 0
1.0998168 0.82478881 0.064078592 0
1.0998416 0.82480747 0.096187405 0
0.71107066 0.56183618 -0.19263341 0
0.79902267 0.63132948 -0.19180514 0
0.91905206 0.72616798 -0.19250704 0
1.0600802 0.83759815 -0.1898696 0
1.0951539 0.86531085 -0.1631262 0
1.0954736 0.86556351 -0.13031806 0
1.1003325 0.86940259 -0.09803766 0
1.1047364 0.87288225 -0.065547332 0
1.0946559 0.86491734 -0.032437112 0
1.10027 0.86935318 4.0032628e-05 0
1.0970179 0.86678362 0.032586973 0
1.1003458 0.86941314 0.065367073 0
1.0935544 0.86404699 0.097513705 0
0.69724834 0.58008069 -0.19279371 0
0.77821517 0.64744163 -0.19067219 0
0.89389664 0.74368364 -0.19110864 0
1.0232903 0.85133356 -0.1870691 0
1.0927049 0.9090836 -0.16612615 0
1.1040754 0.9185434 -0.13405651 0
1.101006 0.9159897 -0.10012561 0
1.1021602 0.91694999 -0.066746362 0
1.1012269 0.91617352 -0.033306412 0
1.1008953 0.91589761 4.0883431e-05 0
1.097795 0.91331834 0.033284198 0
1.0940728 0.91022164 0.066338025 0
1.1023742 0.91712797 0.10033231 0
0.68065715 0.59597069 -0.19230403 0
0.77879107 0.6818949 -0.19496794 0
0.87552589 0.76659411 -0.19125669 0
0.99724817 0.87317187 -0.18627778 0
1.0944302 0.95826268 -0.17001128 0
1.0951487 0.95889175 -0.13586789 0
1.1056914 0.96812272 -0.10274106 0
1.0992688 0.96249926 -0.068020746 0
1.0908448 0.95512331 -0.033710767 0
1.0919079 0.95605409 4.1432573e-05 0
1.0994545 0.96266186 0.034060318 0
1.094092 0.95796651 0.067783624 0
1.09618 0.95979476 0.10194086 0
1.0889516 0.9534657 0.13518243 0
1.0895956 0.95402956 0.27286252 0
0.66435993 0.61199325 -0.19200243 0
0.74979424 0.69069344 -0.19201168 0
0.85700315 0.78945178 -0.19150202 0
0.96446747 0.8884455 -0.18428446 0
1.0658752 0.98186004 -0.16937111 0
1.0991495 1.0125115 -0.13949023 0
1.0969595 1.0104941 -0.10426631 0
1.0972319 1.010745 -0.069451109 0
1.101495 1.0146722 -0.034820218 0
1.0883001 1.0025173 4.2242336e-05 0
1.094339 1.0080802 0.034679003 0
1.1060432 1.0188619 0.070094891 0
1.1092062 1.0217756 0.1055169 0
1.1044819 1.0174236 0.14025345 0
1.0315878 0.9502753 0.26425797 0
0.64506006 0.625027 -0.19092295 0
0.73703873 0.71414912 -0.19329941 0
0.83998913 0.81390232 -0.19222918 0
0.83947456 0.81340367 -0.16427192 0
0.84311658 0.81693262 -0.13720669 0
0.84091264 0.8147971 -0.10929307 0
0.83588946 0.80992991 -0.081368618 0
0.83482248 0.80889606 -0.054116484 0
0.84481114 0.81857455 -0.027350375 0
0.83805913 0.81203222 3.331414e-05 0
0.84017766 0.81408501 0.027267201 0
0.84100533 0.81488693 0.054584291 0
0.8412078 0.81508309 0.081953533 0
1.0990942 1.0649605 0.14293696 0
1.0051979 0.97398025 0.19678286 0
1.0050433 0.97383052 0.23008344 0
0.99253893 0.96171451 0.26038986 0
0.63956195 0.65178096 -0.19410273 0
0.7158125 0.72948831 -0.19249994 0
0.81492054 0.83048981 -0.1912282 0
0.83544445 0.85140586 -0.1676349 0
0.83968365 0.85572606 -0.14011817 0
0.84585613 0.86201644 -0.11272735 0
0.83214092 0.84803915 -0.083060786 0
0.8307752 0.84664738 -0.055221733 0
0.83837867 0.8543961 -0.027831391 0
0.8344478 0.85039014 3.4012941e-05 0
0.84154618 0.85762411 0.028005183 0
0.83518356 0.85113996 0.055582989 0
0.83438098 0.85032207 0.08335273 0
0.84869021 0.8649047 0.11317484 0
1.1004462 1.1214706 0.18372259 0
0.94627762 0.96435648 0.18995264 0
0.94012564 0.95808703 0.22068739 0
0.95598161 0.97424585 0.25716811 0
0.62495238 0.66989601 -0.19473812 0
0.69154817 0.74128097 -0.19094519 0
0.79901731 0.85647881 -0.19250761 0
0.84448844 0.90522003 -0.17397851 0
0.83373857 0.89369708 -0.14284454 0
0.84075987 0.9012233 -0.1150429 0
0.8454361 0.90623581 -0.086643301 0
0.84036207 0.90079689 -0.057351921 0
0.83699799 0.89719087 -0.028528186 0
0.83410937 0.89409453 3.4907844e-05 0
0.83543348 0.89551383 0.028544825 0
0.83565938 0.89575607 0.057101078 0
0.8373481 0.89756614 0.085884839 0
0.84436762 0.90509051 0.11560784 0
1.0995661 1.1786417 0.18848211 0
0.93219084 0.99922955 0.19212621 0
0.9224813 0.98882174 0.22233315 0
0.92940962 0.9962483 0.2567023 0
0.60110754 0.67784619 -0.19257762 0
0.67771435 0.76423275 -0.19239004 0
0.7695719 0.8678171 -0.19062968 0
0.84131986 0.94872451 -0.17820202 0
0.84422112 0.95199615 -0.14870979 0
0.8347019 0.94126171 -0.11742723 0
0.8420428 0.94953978 -0.088723354 0
0.84078717 0.94812381 -0.058995269 0
0.83694822 0.94379479 -0.029329045 0
0.84560269 0.95355415 3.6384463e-05 0
0.83527344 0.94190621 0.029342273 0
0.83767128 0.94461018 0.058848884 0
0.83988255 0.94710374 0.088568367 0
0.8391183 0.94624192 0.11812138 0
1.1041319 1.2450877 0.19458947 0
1.101523 1.2421458 0.23341295 0
0.57992011 0.68817681 -0.19129336 0
0.65606725 0.7785387 -0.19176191 0
0.73056281 0.8669408 -0.1863275 0
0.85028833 1.009016 -0.18543674 0
0.83998829 0.99679327 -0.15234727 0
0.84301841 1.000389 -0.12211037 0
0.82685226 0.98120505 -0.089703575 0
0.83832169 0.99481553 -0.060564745 0
0.84046161 0.99735492 -0.030324612 0
0.83598608 0.99204391 3.7036225e-05 0
0.83891648 0.99552137 0.030343236 0
0.83871228 0.99527901 0.060667437 0
0.83058262 0.98563176 0.09018223 0
0.83158624 0.98682272 0.12052875 0
0.83884555 0.9954372 0.15221535 0
1.0933608 1.2974641 0.23854645 0
0.57141042 0.71388149 -0.19436778 0
0.63837206 0.79753888 -0.19241203 0
0.72475749 0.90546292 -0.19061473 0
0.85106784 1.0632666 -0.19139832 0
0.84783089 1.0592225 -0.1585678 0
0.83985293 1.0492554 -0.12544781 0
0.84045738 1.0500106 -0.094024688 0
0.83991659 1.0493349 -0.062573396 0
0.83786601 1.0467731 -0.031174272 0
0.83293265 1.0406097 3.8052392e-05 0
0.84171647 1.0515836 0.031394485 0
0.83938903 1.0486759 0.062610954 0
0.84233075 1.052351 0.09431161 0
0.83683527 1.0454853 0.12507419 0
0.83564317 1.043996 0.15636577 0
1.0983263 1.3721746 0.2471071 0
1.0978882 1.3716273 0.28885296 0
0.54268503 0.71421123 -0.1906676 0
0.61557287 0.81013668 -0.19164205 0
0.70575988 0.92882907 -0.19172277 0
0.73235726 0.96383303 -0.17011786 0
0.72741193 0.95732468 -0.14052035 0
0.72983253 0.96051031 -0.11259939 0
0.73108596 0.96215993 -0.084478781 0
0.72622615 0.95576411 -0.055882834 0
0.72589999 0.95533484 -0.027896617 0
0.72591984 0.95536095 3.425419e-05 0
0.73544484 0.96789658 0.028332874 0
0.72669333 0.956379 0.055987518 0
0.73198158 0.96333867 0.084651694 0
0.72876281 0.95910257 0.11250374 0
0.72970629 0.9603442 0.14103337 0
0.72881758 0.95917457 0.16936576 0
0.72783494 0.95788133 0.1977901 0
0.72932661 0.95984453 0.22712749 0
0.5253675 0.72889102 -0.19098587 0
0.59472501 0.82511705 -0.19157396 0
0.68002802 0.94346583 -0.19114041 0
0.73233753 1.0160396 -0.17601398 0
0.95714468 1.3279353 -0.19131336 0
0.85297322 1.1834087 -0.1361624 0
0.84013617 1.1655986 -0.1004472 0
0.83471185 1.1580731 -0.066458739 0
0.83849013 1.1633149 -0.033341233 0
0.83978182 1.165107 4.1001567e-05 0
0.83569402 1.1594356 0.033311699 0
0.84192085 1.1680747 0.067115098 0
0.83750206 1.1619442 0.10021444 0
0.83500755 1.1584833 0.13337673 0
0.83876163 1.1636916 0.16773407 0
0.84438896 1.171499 0.20302911 0
1.0992655 1.5251127 0.30908874 0
0.50561905 0.74017161 -0.19053721 0
0.58128852 0.85094351 -0.19410217 0
0.65468758 0.95839185 -0.19075598 0
0.76900452 1.1257395 -0.19159454 0
0.91890365 1.3451755 -0.19039522 0
1.1524328 1.6870369 -0.19070221 0
0.83994812 1.2295932 -0.10410197 0
0.83941352 1.2288107 -0.069280311 0
0.83602798 1.2238545 -0.034460604 0
0.84326285 1.2344456 4.2679105e-05 0
0.84006798 1.2297686 0.03471221 0
0.84348017 1.2347637 0.069701515 0
0.84252155 1.2333604 0.10450662 0
0.84206659 1.2326944 0.13942944 0
0.8452934 1.2374181 0.17523004 0
0.83166105 1.2174618 0.20729102 0
1.1015658 1.6125733 0.32107717 0
1.0981948 1.6076385 0.36682114 0
0.48863035 0.75554997 -0.19126037 0
0.5531913 0.85537803 -0.19186783 0
0.63112861 0.97588938 -0.19100735 0
0.74529988 1.1524279 -0.19287388 0
0.88992113 1.3760502 -0.19152513 0
1.1107202 1.717463 -0.19091189 0
1.4820669 2.291662 -0.19079301 0
0.84753734 1.3105137 -0.07265757 0
0.83621806 1.2930113 -0.035802204 0
0.8437869 1.3047147 4.4358138e-05 0
0.83710444 1.2943819 0.035928216 0
0.83867306 1.2968073 0.071986027 0
0.8425377 1.302783 0.10855262 0
0.84169525 1.3014804 0.14476085 0
0.83606821 1.2927796 0.18002424 0
0.84241176 1.3025882 0.2180955 0
0.844504 1.3058234 0.25567535 0
1.1006776 1.7019346 0.38187677 0
0.47373864 0.77471429 -0.19302344 0
0.53219801 0.87031406 -0.19214398 0
0.60688025 0.99244332 -0.19118854 0
0.70747471 1.1569475 -0.19058117 0
0.85333389 1.395474 -0.19117008 0
1.0643129 1.7404922 -0.19042516 0
1.4254565 2.3310776 -0.19101848 0
0.84591907 1.3833483 -0.075487934 0
0.84651232 1.3843185 -0.03772682 0
0.83868551 1.3715192 4.58951e-05 0
0.8354218 1.366182 0.037324026 0
0.83288825 1.3620389 0.074416444 0
0.83467472 1.3649603 0.11194248 0
0.83878845 1.3716875 0.15016729 0
0.83670878 1.3682866 0.18753843 0
0.8428371 1.3783084 0.22713947 0
0.8344804 1.3646424 0.2629844 0
1.1007134 1.8000185 0.39752463 0
0.44868258 0.77713943 -0.19074544 0
0.50615883 0.87669104 -0.19067074 0
0.57959104 1.0038791 -0.19051285 0
0.67654818 1.1718135 -0.19015667 0
0.81411296 1.4100822 -0.19029586 0
1.0309439 1.7856436 -0.19245702 0
1.3600581 2.3556848 -0.19016147 0
1.366215 2.366349 -0.12720713 0
0.84714234 1.4672905 -0.039392814 0
0.84413552 1.4620826 4.819734e-05 0
0.84022534 1.45531 0.039167169 0
0.84182131 1.4580743 0.078477621 0
0.83405125 1.4446162 0.11671162 0
0.83678228 1.4493464 0.15630724 0
0.83859593 1.4524878 0.19611573 0
0.8379299 1.4513342 0.23561361 0
0.84030533 1.4554486 0.27630877 0
0.84104902 1.4567367 0.3169238 0
0.43273598 0.79520345 -0.19243717 0
0.48922327 0.89900553 -0.19277705 0
0.55682534 1.0232322 -0.19145758 0
0.64486027 1.1850069 -0.1895961 0
0.77547979 1.4250356 -0.18961214 0
0.98683465 1.8134252 -0.19270551 0
1.2907724 2.3719466 -0.18878426 0
1.2914413 2.3731759 -0.12578189 0
1.2937245 2.3773715 -0.062929384 0
0.84839934 1.5590339 5.0671322e-05 0
0.83833534 1.5405401 0.040878523 0
0.83863819 1.5410967 0.081780836 0
0.83343565 1.5315365 0.12199568 0
0.83935243 1.5424092 0.16400684 0
0.83980739 1.5432452 0.20544253 0
0.83894998 1.5416696 0.24676284 0
0.84083092 1.5451261 0.28921261 0
0.84251308 1.5482173 0.3320941 0
0.41005677 0.80102855 -0.19128139 0
0.46591002 0.91013551 -0.19258082 0
0.53055495 1.0364166 -0.19135806 0
0.62243909 1.2159084 -0.19196561 0
0.75172126 1.4684558 -0.19280367 0
0.93538171 1.8272287 -0.19160259 0
1.2476946 2.4373186 -0.19141993 0
1.2451315 2.4323118 -0.12721005 0
1.2436297 2.429378 -0.063454948 0
1.2438254 2.4297605 7.7926306e-05 0
0.8455022 1.6516529 0.043246895 0
0.83947581 1.6398805 0.085871264 0
0.84044081 1.6417656 0.12904532 0
0.84393662 1.6485946 0.17297775 0
0.83419216 1.6295592 0.21406199 0
0.83952427 1.6399752 0.25902385 0
0.84106779 1.6429905 0.30346063 0
0.83694106 1.6349291 0.34605265 0
0.39059165 0.81294328 -0.19171144 0
0.44090092 0.91765255 -0.19175571 0
0.50187188 1.0445522 -0.19046079 0
0.58939236 1.2267097 -0.19126144 0
0.70751423 1.4725581 -0.19093692 0
0.89047647 1.8533597 -0.19192487 0
1.1794116 2.4547241 -0.19038844 0
1.7816833 3.7082398 -0.19152834 0
4.5036221 9.3734446 -0.24178685 0
0.84627277 1.761358 0.091084898 0
0.83747739 1.743052 0.1353021 0
0.83916008 1.7465544 0.18097623 0
0.83394277 1.7356955 0.22516766 0
0.8383882 1.7449479 0.27217484 0
0.83916962 1.7465742 0.31857917 0
0.83485967 1.7376038 0.36320943 0
0.36971775 0.82200986 -0.19158798 0
0.41704896 0.92724341 -0.19149934 0
0.4754529 1.0570955 -0.1904992 0
0.5581339 1.2409239 -0.19122042 0
0.67007381 1.4898049 -0.19091952 0
0.84225643 1.8726261 -0.19165762 0
1.117569 2.4847407 -0.19046819 0
1.6888289 3.7548482 -0.19167309 0
4.2594905 9.470314 -0.24143562 0
1.0665696 2.3713515 0.12119875 0
0.84505653 1.8788517 0.14414188 0
0.84095407 1.8697305 0.19147934 0
0.84307212 1.8744397 0.2403297 0
0.83974206 1.8670357 0.28782043 0
0.84206307 1.8721962 0.33750889 0
0.83955431 1.8666184 0.38562515 0
0.35075444 0.83558971 -0.19262843 0
0.39387968 0.93832546 -0.19167392 0
0.44688302 1.0645934 -0.18975739 0
0.52508998 1.250903 -0.19065523 0
0.63587743 1.514828 -0.19200844 0
0.79167134 1.8859702 -0.19091757 0
1.0624405 2.531014 -0.19189866 0
1.5920697 3.7927308 -0.1914947 0
4.0236797 9.5854683 -0.24170536 0
0.99902898 2.3799508 0.12031125 0
0.84445858 2.0117233 0.1526518 0
0.83902073 1.9987689 0.20246108 0
0.84034729 2.0019293 0.25387546 0
0.84241921 2.006865 0.30600125 0
0.8384313 1.9973648 0.35614532 0
0.83801204 1.996366 0.40793037 0
0.33049846 0.84657741 -0.19317694 0
0.37260887 0.95444393 -0.192984 0
0.42136201 1.0793259 -0.19042715 0
0.4925513 1.2616785 -0.19034223 0
0.60095513 1.5393567 -0.19313349 0
0.74684268 1.9130502 -0.19168968 0
0.99685585 2.5534632 -0.19163212 0
1.499351 3.8406129 -0.1919405 0
3.7838929 9.6925058 -0.24191919 0
0.92627555 2.3726704 0.11872358 0
0.84966546 2.1764324 0.16347082 0
0.83923465 2.1497138 0.21553653 0
0.83994389 2.1515305 0.27007279 0
0.83566505 2.1405702 0.32306939 0
0.83930969 2.1499059 0.3794466 0
0.84088606 2.1539438 0.43565384 0
0.30691427 0.84878647 -0.19185235 0
0.34706923 0.95983696 -0.19224206 0
0.39937168 1.1044819 -0.19302562 0
0.43563813 1.2047787 -0.18004197 0
0.43759403 1.2101877 -0.15040113 0
0.43501991 1.2030689 -0.11941061 0
0.93092227 2.5745113 -0.1913875 0
1.4028651 3.8796923 -0.19206287 0
3.5384188 9.7856703 -0.24193847 0
0.85792345 2.3726294 0.1176006 0
0.85056448 2.3522778 0.17501034 0
0.83704484 2.3148885 0.22990605 0
0.83590114 2.3117256 0.28744164 0
0.84041327 2.324204 0.34747267 0
0.83836341 2.3185353 0.40534511 0
0.83964235 2.322072 0.46522489 0
0.28690818 0.86078233 -0.19286561 0
0.32251531 0.96761084 -0.19210756 0
0.37008208 1.1103207 -0.19235237 0
0.40356848 1.2107866 -0.17936054 0
0.40630484 1.2189963 -0.15017359 0
0.40241352 1.2073215 -0.1187868 0
0.86630034 2.5990756 -0.1915272 0
1.302547 3.9079032 -0.19177091 0
3.2891011 9.8679657 -0.24184369 0
0.78993124 2.3699527 0.11644265 0
0.85037935 2.5513091 0.18816158 0
0.84044546 2.5215056 0.24824074 0
0.83871478 2.5163131 0.31014934 0
0.83759934 2.5129666 0.37241393 0
0.83661199 2.5100045 0.43498924 0
0.84015763 2.520642 0.5006004 0
0.26277921 0.86015564 -0.19117829 0
0.29989225 0.98163784 -0.19332814 0
0.33823732 1.1071528 -0.19026406 0
0.37956578 1.2424332 -0.18257128 0
0.3807399 1.2462766 -0.15230203 0
0.37826949 1.2381902 -0.1208461 0
0.72524893 2.3739586 -0.17353408 0
0.72606593 2.3766329 -0.11569141 0
0.72397298 2.369782 -0.057612348 0
0.72533947 2.3742549 7.0873655e-05 0
0.727516 2.3813794 0.058036551 0
0.72594059 2.3762224 0.11581361 0
0.84064251 2.7516766 0.20130999 0
0.83493 2.7329776 0.26690045 0
0.83738226 2.7410047 0.33513212 0
0.83542144 2.7345862 0.40200451 0
0.83504927 2.7333682 0.46989655 0
0.24174443 0.86921382 -0.1917744 0
0.27259499 0.98013985 -0.19161713 0
0.31005168 1.1148187 -0.19017608 0
0.36464638 1.311119 -0.1912511 0
0.43647078 1.56937 -0.19037901 0
0.55354142 1.990308 -0.19282711 0
0.66195393 2.3801148 -0.17270784 0
0.6582095 2.3666515 -0.11436044 0
0.65889817 2.3691275 -0.057173941 0
0.65830421 2.366992 7.0138543e-05 0
0.65853953 2.3678381 0.057283226 0
0.65950251 2.3713005 0.11472592 0
0.8147735 2.9295914 0.21275388 0
0.81320482 2.9239509 0.28345606 0
0.81150353 2.9178338 0.35413536 0
0.81397593 2.9267237 0.42709398 0
0.81231272 2.9207435 0.49842522 0
0.22194946 0.88384962 -0.19370587 0
0.24748303 0.98552972 -0.19138876 0
0.28377718 1.1300607 -0.19149342 0
0.33065969 1.3167567 -0.19079538 0
0.39588502 1.5764978 -0.18997107 0
0.49878722 1.9862761 -0.19115596 0
0.59510314 2.3698266 -0.17081702 0
0.59363234 2.3639693 -0.1134707 0
0.593732 2.3643663 -0.056679349 0
0.59653705 2.3755364 6.9923328e-05 0
0.59796828 2.3812358 0.057224013 0
0.59723413 2.3783123 0.11429949 0
0.76859462 3.0607061 0.22079664 0
0.76848346 3.0602636 0.29469645 0
0.76843202 3.0600586 0.36892569 0
0.76815498 3.0589554 0.44342002 0
0.1980117 0.88218814 -0.19218527 0
0.22369738 0.99662387 -0.19238554 0
0.25340861 1.1289942 -0.19016837 0
0.29862672 1.3304515 -0.19162659 0
0.35485488 1.5809611 -0.18936938 0
0.44705918 1.9917527 -0.19053644 0
0.55109799 2.4552698 -0.17591716 0
0.55415934 2.4689088 -0.11779894 0
0.55163366 2.4576561 -0.058563318 0
0.55274218 2.462595 7.2052295e-05 0
0.55159926 2.4575031 0.058703557 0
0.55115044 2.4555032 0.11730333 0
0.71051079 3.1654909 0.22698981 0
0.71517414 3.1862671 0.304995 0
0.71175355 3.1710277 0.38001749 0
0.71381921 3.1802306 0.45824236 0
0.1762353 0.88965517 -0.19278157 0
0.19859022 1.0025052 -0.19249201 0
0.22407484 1.1311543 -0.18951926 0
0.26583421 1.3419603 -0.19225661 0
0.3188442 1.6095605 -0.19177006 0
0.39606938 1.9994017 -0.19025129 0
0.41416943 2.0907729 -0.14900498 0
0.41507465 2.0953424 -0.099443473 0
0.4133116 2.0864425 -0.049453367 0
0.41143703 2.0769792 6.0446604e-05 0
0.41540572 2.0970137 0.049826056 0
0.41467968 2.0933485 0.099470958 0
0.41354045 2.0875976 0.14890079 0
0.41397682 2.0898004 0.19897582 0
0.41451776 2.0925312 0.24943675 0
0.40403762 2.0396261 0.29232916 0
0.29662761 1.4974087 0.25097287 0
0.26919809 1.3589414 0.2610136 0
0.15229999 0.88549072 -0.1909854 0
0.17303607 1.0060529 -0.19227339 0
0.1972878 1.1470553 -0.19128819 0
0.23269467 1.3529152 -0.19292325 0
0.27890065 1.6215624 -0.1923001 0
0.34634167 2.0136728 -0.19071674 0
0.36889964 2.1448276 -0.15214534 0
0.8804118 5.1188216 -0.24180408 0
1.7633797 10.252504 -0.24187545 0
0.57851171 3.3635375 0.15908286 0
0.58057916 3.3755581 0.23964489 0
0.57958251 3.3697634 0.31935021 0
0.26346472 1.531816 0.18174709 0
0.27067897 1.5737605 0.22450837 0
0.27074221 1.5741282 0.26260248 0
0.23615065 1.3730087 0.26248711 0
0.12970237 0.88763255 -0.19068058 0
0.14705676 1.0063993 -0.19156925 0
0.16640568 1.1388156 -0.18915348 0
0.19704202 1.3484789 -0.19152048 0
0.23597185 1.6148995 -0.19074294 0
0.29617164 2.0268834 -0.19119908 0
0.3941443 2.6973703 -0.19057412 0
0.75034708 5.1350832 -0.24160072 0
1.5046434 10.297194 -0.2419568 0
0.50607109 3.4633534 0.16314772 0
0.5027293 3.4404838 0.24327596 0
0.50429112 3.4511721 0.32575533 0
0.22115833 1.5135216 0.17885725 0
0.27527159 1.8838518 0.26766878 0
0.20116284 1.3766803 0.26213494 0
0.10758689 0.89329308 -0.19125235 0
0.12202916 1.0132072 -0.19221769 0
0.13880832 1.1525244 -0.19078779 0
0.16425087 1.3637736 -0.1930425 0
0.19533424 1.6218587 -0.1909218 0
0.24660121 2.047528 -0.19249809 0
0.32680407 2.7134519 -0.19106671 0
0.62002712 5.1480803 -0.24139908 0
1.2430649 10.321157 -0.2417057 0
0.42527148 3.5310259 0.16577715 0
0.42264581 3.5092249 0.24730361 0
0.42303625 3.5124667 0.33042789 0
0.42308959 3.5129097 0.41373715 0
0.23094799 1.9175594 0.27154347 0
0.16610819 1.3791951 0.26173216 0
0.086022362 0.90634775 -0.19352087 0
0.096423611 1.0159373 -0.19221272 0
0.1107139 1.1665024 -0.19257781 0
0.12902318 1.3594123 -0.1919031 0
0.15482306 1.6312448 -0.19150573 0
0.19381508 2.0420721 -0.19146428 0
0.25774458 2.7156453 -0.19070238 0
0.49141654 5.1776571 -0.24212727 0
0.98259217 10.352776 -0.24178837 0
0.34054425 3.5880382 0.16799678 0
0.34017789 3.584178 0.25190043 0
0.33944675 3.5764749 0.33553651 0
0.34000796 3.5823879 0.42077532 0
0.33835182 3.5649383 0.50345737 0
0.17258464 1.8183842 0.30030403 0
0.12965527 1.3660722 0.25853845 0
0.062250976 0.89562684 -0.19083554 0
0.070911475 1.0202285 -0.19262466 0
0.080254667 1.1546524 -0.19022651 0
0.094689123 1.362326 -0.19191593 0
0.11414666 1.6422684 -0.19240041 0
0.14155114 2.0365465 -0.19055055 0
0.19011454 2.7352455 -0.19168077 0
0.36019716 5.1822844 -0.24184152 0
0.72099423 10.373199 -0.24176338 0
0.25254649 3.633476 0.16977173 0
0.25201529 3.6258333 0.25430003 0
0.13180338 1.896302 0.17753799 0
0.13324299 1.9170142 0.22469954 0
0.13247947 1.9060291 0.26862064 0
0.12372265 1.7800417 0.29336271 0
0.095048703 1.3674994 0.25827232 0
0.039855022 0.90192276 -0.19190159 0
0.044773262 1.0132231 -0.19102778 0
0.051391024 1.1629835 -0.19132444 0
0.060316179 1.3649607 -0.19201149 0
0.072506875 1.6408372 -0.19195721 0
0.089782588 2.0317881 -0.18983287 0
0.12127352 2.7444308 -0.19204882 0
0.22920504 5.1869311 -0.24171142 0
0.45878449 10.382335 -0.2416295 0
0.16232133 3.6733465 0.17138866 0
0.16179886 3.6615233 0.25643507 0
0.085751429 1.9405626 0.18142141 0
0.084838904 1.9199121 0.22471666 0
0.086064331 1.9476438 0.27409208 0
0.07618472 1.7240671 0.28373048 0
0.060275726 1.3640451 0.2572507 0
0.017052038 0.90085018 -0.19152081 0
0.019350849 1.0222951 -0.19258478 0
0.022046017 1.1646795 -0.19145094 0
0.025754765 1.3606106 -0.19124721 0
0.031004861 1.6379704 -0.19146931 0
0.038600877 2.039264 -0.19037969 0
0.052039985 2.7492449 -0.19223258 0
0.098360561 5.1963363 -0.24195698 0
0.19675872 10.394659 -0.24172375 0
0.070069313 3.7017248 0.17257525 0
0.069677435 3.6810219 0.25759548 0
0.069814891 3.6882837 0.34453979 0
0.069980606 3.6970387 0.43237653 0
0.031701081 1.6747514 0.27539518 0
0.025969824 1.3719721 0.25853971 0
-0.005685322 0.90140611 -0.19160849 0
-0.006427425 1.0190663 -0.19194596 0
-0.0072945887 1.1565548 -0.19008514 0
-0.0085590659 1.3570373 -0.19071458 0
-0.010337197 1.6389596 -0.19155443 0
-0.012882327 2.0424891 -0.19065042 0
-0.01732167 2.7463455 -0.19199927 0
-0.032698441 5.1843281 -0.2413594 0
-0.065576695 10.397165 -0.24174355 0
-0.023463469 3.7201259 0.1734055 0
-0.023407137 3.7111945 0.25966558 0
-0.023354648 3.7028725 0.34584755 0
-0.023311555 3.6960402 0.43219095 0
-0.010300172 1.6330892 0.26850152 0
-0.0086008562 1.3636632 0.25693303 0
-0.028192826 0.89355785 -0.19003095 0
-0.03228043 1.0231124 -0.19280013 0
-0.036460854 1.155609 -0.19002041 0
-0.043366745 1.3744878 -0.1932593 0
-0.051767334 1.6407404 -0.19185416 0
-0.064967997 2.059129 -0.19229543 0
-0.086442471 2.7397518 -0.1916298 0
-0.11990244 3.8002493 -0.17700733 0
-0.11987629 3.7994204 -0.088382177 0
-0.11979506 3.7968459 0.00010844776 0
-0.12004124 3.8046486 0.088721253 0
-0.11821216 3.7466764 0.17472652 0
-0.11758266 3.7267249 0.26087677 0
-0.11741336 3.721359 0.34774023 0
-0.11754026 3.7253811 0.43582997 0
-0.051626742 1.6362844 0.26915535 0
-0.043267522 1.371343 0.25850344 0
-0.051531442 0.90667742 -0.19303618 0
-0.057515338 1.0119619 -0.19091162 0
-0.066204615 1.1648467 -0.19175309 0
-0.077051394 1.3556919 -0.19082919 0
-0.093200095 1.6398226 -0.19196078 0
-0.11648009 2.0494258 -0.19160283 0
-0.15581135 2.7414453 -0.19196217 0
-0.21443276 3.7728684 -0.17592804 0
-0.21532378 3.7885454 -0.088227525 0
-0.21532413 3.7885518 0.00010833159 0
-0.21513611 3.7852433 0.088367224 0
-0.21235652 3.7363374 0.17443876 0
-0.2115403 3.7219763 0.26083505 0
-0.21174161 3.7255185 0.34851727 0
-0.078233175 1.3764849 0.16121376 0
-0.078059964 1.3734373 0.19340713 0
-0.078115277 1.3744105 0.2263315 0
-0.077727407 1.3675861 0.25808287 0
-0.074725464 0.90915304 -0.19390304 0
-0.083104514 1.0110974 -0.19108339 0
-0.093755275 1.1406808 -0.1881046 0
-0.11172725 1.3593382 -0.19167832 0
-0.1350062 1.6425633 -0.19261916 0
-0.16808766 2.0450513 -0.19152948 0
-0.22457923 2.7323604 -0.19166189 0
-0.42504799 5.1713791 -0.2415636 0
-0.85166293 10.361822 -0.24172939 0
-0.3071416 3.7368617 0.17476949 0
-0.30633688 3.7270713 0.26165062 0
-0.30502927 3.7111621 0.34778371 0
-0.30607012 3.7238255 0.43689963 0
-0.11485606 1.397405 0.19712771 0
-0.11478145 1.3964974 0.23037234 0
-0.11350002 1.3809067 0.26105413 0
-0.097926781 0.90963757 -0.19447158 0
-0.10887313 1.0113177 -0.19158331 0
-0.1228998 1.1416109 -0.18870939 0
-0.14621615 1.3581954 -0.19197643 0
-0.17518501 1.6272858 -0.19128518 0
-0.21773866 2.0225649 -0.18987772 0
-0.29193735 2.7117932 -0.19067532 0
-0.55496204 5.1550183 -0.24137677 0
-1.1140759 10.348602 -0.24199988 0
-0.39917669 3.7079346 0.17383243 0
-0.39941347 3.710134 0.26108614 0
-0.39863947 3.7029445 0.3478457 0
-0.39904946 3.7067528 0.4359394 0
-0.14888735 1.3830081 0.1955646 0
-0.14961562 1.3897728 0.22981279 0
-0.14785504 1.3734189 0.26026118 0
-0.11976007 0.89872307 -0.19272301 0
-0.13511565 1.013957 -0.19266796 0
-0.15387486 1.1547328 -0.19145948 0
-0.17958313 1.3476571 -0.19106667 0
-0.21694405 1.628027 -0.19195481 0
-0.27340519 2.0517318 -0.1932022 0
-0.36063042 2.7063017 -0.19086841 0
-0.686104 5.1487741 -0.2418182 0
-1.3738574 10.309925 -0.24182928 0
-0.49221987 3.6937969 0.17369673 0
-0.48992169 3.6765504 0.25951034 0
-0.24287632 1.8226322 0.17173484 0
-0.2433102 1.825888 0.2153905 0
-0.18660794 1.4003738 0.19862294 0
-0.18666571 1.4008074 0.23234253 0
-0.18204361 1.3661214 0.25966626 0
-0.14207768 0.89340365 -0.19229004 0
-0.16109279 1.0129731 -0.19319205 0
-0.18244788 1.1472569 -0.19092262 0
-0.21329585 1.341233 -0.19085833 0
-0.25697446 1.6158899 -0.19122759 0
-0.32168826 2.0228193 -0.19118328 0
-0.42867139 2.6955433 -0.19081193 0
-0.81606376 5.1315188 -0.24189812 0
-1.6333883 10.270966 -0.2418054 0
-0.58376431 3.6707885 0.17325245 0
-0.58196354 3.6594651 0.25925857 0
-0.28097123 1.7667849 0.16708767 0
-0.28049904 1.7638156 0.20883678 0
-0.2804836 1.7637186 0.2510823 0
-0.2160871 1.3587848 0.25922588 0
-0.1629366 0.88068473 -0.190377 0
-0.18636338 1.0073082 -0.19294728 0
-0.21002012 1.1351748 -0.18973367 0
-0.24896152 1.3456559 -0.19232063 0
-0.29534301 1.5963514 -0.18973708 0
-0.37188491 2.0100663 -0.19080429 0
-0.49658903 2.6841016 -0.19082843 0
-0.94385773 5.1016226 -0.24153486 0
-1.8938066 10.236168 -0.24203441 0
-0.6698212 3.6204345 0.17161912 0
-0.66657668 3.6028976 0.25636125 0
-0.66755503 3.6081855 0.34271613 0
-0.66870534 3.6144032 0.42980883 0
-0.29014197 1.5682393 0.2622098 0
-0.25181496 1.361079 0.26079297 0
-0.18603458 0.88069266 -0.19133277 0
-0.21110401 0.99937207 -0.19238643 0
-0.23757881 1.1247045 -0.18892571 0
-0.28002271 1.3256351 -0.19040871 0
-0.34073198 1.6130344 -0.19268073 0
-0.42302287 2.0026016 -0.19104835 0
-0.56333452 2.6668406 -0.19055142 0
-0.61858785 2.9284115 -0.1393396 0
-0.61722147 2.9219432 -0.069435634 0
-0.62108368 2.9402268 8.5791013e-05 0
-0.75551385 3.576623 0.17039196 0
-0.75245965 3.5621641 0.25473306 0
-0.75411755 3.5700126 0.34078965 0
-0.7544893 3.5717728 0.4268679 0
-0.28937224 1.3698959 0.26379779 0
-0.20975289 0.8822667 -0.19276348 0
-0.2345506 0.98657131 -0.19100098 0
-0.27137387 1.141458 -0.19282906 0
-0.31473753 1.323855 -0.19123314 0
-0.37645808 1.5834653 -0.19022304 0
-0.47258663 1.9878032 -0.19071375 0
-0.52354133 2.2021298 -0.15824059 0
-0.6192134 2.6045475 -0.12463345 0
-0.6230002 2.6204755 -0.062625423 0
-0.61871064 2.6024327 7.636605e-05 0
-0.83564001 3.5148854 0.1684019 0
-0.83428741 3.509196 0.25237069 0
-0.83167022 3.4981875 0.33583009 0
-0.83453465 3.510236 0.42189646 0
-0.83360231 3.5063145 0.50670296 0
-0.23159368 0.87535977 -0.19247021 0
-0.26019099 0.98344964 -0.19160697 0
-0.29534209 1.116311 -0.18977971 0
-0.34735438 1.312903 -0.19085671 0
-0.41614583 1.5729156 -0.19015688 0
-0.5213449 1.970539 -0.19025923 0
-0.57793605 2.1844378 -0.15796714 0
-0.65155494 2.4626966 -0.11859471 0
-0.64913517 2.4535506 -0.059008915 0
-0.6442582 2.435117 7.1910566e-05 0
-0.91583771 3.461612 0.16690382 0
-0.91231281 3.4482889 0.24956691 0
-0.91103315 3.4434524 0.33267692 0
-0.91207862 3.4474039 0.41697863 0
-0.90965635 3.4382482 0.50002521 0
-0.25584471 0.87691051 -0.19416913 0
-0.28365353 0.97222555 -0.19075425 0
-0.32789537 1.1238649 -0.19240957 0
-0.34325728 1.1765181 -0.17223498 0
-0.45792985 1.5695595 -0.19108756 0
-0.57101953 1.9571756 -0.19029987 0
-0.7107513 2.4361076 -0.17740732 0
-0.71726042 2.4584179 -0.11922247 0
-0.71705461 2.4577124 -0.059525307 0
-0.71227181 2.4413192 7.2601477e-05 0
-0.98464882 3.3748946 0.16386873 0
-0.98159498 3.3644276 0.24521245 0
-0.98182523 3.3652165 0.32740822 0
-0.97914678 3.3560362 0.40878624 0
-0.9825303 3.3676331 0.49320498 0
-0.27425829 0.85880834 -0.19163255 0
-0.30672082 0.96046096 -0.18990441 0
-0.34930384 1.0938048 -0.18871243 0
-0.37907815 1.1870397 -0.17512015 0
-0.39437011 1.2349247 -0.15151067 0
-0.39693427 1.242954 -0.12179007 0
-0.40009192 1.2528418 -0.09194316 0
-0.39661601 1.2419574 -0.060695603 0
-0.39665169 1.2420691 -0.030315483 0
-0.39659864 1.2419031 3.7218313e-05 0
-0.39873075 1.2485795 0.03054926 0
-0.39743462 1.2445209 0.060895633 0
-0.39881071 1.24883 0.091723949 0
-0.39642277 1.2413523 0.12170818 0
-0.39879608 1.2487841 0.15328692 0
-0.39640477 1.2412959 0.18320027 0
-0.39909774 1.2497287 0.21569067 0
-0.39752817 1.2448138 0.24620451 0
-0.29404142 0.84643894 -0.19046779 0
-0.33054921 0.95153171 -0.18972801 0
-0.38460052 1.1071259 -0.19262408 0
-0.42572626 1.225512 -0.18232295 0
-0.4312923 1.2415346 -0.15360822 0
-0.43714744 1.2583895 -0.12434398 0
-0.42883345 1.2344565 -0.091359109 0
-0.43488359 1.2518727 -0.061696928 0
-0.43073118 1.2399193 -0.030518631 0
-0.43524584 1.2529154 3.7865495e-05 0
-0.43549487 1.2536323 0.030931966 0
-0.43122074 1.2413286 0.061252471 0
-0.43089929 1.2404033 0.091874555 0
-0.4346717 1.2512627 0.12371605 0
-0.43430102 1.2501956 0.15475638 0
-0.43385831 1.2489212 0.18588258 0
-0.43101263 1.2407295 0.21594623 0
-0.43191081 1.2433151 0.24798515 0
-0.31580248 0.84007579 -0.19076873 0
-0.35527229 0.94507062 -0.19016705 0
-0.40799683 1.0853248 -0.19056192 0
-0.47778347 1.2709663 -0.19081856 0
-0.48843187 1.2992924 -0.16222782 0
-0.51347095 1.3658997 -0.13620445 0
-0.51568109 1.371779 -0.10245261 0
-0.50826824 1.3520598 -0.067245327 0
-0.50755078 1.3501513 -0.03353643 0
-0.51332664 1.3655158 4.1646781e-05 0
-1.2028387 3.1997077 0.07967288 0
-1.1931617 3.1739657 0.15805271 0
-1.1601743 3.0862148 0.23068604 0
-1.1648155 3.0985613 0.30917224 0
-1.1606255 3.087415 0.38568121 0
-1.162629 3.0927448 0.46452656 0
-0.34202912 0.84450996 -0.19367431 0
-0.38357839 0.94709998 -0.19246215 0
-0.43729472 1.0797319 -0.19145681 0
-0.51168191 1.2634026 -0.19156089 0
-0.51124603 1.2623262 -0.15917268 0
-0.50890779 1.2565529 -0.12654115 0
-0.51048499 1.2604473 -0.095069684 0
-0.5126372 1.2657613 -0.063576482 0
-0.51287115 1.2663389 -0.031766023 0
-0.5144996 1.2703598 3.9128205e-05 0
-1.2717271 3.1400433 0.15791152 0
-1.2040492 2.9729385 0.22441898 0
-1.1975557 2.9569051 0.29795885 0
-1.1953264 2.9514012 0.37234041 0
-1.2013769 2.9663403 0.44995174 0
-0.35777754 0.82307237 -0.19076808 0
-0.40690672 0.93609482 -0.19225152 0
-0.46608204 1.0722284 -0.19215101 0
-0.51455176 1.1837337 -0.18139258 0
-0.50818038 1.1690763 -0.14898419 0
-0.50885916 1.1706378 -0.1191445 0
-0.51201808 1.177905 -0.089790016 0
-0.51435226 1.1832749 -0.060066283 0
-0.51198566 1.1778305 -0.029860433 0
-0.51562017 1.1861917 3.6924826e-05 0
-1.3520303 3.1103654 0.15808477 0
-1.2273636 2.8235679 0.2154132 0
-1.2296162 2.8287499 0.28808051 0
-1.227828 2.8246362 0.36014292 0
-1.2291275 2.8276255 0.43347824 0
-1.2291327 2.8276374 0.50691366 0
-0.37863457 0.81422204 -0.19087093 0
-0.43010536 0.92490566 -0.19212179 0
-0.48708075 1.0474265 -0.18984891 0
-0.51086539 1.0985733 -0.17026439 0
-0.5130471 1.1032649 -0.14220224 0
-0.51965517 1.117475 -0.11503197 0
-0.51316494 1.1035184 -0.085079834 0
-0.51290667 1.102963 -0.056628536 0
-0.51507974 1.1076359 -0.028401393 0
-0.51339132 1.1040051 3.4758737e-05 0
-1.4301755 3.0754728 0.1580956 0
-1.2490464 2.6859701 0.20725477 0
-1.2422302 2.6713121 0.27515236 0
-1.2421075 2.6710484 0.34444779 0
-1.2411331 2.6689529 0.41382393 0
-1.2374748 2.6610863 0.48250127 0
-0.39817429 0.80262887 -0.19044842 0
-0.45004928 0.90719706 -0.19074208 0
-0.51659143 1.0413308 -0.19104646 0
-0.51031023 1.0286694 -0.161375 0
-0.51218283 1.0324441 -0.13469729 0
-0.51486719 1.0378551 -0.10813919 0
-0.50937051 1.0267751 -0.080128692 0
-0.51025617 1.0285605 -0.05345273 0
-0.51016623 1.0283792 -0.026690796 0
-0.51279891 1.0336859 3.2941789e-05 0
-1.2492397 2.518183 0.19667824 0
-1.2427217 2.5050445 0.26117384 0
-1.2460738 2.5118015 0.32786316 0
-1.2443243 2.5082748 0.3936547 0
-1.239392 2.4983325 0.45851699 0
-0.42363319 0.80243146 -0.19287719 0
-0.48089457 0.9108941 -0.19400953 0
-0.5317539 1.0072302 -0.18719286 0
-0.53472388 1.0128558 -0.16096014 0
-0.53211623 1.0079165 -0.13320702 0
-0.53767532 1.0184462 -0.10749661 0
-0.53353238 1.0105989 -0.079891734 0
-0.53617239 1.0155994 -0.0534654 0
-0.53517205 1.0137047 -0.026652012 0
-0.53268713 1.0089977 3.2573094e-05 0
-1.2565765 2.3801644 0.18831559 0
-1.242758 2.3539898 0.24861602 0
-1.2412627 2.3511574 0.31088465 0
-1.2422 2.3529329 0.37407628 0
-1.2407839 2.3502505 0.43694788 0
-1.2388577 2.346602 0.49995497 0
-0.4404012 0.78552413 -0.19142401 0
-0.49569413 0.88414776 -0.19091673 0
-0.55349392 0.98724264 -0.1860152 0
-0.5616352 1.0017638 -0.16139872 0
-0.5542143 0.98852754 -0.13245104 0
-0.55890912 0.99690145 -0.10667751 0
-0.55847013 0.99611849 -0.079835862 0
-0.55773264 0.99480313 -0.053094741 0
-0.55479044 0.98955524 -0.02637683 0
-0.55889034 0.99686795 3.26265e-05 0
-1.292502 2.3053789 0.061601408 0
-1.2905971 2.301981 0.12301259 0
-1.2541653 2.236999 0.1794358 0
-1.2400191 2.2117672 0.23682523 0
-1.2422198 2.2156925 0.29702368 0
-1.2399088 2.2115705 0.35646379 0
-1.2391859 2.2102811 0.41660744 0
-1.2416574 2.2146893 0.47837478 0
-0.45966095 0.77345628 -0.19124943 0
-0.52053392 0.87588519 -0.19190834 0
-0.58466524 0.98379689 -0.18808645 0
-0.58444583 0.98342776 -0.16076988 0
-0.57809722 0.97274518 -0.13224924 0
-0.58603299 0.98609835 -0.10707014 0
-0.59182411 0.99584293 -0.080985144 0
-0.58398902 0.98265904 -0.053216308 0
-0.58740294 0.9884035 -0.026732793 0
-0.59178293 0.99577355 3.3068991e-05 0
-1.3555502 2.2809396 0.061842866 0
-1.3567239 2.2829146 0.12378414 0
-1.2516897 2.1061769 0.17142165 0
-1.23838 2.083781 0.22639568 0
-1.2401912 2.0868287 0.2838546 0
-1.2419542 2.0897954 0.34177941 0
-1.2404438 2.0872538 0.39919239 0
-1.2346463 2.0774987 0.4553273 0
-0.48124105 0.76512825 -0.19213232 0
-0.54250342 0.86252975 -0.19192101 0
-0.61420768 0.97653276 -0.18960102 0
-0.60695463 0.96500111 -0.16021082 0
-0.61308813 0.97475278 -0.13458306 0
-0.61471546 0.9773401 -0.10776945 0
-0.60994524 0.96975589 -0.080090083 0
-0.61007053 0.96995503 -0.053345188 0
-0.61888123 0.98396325 -0.027026558 0
-0.61601734 0.97940999 3.3031378e-05 0
-1.248853 1.9855595 0.16411772 0
-1.2443186 1.9783503 0.21828356 0
-1.2413577 1.9736427 0.27263364 0
-1.2388694 1.9696865 0.32714558 0
-1.2420584 1.9747566 0.38355032 0
-1.2406188 1.9724679 0.4390305 0
-0.50227016 0.75556672 -0.19285317 0
-0.56711388 0.85311127 -0.19294874 0
-0.63237262 0.95128018 -0.18773709 0
-0.63722032 0.95857257 -0.16176212 0
-0.64413071 0.96896797 -0.13598566 0
-0.64090717 0.96411872 -0.10806082 0
-0.6431762 0.9675321 -0.081221215 0
-0.63470268 0.95478535 -0.053374916 0
-0.63639504 0.95733118 -0.026727717 0
-0.63846809 0.9604497 3.2924905e-05 0
-1.2548144 1.8876214 0.15858981 0
-1.2364784 1.8600385 0.20860639 0
-1.24155 1.8676677 0.26223961 0
-1.2403048 1.8657945 0.31498912 0
-1.2430505 1.8699249 0.36916518 0
-1.2383929 1.8629185 0.42146975 0
-0.51990187 0.74084067 -0.19238244 0
-0.58841598 0.8384707 -0.1929349 0
-0.66334587 0.94524306 -0.18978932 0
-0.66003835 0.94052988 -0.16147715 0
-0.65952343 0.93979621 -0.13418502 0
-0.66077983 0.94158649 -0.10737041 0
-0.66484571 0.94738024 -0.080912396 0
-0.66441309 0.94676375 -0.05384678 0
-0.66390699 0.94604266 -0.026871815 0
-0.6670841 0.95056987 3.3152832e-05 0
-1.3037711 1.857825 0.1588005 0
-1.2544233 1.7875062 0.20395757 0
-1.241322 1.7688373 0.25268137 0
-1.2383884 1.7646571 0.30309495 0
-1.2425239 1.7705499 0.35562426 0
-1.2487506 1.7794228 0.4095796 0
-0.5327149 0.71976739 -0.19034097 0
-0.60526657 0.81779414 -0.19163126 0
-0.69028026 0.93265879 -0.19069993 0
-0.69367021 0.93723905 -0.16386579 0
-0.68937343 0.9314335 -0.13543211 0
-0.69291151 0.93621397 -0.10871738 0
-0.69292414 0.93623102 -0.081427902 0
-0.68938172 0.93144476 -0.053947914 0
-0.69142127 0.93420047 -0.02702252 0
-0.69229633 0.93538278 3.3221972e-05 0
-1.3458873 1.8184695 0.15828966 0
-1.2559543 1.6969582 0.19718002 0
-1.2414443 1.6773535 0.244011 0
-1.2433202 1.6798879 0.29383135 0
-1.2390692 1.6741444 0.34243298 0
-1.2406045 1.6762186 0.39290661 0
-0.55843014 0.71600127 -0.19301075 0
-0.6251992 0.80161047 -0.19147556 0
-0.71605074 0.91809738 -0.19135688 0
-0.72048557 0.92378366 -0.16464017 0
-0.71615821 0.91823524 -0.13609788 0
-0.71402395 0.91549873 -0.10837003 0
-0.72616333 0.93106347 -0.082546204 0
-0.72303182 0.92704839 -0.054732788 0
-0.71279985 0.91392916 -0.02694796 0
-0.71615869 0.91823584 3.3244352e-05 0
-1.391336 1.7839266 0.15828912 0
-1.248562 1.6008664 0.18961576 0
-1.2442408 1.5953258 0.23657116 0
-1.2417433 1.5921236 0.28387177 0
-1.2383045 1.5877146 0.33104169 0
-1.2499733 1.6026758 0.38294107 0
-0.57355922 0.69832504 -0.19208691 0
-0.64960223 0.79090959 -0.19277437 0
-0.73947752 0.90033537 -0.19148384 0
-0.75012571 0.91329986 -0.16609302 0
-0.74316466 0.90482455 -0.13684668 0
-0.74420524 0.90609151 -0.10944501 0
-0.74358767 0.9053396 -0.081903376 0
-0.74802178 0.91073829 -0.054867003 0
-0.7470066 0.90950221 -0.02736463 0
-0.74483436 0.90685749 3.350234e-05 0
-1.4315561 1.7429612 0.15780991 0
-1.2496388 1.5214715 0.18388896 0
-1.2453429 1.5162411 0.22943154 0
-1.2453237 1.5162177 0.27585411 0
-1.2435801 1.5140948 0.32213345 0
-1.2367829 1.5058191 0.36713985 0
-0.58859622 0.68085527 -0.1913069 0
-0.66152871 0.76521951 -0.19052157 0
-0.76148003 0.88083756 -0.1913636 0
-0.77080381 0.89162284 -0.16563606 0
-0.77290505 0.8940534 -0.13812396 0
-0.77459472 0.89600796 -0.11055324 0
-0.76606524 0.88614154 -0.081889659 0
-0.77508068 0.89657003 -0.055174392 0
-0.77877486 0.90084332 -0.027686674 0
-0.77926296 0.9014079 3.4016775e-05 0
-1.4821156 1.7144285 0.15856293 0
-1.2569575 1.4539784 0.17950869 0
-1.2404792 1.4349172 0.22179277 0
-1.2356108 1.4292858 0.26562726 0
-1.2363373 1.430126 0.31080839 0
-1.2402732 1.4346788 0.35731325 0
-0.59536582 0.6545499 -0.18807785 0
-0.68336028 0.75129169 -0.19128713 0
-0.7785812 0.85597831 -0.19017147 0
-0.80416971 0.88411051 -0.16795747 0
-0.81129032 0.89193898 -0.14091583 0
-0.80295724 0.88277751 -0.11138583 0
-0.80496919 0.88498944 -0.083634056 0
-0.80347276 0.88334429 -0.055590734 0
-0.80073041 0.88032931 -0.02766851 0
-0.79871392 0.87811238 3.3887613e-05 0
-1.2564633 1.3813657 0.1744035 0
-1.2392505 1.3624418 0.21535629 0
-1.2450742 1.3688444 0.26015174 0
-1.2406627 1.3639942 0.30314475 0
-1.2455087 1.3693219 0.3487539 0
-0.62020838 0.64822173 -0.19069664 0
-0.7098034 0.74186355 -0.19338633 0
-0.80053073 0.83668876 -0.19031414 0
-0.8350144 0.87273002 -0.16974509 0
-0.82777876 0.86516756 -0.13994242 0
-0.82945853 0.86692321 -0.1119912 0
-0.82540417 0.86268568 -0.083468422 0
-0.82442278 0.86165994 -0.055517878 0
-0.83337772 0.87101936 -0.028028054 0
-0.83944058 0.87735611 3.4665012e-05 0
-1.2481109 1.304485 0.16862044 0
-1.2397088 1.2957034 0.20968617 0
-1.242434 1.2985518 0.25267163 0
-1.2375569 1.2934544 0.29431552 0
-1.2390507 1.2950157 0.337686 0
-0.64442897 0.64037895 -0.19311278 0
-0.7242204 0.71966898 -0.19230428 0
-0.82232219 0.81715423 -0.19053099 0
-0.85961646 0.85421407 -0.17030935 0
-0.86404407 0.85861391 -0.14236444 0
-0.85494685 0.84957385 -0.11250164 0
-0.86567205 0.86023158 -0.085317761 0
-0.85706079 0.85167444 -0.056250326 0
-0.86253417 0.85711342 -0.028272089 0
-0.8575052 0.85211611 3.4511882e-05 0
-1.2638247 1.255882 0.04152735 0
-1.2822539 1.2741953 0.08425989 0
-1.2752398 1.2672254 0.12578656 0
-1.2597269 1.25181 0.16586852 0
-1.2558687 1.2479761 0.207026 0
-1.2451968 1.2373712 0.2468037 0
-1.2401918 1.2323977 0.28745335 0
-1.2420065 1.234201 0.32989702 0
-0.64167249 0.60623991 -0.18764184 0
-0.73181432 0.69140416 -0.18962669 0
-0.84256876 0.79604286 -0.19050629 0
-0.88870567 0.83963209 -0.17181936 0
-0.89006066 0.84091228 -0.14310856 0
-0.88495809 0.83609146 -0.11363778 0
-0.89038908 0.84122258 -0.085634001 0
-0.90135032 0.85157853 -0.057728119 0
-0.89311463 0.84379762 -0.028567297 0
-0.88892686 0.83984113 3.4912286e-05 0
-1.2950478 1.2235364 0.041525371 0
-1.2866323 1.2155855 0.082505263 0
-1.2978263 1.2261615 0.1249221 0
-1.2559093 1.1865591 0.16137128 0
-1.243228 1.174578 0.1999916 0
-1.2415354 1.1729789 0.2401337 0
-1.2419146 1.1733372 0.28089929 0
-1.2377834 1.1694341 0.32083336 0
-0.66920447 0.60102975 -0.1911961 0
-0.74940199 0.67305726 -0.18972184 0
-0.85827166 0.77083588 -0.18959752 0
-0.91678315 0.82338655 -0.1731748 0
-0.92193717 0.82801551 -0.14482757 0
-0.92312813 0.82908511 -0.1158153 0
-0.91870797 0.82511526 -0.086327232 0
-0.92657512 0.83218098 -0.057980016 0
-0.91438627 0.82123387 -0.028575614 0
-0.91759753 0.82411796 3.5210192e-05 0
-1.3376224 1.2013531 0.041904937 0
-1.326769 1.1916054 0.083124012 0
-1.3340181 1.1981159 0.12545511 0
-1.2483459 1.1211715 0.15671363 0
-1.2507628 1.1233423 0.19658025 0
-1.244223 1.1174687 0.23512357 0
-1.242947 1.1163228 0.27467266 0
-1.2380601 1.1119337 0.31353101 0
-0.68296051 0.58293337 -0.19086201 0
-0.77658141 0.66284245 -0.19230615 0
-0.8905164 0.76009041 -0.19242145 0
-0.95151323 0.81215352 -0.17580716 0
-0.95211565 0.81266773 -0.14629966 0
-0.93904293 0.80150968 -0.11523732 0
-0.94191587 0.80396181 -0.086573735 0
-0.94816893 0.80929905 -0.058034614 0
-0.9548583 0.8150087 -0.029188281 0
-0.94727677 0.80853754 3.555468e-05 0
-1.4058334 1.1999335 0.043079358 0
-1.3908342 1.187131 0.08523348 0
-1.4055281 1.1996729 0.12929146 0
-1.2473558 1.0646666 0.15316725 0
-1.2546555 1.0708972 0.19288263 0
-1.2436963 1.0615431 0.22988783 0
-1.2350262 1.054143 0.26695785 0
-1.239877 1.0582832 0.30712917 0
-0.69872081 0.56654561 -0.1912095 0
-0.79223996 0.64237392 -0.19210771 0
-0.9017486 0.73116708 -0.19080022 0
-0.97739476 0.79250348 -0.17683719 0
-0.98283589 0.79691529 -0.14788239 0
-0.97987092 0.7945112 -0.11774931 0
-0.97675043 0.79198104 -0.087910242 0
-0.97293067 0.78888386 -0.058312967 0
-0.9821052 0.79632288 -0.029397435 0
-0.97417766 0.78989494 3.5804689e-05 0
-1.2496024 1.0132183 0.15025511 0
-1.2484435 1.0122786 0.18794006 0
-1.2368692 1.0028938 0.22387587 0
-1.244493 1.0090754 0.26341519 0
-1.2404466 1.0057944 0.30088627 0
-0.71099699 0.54735327 -0.19072773 0
