# .PCD v0.7 - Point Cloud Data file format
VERSION 0.7
FIELDS x y z intensity
SIZE 4 4 4 4
TYPE F F F F
COUNT 1 1 1 1
WIDTH 1359
HEIGHT 1
VIEWPOINT 0 0 0 1 0 0 0
POINTS 1359
DATA ascii
1.145977 -0.21950583 -0.19176684 0
1.3413619 -0.25693077 -0.19193481 0
1.6141154 -0.30917525 -0.19207649 0
2.5512376 -0.48867607 -0.24246253 0
3.3958406 -0.6504553 -0.2417171 0
5.1033874 -0.9775269 -0.24190563 0
10.21767 -1.9571406 -0.24188419 0
0.89313185 -0.1478183 -0.19242847 0
1.0045817 -0.16626386 -0.19178793 0
1.1498632 -0.19030876 -0.19155239 0
1.3458283 -0.2227421 -0.19170845 0
1.6120856 -0.26680914 -0.19097281 0
2.5518701 -0.42234874 -0.2414327 0
3.4151163 -0.56522077 -0.24199665 0
5.1222172 -0.84775549 -0.24170698 0
10.262437 -1.6984905 -0.24185212 0
0.89078462 -0.12442753 -0.19118524 0
1.01973 -0.14243902 -0.19393183 0
1.1466426 -0.16016656 -0.19028185 0
1.3462234 -0.18804462 -0.19102782 0
1.6186233 -0.22609429 -0.19101046 0
2.5656002 -0.35837093 -0.24179895 0
3.4210994 -0.47786972 -0.24148907 0
5.1445775 -0.71861047 -0.24182926 0
10.307161 -1.439736 -0.24197271 0
0.89361048 -0.10190915 -0.19117883 0
1.0134816 -0.11557949 -0.19212757 0
1.1443276 -0.13050143 -0.18929084 0
1.3535122 -0.15435725 -0.19144832 0
1.6232603 -0.18511988 -0.19094549 0
2.5689373 -0.29296678 -0.24133971 0
3.4368491 -0.39194521 -0.24182552 0
5.1600313 -0.58846039 -0.24178053 0
10.332237 -1.1783092 -0.24178624 0
0.89329851 -0.079099923 -0.19062427 0
1.0046941 -0.088963792 -0.18997554 0
1.1330866 -0.10033271 -0.18695295 0
1.1403328 -0.10097434 -0.16088332 0
1.6428241 -0.14546901 -0.19275352 0
2.5789204 -0.2283586 -0.24165918 0
3.4422596 -0.30480567 -0.24158798 0
5.1723671 -0.45800346 -0.24173993 0
10.35317 -0.91675395 -0.24165769 0
0.90295434 -0.057037778 -0.19231632 0
1.0112604 -0.063879251 -0.19085152 0
1.1304617 -0.07140895 -0.18616322 0
1.1331334 -0.071577713 -0.1595619 0
1.6337763 -0.10320231 -0.19132541 0
2.5835643 -0.16319847 -0.24163142 0
3.4524684 -0.21808536 -0.24184115 0
5.1849174 -0.32752061 -0.24186313 0
10.377517 -0.65552646 -0.24176279 0
0.89954495 -0.034064479 -0.19134612 0
1.0227759 -0.038731057 -0.19277892 0
1.1320153 -0.042867802 -0.1861816 0
1.1308128 -0.04282226 -0.1590323 0
1.6416886 -0.062168397 -0.19200709 0
2.5901117 -0.098083824 -0.24193521 0
3.4565942 -0.13089627 -0.24182172 0
5.1872616 -0.19643417 -0.24166428 0
10.394515 -0.39362541 -0.24185033 0
0.91048378 -0.011488026 -0.19354965 0
1.0160079 -0.012819476 -0.19138131 0
1.126556 -0.014214317 -0.18516575 0
1.1288233 -0.014242924 -0.15865143 0
1.1378173 -0.014356405 -0.13299105 0
1.1258831 -0.014205826 -0.10509868 0
1.1202457 -0.014134697 -0.078321971 0
1.1259059 -0.014206113 -0.052420329 0
1.1368431 -0.014344115 -0.026434215 0
1.1264243 -0.014212655 3.2160155e-05 0
1.1228524 -0.014167587 0.02617305 0
1.1324495 -0.014288678 0.052789796 0
1.1237594 -0.01417903 0.078632109 0
1.1293044 -0.014248994 0.10548309 0
1.1305071 -0.01426417 0.13220206 0
1.1375337 -0.014352828 0.15994188 0
1.1348479 -0.014318939 0.18659519 0
1.1339946 -0.014308173 0.21367306 0
0.89604968 0.011305904 -0.19048126 0
1.0187644 0.012854257 -0.19190055 0
1.1215781 0.014151507 -0.18434754 0
1.1192163 0.014121708 -0.15730122 0
1.6435051 0.020736922 -0.19209716 0
2.5878742 0.032652494 -0.24157228 0
3.4563718 0.043610759 -0.24165221 0
5.1941347 0.065536976 -0.24183038 0
10.396844 0.13118215 -0.24175049 0
0.89443982 0.033871155 -0.19026019 0
1.0188047 0.038580675 -0.19203041 0
1.1257004 0.042628661 -0.18514299 0
1.1442016 0.043329276 -0.16091526 0
1.6331265 0.061844163 -0.19100569 0
2.5994 0.098435558 -0.2428028 0
3.4554877 0.13085437 -0.24174432 0
5.1830373 0.19627419 -0.24146745 0
10.393614 0.39359128 -0.24182938 0
0.89948273 0.056818482 -0.19157691 0
1.0160695 0.064183034 -0.19175914 0
1.1315013 0.071474619 -0.18633442 0
1.1194652 0.070714325 -0.15763722 0
1.6415402 0.10369273 -0.19223461 0
2.5864203 0.16337888 -0.24189854 0
3.4569087 0.21836585 -0.24215218 0
5.186882 0.32764474 -0.24195479 0
10.379354 0.65564263 -0.24180563 0
0.90292662 0.079952471 -0.19267885 0
1.0142465 0.089809634 -0.19178179 0
1.1620719 0.10289931 -0.19173537 0
1.3617665 0.12058188 -0.19212419 0
1.634387 0.14472193 -0.19176359 0
2.5747697 0.22799106 -0.24127023 0
3.4416203 0.30474907 -0.24154313 0
5.1803041 0.45870626 -0.24211088 0
10.351855 0.91663748 -0.24162699 0
0.89616299 0.10220023 -0.19172491 0
1.0180749 0.11610331 -0.1929983 0
1.1631408 0.13264692 -0.19240284 0
1.34482 0.15336598 -0.19021885 0
1.6397471 0.18700008 -0.19288486 0
2.5772088 0.29391009 -0.24211679 0
3.4325087 0.39145023 -0.24152012 0
5.1592822 0.58837497 -0.24174546 0
10.327385 1.1777558 -0.24167269 0
0.89631104 0.12519948 -0.19237135 0
1.0068735 0.14064318 -0.19148678 0
1.1531614 0.16107714 -0.19136365 0
1.3347242 0.18643838 -0.1893961 0
1.6301013 0.22769757 -0.19236495 0
2.558027 0.3573131 -0.2410852 0
3.424391 0.47832948 -0.24172141 0
5.1483154 0.71913254 -0.24200498 0
10.305965 1.4395689 -0.24194463 0
0.89447141 0.14804001 -0.19271708 0
1.0084941 0.16691139 -0.19253485 0
1.1440669 0.18934946 -0.19058681 0
1.3289067 0.21994147 -0.18929802 0
1.61887 0.26793203 -0.19177651 0
2.5512855 0.422252 -0.24137738 0
3.415627 0.56530529 -0.24203284 0
5.1235013 0.84796804 -0.24176757 0
10.255188 1.6972908 -0.24168128 0
0.89432389 0.171303 -0.19355518 0
0.99890417 0.19133481 -0.19156495 0
1.1436499 0.21906011 -0.19137743 0
1.3356941 0.25584513 -0.1911238 0
1.3387297 0.2564266 -0.15930615 0
1.3447191 0.25757381 -0.12779835 0
1.3539493 0.25934184 -0.096374579 0
1.3506444 0.25870878 -0.064021878 0
1.3544316 0.25943422 -0.032063633 0
1.3375896 0.25620821 3.8880229e-05 0
0.88735229 0.193298 -0.19304071 0
0.99780738 0.21735919 -0.19234541 0
1.1310068 0.24637493 -0.19024171 0
1.203555 0.2621786 -0.1731078 0
1.2054667 0.26259503 -0.14419088 0
1.2111719 0.26383784 -0.11570241 0
1.2109444 0.26378831 -0.086641751 0
1.2030646 0.26207179 -0.057321731 0
1.2087911 0.26331922 -0.028764036 0
1.2048005 0.26244992 3.5201727e-05 0
0.87214577 0.21316957 -0.19084227 0
0.99635428 0.24352857 -0.19318862 0
1.1285528 0.27584049 -0.19093916 0
1.2056879 0.29469383 -0.17442881 0
1.2080933 0.29528177 -0.1453502 0
1.193987 0.29183391 -0.11472785 0
1.2063127 0.2948465 -0.086815141 0
1.2071874 0.29506034 -0.05785457 0
1.2051369 0.29455915 -0.028844802 0
1.2040678 0.29429784 3.5386074e-05 0
0.86602038 0.23497947 -0.19073892 0
0.9788872 0.2656039 -0.1910408 0
1.1256998 0.30543894 -0.1916997 0
1.1979989 0.32505602 -0.17444777 0
1.2188512 0.33071393 -0.14760177 0
1.2061707 0.32727331 -0.1166551 0
1.2016406 0.32604414 -0.087043412 0
1.2081701 0.32781577 -0.058279622 0
1.206929 0.32747906 -0.029076263 0
1.2045779 0.32684112 3.5632151e-05 0
0.86756688 0.25906977 -0.19245836 0
0.97938132 0.2924594 -0.19251648 0
1.1155479 0.333121 -0.19134174 0
1.2089128 0.36100131 -0.17730731 0
1.2135626 0.3623898 -0.14802182 0
1.2018065 0.35887924 -0.11707176 0
1.2112868 0.36171019 -0.088375308 0
1.1907518 0.35557809 -0.057853885 0
1.1933477 0.35635328 -0.028956529 0
1.2160621 0.36313617 3.6231431e-05 0
0.84541202 0.2758705 -0.18902798 0
0.96996236 0.31651312 -0.19217409 0
1.0969135 0.35793915 -0.18963465 0
1.2039827 0.39287746 -0.17798188 0
1.2091614 0.39456731 -0.1486523 0
1.2044348 0.39302495 -0.11825641 0
1.2028179 0.39249736 -0.088452011 0
1.197877 0.39088508 -0.058660723 0
1.2103376 0.39495113 -0.029601239 0
1.211882 0.39545509 3.6392674e-05 0
0.84740281 0.30038163 -0.19110738 0
0.96144879 0.34080788 -0.19213034 0
1.0900457 0.38639206 -0.19007279 0
1.2058477 0.42744079 -0.17979512 0
1.2089381 0.42853624 -0.1499068 0
1.2115661 0.4294678 -0.11998265 0
1.2112865 0.4293687 -0.089843072 0
1.2043786 0.42692003 -0.059487823 0
1.209235 0.42864147 -0.029829361 0
1.205842 0.42743874 3.652363e-05 0
0.8433305 0.32311368 -0.191967 0
0.94579029 0.36237016 -0.19076817 0
1.0909425 0.41798377 -0.19200754 0
1.2140772 0.46516162 -0.18271446 0
1.2038366 0.46123803 -0.15066972 0
1.2033749 0.46106109 -0.12028555 0
1.2021466 0.46059054 -0.089998722 0
1.207763 0.46274239 -0.060212683 0
1.202737 0.46081671 -0.029946432 0
1.2110426 0.46399891 3.7024067e-05 0
0.82925868 0.34195867 -0.19066772 0
0.94244987 0.38863492 -0.19201168 0
1.0835278 0.44681075 -0.19262597 0
1.199441 0.49460948 -0.1823324 0
1.2029996 0.49607694 -0.15208358 0
1.2028387 0.49601063 -0.12144463 0
1.2090611 0.49857655 -0.091429338 0
1.1992489 0.49453029 -0.06039124 0
1.2041841 0.4965654 -0.030284869 0
1.2049954 0.49689993 3.7210753e-05 0
0.83251297 0.36814398 -0.19349073 0
0.93687689 0.41429454 -0.19294518 0
1.0624794 0.46983695 -0.19093136 0
1.2031649 0.53204924 -0.18488093 0
1.2129142 0.5363605 -0.154999 0
1.2053984 0.53303695 -0.12302221 0
1.2035028 0.53219867 -0.091995455 0
1.2033547 0.53213316 -0.061254822 0
1.204602 0.53268474 -0.030623753 0
1.2074997 0.53396618 3.7692258e-05 0
0.81161934 0.38367122 -0.19082451 0
0.92383409 0.43671772 -0.19246778 0
1.0593178 0.50076401 -0.19257315 0
1.2232106 0.57823992 -0.19014323 0
1.4732882 0.69645733 -0.19045798 0
1.8540387 0.8764469 -0.19141869 0
3.1287687 1.4790412 -0.2419387 0
4.6914186 2.217742 -0.24158137 0
9.389451 4.4386101 -0.24147247 0
0.80546868 0.40593615 -0.19172621 0
0.9042238 0.45570624 -0.1907177 0
1.0419745 0.5251292 -0.19176863 0
1.2128164 0.61122924 -0.19086474 0
1.461756 0.73668855 -0.19130987 0
1.8218905 0.91818738 -0.19043152 0
3.0894494 1.5570055 -0.24186 0
4.6392384 2.3380606 -0.24185607 0
9.2808418 4.6773129 -0.24163833 0
0.78923535 0.42305568 -0.19034313 0
0.89423448 0.47933859 -0.19110161 0
1.0238134 0.54879707 -0.19091459 0
1.2011036 0.6438303 -0.19151773 0
1.4464803 0.77536017 -0.19181073 0
1.8048297 0.96744704 -0.19113959 0
3.0441091 1.6317409 -0.24145769 0
4.5805621 2.4553294 -0.24195072 0
9.1616364 4.9109335 -0.24168484 0
0.79093647 0.45001823 -0.19343105 0
0.89065039 0.50675231 -0.19300747 0
1.0020294 0.57012355 -0.18947536 0
1.1778826 0.67017853 -0.19045152 0
1.2026769 0.68428576 -0.16171983 0
1.2231078 0.69591027 -0.13135092 0
3.0050142 1.7097596 -0.24170257 0
4.5168514 2.5699477 -0.24193454 0
9.0442429 5.1458926 -0.2419371 0
0.7693181 0.46379507 -0.19094601 0
0.87370718 0.52672762 -0.19215551 0
0.99417716 0.59935474 -0.19079021 0
1.1689228 0.70470279 -0.19181754 0
1.1466874 0.69129783 -0.15648739 0
1.1982609 0.72238976 -0.13059899 0
2.9592249 1.7840136 -0.2415643 0
4.4400077 2.6767259 -0.24136032 0
8.9034014 5.3675508 -0.2417165 0
0.76236105 0.48624066 -0.19220404 0
0.8539722 0.54467106 -0.19077781 0
0.98955017 0.63114393 -0.19289781 0
1.1369789 0.7251752 -0.18951869 0
1.1412718 0.72791332 -0.15820515 0
1.1793102 0.75217456 -0.13056105 0
2.9140313 1.8585951 -0.2416274 0
4.3784857 2.7926371 -0.24177046 0
8.7719803 5.5948467 -0.24190517 0
0.74967396 0.50520235 -0.19215892 0
0.84317422 0.56821179 -0.19150834 0
0.96912557 0.65308988 -0.19206837 0
1.1289791 0.76081455 -0.19132505 0
1.143523 0.77061564 -0.16116203 0
1.1686525 0.78755033 -0.13153984 0
2.8721063 1.9355012 -0.24212451 0
4.2985749 2.8967927 -0.2413182 0
8.6160583 5.8063278 -0.24156967 0
0.73535466 0.52300781 -0.19181098 0
0.84030926 0.59765488 -0.19422184 0
0.94896948 0.67493749 -0.1913888 0
1.1052997 0.78612453 -0.19061387 0
1.1508005 0.81848615 -0.16504651 0
1.1355432 0.80763471 -0.13006608 0
2.8167579 2.0033684 -0.24164414 0
4.2413263 3.0165672 -0.24230133 0
8.4768009 6.0289726 -0.24185456 0
0.722458 0.54179507 -0.19195272 0
0.81292695 0.60964072 -0.19138832 0
0.93410957 0.7005195 -0.19189653 0
1.092581 0.81936252 -0.19192572 0
1.0932156 0.81983835 -0.15970451 0
1.1009594 0.82564574 -0.12845078 0
1.1012689 0.82587779 -0.096233249 0
1.100371 0.82520443 -0.064032175 0
1.1062044 0.82957911 -0.032148648 0
1.1009333 0.82562619 3.9286075e-05 0
1.1052542 0.82886654 0.032199956 0
1.0919758 0.81890863 0.063621752 0
1.0988065 0.82403123 0.096096881 0
0.7047174 0.55681634 -0.19091228 0
0.79839462 0.63083327 -0.19165437 0
0.91798151 0.72532213 -0.19228281 0
1.0513048 0.83066446 -0.18829784 0
1.0959905 0.86597186 -0.16325082 0
1.1022805 0.8709417 -0.13112779 0
1.1055181 0.87349981 -0.098499686 0
1.1029068 0.87143666 -0.065438777 0
1.1011511 0.87004942 -0.032629579 0
1.0934844 0.86399174 3.978574e-05 0
1.0882642 0.8598671 0.032326944 0
1.1051205 0.87318575 0.065650716 0
1.0998354 0.86900979 0.098073788 0
0.69411778 0.5774762 -0.1919281 0
0.78647864 0.65431648 -0.19269684 0
0.90412998 0.75219733 -0.19329646 0
1.0256709 0.8533141 -0.18750431 0
1.1081699 0.9219498 -0.16847731 0
1.0933312 0.90960467 -0.13275196 0
1.1041222 0.9185822 -0.100409 0
1.1009538 0.9159463 -0.066673301 0
1.0972322 0.91285008 -0.033185594 0
1.1103954 0.9238013 4.1236235e-05 0
1.1018912 0.91672617 0.033408388 0
1.0958537 0.91170323 0.066446014 0
1.1044778 0.91887808 0.10052377 0
0.66852558 0.58534849 -0.18887652 0
0.76383495 0.66879964 -0.19122373 0
0.8775965 0.76840711 -0.19170901 0
0.98998225 0.86680996 -0.18492056 0
1.0973394 0.96080989 -0.1704632 0
1.0931727 0.95716155 -0.13562274 0
1.095309 0.95903212 -0.10177632 0
1.1024438 0.96527916 -0.068217203 0
1.1089616 0.97098607 -0.034270637 0
1.1069497 0.96922451 4.2003339e-05 0
1.0878407 0.95249295 0.033700529 0
1.1059973 0.96839058 0.068521209 0
1.0931295 0.95712382 0.10165717 0
1.1006918 0.96374524 0.13663985 0
1.0998611 0.96301788 0.27543327 0
0.66392601 0.61159354 -0.19187702 0
0.75091201 0.69172305 -0.19229792 0
0.85748458 0.7898953 -0.19160959 0
0.96946609 0.89305007 -0.18523955 0
1.0541953 0.97110075 -0.16751514 0
1.1041424 1.0171109 -0.14012389 0
1.0993443 1.0126909 -0.10449298 0
1.0943258 1.008068 -0.069267161 0
1.0951322 1.0088109 -0.034619082 0
1.0938656 1.0076442 4.245836e-05 0
1.0948811 1.0085795 0.03469618 0
1.1000711 1.0133605 0.069716409 0
1.097209 1.0107239 0.10437562 0
1.0948015 1.0085063 0.13902418 0
1.0314436 0.95014238 0.26422098 0
0.64291251 0.62294614 -0.19028732 0
0.73449475 0.71168417 -0.19263221 0
0.83362472 0.8077355 -0.19077268 0
0.84420979 0.81799185 -0.16519853 0
0.83757097 0.81155926 -0.13630421 0
0.84477997 0.81854433 -0.1097957 0
0.83757591 0.81156403 -0.081532784 0
0.8365944 0.81061298 -0.054231349 0
0.836483 0.81050509 -0.027080756 0
0.83849657 0.81245607 3.3331526e-05 0
0.83857203 0.81252921 0.027215092 0
0.84169698 0.81555712 0.054629181 0
0.83591503 0.80995476 0.081437893 0
1.1059878 1.07164 0.14383347 0
1.0062795 0.97502828 0.19699459 0
1.0075479 0.97625726 0.23065679 0
0.98782033 0.95714241 0.25915197 0
0.62600011 0.63796002 -0.1899868 0
0.70997 0.72353411 -0.19092873 0
0.82361251 0.83934784 -0.19326785 0
0.83243483 0.84833872 -0.16703101 0
0.83940655 0.8554436 -0.14007191 0
0.84019297 0.8562451 -0.11197262 0
0.83978343 0.85582775 -0.083823629 0
0.84313279 0.85924107 -0.056043144 0
0.8299551 0.84581161 -0.027551757 0
0.84193838 0.85802382 3.4318262e-05 0
0.84150898 0.85758621 0.028003946 0
0.8402679 0.85632145 0.055921365 0
0.8469435 0.86312455 0.084607698 0
0.83899409 0.85502326 0.11188184 0
1.0944451 1.1153547 0.18272068 0
0.93111384 0.94890302 0.18690872 0
0.93791217 0.95583123 0.2201678 0
0.95305222 0.97126055 0.25638008 0
0.61897957 0.66349363 -0.19287698 0
0.69398403 0.74389201 -0.19161777 0
0.79826993 0.85567772 -0.19232754 0
0.84166998 0.90219885 -0.17339785 0
0.83749276 0.89772123 -0.14348775 0
0.83900458 0.89934182 -0.11480272 0
0.83771044 0.89795458 -0.085851543 0
0.83611453 0.89624387 -0.057062041 0
0.84089249 0.90136546 -0.028660925 0
0.84676611 0.9076615 3.5437533e-05 0
0.83780485 0.89805573 0.028625848 0
0.84198874 0.90254056 0.057533566 0
0.83822954 0.89851099 0.085975252 0
0.8358922 0.89600557 0.11444741 0
1.0939841 1.1726582 0.18752526 0
0.93338168 1.000506 0.19237165 0
0.92822397 0.99497741 0.22371723 0
0.92791653 0.9946478 0.25628993 0
0.59509373 0.67106467 -0.19065097 0
0.67437607 0.76046836 -0.19144237 0
0.77678174 0.8759473 -0.19241561 0
0.84079576 0.94813347 -0.178091 0
0.83714783 0.94401985 -0.14746383 0
0.82564116 0.93104422 -0.11615255 0
0.84137404 0.9487856 -0.088652886 0
0.83541995 0.94207144 -0.058618672 0
0.83913666 0.9462626 -0.029405734 0
0.84273142 0.95031631 3.6260917e-05 0
0.83995485 0.94718528 0.029506726 0
0.83691096 0.94375277 0.058795467 0
0.84024477 0.94751221 0.088606559 0
0.84099829 0.94836193 0.11838602 0
1.1007738 1.2413008 0.19399762 0
1.0983025 1.2385141 0.23273051 0
0.58562952 0.69495201 -0.19317667 0
0.65720087 0.77988392 -0.19209325 0
0.73072964 0.86713868 -0.18637003 0
0.85107011 1.0099437 -0.18560722 0
0.84071231 0.99765241 -0.15247858 0
0.8438502 1.001376 -0.12223086 0
0.83995152 0.99674964 -0.091124691 0
0.84024334 0.99709588 -0.060703576 0
0.84219658 0.99941379 -0.030387213 0
0.83985364 0.99663347 3.720757e-05 0
0.83726233 0.99355841 0.030283406 0
0.83875602 0.99533093 0.060670599 0
0.84106672 0.99807298 0.091320567 0
0.83002156 0.98496598 0.12030197 0
0.84301168 1.000381 0.15297131 0
1.0965277 1.3012222 0.2392374 0
0.56586879 0.70695812 -0.19248275 0
0.63492614 0.79323375 -0.19137339 0
0.72481233 0.90553153 -0.19062917 0
0.85479045 1.0679173 -0.1922355 0
0.84359294 1.0539279 -0.15777519 0
0.85094142 1.0631087 -0.1271041 0
0.83650935 1.0450782 -0.09358301 0
0.83963811 1.048987 -0.062552653 0
0.83839196 1.0474302 -0.031193843 0
0.83998984 1.0494264 3.8374797e-05 0
0.83156276 1.0388982 0.031015772 0
0.83802861 1.0469762 0.062509477 0
0.83562297 1.0439708 0.093560576 0
0.84283668 1.0529832 0.12597118 0
0.83920586 1.048447 0.15703242 0
1.0943017 1.3671465 0.24620162 0
1.1068834 1.3828652 0.29121956 0
0.54436189 0.71641809 -0.19125675 0
0.62256169 0.81933445 -0.19381782 0
0.70209903 0.92401111 -0.19072828 0
0.72681457 0.9565385 -0.16883035 0
0.72817737 0.958332 -0.1406682 0
0.73405474 0.96606708 -0.1132508 0
0.72959846 0.96020234 -0.084306903 0
0.73017102 0.96095586 -0.056186393 0
0.73435539 0.96646273 -0.028221561 0
0.72405899 0.95291191 3.416638e-05 0
0.7288534 0.95922178 0.02807894 0
0.73003823 0.9607811 0.056245223 0
0.72802663 0.95813364 0.08419431 0
0.72416818 0.95305568 0.11179443 0
0.72850227 0.95875961 0.14080065 0
0.72456348 0.95357597 0.16837719 0
0.72656691 0.95621258 0.19744551 0
0.72519881 0.95441204 0.225842 0
0.526299 0.7301833 -0.19132449 0
0.60140872 0.83438998 -0.19372694 0
0.67874819 0.94169021 -0.19078067 0
0.72363275 1.0039628 -0.17392182 0
0.9585489 1.3298837 -0.19159405 0
0.84862602 1.1773773 -0.13546844 0
0.84555447 1.173116 -0.10109501 0
0.8395893 1.16484 -0.066847071 0
0.83992678 1.1653081 -0.033398356 0
0.84028554 1.1658059 4.102616e-05 0
0.84295911 1.1695151 0.033601291 0
0.83877635 1.163712 0.066864431 0
0.83264422 1.1552044 0.099633165 0
0.84064609 1.1663061 0.13427739 0
0.83749223 1.1619304 0.16748022 0
0.83605939 1.1599425 0.20102631 0
1.09939 1.5252856 0.30912378 0
0.50578588 0.74041581 -0.19060008 0
0.57558918 0.84260023 -0.19219905 0
0.64727002 0.94753325 -0.18859471 0
0.76530075 1.1203176 -0.19067176 0
0.9240787 1.3527513 -0.19146748 0
1.1508255 1.6846839 -0.19043624 0
0.84871262 1.2424235 -0.10518824 0
0.83742827 1.2259045 -0.069116458 0
0.84183127 1.2323499 -0.034699809 0
0.83876926 1.2278674 4.2451673e-05 0
0.83484274 1.2221195 0.0344963 0
0.83859491 1.2276123 0.06929782 0
0.8426398 1.2335335 0.10452129 0
0.84115237 1.231356 0.13927807 0
0.83803606 1.2267941 0.17372559 0
0.83827376 1.2271421 0.20893922 0
1.1023746 1.613757 0.32131287 0
1.1000547 1.6103611 0.36744237 0
0.49351454 0.76310217 -0.19317214 0
0.55204529 0.85360599 -0.19147034 0
0.63094532 0.97560602 -0.19095188 0
0.73284662 1.133172 -0.18965115 0
0.88674778 1.3711433 -0.19084218 0
1.1123017 1.7199086 -0.19118373 0
1.4834185 2.2937517 -0.19096701 0
0.84912914 1.3129752 -0.072794035 0
0.84357989 1.3043946 -0.036117397 0
0.84070206 1.2999446 4.4195967e-05 0
0.83608079 1.2927989 0.03588428 0
0.83956051 1.2981795 0.072062202 0
0.83323789 1.2884032 0.10735443 0
0.84263831 1.3029387 0.14492303 0
0.84073073 1.299989 0.18102819 0
0.84108514 1.300537 0.21775205 0
0.83504593 1.2911988 0.25281191 0
1.1005197 1.7016904 0.38182199 0
0.46446937 0.75955606 -0.1892467 0
0.52767581 0.86291879 -0.19051127 0
0.60871619 0.99544573 -0.19176695 0
0.70963234 1.1604759 -0.19116239 0
0.84964144 1.3894356 -0.19034287 0
1.067899 1.7463565 -0.19106677 0
1.4261684 2.3322418 -0.19111386 0
0.84433794 1.3807627 -0.075346842 0
0.85224962 1.3937008 -0.037982516 0
0.83950752 1.3728634 4.5940084e-05 0
0.83562672 1.3665171 0.037333179 0
0.84325045 1.3789843 0.075342283 0
0.83954328 1.3729219 0.11259542 0
0.83979756 1.3733377 0.15034795 0
0.84031278 1.3741803 0.18834624 0
0.83902776 1.3720789 0.22611289 0
0.83951849 1.3728814 0.26457214 0
1.1004572 1.7995998 0.39743215 0
0.44915232 0.77795309 -0.19094513 0
0.5036481 0.87234235 -0.18972495 0
0.57510895 0.99611586 -0.18903957 0
0.67854482 1.1752716 -0.19071785 0
0.8138451 1.4096181 -0.19023323 0
1.0250711 1.7754716 -0.19136068 0
1.3668257 2.3674066 -0.19110771 0
1.3711779 2.3749449 -0.12766923 0
0.84825706 1.4692214 -0.039444651 0
0.83933222 1.4537631 4.7923091e-05 0
0.83998829 1.4548994 0.03915612 0
0.83913684 1.4534247 0.078227364 0
0.83869696 1.4526627 0.11736171 0
0.83826578 1.451916 0.15658435 0
0.83689743 1.4495459 0.19571851 0
0.84136117 1.4572773 0.23657843 0
0.83961368 1.4542506 0.27608132 0
0.84133607 1.4572338 0.31703195 0
0.43379372 0.79714721 -0.19290756 0
0.48767012 0.89615142 -0.19216505 0
0.55442351 1.0188186 -0.19063176 0
0.64840525 1.1915212 -0.19063838 0
0.77551687 1.4251038 -0.18962121 0
0.97823155 1.7976159 -0.19102551 0
1.2912884 2.3728948 -0.18885972 0
1.2912004 2.3727331 -0.12575842 0
1.2926209 2.3753436 -0.062875696 0
0.84990793 1.5618061 5.0761424e-05 0
0.83593017 1.5361204 0.040761244 0
0.83954829 1.5427691 0.08186958 0
0.83695036 1.5379951 0.12251016 0
0.83841288 1.5406827 0.16382326 0
0.83739305 1.5388086 0.20485191 0
0.83887988 1.5415409 0.24674223 0
0.83802992 1.5399789 0.28824916 0
0.83963132 1.5429217 0.33095822 0
0.41138622 0.80362558 -0.19190155 0
0.46588489 0.91008645 -0.19257045 0
0.52901 1.0333987 -0.19080083 0
0.61869097 1.2085867 -0.19080965 0
0.74724728 1.459716 -0.19165616 0
0.94524729 1.8465006 -0.19362345 0
1.2474242 2.4367907 -0.19137846 0
1.2439073 2.4299204 -0.12708499 0
1.2428254 2.4278071 -0.063413911 0
1.2469008 2.4357681 7.8118988e-05 0
0.84717679 1.654924 0.043332547 0
0.83719653 1.6354281 0.085638113 0
0.83694506 1.6349368 0.12850857 0
0.84372479 1.6481807 0.17293432 0
0.83999568 1.6408961 0.21555123 0
0.83755898 1.6361362 0.25841749 0
0.83909833 1.6391432 0.30275002 0
0.83574557 1.6325938 0.34555835 0
0.39162844 0.81510115 -0.19222032 0
0.43880787 0.91329628 -0.19084541 0
0.50215369 1.0451387 -0.19056775 0
0.59086442 1.2297734 -0.19173911 0
0.70828021 1.4741524 -0.19114365 0
0.8917532 1.856017 -0.19220005 0
1.1826426 2.4614487 -0.19091001 0
1.781527 3.7079144 -0.19151154 0
4.5042291 9.3747082 -0.24181943 0
0.85025167 1.7696394 0.091513149 0
0.84195399 1.7523693 0.13602534 0
0.84048367 1.7493091 0.18126167 0
0.83703023 1.7421215 0.22600128 0
0.835805 1.7395715 0.27133623 0
0.83491075 1.7377101 0.31696236 0
0.83874756 1.7456958 0.36490086 0
0.3707743 0.82435894 -0.1921355 0
0.41359255 0.91955864 -0.18991223 0
0.4758597 1.058 -0.19066219 0
0.55797553 1.2405717 -0.19116615 0
0.67272079 1.49569 -0.19167371 0
0.83932686 1.8661127 -0.190991 0
1.1184294 2.4866538 -0.19061483 0
1.691512 3.7608137 -0.19197761 0
4.2597513 9.4708939 -0.2414504 0
1.0644286 2.3665912 0.12095545 0
0.84725785 1.8837459 0.14451736 0
0.84096229 1.8697487 0.19148122 0
0.8375603 1.862185 0.23875847 0
0.8406527 1.8690605 0.28813258 0
0.84307593 1.8744481 0.33791482 0
0.84028286 1.8682381 0.38595977 0
0.35105941 0.83631623 -0.1927959 0
0.3944563 0.93969905 -0.19195452 0
0.45067033 1.0736158 -0.19136557 0
0.52839118 1.2587674 -0.19185388 0
0.63168389 1.5048379 -0.19074216 0
0.79307246 1.8893081 -0.19125545 0
1.062622 2.5314462 -0.19193143 0
1.5960456 3.8022022 -0.19197293 0
4.0243168 9.5869856 -0.24174362 0
0.99750543 2.3763213 0.12012777 0
0.85056859 2.0262792 0.15375632 0
0.84396499 2.0105474 0.20365416 0
0.84011835 2.0013838 0.25380629 0
0.83940649 1.9996879 0.3049069 0
0.83906931 1.9988847 0.35641634 0
0.83737296 1.9948436 0.40761927 0
0.32911763 0.84304035 -0.19236983 0
0.36852908 0.94399345 -0.19087096 0
0.42620704 1.0917366 -0.19261678 0
0.49457416 1.2668601 -0.19112395 0
0.5976845 1.530979 -0.19208239 0
0.74628198 1.9116139 -0.19154577 0
0.99653584 2.5526435 -0.19157061 0
1.4962178 3.8325872 -0.19153941 0
3.7771318 9.6751871 -0.24148694 0
0.92365879 2.3659675 0.11838818 0
0.84722906 2.1701915 0.16300206 0
0.83631098 2.1422248 0.21478567 0
0.83771193 2.1458132 0.26935512 0
0.84225911 2.1574609 0.32561868 0
0.84369951 2.1611505 0.38143119 0
0.84034437 2.1525562 0.43537319 0
0.307228 0.84965414 -0.19204846 0
0.34665316 0.95868635 -0.19201161 0
0.39658436 1.0967735 -0.19167845 0
0.43698597 1.2085061 -0.180599 0
0.43467098 1.202104 -0.14939649 0
0.43343621 1.1986891 -0.11897589 0
0.93122089 2.5753372 -0.1914489 0
1.4057747 3.8877389 -0.19246122 0
3.5342247 9.7740717 -0.2416517 0
0.85517734 2.3650351 0.11722417 0
0.84889394 2.3476579 0.1746666 0
0.83953261 2.3217688 0.23058936 0
0.83909571 2.3205605 0.28854015 0
0.84202719 2.3286676 0.34813997 0
0.83753532 2.3162451 0.40494475 0
0.83840853 2.31866 0.46454126 0
0.28492334 0.8548274 -0.19153136 0
0.32192856 0.96585047 -0.19175805 0
0.36916214 1.1075608 -0.19187424 0
0.40556523 1.2167773 -0.18024799 0
0.40581125 1.2175155 -0.14999115 0
0.40498421 1.2150341 -0.11954563 0
0.86516935 2.5956824 -0.19127716 0
1.2993288 3.898248 -0.1912971 0
3.2864506 9.860014 -0.24164879 0
0.7907207 2.3723214 0.11655903 0
0.85142386 2.5544429 0.1883927 0
0.83866286 2.5161574 0.24771421 0
0.84277272 2.5284879 0.31164995 0
0.83669108 2.5102417 0.37201011 0
0.83785796 2.5137424 0.43563709 0
0.83843982 2.5154884 0.49957687 0
0.26290736 0.86057508 -0.19127151 0
0.29826713 0.9763183 -0.1922805 0
0.33978361 1.1122143 -0.19113387 0
0.38086116 1.2466735 -0.18319437 0
0.38030541 1.2448543 -0.1521282 0
0.38002515 1.2439369 -0.12140699 0
0.72363913 2.3686893 -0.1731489 0
0.72427589 2.3707736 -0.11540619 0
0.72500134 2.3731482 -0.057694189 0
0.72480333 2.3724999 7.0821268e-05 0
0.72453308 2.3716154 0.057798591 0
0.72650337 2.3780649 0.1159034 0
0.84465355 2.764806 0.20227052 0
0.83672363 2.7388487 0.26747382 0
0.83229023 2.7243369 0.33309421 0
0.83672321 2.7388475 0.40263093 0
0.8329916 2.7266326 0.46873865 0
0.24242333 0.87165487 -0.19231297 0
0.2718811 0.97757298 -0.1911153 0
0.31015632 1.115195 -0.19024028 0
0.36312881 1.3056623 -0.19045514 0
0.43941608 1.5799601 -0.19166368 0
0.55011588 1.9779912 -0.19163381 0
0.66176385 2.3794315 -0.17265825 0
0.66135508 2.3779616 -0.11490696 0
0.65698791 2.3622591 -0.057008188 0
0.66005135 2.3732741 7.0324699e-05 0
0.6581915 2.3665867 0.057252951 0
0.66088295 2.3762641 0.11496606 0
0.81309134 2.923543 0.21231462 0
0.81311476 2.9236271 0.28342468 0
0.80994034 2.9122133 0.35345319 0
0.81366068 2.9255903 0.42692858 0
0.81228256 2.920635 0.49840671 0
0.22006562 0.87634778 -0.19206177 0
0.24671438 0.98246878 -0.19079433 0
0.28493652 1.1346774 -0.19227575 0
0.33038515 1.3156635 -0.19063695 0
0.39612758 1.5774636 -0.19008747 0
0.50002384 1.9912004 -0.19162987 0
0.59464973 2.3680208 -0.17068686 0
0.5972541 2.378392 -0.114163 0
0.59728062 2.3784976 -0.057018109 0
0.59733498 2.3787141 7.001686e-05 0
0.59821355 2.3822126 0.057247486 0
0.59692234 2.3770709 0.11423982 0
0.77123123 3.0712056 0.22155409 0
0.76685613 3.0537832 0.29407242 0
0.77076858 3.0693634 0.37004748 0
0.76865095 3.0609305 0.44370636 0
0.19778757 0.88118958 -0.19196773 0
0.22370732 0.99666816 -0.19239409 0
0.25528246 1.1373428 -0.19157459 0
0.29709643 1.3236338 -0.19064462 0
0.35497716 1.5815058 -0.18943462 0
0.44802597 1.9960599 -0.19094849 0
0.55328876 2.4650302 -0.17661649 0
0.54978079 2.4494014 -0.11686818 0
0.5497849 2.4494195 -0.058367047 0
0.55034417 2.4519112 7.1739698e-05 0
0.55080456 2.4539626 0.058618978 0
0.55074424 2.4536936 0.11721688 0
0.71109074 3.1680748 0.22717509 0
0.71011633 3.1637335 0.30283803 0
0.71187985 3.1715903 0.38008493 0
0.71076787 3.1666362 0.45628351 0
0.17397891 0.87826467 -0.19031332 0
0.19870059 1.0030624 -0.19259898 0
0.22494127 1.1355282 -0.19025207 0
0.26619032 1.343758 -0.19251418 0
0.31829709 1.6067986 -0.191441 0
0.39997596 2.0191226 -0.19212781 0
0.41458204 2.0928557 -0.14915343 0
0.41270974 2.0834041 -0.098876894 0
0.41400269 2.089931 -0.049536053 0
0.41382974 2.0890579 6.0798135e-05 0
0.41485852 2.0942514 0.04976042 0
0.41397524 2.0897925 0.099301979 0
0.41301486 2.0849442 0.14871155 0
0.4147999 2.0939553 0.19937141 0
0.41499028 2.0949166 0.24972109 0
0.40678918 2.0535164 0.29431996 0
0.29405627 1.4844284 0.24879728 0
0.27069211 1.3664836 0.2624622 0
0.15313897 0.89036864 -0.19203749 0
0.17207737 1.0004789 -0.19120811 0
0.19635658 1.1416411 -0.1903853 0
0.23132922 1.3449763 -0.19179118 0
0.27967322 1.6260542 -0.19283278 0
0.34709603 2.0180588 -0.19113213 0
0.36718887 2.1348808 -0.15143976 0
0.87937868 5.1128149 -0.24152035 0
1.7632176 10.251562 -0.24185322 0
0.58232611 3.385715 0.16013177 0
0.57834649 3.3625772 0.23872331 0
0.57865179 3.364352 0.3188374 0
0.26249152 1.5261577 0.18107575 0
0.27103105 1.5758076 0.22480039 0
0.26987815 1.5691046 0.26176441 0
0.23734631 1.3799604 0.26381612 0
0.13110821 0.89725351 -0.19274735 0
0.14669813 1.0039449 -0.19110207 0
0.16839172 1.1524074 -0.19141102 0
0.19767135 1.3527858 -0.19213219 0
0.23559417 1.6123148 -0.19043763 0
0.29407081 2.0125062 -0.18984285 0
0.39459357 2.7004447 -0.19079135 0
0.75048631 5.1360364 -0.24164556 0
1.5028052 10.284614 -0.24166119 0
0.5055697 3.4599223 0.1629861 0
0.50448394 3.4524918 0.24412504 0
0.50365216 3.4467993 0.32534257 0
0.22168866 1.5171509 0.17928615 0
0.27590561 1.8881905 0.26828524 0
0.20109746 1.3762327 0.26204973 0
0.10922243 0.90687293 -0.19415978 0
0.12168913 1.010384 -0.19168209 0
0.13794428 1.1453503 -0.1896002 0
0.16352503 1.3577471 -0.19218946 0
0.19695564 1.6353211 -0.19250657 0
0.24525924 2.0363855 -0.19145054 0
0.32573888 2.7046075 -0.19044395 0
0.62029403 5.1502967 -0.241503 0
1.2426887 10.318034 -0.24163255 0
0.42283025 3.5107563 0.16482551 0
0.42362437 3.51735 0.24787618 0
0.42243066 3.5074384 0.32995486 0
0.42388073 3.5194786 0.41451079 0
0.22930774 1.9039404 0.26961491 0
0.16620964 1.3800373 0.26189199 0
0.085290134 0.89863288 -0.19187361 0
0.097246028 1.0246024 -0.19385213 0
0.11012907 1.1603405 -0.19156055 0
0.12945095 1.3639195 -0.19253936 0
0.1550871 1.6340266 -0.19183232 0
0.19440082 2.0482435 -0.19204292 0
0.25799289 2.7182615 -0.19088611 0
0.49158087 5.179388 -0.24220823 0
0.98266697 10.353563 -0.24180678 0
0.34003404 3.5826626 0.16774508 0
0.33876917 3.5693357 0.25085729 0
0.33942816 3.5762787 0.33551809 0
0.33914015 3.5732441 0.41970134 0
0.33901846 3.5719621 0.50444931 0
0.17291224 1.8218358 0.30087405 0
0.13038768 1.3737891 0.25999892 0
0.063304946 0.91079074 -0.19406658 0
0.071207203 1.0244833 -0.19342797 0
0.07956709 1.1447599 -0.18859676 0
0.094733641 1.3629664 -0.19200616 0
0.11365116 1.6351396 -0.19156522 0
0.14113414 2.0305471 -0.18998922 0
0.19032733 2.738307 -0.19189532 0
0.35971069 5.1752853 -0.24151489 0
0.7208333 10.370884 -0.24170943 0
0.25241616 3.6316006 0.16968411 0
0.25206915 3.6266081 0.25435436 0
0.13148776 1.8917609 0.17711285 0
0.13223727 1.9025444 0.22300349 0
0.13360387 1.9222062 0.27090052 0
0.12456525 1.7921644 0.29536059 0
0.094372682 1.3577733 0.25643539 0
0.039832633 0.90141612 -0.19179378 0
0.044694405 1.0114385 -0.19069134 0
0.050769746 1.148924 -0.18901148 0
0.060571183 1.3707314 -0.19282326 0
0.072358176 1.6374722 -0.19156355 0
0.08986982 2.0337622 -0.19001731 0
0.1208288 2.7343669 -0.19134456 0
0.22902121 5.1827707 -0.24151756 0
0.45914757 10.390552 -0.24182071 0
0.16221213 3.6708755 0.17127337 0
0.16185603 3.6628168 0.25652567 0
0.085515991 1.9352348 0.18092331 0
0.085093684 1.9256779 0.22539152 0
0.085568063 1.936413 0.27251157 0
0.075509734 1.7087922 0.28121668 0
0.060918368 1.3785883 0.25999343 0
0.017065888 0.90158182 -0.19167636 0
0.019159107 1.0121655 -0.19067651 0
0.022266295 1.1763166 -0.19336386 0
0.025696836 1.3575503 -0.19081706 0
0.031151785 1.6457323 -0.19237663 0
0.038412571 2.0293159 -0.18945096 0
0.051787924 2.7359288 -0.19130148 0
0.098409422 5.1989179 -0.24207717 0
0.19658454 10.385457 -0.24150978 0
0.069975629 3.6967757 0.17234451 0
0.069831215 3.6891465 0.25816402 0
0.069808595 3.6879511 0.34450874 0
0.069710262 3.6827564 0.4307062 0
0.031535421 1.6659997 0.27395606 0
0.025919862 1.3693327 0.25804234 0
-0.0056716404 0.89923692 -0.19114739 0
-0.0063978136 1.0143714 -0.19106165 0
-0.007230652 1.1464177 -0.18841906 0
-0.0086499173 1.3714418 -0.19273897 0
-0.010260548 1.6268069 -0.19013406 0
-0.012843841 2.036387 -0.19008085 0
-0.017227558 2.7314243 -0.1909561 0
-0.032731779 5.1896138 -0.24160549 0
-0.065539509 10.39127 -0.24160647 0
-0.023482664 3.7231693 0.17354736 0
-0.023422897 3.7136934 0.25984043 0
-0.023417255 3.7127988 0.34677464 0
-0.023400933 3.710211 0.43384796 0
-0.010339982 1.6394011 0.26953927 0
-0.0086985147 1.3791468 0.25985038 0
-0.028528482 0.90419626 -0.19229341 0
-0.032188088 1.0201857 -0.1922486 0
-0.036377218 1.1529582 -0.18958452 0
-0.042976364 1.3621148 -0.1915196 0
-0.051511094 1.6326189 -0.19090453 0
-0.064858042 2.055644 -0.19196999 0
-0.086722411 2.7486243 -0.19225037 0
-0.1197924 3.7967615 -0.17684488 0
-0.1196122 3.7910502 -0.088187471 0
-0.12017372 3.8088472 0.00010879055 0
-0.11996645 3.8022778 0.088665977 0
-0.11789112 3.7365012 0.17425199 0
-0.11745851 3.7227902 0.26060134 0
-0.11759945 3.727257 0.34829137 0
-0.1172112 3.7149515 0.43460983 0
-0.051945202 1.6463778 0.27081564 0
-0.043420102 1.3761789 0.25941503 0
-0.051132374 0.89965594 -0.19154127 0
-0.057336602 1.0088171 -0.19031835 0
-0.066040151 1.161953 -0.19127673 0
-0.077155843 1.3575296 -0.19108786 0
-0.092895448 1.6344624 -0.19133331 0
-0.11635093 2.0471532 -0.19139035 0
-0.1559025 2.7430491 -0.19207448 0
-0.21482719 3.7798083 -0.17625165 0
-0.21507525 3.7841728 -0.088125698 0
-0.21526775 3.7875595 0.00010830322 0
-0.21479101 3.7791717 0.088225476 0
-0.21199875 3.7300427 0.17414486 0
-0.21212341 3.7322361 0.26155406 0
-0.21256149 3.7399437 0.34986675 0
-0.078661911 1.3840283 0.16209725 0
-0.078324392 1.3780898 0.19406231 0
-0.077139705 1.3572457 0.22350487 0
-0.078236759 1.3765479 0.25977409 0
-0.073861465 0.89864111 -0.19166107 0
-0.083186001 1.0120888 -0.19127074 0
-0.094029687 1.1440194 -0.18865515 0
-0.11046974 1.3440385 -0.18952094 0
-0.13450103 1.636417 -0.19189839 0
-0.16920258 2.0586162 -0.1927999 0
-0.2262709 2.7529423 -0.19310561 0
-0.42552671 5.1772032 -0.24183567 0
-0.85163206 10.361446 -0.24172062 0
-0.30635643 3.727309 0.17432272 0
-0.30547184 3.7165463 0.26091173 0
-0.30553842 3.7173567 0.3483642 0
-0.30492875 3.709939 0.4352704 0
-0.11406066 1.3877277 0.19576256 0
-0.11582501 1.4091939 0.23246682 0
-0.11312722 1.376371 0.26019666 0
-0.0961859 0.89346659 -0.19101439 0
-0.10952521 1.0173749 -0.19273077 0
-0.12329612 1.1452922 -0.18931793 0
-0.14661524 1.3619025 -0.1925004 0
-0.17613724 1.6361309 -0.19232492 0
-0.21747434 2.0201094 -0.18964721 0
-0.29251349 2.717145 -0.19105162 0
-0.55508733 5.1561818 -0.24143125 0
-1.1131228 10.339748 -0.24179284 0
-0.39950535 3.7109876 0.17397556 0
-0.39936709 3.7097032 0.26105583 0
-0.40014157 3.7168975 0.34915641 0
-0.39969522 3.7127512 0.43664485 0
-0.1501649 1.3948752 0.19724266 0
-0.15011926 1.3944511 0.23058639 0
-0.14759023 1.3709592 0.25979507 0
-0.11845323 0.88891613 -0.19062001 0
-0.13445741 1.0090173 -0.19172934 0
-0.15173364 1.1386644 -0.18879525 0
-0.17922929 1.3450018 -0.1906902 0
-0.21625809 1.6228793 -0.19134785 0
-0.27171814 2.0390718 -0.19201006 0
-0.36074141 2.7071345 -0.19092715 0
-0.68670869 5.1533117 -0.24203134 0
-1.3720443 10.296319 -0.24151014 0
-0.49213624 3.6931691 0.17366721 0
-0.49110499 3.6854303 0.26013711 0
-0.24196936 1.8158261 0.17109354 0
-0.24329282 1.8257577 0.21537514 0
-0.18541493 1.391421 0.19735311 0
-0.18794335 1.4103953 0.23393281 0
-0.18166006 1.363243 0.25911918 0
-0.14155623 0.89012468 -0.1915843 0
-0.15956123 1.0033425 -0.19135533 0
-0.1819863 1.1443543 -0.19043961 0
-0.21475828 1.3504289 -0.19216692 0
-0.25638747 1.6121988 -0.19079077 0
-0.32014877 2.0131385 -0.19026834 0
-0.42886722 2.696775 -0.1908991 0
-0.81604302 5.1313887 -0.24189197 0
-1.6324143 10.264841 -0.24166122 0
-0.58280689 3.664768 0.1729683 0
-0.58248138 3.6627214 0.25948927 0
-0.28027132 1.7623837 0.16667145 0
-0.27846161 1.7510041 0.20731987 0
-0.28028804 1.762489 0.25090727 0
-0.21911553 1.3778279 0.26285887 0
-0.16363037 0.88443452 -0.19118759 0
-0.18330061 0.99075377 -0.18977632 0
-0.21017653 1.1360201 -0.18987495 0
-0.24810229 1.3410118 -0.19165689 0
-0.29837659 1.612748 -0.19168593 0
-0.37052709 2.002727 -0.19010763 0
-0.49766397 2.6899116 -0.1912415 0
-0.9451257 5.1084762 -0.24185935 0
-1.8907408 10.219598 -0.24164258 0
-0.66914791 3.6167953 0.17144661 0
-0.66671824 3.6036627 0.25641567 0
-0.66752732 3.6080358 0.34270191 0
-0.66834831 3.6124735 0.42957935 0
-0.29063401 1.5708989 0.26265448 0
-0.25381789 1.371905 0.26286733 0
-0.18575418 0.87936527 -0.19104439 0
-0.21115191 0.9995988 -0.19243009 0
-0.23903558 1.1316007 -0.19008414 0
-0.27990347 1.3250706 -0.19032763 0
-0.34047848 1.6118342 -0.19253738 0
-0.42254066 2.0003188 -0.19083059 0
-0.56556588 2.6774042 -0.19130619 0
-0.61841011 2.9275701 -0.13929957 0
-0.6175878 2.9236774 -0.069476843 0
-0.61891043 2.9299386 8.5490814e-05 0
-0.75780767 3.587482 0.17090929 0
-0.75238907 3.56183 0.25470918 0
-0.75226748 3.5612545 0.3399536 0
-0.7530123 3.5647805 0.42603225 0
-0.28752741 1.3611624 0.26211599 0
-0.20983757 0.8826229 -0.19284129 0
-0.23565084 0.99119914 -0.19189695 0
-0.27238017 1.1456908 -0.1935441 0
-0.31423053 1.3217226 -0.19092511 0
-0.37409464 1.5735242 -0.1890288 0
-0.47351557 1.9917105 -0.19108863 0
-0.52543461 2.2100933 -0.15881284 0
-0.61997396 2.6077466 -0.12478654 0
-0.62050611 2.6099849 -0.062374707 0
-0.61822945 2.6004088 7.6306664e-05 0
-0.83605629 3.5166364 0.16848578 0
-0.83466709 3.510793 0.25248554 0
-0.83443809 3.5098298 0.33694777 0
-0.83428788 3.5091982 0.42177171 0
-0.83449996 3.5100901 0.50724858 0
-0.23393582 0.88421237 -0.19441667 0
-0.26101139 0.98655057 -0.19221114 0
-0.29974473 1.1329519 -0.19260876 0
-0.34988502 1.3224682 -0.1922472 0
-0.41521868 1.5694113 -0.18973322 0
-0.52223843 1.9739163 -0.19058532 0
-0.58228701 2.2008832 -0.15915638 0
-0.64748704 2.4473212 -0.11785428 0
-0.64746064 2.4472213 -0.058856692 0
-0.64646405 2.4434545 7.2156778e-05 0
-0.91690832 3.4656587 0.16709892 0
-0.9132005 3.4516442 0.24980974 0
-0.91097105 3.4432175 0.33265424 0
-0.90979886 3.438787 0.41593638 0
-0.90968889 3.4383712 0.50004309 0
-0.25001281 0.85692155 -0.1897431 0
-0.28686935 0.98324776 -0.19291684 0
-0.32478815 1.1132149 -0.19058625 0
-0.34086722 1.1683261 -0.17103572 0
-0.4601936 1.5773185 -0.19203219 0
-0.56854707 1.9487013 -0.18947589 0
-0.71368998 2.4461801 -0.17814085 0
-0.71260196 2.4424508 -0.11844814 0
-0.71698153 2.4574618 -0.059519242 0
-0.7145775 2.4492221 7.2836498e-05 0
-0.98684126 3.3824091 0.1642336 0
-0.9833039 3.3702848 0.24563935 0
-0.98244566 3.3673429 0.32761511 0
-0.98494589 3.3759127 0.41120732 0
-0.98248595 3.367481 0.49318269 0
-0.27585381 0.86380458 -0.1927474 0
-0.31016362 0.97124177 -0.192036 0
-0.34949344 1.0943985 -0.18881488 0
-0.37995759 1.1897935 -0.17552641 0
-0.39551699 1.238516 -0.15195128 0
-0.40323073 1.2626706 -0.12372199 0
-0.39492235 1.2366539 -0.090755165 0
-0.39603025 1.2401233 -0.060605962 0
-0.39664379 1.2420444 -0.030314878 0
-0.39893085 1.2492061 3.7437178e-05 0
-0.39551648 1.2385144 0.030302996 0
-0.40147746 1.2571806 0.061515085 0
-0.40051982 1.2541817 0.092117034 0
-0.39588365 1.2396642 0.12154266 0
-0.39444757 1.2351673 0.15161547 0
-0.39828536 1.2471849 0.1840694 0
-0.39716896 1.2436889 0.21464828 0
-0.39928338 1.2503101 0.24729158 0
-0.29743597 0.85621059 -0.19266663 0
-0.334021 0.96152568 -0.19172074 0
-0.38216496 1.1001148 -0.19140425 0
-0.43168727 1.2426715 -0.18487582 0
-0.42918518 1.235469 -0.15285775 0
-0.43046296 1.2391473 -0.12244262 0
-0.42881513 1.2344037 -0.091355205 0
-0.43036723 1.2388717 -0.061056193 0
-0.43109053 1.2409538 -0.030544091 0
-0.43486211 1.2518108 3.7832109e-05 0
-0.4339644 1.2492267 0.030823262 0
-0.43281773 1.2459258 0.061479315 0
-0.43221453 1.2441893 0.09215498 0
-0.43166208 1.242599 0.12285946 0
-0.42824534 1.2327634 0.15259854 0
-0.43376738 1.2486595 0.18584362 0
-0.43412608 1.2496921 0.21750614 0
-0.43056908 1.2394527 0.24721479 0
-0.31667069 0.84238529 -0.19129319 0
-0.35576004 0.94636804 -0.19042812 0
-0.40987411 1.0903186 -0.19143873 0
-0.47722843 1.2694898 -0.19059689 0
-0.48477823 1.2895732 -0.1610143 0
-0.51143289 1.360478 -0.13566384 0
-0.50873953 1.3533136 -0.1010735 0
-0.51447517 1.368571 -0.068066522 0
-0.5132553 1.365326 -0.033913359 0
-0.51370299 1.3665169 4.1677315e-05 0
-1.203876 3.2024672 0.07974159 0
-1.1923196 3.1717257 0.15794116 0
-1.1598495 3.085351 0.23062147 0
-1.1586516 3.0821643 0.30753615 0
-1.1629374 3.0935652 0.38644949 0
-1.16 3.0857511 0.46347612 0
-0.33840597 0.83556402 -0.1916227 0
-0.38430297 0.94888902 -0.1928257 0
-0.4366906 1.0782403 -0.19119231 0
-0.51155901 1.2630991 -0.19151486 0
-0.51215106 1.2645609 -0.15945448 0
-0.51633465 1.2748907 -0.12838785 0
-0.50885963 1.2564341 -0.094766982 0
-0.51291823 1.2664552 -0.063611336 0
-0.50956941 1.2581866 -0.031561524 0
-0.51291323 1.2664428 3.9007558e-05 0
-1.2727062 3.1424606 0.15803309 0
-1.1968095 2.9550631 0.22306961 0
-1.1998097 2.9624708 0.29851967 0
-1.1985613 2.9593885 0.37334809 0
-1.1985917 2.9594634 0.44890863 0
-0.36291882 0.83490002 -0.19350944 0
-0.40551081 0.9328835 -0.19159199 0
-0.46222287 1.0633504 -0.19056 0
-0.51220387 1.1783324 -0.18056491 0
-0.51181889 1.1774467 -0.15005091 0
-0.51222342 1.1783774 -0.11993221 0
-0.51382488 1.1820617 -0.090106875 0
-0.51389128 1.1822144 -0.060012452 0
-0.51295984 1.1800716 -0.029917251 0
-0.51549506 1.1859039 3.691587e-05 0
-1.3542794 3.1155396 0.15834774 0
-1.2261499 2.8207757 0.21520019 0
-1.2272571 2.8233228 0.2875278 0
-1.2255639 2.8194275 0.35947883 0
-1.2279453 2.8249061 0.43306133 0
-1.2283081 2.8257406 0.50657362 0
-0.3820197 0.82150143 -0.19257738 0
-0.42670721 0.91759819 -0.19060388 0
-0.49192983 1.0578539 -0.19173893 0
-0.51106763 1.0990083 -0.17033181 0
-0.50903457 1.0946364 -0.1410901 0
-0.51172233 1.1004161 -0.11327593 0
-0.51173317 1.1004395 -0.084842458 0
-0.51410323 1.105536 -0.056760643 0
-0.51241541 1.1019065 -0.028254485 0
-0.51230127 1.1016611 3.4684937e-05 0
-1.4333801 3.0823641 0.15844984 0
-1.2522743 2.6929111 0.20779036 0
-1.2435732 2.6742001 0.27544984 0
-1.2424929 2.6718771 0.34455466 0
-1.2398849 2.6662688 0.41340774 0
-1.2367533 2.6595347 0.48221996 0
-0.39728904 0.80084437 -0.19002499 0
-0.45166224 0.91044843 -0.19142568 0
-0.50945485 1.0269451 -0.1884072 0
-0.51155806 1.0311847 -0.1617696 0
-0.51078123 1.0296187 -0.13432868 0
-0.51438093 1.036875 -0.10803706 0
-0.51563722 1.0394074 -0.081114501 0
-0.51371527 1.0355332 -0.053815097 0
-0.51140881 1.0308839 -0.026755806 0
-0.5113216 1.0307081 3.2846889e-05 0
-1.2527273 2.5252132 0.19722733 0
-1.2426846 2.5049696 0.26116604 0
-1.2364267 2.4923551 0.32532486 0
-1.2455264 2.5106981 0.39403501 0
-1.2404319 2.5004287 0.4589017 0
-0.42207494 0.79947996 -0.19216774 0
-0.47367126 0.89721191 -0.19109538 0
-0.53517777 1.0137154 -0.18839814 0
-0.5297544 1.0034426 -0.15946424 0
-0.53356296 1.0106568 -0.1335692 0
-0.53103787 1.0058738 -0.1061696 0
-0.53169936 1.0071268 -0.079617247 0
-0.53506452 1.0135009 -0.053354926 0
-0.53288966 1.0093814 -0.026538348 0
-0.53232121 1.0083046 3.2550721e-05 0
-1.2498668 2.367455 0.18731004 0
-1.240423 2.3495667 0.24814889 0
-1.2373086 2.3436677 0.30989435 0
-1.2348738 2.3390558 0.37187007 0
-1.2439392 2.3562269 0.438059 0
-1.2422261 2.3529823 0.50131434 0
-0.43803811 0.78130919 -0.19039688 0
-0.50056374 0.89283341 -0.19279225 0
-0.55832672 0.99586266 -0.18763939 0
-0.55746013 0.994317 -0.16019893 0
-0.56143868 1.0014133 -0.13417758 0
-0.56194997 1.0023253 -0.10725792 0
-0.56053567 0.99980271 -0.080131143 0
-0.55763906 0.99463612 -0.053085826 0
-0.56270915 1.0036795 -0.026753316 0
-0.55868506 0.99650186 3.2614516e-05 0
-1.291925 2.3043494 0.061573904 0
-1.2969878 2.3133798 0.12362172 0
-1.2510843 2.231504 0.17899501 0
-1.238541 2.2091308 0.23654293 0
-1.2424526 2.2161078 0.29707935 0
-1.2411294 2.2137475 0.35681468 0
-1.2397332 2.2112572 0.41679141 0
-1.2377384 2.2076993 0.4768649 0
-0.46044618 0.77477759 -0.19157615 0
-0.51419371 0.86521679 -0.18957087 0
-0.58622438 0.98642033 -0.18858801 0
-0.58909112 0.99124426 -0.16204771 0
-0.58567458 0.98549527 -0.13398267 0
-0.5811584 0.97789603 -0.10617954 0
-0.58616096 0.9863137 -0.080210201 0
-0.58675092 0.98730642 -0.053467989 0
-0.58779109 0.98905659 -0.026750458 0
-0.58406842 0.98279262 3.2637901e-05 0
-1.3585947 2.2860622 0.06198176 0
-1.3546721 2.2794621 0.12359694 0
-1.2526548 2.107801 0.17155382 0
-1.2414185 2.0888939 0.22695117 0
-1.2421633 2.090147 0.28430596 0
-1.2410964 2.088352 0.34154332 0
-1.2441944 2.0935647 0.40039936 0
-1.2448111 2.0946026 0.45907599 0
-0.48292565 0.76780665 -0.19280489 0
-0.54143631 0.86083311 -0.1915435 0
-0.61240101 0.97366035 -0.18904331 0
-0.61096859 0.97138292 -0.16127034 0
-0.61482376 0.9775123 -0.13496405 0
-0.61566949 0.97885692 -0.10793671 0
-0.61675566 0.98058385 -0.080984339 0
-0.61012018 0.970034 -0.053349532 0
-0.60861659 0.96764344 -0.026578302 0
-0.60597444 0.96344268 3.2492866e-05 0
-1.2521976 1.9908772 0.16455726 0
-1.2393463 1.9704447 0.21741129 0
-1.2396348 1.9709034 0.27225521 0
-1.2431811 1.9765416 0.32828414 0
-1.2411312 1.9732826 0.38326401 0
-1.2405945 1.9724293 0.43902192 0
-0.50218433 0.75543755 -0.19282022 0
-0.56290036 0.84677285 -0.19151516 0
-0.6430859 0.96739626 -0.19091764 0
-0.63791054 0.95961094 -0.16193734 0
-0.6433261 0.96775758 -0.1358158 0
-0.63657808 0.95760655 -0.10733092 0
-0.63788837 0.95957762 -0.080553465 0
-0.64072454 0.963844 -0.053881317 0
-0.64030141 0.96320748 -0.026891779 0
-0.64081329 0.96397752 3.3045842e-05 0
-1.2443532 1.8718845 0.15726767 0
-1.2412213 1.8671732 0.20940655 0
-1.2466241 1.8753008 0.26331139 0
-1.2413169 1.8673171 0.31524613 0
-1.2431748 1.8701118 0.36920211 0
-1.2330644 1.8549029 0.41965628 0
-0.5262785 0.74992716 -0.19474202 0
-0.58413541 0.83237106 -0.19153135 0
-0.65695679 0.93613881 -0.18796134 0
-0.66417623 0.94642621 -0.16248947 0
-0.6685428 0.9526484 -0.13602006 0
-0.66327041 0.94513547 -0.10777511 0
-0.6666891 0.95000702 -0.081136741 0
-0.66267455 0.94428635 -0.053705879 0
-0.66047907 0.94115794 -0.026733069 0
-0.66772807 0.95148742 3.3184835e-05 0
-1.2981229 1.8497765 0.15811254 0
-1.2527521 1.7851247 0.20368584 0
-1.2413635 1.7688965 0.25268984 0
-1.2419097 1.7696749 0.30395678 0
-1.243098 1.7713681 0.35578862 0
-1.2427164 1.7708244 0.40760049 0
-0.53515232 0.72306067 -0.19121186 0
-0.61223418 0.82720828 -0.19383726 0
-0.6909554 0.93357098 -0.19088645 0
-0.68879616 0.93065357 -0.16271439 0
-0.69945157 0.94505042 -0.13741203 0
-0.68869418 0.93051577 -0.10805568 0
-0.69180852 0.93472368 -0.081296802 0
-0.69284278 0.93612105 -0.054218758 0
-0.6936937 0.93727082 -0.027111331 0
-0.68983197 0.93205309 3.3103712e-05 0
-1.3424225 1.8137881 0.15788215 0
-1.2470341 1.6849059 0.19577959 0
-1.2372229 1.6716497 0.24318124 0
-1.2412978 1.6771555 0.29335341 0
-1.2380868 1.6728169 0.34216145 0
-1.2415372 1.677479 0.39320204 0
-0.55511123 0.71174592 -0.19186363 0
-0.62783581 0.80499101 -0.19228305 0
-0.70980996 0.91009569 -0.18968911 0
-0.7112568 0.91195077 -0.16253127 0
-0.72064632 0.92398977 -0.13695079 0
-0.72653723 0.93154287 -0.11026922 0
-0.7231065 0.92714405 -0.082198717 0
-0.71758467 0.92006415 -0.05432044 0
-0.71857947 0.92133969 -0.027166465 0
-0.72286975 0.9268406 3.3555883e-05 0
-1.386692 1.7779723 0.1577608 0
-1.253078 1.6066567 0.1903016 0
-1.2407293 1.5908235 0.2359035 0
-1.2370474 1.5861027 0.28279826 0
-1.2421793 1.5926827 0.33207756 0
-1.2375667 1.5867686 0.37914023 0
-0.57315242 0.69782972 -0.19195065 0
-0.64895153 0.79011732 -0.19258125 0
-0.72982317 0.88858092 -0.1889839 0
-0.74069375 0.90181613 -0.16400459 0
-0.74284983 0.90444124 -0.1367887 0
-0.74412382 0.90599239 -0.10943304 0
-0.74211121 0.90354198 -0.081740752 0
-0.74521297 0.90731847 -0.054660976 0
