# .PCD v0.7 - Point Cloud Data file format
VERSION 0.7
FIELDS x y z intensity
SIZE 4 4 4 4
TYPE F F F F
COUNT 1 1 1 1
WIDTH 1309
HEIGHT 1
VIEWPOINT 0 0 0 1 0 0 0
POINTS 1309
DATA ascii
-1.1221243 -2.9776577e-06 -0.052240111 0
-1.1290046 -2.9959149e-06 -0.026249859 0
-1.1270273 -2.9906682e-06 3.2174812e-05 0
-1.1316235 -3.0028646e-06 0.026375398 0
-1.1181942 -2.967229e-06 0.052121133 0
-1.1256927 -2.9871267e-06 0.078761116 0
-1.1185567 -2.9681908e-06 0.10447089 0
-1.1269978 -2.9905898e-06 0.13178119 0
-1.0728433 -2.846886e-06 0.15083414 0
-0.8889057 -2.3587911e-06 0.14614497 0
-0.86085451 -0.021729402 -0.31345221 0
-0.92352742 -0.023311371 -0.31212208 0
-0.98349619 -0.024825083 -0.30707234 0
-1.0900118 -0.027513715 -0.31267482 0
-1.1374661 -0.028711539 -0.29781172 0
-1.1354651 -0.028661033 -0.26920664 0
-1.139963 -0.028774569 -0.24239001 0
-1.1291212 -0.028500902 -0.21273883 0
-1.1251477 -0.028400606 -0.18497846 0
-1.1387662 -0.028744357 -0.16008709 0
-1.1178739 -0.028217001 -0.13069123 0
-1.1281835 -0.028477231 -0.10533857 0
-1.1263977 -0.028432157 -0.078770906 0
-1.1396756 -0.028767312 -0.053074103 0
-1.1266748 -0.028439149 -0.026204035 0
-1.1403368 -0.028784001 3.2565145e-05 0
-1.1301278 -0.02852631 0.026348928 0
-1.1375371 -0.028713332 0.053039625 0
-1.1266465 -0.028438436 0.078852966 0
-1.1204077 -0.028280959 0.1046771 0
-1.1335125 -0.028611746 0.13258517 0
-1.065456 -0.026893888 0.14984326 0
-0.90307754 -0.022795184 0.14852227 0
-0.84741664 -0.042805437 -0.30885428 0
-0.92310488 -0.046628665 -0.31227759 0
-1.0051337 -0.050772175 -0.31412816 0
-1.0869299 -0.054903936 -0.31208888 0
-1.1251004 -0.056832034 -0.29485577 0
-1.1528617 -0.058234345 -0.27359253 0
-1.2519256 -0.063238345 -0.26645109 0
-1.2456484 -0.062921263 -0.23491822 0
-1.2376941 -0.062519468 -0.20367604 0
-1.2317929 -0.062221382 -0.17333032 0
-1.2509878 -0.063190967 -0.14639348 0
-1.2271721 -0.061987974 -0.11469071 0
-1.2481443 -0.063047335 -0.087368302 0
-1.2469469 -0.062986858 -0.058125198 0
-1.2543932 -0.063362986 -0.029202385 0
-1.2294769 -0.062104397 3.5144334e-05 0
-0.85405064 -0.064778522 -0.31176874 0
-0.92642629 -0.070268109 -0.31390119 0
-0.99761349 -0.07566756 -0.31227532 0
-1.0838031 -0.082204908 -0.31168753 0
-1.1377441 -0.08629626 -0.29864502 0
-1.1444026 -0.086801305 -0.27201831 0
-1.2243961 -0.092868693 -0.26100764 0
-1.2461787 -0.094520874 -0.23539318 0
-1.2447883 -0.094415411 -0.20517029 0
-1.2386841 -0.09395241 -0.17457806 0
-1.2419542 -0.094200447 -0.14556822 0
-1.2420052 -0.094204322 -0.11626219 0
-1.2450112 -0.094432317 -0.087288029 0
-1.2340937 -0.093604244 -0.057617832 0
-1.2392112 -0.093992405 -0.028894974 0
-1.3845996 -0.1050199 0.19522402 0
-0.85866439 -0.08696679 -0.31415421 0
-0.91900182 -0.093077853 -0.31208211 0
-0.98245645 -0.099504635 -0.30821881 0
-1.0829648 -0.10968427 -0.31214321 0
-1.1804824 -0.11956099 -0.31055653 0
-1.2377099 -0.12535708 -0.29485509 0
-1.2341281 -0.12499432 -0.2636708 0
-1.2331971 -0.12490001 -0.23346217 0
-1.2450017 -0.12609559 -0.2056645 0
-1.2404325 -0.12563282 -0.17521559 0
-1.2400118 -0.12559022 -0.14566569 0
-1.2342054 -0.12500213 -0.1157905 0
-1.2358154 -0.12516519 -0.086837135 0
-1.2510793 -0.12671115 -0.058541529 0
-1.2368203 -0.12526698 -0.02890374 0
-1.9950849 -0.20206513 5.7247838e-05 0
-1.9988813 -0.20244965 0.046827421 0
-2.0019248 -0.20275788 0.093790844 0
-1.9859601 -0.20114096 0.13966215 0
-1.3831891 -0.14009142 0.16256537 0
-1.3750706 -0.13926917 0.19431418 0
-1.369185 -0.13867307 0.22625932 0
-0.84399289 -0.10705605 -0.30967638 0
-0.93229938 -0.11825725 -0.31751028 0
-0.99546963 -0.12627007 -0.3132014 0
-1.0677607 -0.13543981 -0.3086479 0
-1.1832814 -0.15009302 -0.31219006 0
-1.2377362 -0.15700032 -0.29571119 0
-1.2307941 -0.15611973 -0.26371631 0
-1.2452788 -0.15795706 -0.23642887 0
-1.2300004 -0.15601906 -0.20377201 0
-1.2347548 -0.15662214 -0.17491627 0
-1.226132 -0.15552838 -0.14445034 0
-1.2321392 -0.15629037 -0.11592983 0
-1.2582375 -0.15960079 -0.088667482 0
-1.2478762 -0.15828651 -0.058559936 0
-1.2328426 -0.15637958 -0.028893817 0
-1.514511 -0.19210774 0.14258561 0
-1.3689208 -0.17364039 0.16135211 0
-1.3787563 -0.17488796 0.19539654 0
-1.3635169 -0.17295493 0.22597206 0
-0.8451876 -0.12895212 -0.3112098 0
-0.91895562 -0.14020708 -0.314071 0
-0.98181516 -0.14979769 -0.30999616 0
-1.0638069 -0.16230735 -0.30859089 0
-1.1716151 -0.17875588 -0.31020361 0
-1.2975537 -0.1979706 -0.31109703 0
-1.4510961 -0.22139691 -0.31201729 0
-1.6322458 -0.24903531 -0.31099278 0
-1.8833237 -0.28734282 -0.31310871 0
-2.5494447 -0.38897437 -0.3624315 0
-3.0599086 -0.46685699 -0.36176011 0
-3.8281775 -0.58407342 -0.36145842 0
-5.1162844 -0.78060269 -0.3618156 0
-7.6854186 -1.1725812 -0.36193243 0
-15.389905 -2.3480716 -0.36196294 0
-1.293837 -0.19740354 0.15304063 0
-1.3729168 -0.20946893 0.19525604 0
-1.3945597 -0.21277103 0.2319328 0
-0.83623832 -0.14926733 -0.3092033 0
-0.90947068 -0.16233921 -0.31213024 0
-0.98762733 -0.17629005 -0.31313637 0
-1.0656543 -0.19021775 -0.31042057 0
-1.1543307 -0.20604637 -0.30690646 0
-1.2834228 -0.22908913 -0.30899692 0
-1.4333565 -0.25585207 -0.30949286 0
-1.6301985 -0.29098809 -0.3119027 0
-1.8614671 -0.33226919 -0.31077021 0
-2.5422719 -0.45379186 -0.36292443 0
-3.0441267 -0.54337227 -0.36140054 0
-3.818572 -0.68160957 -0.36206049 0
-5.0937657 -0.90922982 -0.36173078 0
-7.6512756 -1.3657416 -0.36183262 0
-15.317893 -2.7342217 -0.3617771 0
-1.3360138 -0.23847653 0.06325841 0
-1.3151381 -0.23475026 0.09347041 0
-1.3288205 -0.23719254 0.12607075 0
-1.3820865 -0.24670045 0.1641634 0
-1.3752843 -0.24548626 0.19641136 0
-1.3831378 -0.2468881 0.23099597 0
-0.84254724 -0.17243537 -0.31304556 0
-0.90827996 -0.1858882 -0.313232 0
-0.97857529 -0.20027481 -0.31176972 0
-1.0586447 -0.21666178 -0.30987293 0
-1.1677998 -0.23900144 -0.31199199 0
-1.2023721 -0.24607696 -0.29088581 0
-1.4310614 -0.29288045 -0.31049448 0
-1.6216723 -0.33189079 -0.31177479 0
-1.8650818 -0.38170686 -0.31288242 0
-2.5179789 -0.51532853 -0.36119819 0
-3.0468199 -0.62356091 -0.36347297 0
-3.7881095 -0.77527297 -0.3609125 0
-5.0780606 -1.0392737 -0.3623628 0
-7.6186867 -1.5592372 -0.36203721 0
-15.245112 -3.1200585 -0.36180282 0
-1.2600034 -0.25787178 0.089985758 0
-1.2313942 -0.25201663 0.1173936 0
-0.84172434 -0.194516 -0.31446373 0
-0.88753051 -0.20510145 -0.30776349 0
-0.97658002 -0.22568011 -0.3128491 0
-1.0564893 -0.24414653 -0.31094667 0
-1.1585418 -0.26773009 -0.31122476 0
-1.1938993 -0.2759009 -0.29042816 0
-1.4090893 -0.32562968 -0.30741253 0
-1.603204 -0.37048808 -0.3099232 0
-1.836934 -0.42450127 -0.3098591 0
-2.5001128 -0.57775676 -0.36061224 0
-3.0030406 -0.6939795 -0.36022505 0
-3.7888076 -0.87556422 -0.36296883 0
-5.0454173 -1.165957 -0.36201805 0
-7.5649614 -1.7482042 -0.36146581 0
-15.160618 -3.5035019 -0.36178088 0
-0.83270633 -0.21470094 -0.31301942 0
-0.88754737 -0.22884089 -0.30967352 0
-0.97416008 -0.25117269 -0.31400472 0
-1.0525209 -0.27137685 -0.31169531 0
-1.1545503 -0.29768366 -0.31207144 0
-1.2688267 -0.32714811 -0.31056473 0
-1.4267455 -0.36786512 -0.31319028 0
-1.6134834 -0.4160127 -0.31384018 0
-1.8286827 -0.47149861 -0.31037575 0
-2.4991009 -0.64435595 -0.36269653 0
-3.001122 -0.77379471 -0.36222225 0
-3.7608683 -0.96968395 -0.36252141 0
-5.0146871 -1.2929626 -0.36203933 0
-7.5279803 -1.9409777 -0.36192426 0
-15.059617 -3.8828983 -0.36159414 0
-0.83076739 -0.23670915 -0.31443623 0
-0.88053358 -0.25088894 -0.3093372 0
-0.96666604 -0.27543053 -0.31372994 0
-1.0519649 -0.29973459 -0.31367108 0
-1.1326132 -0.32271355 -0.30824527 0
-1.2484488 -0.35571843 -0.30767643 0
-1.4130745 -0.40262493 -0.3123205 0
-1.5837218 -0.45124719 -0.31016773 0
-1.828387 -0.5209592 -0.31245771 0
-2.4720602 -0.70435995 -0.36123711 0
-2.976706 -0.84814781 -0.36174381 0
-3.7180703 -1.0593835 -0.36085841 0
-4.9737844 -1.417172 -0.36155349 0
-7.4710131 -2.1287031 -0.3616533 0
-14.961256 -4.2628856 -0.36170056 0
-0.8876183 -0.27730438 -0.31418481 0
-0.96021968 -0.29998606 -0.31399506 0
-1.0467085 -0.32700637 -0.31446454 0
-1.1214075 -0.35034338 -0.30750415 0
-1.2439188 -0.3886176 -0.30887887 0
-1.3961506 -0.43617696 -0.3109141 0
-1.5726992 -0.49133325 -0.31033882 0
-1.8148715 -0.56699127 -0.31249404 0
-2.4564044 -0.76741511 -0.3616645 0
-2.9503992 -0.92174596 -0.36125895 0
-3.7084191 -1.1585621 -0.36264423 0
-4.9376249 -1.5425831 -0.36163995 0
-7.4168868 -2.3171394 -0.36174896 0
-14.850275 -4.6394339 -0.36173317 0
-0.80697739 -0.27464393 -0.31028694 0
-0.86501062 -0.29439476 -0.30871424 0
-0.93541902 -0.31835729 -0.30841443 0
-1.0244843 -0.34866944 -0.31033269 0
-1.1343216 -0.38605109 -0.31361732 0
-1.2386352 -0.42155287 -0.31011009 0
-1.3861123 -0.47174469 -0.31123102 0
-1.5496306 -0.52739596 -0.30831516 0
-1.8119489 -0.61667246 -0.31457055 0
-2.4296494 -0.82689846 -0.36068314 0
-2.9369693 -0.99955809 -0.36258811 0
-3.6728983 -1.2500216 -0.36214051 0
-4.8812165 -1.6612564 -0.3604646 0
-7.3471446 -2.5005019 -0.36131042 0
-14.723619 -5.0109854 -0.36161351 0
-0.80204433 -0.2957482 -0.31116113 0
-0.86196476 -0.31784347 -0.31039137 0
-0.93974847 -0.34652564 -0.31262594 0
-1.0324988 -0.38072672 -0.31557071 0
-1.1076145 -0.40842512 -0.30898499 0
-1.2145284 -0.44784883 -0.30680683 0
-1.3605343 -0.50168747 -0.30823275 0
-1.561662 -0.57585186 -0.31350076 0
-1.7796547 -0.65623522 -0.31174016 0
-2.4008739 -0.8853054 -0.35961393 0
-2.9024 -1.0702397 -0.36153993 0
-3.6291001 -1.3382052 -0.36103725 0
-4.8507247 -1.7886707 -0.36143154 0
-7.2898836 -2.6880934 -0.36171573 0
-14.596591 -5.3823905 -0.36171493 0
-0.79761487 -0.31719795 -0.3124491 0
-0.85032141 -0.33815846 -0.30917349 0
-0.93114179 -0.37029937 -0.31277227 0
-1.009192 -0.40133864 -0.31144398 0
-1.1009719 -0.43783796 -0.3101159 0
-1.2320595 -0.48996925 -0.31425926 0
-1.3589495 -0.54043132 -0.31086493 0
-1.5432775 -0.61373538 -0.31282011 0
-1.7544906 -0.69773126 -0.31031808 0
-2.3836389 -0.9479329 -0.36050117 0
-2.8809052 -1.1456873 -0.36234897 0
-3.6046605 -1.4335127 -0.36208999 0
-4.8175192 -1.915846 -0.36244485 0
-7.2162728 -2.8697898 -0.36154202 0
-14.448205 -5.7458072 -0.36151636 0
-0.80107105 -0.34222561 -0.31708553 0
-0.84325683 -0.36024782 -0.3098121 0
-0.91340411 -0.39021546 -0.31002361 0
-0.99200362 -0.42379397 -0.30934194 0
-1.0871233 -0.46443003 -0.30941826 0
-1.2060589 -0.51524055 -0.31084529 0
-1.345687 -0.57489109 -0.31105116 0
-1.5256684 -0.65178096 -0.31248572 0
-1.7457484 -0.74580133 -0.31200176 0
-2.3611026 -1.0086869 -0.36082819 0
-2.8588805 -1.2213427 -0.3633402 0
-3.5580556 -1.5200373 -0.3611472 0
-4.7652249 -2.0357521 -0.36226073 0
-7.1550651 -3.056716 -0.36222532 0
-14.295121 -6.1070199 -0.36142755 0
-0.77547741 -0.35468844 -0.31039947 0
-0.83827424 -0.38341051 -0.31143764 0
-0.91127539 -0.41679981 -0.31277201 0
-0.99201232 -0.45372733 -0.31281605 0
-1.0790138 -0.49352017 -0.31055647 0
-1.1867733 -0.54280728 -0.30930716 0
-1.330063 -0.60834521 -0.31088975 0
-1.4918443 -0.68234086 -0.30898681 0
-1.7317841 -0.79208469 -0.31297928 0
-2.3461514 -1.0730845 -0.36256683 0
-2.8047328 -1.2828307 -0.36045858 0
-3.5249875 -1.6122614 -0.3618058 0
-4.7098446 -2.1541922 -0.36206859 0
-7.0700607 -3.2337098 -0.36193854 0
-14.149215 -6.4715786 -0.36175305 0
-0.76193863 -0.3720212 -0.30864036 0
-0.82574481 -0.40317497 -0.31046432 0
-0.90148014 -0.44015321 -0.31312323 0
-0.97008795 -0.47365135 -0.30957362 0
-1.0835934 -0.52907109 -0.31561726 0
-1.1640188 -0.56833929 -0.30701745 0
-1.3224213 -0.64568031 -0.31281307 0
-1.4772131 -0.72125834 -0.30962816 0
-1.7118093 -0.83580136 -0.31308201 0
-1.9961413 -0.97462821 -0.31217936 0
-2.7852407 -1.3599107 -0.36224923 0
-3.4726813 -1.695558 -0.36071461 0
-4.6540704 -2.2723782 -0.36207464 0
-6.9825969 -3.4092958 -0.36175081 0
-13.969714 -6.8207984 -0.36145002 0
-0.77329659 -0.40203837 -0.3172504 0
-0.83338612 -0.43327904 -0.31734779 0
-0.88638228 -0.46083185 -0.3118197 0
-0.96476573 -0.50158358 -0.31181577 0
-1.0663382 -0.55439126 -0.31456673 0
-1.1628829 -0.60458505 -0.31064361 0
-1.3044567 -0.67818952 -0.31251299 0
-1.4759263 -0.76733691 -0.31331801 0
-1.689981 -0.87862438 -0.3130458 0
-1.9727427 -1.0256327 -0.31246883 0
-2.7409379 -1.4250189 -0.36104998 0
-3.4426389 -1.7898346 -0.36217099 0
-4.5771942 -2.3796921 -0.36065164 0
-6.8935499 -3.5839701 -0.36170861 0
-13.798565 -7.1739006 -0.36159134 0
-0.75040412 -0.4145152 -0.31205133 0
-0.80601662 -0.44523495 -0.31110567 0
-0.87538821 -0.48355508 -0.3121461 0
-0.9672972 -0.53432459 -0.3168917 0
-1.0425242 -0.57587922 -0.31173009 0
-1.147586 -0.63391417 -0.31073231 0
-1.271394 -0.70230442 -0.30874029 0
-1.4478338 -0.79976785 -0.31154022 0
-1.6620699 -0.9181096 -0.31206861 0
-1.9420184 -1.0727501 -0.31179154 0
-2.7050245 -1.4942266 -0.36117199 0
-3.3890302 -1.872064 -0.3613869 0
-4.5385008 -2.5070193 -0.36247304 0
-6.7875519 -3.7493708 -0.36099717 0
-13.621757 -7.5245128 -0.36181951 0
-0.76024175 -0.44534606 -0.32071427 0
-0.79018402 -0.4628861 -0.30940542 0
-0.85223126 -0.49923307 -0.3082836 0
-0.9348709 -0.54764301 -0.31069788 0
-1.0297421 -0.60321808 -0.31236094 0
-1.1232935 -0.65802008 -0.30855328 0
-1.2733265 -0.74590874 -0.31368133 0
-1.4072331 -0.82435054 -0.307183 0
-1.6314675 -0.95570594 -0.31075272 0
-1.9032795 -1.1149323 -0.30999115 0
-2.6763732 -1.567807 -0.36251441 0
-3.3400865 -1.956607 -0.36131862 0
-4.4649482 -2.6155457 -0.36175573 0
-6.701612 -3.9257729 -0.36158103 0
-13.425832 -7.8647895 -0.36177266 0
-0.72774875 -0.45135266 -0.31171322 0
-0.7884984 -0.48902982 -0.31347844 0
-0.83965629 -0.52075821 -0.308391 0
-0.91995782 -0.57056147 -0.31042865 0
-1.0085169 -0.6254862 -0.31061232 0
-1.1163737 -0.69237942 -0.31135347 0
-1.2382859 -0.76798987 -0.30972555 0
-1.4094962 -0.87417519 -0.3123937 0
-1.6229764 -1.0065764 -0.31387445 0
-1.8851712 -1.1691906 -0.31174874 0
-2.6406546 -1.6377444 -0.36315948 0
-3.3016076 -2.0476701 -0.36263132 0
-4.4004011 -2.7291462 -0.36199158 0
-6.6125937 -4.1011567 -0.3622475 0
-13.224836 -8.202096 -0.36181957 0
-0.72576952 -0.47589213 -0.3159095 0
-0.7711578 -0.50565356 -0.31155902 0
-0.83420962 -0.54699707 -0.31136197 0
-0.91414851 -0.59941357 -0.31347349 0
-0.98941678 -0.64876753 -0.30967417 0
-1.0922767 -0.71621346 -0.3095758 0
-1.2282499 -0.80537206 -0.3122001 0
-1.3853496 -0.90838343 -0.31202397 0
-1.590426 -1.0428534 -0.3125701 0
-1.8607278 -1.2200923 -0.31269935 0
-2.6001139 -1.7049128 -0.36338612 0
-3.222419 -2.1129627 -0.35967651 0
-4.3127518 -2.8279014 -0.36053786 0
-6.4866295 -4.2533283 -0.3611128 0
-13.009033 -8.5301142 -0.3616904 0
-0.69730121 -0.48281476 -0.30872381 0
-0.75553465 -0.5231359 -0.31048256 0
-0.82387453 -0.57045472 -0.31277868 0
-0.89225996 -0.61780518 -0.31121549 0
-0.97621661 -0.67593718 -0.31078327 0
-1.0790293 -0.74712521 -0.31106654 0
-1.2084571 -0.83674163 -0.31243759 0
-1.3707725 -0.94912958 -0.31403619 0
-1.5644507 -1.0832334 -0.31273866 0
-1.8228632 -1.2621593 -0.31159031 0
-2.5540655 -1.7684474 -0.36307284 0
-3.1919086 -2.210093 -0.3623817 0
-4.2492871 -2.9422274 -0.3613252 0
-6.3890467 -4.4238071 -0.36178085 0
-12.793848 -8.8585234 -0.3618086 0
-0.74451178 -0.54379755 -0.31149375 0
-0.79696625 -0.5821107 -0.30804273 0
-0.88786459 -0.6485036 -0.31529093 0
-0.95614779 -0.69837821 -0.30990699 0
-1.0582954 -0.77298766 -0.31061465 0
-1.1873215 -0.86722946 -0.3125326 0
-1.3443192 -0.98190188 -0.31355351 0
-1.5347177 -1.1209705 -0.31235117 0
-1.791178 -1.3082911 -0.31171921 0
-2.5074227 -1.8314422 -0.36289772 0
-3.1260147 -2.283267 -0.36132812 0
-4.1712551 -3.0467188 -0.36111358 0
-6.2784228 -4.5858116 -0.36195534 0
-12.556769 -9.1715679 -0.36153519 0
-0.73048919 -0.56235909 -0.31146601 0
-0.79120064 -0.60909718 -0.31165692 0
-0.86432338 -0.6653899 -0.31279522 0
-0.93709952 -0.72141582 -0.30953601 0
-1.0495553 -0.80798864 -0.31393477 0
-1.1766757 -0.90585083 -0.31564787 0
-1.3111453 -1.0093708 -0.31165865 0
-1.5018561 -1.1561875 -0.31150287 0
-1.763093 -1.3572979 -0.31269372 0
-2.4489181 -1.8852729 -0.36120194 0
-3.0742447 -2.3666737 -0.36213318 0
-4.0976129 -3.1545024 -0.3615157 0
-6.1518474 -4.7359324 -0.3614341 0
-12.327126 -9.4899025 -0.36170423 0
-0.65846622 -0.5339058 -0.30857229 0
-0.70963407 -0.57539439 -0.30866757 0
-0.77114671 -0.62527084 -0.30987522 0
-0.8399235 -0.68103731 -0.31008679 0
-0.9321503 -0.75581777 -0.31410229 0
-1.036306 -0.84027064 -0.3162145 0
-1.158409 -0.93927574 -0.31700617 0
-1.2945145 -1.0496345 -0.31390265 0
-1.482136 -1.2017641 -0.31360391 0
-1.7159653 -1.3913604 -0.31046459 0
-2.4060891 -1.9509352 -0.36203218 0
-3.0141761 -2.4439921 -0.3622081 0
-4.0084634 -3.2501926 -0.36077282 0
-6.0323439 -4.8912206 -0.36155081 0
-12.075766 -9.7914228 -0.36146486 0
-0.70279109 -0.59985954 -0.31217703 0
-0.76253772 -0.6508556 -0.31291711 0
-0.81683969 -0.69720441 -0.30796298 0
-0.90128571 -0.7692824 -0.31014574 0
-0.99409288 -0.84849691 -0.30976966 0
-1.110236 -0.94762963 -0.31026959 0
-1.2570521 -1.0729429 -0.31128591 0
-1.4506227 -1.2381629 -0.3134484 0
-1.6917126 -1.4439424 -0.31257075 0
-2.3489196 -2.0048943 -0.36092898 0
-2.9468532 -2.5152538 -0.36163142 0
-3.9407747 -3.3636043 -0.36220601 0
-5.9126825 -5.0467043 -0.36189783 0
-11.838277 -10.104429 -0.36187455 0
-0.64128572 -0.57595521 -0.31375411 0
-0.68046814 -0.61114597 -0.30901444 0
-0.74027503 -0.66486007 -0.31056848 0
-0.81557709 -0.73249078 -0.31435692 0
-0.90085703 -0.80908287 -0.31692424 0
-0.97391194 -0.87469542 -0.31026152 0
-1.0899702 -0.97893029 -0.31141162 0
-1.2425351 -1.1159528 -0.31456557 0
-1.4100196 -1.2663749 -0.31148207 0
-1.6428411 -1.4754778 -0.31032273 0
-1.9708676 -1.7700869 -0.30960456 0
-2.882798 -2.5891149 -0.36167473 0
-3.8531959 -3.4606545 -0.36206907 0
-5.7745428 -5.1862659 -0.36133939 0
-11.574569 -10.395418 -0.36171851 0
-0.61800337 -0.58387774 -0.30947444 0
-0.66967452 -0.63269562 -0.31126538 0
-0.72432691 -0.68433022 -0.31102479 0
-0.78786176 -0.74435675 -0.31081653 0
-0.8666113 -0.81875777 -0.312047 0
-0.95347887 -0.9008286 -0.31089616 0
-1.0663415 -1.007459 -0.3118262 0
-1.1971807 -1.1310735 -0.31021178 0
-1.3752925 -1.29935 -0.31095606 0
-1.6191274 -1.5297205 -0.31303662 0
-1.9228296 -1.8166527 -0.30916247 0
-2.8083186 -2.6532457 -0.36061719 0
-3.7652452 -3.5573316 -0.36212599 0
-5.6545081 -5.3422709 -0.36215007 0
-11.30847 -10.684026 -0.36171439 0
-0.60094887 -0.59717214 -0.30838349 0
-0.64928573 -0.6452052 -0.30925918 0
-0.70484859 -0.70041889 -0.31015289 0
-0.76012903 -0.7553519 -0.30729893 0
-0.84578454 -0.84046912 -0.31208658 0
-0.94055504 -0.93464398 -0.3142738 0
-1.0324137 -1.0259254 -0.30937818 0
-1.1723788 -1.1650108 -0.31130505 0
-1.3388096 -1.3303956 -0.31020042 0
-1.5788989 -1.568976 -0.31281537 0
-1.8795512 -1.8677388 -0.30968472 0
-2.7498422 -2.7325604 -0.3618491 0
-3.6693325 -3.6462722 -0.36163723 0
-5.5089355 -5.4743137 -0.36156058 0
-11.027319 -10.958016 -0.36145276 0
-0.59508312 -0.62196159 -0.31332907 0
-0.63817632 -0.66700119 -0.31188673 0
-0.6928367 -0.72413051 -0.31280982 0
-0.74756896 -0.78133482 -0.31009477 0
-0.81544566 -0.85227734 -0.30873069 0
-0.90317994 -0.94397444 -0.30964762 0
-1.0085185 -1.0540708 -0.31009108 0
-1.1365206 -1.1878545 -0.30964565 0
-1.3037469 -1.3626341 -0.30994624 0
-1.5278358 -1.5968446 -0.31058463 0
-1.8320125 -1.9147601 -0.30971593 0
-2.6811259 -2.8022258 -0.36199817 0
-3.5766282 -3.7381759 -0.36168402 0
-5.3751502 -5.6179328 -0.36197075 0
-10.763255 -11.249406 -0.36198846 0
-0.57534665 -0.63254064 -0.31124404 0
-0.6210283 -0.6827634 -0.31182858 0
-0.66624361 -0.73247343 -0.30905151 0
-0.73057127 -0.80319577 -0.31135377 0
-0.80325979 -0.88311011 -0.31245622 0
-0.88460785 -0.97254485 -0.31159651 0
-0.98763251 -1.085811 -0.31199607 0
-1.112782 -1.2234012 -0.31149143 0
-1.2802227 -1.4074869 -0.31269932 0
-1.4936532 -1.6421341 -0.31196177 0
-1.7806408 -1.9576505 -0.30928564 0
-2.6109681 -2.8705189 -0.36219221 0
-3.4851787 -3.8316329 -0.36210033 0
-5.2252383 -5.744668 -0.36152416 0
-10.469626 -11.510389 -0.36176836 0
-0.56598777 -0.65470302 -0.31501982 0
-0.60759413 -0.70283097 -0.31389004 0
-0.6497004 -0.75153714 -0.31007761 0
-0.71098936 -0.82243276 -0.31175545 0
-0.77536702 -0.89690131 -0.31031296 0
-0.85004228 -0.98328149 -0.30806455 0
-0.95505238 -1.1047512 -0.31041333 0
-1.080304 -1.2496355 -0.31112969 0
-1.2329842 -1.4262472 -0.30985489 0
-1.4418676 -1.667872 -0.30983922 0
-1.7446498 -2.0181136 -0.31178206 0
-2.5183105 -2.9130411 -0.35942331 0
-3.3862374 -3.9170103 -0.36197677 0
-5.0829921 -5.8797216 -0.36183459 0
-10.174389 -11.769165 -0.36171553 0
-0.53829718 -0.65539247 -0.30871609 0
-0.58848649 -0.71649945 -0.31326133 0
-0.62978345 -0.76677966 -0.3097097 0
-0.69345021 -0.8442958 -0.31330878 0
-0.76059651 -0.92604834 -0.3136557 0
-0.8353681 -1.017085 -0.3119503 0
-0.93361795 -1.1367069 -0.31267178 0
-1.0545284 -1.2839189 -0.31293923 0
-1.0330092 -1.2577187 -0.26749232 0
-1.4086944 -1.7151264 -0.31191346 0
-1.7041357 -2.0748346 -0.31380031 0
-2.4649224 -3.0011148 -0.36249876 0
-3.279856 -3.99332 -0.36126378 0
-4.9342208 -6.0075574 -0.36192247 0
-9.8806009 -12.029919 -0.36194995 0
-0.52843988 -0.67754877 -0.31277058 0
-0.56139159 -0.71979839 -0.30841061 0
-0.62123114 -0.7965228 -0.31528983 0
-0.67026567 -0.8593933 -0.31253412 0
-0.72943574 -0.93525922 -0.31044099 0
-0.81124592 -1.0401536 -0.31264624 0
-0.89408332 -1.146365 -0.30902287 0
-0.97565359 -1.2509519 -0.29880688 0
-0.98541993 -1.263474 -0.26334292 0
-1.065431 -1.3660617 -0.2434646 0
-1.635218 -2.0966244 -0.31075493 0
-2.3824854 -3.0547469 -0.36159855 0
-3.1876175 -4.0870614 -0.36235061 0
-4.7751017 -6.1224833 -0.36147043 0
-9.5680237 -12.267815 -0.3617267 0
-0.51209599 -0.6919086 -0.31333324 0
-0.54864347 -0.74128902 -0.31158635 0
-0.59872055 -0.80894965 -0.31412727 0
-0.64953494 -0.87760651 -0.31309614 0
-0.70321858 -0.95014018 -0.30939063 0
-0.77879018 -1.0522472 -0.31027436 0
-0.87545687 -1.1828566 -0.31280389 0
-0.97969204 -1.323692 -0.31017676 0
-0.93605542 -1.2647331 -0.25859886 0
-0.94151837 -1.2721143 -0.222415 0
-0.96098375 -1.2984146 -0.18879181 0
-1.9758341 -2.66961 -0.31000713 0
-3.0707369 -4.1489668 -0.36085287 0
-4.6192269 -6.2411785 -0.36147994 0
-9.2543993 -12.503901 -0.36168566 0
-0.49311253 -0.70266688 -0.3124696 0
-0.53320271 -0.75979394 -0.31360805 0
-0.57534575 -0.81984615 -0.31262022 0
-0.62394482 -0.88909799 -0.31147847 0
-0.6785844 -0.96695733 -0.30919135 0
-0.75469303 -1.0754093 -0.3113884 0
-0.83768475 -1.1936693 -0.30997357 0
-0.94791549 -1.350744 -0.31081069 0
-0.91439217 -1.3029746 -0.26161596 0
-0.92021382 -1.3112702 -0.22512861 0
-0.91888553 -1.3093774 -0.18695417 0
-0.92714119 -1.3211414 -0.15065159 0
-2.9779003 -4.2433963 -0.3624135 0
-4.4661279 -6.3640652 -0.36195347 0
-8.941844 -12.741794 -0.36192355 0
-0.4758749 -0.71586019 -0.31289589 0
-0.5169391 -0.77763319 -0.3154856 0
-0.55322623 -0.83222008 -0.31191498 0
-0.61419672 -0.92393816 -0.31815201 0
-0.66136724 -0.99489689 -0.31268817 0
-0.72218573 -1.0863863 -0.30919063 0
-0.81281406 -1.2227188 -0.31209055 0
-0.91678607 -1.3791243 -0.31191745 0
-1.0443472 -1.5710149 -0.31004301 0
-0.87139755 -1.3108462 -0.22120941 0
-0.87419367 -1.3150524 -0.1845554 0
-0.88816321 -1.3360668 -0.1497497 0
-2.8660159 -4.311357 -0.36192459 0
-4.2901516 -6.4536891 -0.36077756 0
-8.6076546 -12.948524 -0.36150968 0
-0.45806828 -0.72828573 -0.31317398 0
-0.48866084 -0.77692503 -0.31009594 0
-0.5265128 -0.83710611 -0.30866739 0
-0.57900655 -0.92056626 -0.31185952 0
-0.6313138 -1.0037298 -0.31035763 0
-0.70400268 -1.1192985 -0.3134008 0
-0.78069544 -1.2412328 -0.3116875 0
-0.80751681 -1.2838762 -0.28567457 0
-0.80626625 -1.2818879 -0.24888797 0
-0.91290647 -1.4514359 -0.24096939 0
-0.83605325 -1.3292465 -0.1835276 0
-0.84695011 -1.3465714 -0.1484839 0
-2.7457638 -4.3655076 -0.36053801 0
-4.1390185 -6.5806527 -0.36192003 0
-8.2822447 -13.167994 -0.36168581 0
-0.43257722 -0.7278834 -0.30820799 0
-0.47606912 -0.8010658 -0.31483525 0
-0.5082497 -0.85521501 -0.31051585 0
-0.55993772 -0.94218874 -0.31429687 0
-0.60697418 -1.0213354 -0.31096548 0
-0.66974884 -1.1269642 -0.31071523 0
-0.74868482 -1.2597873 -0.31150255 0
-0.85081041 -1.4316306 -0.31367335 0
-0.85460436 -1.4380145 -0.27492568 0
-0.79450554 -1.3368883 -0.21855329 0
-0.79188567 -1.33248 -0.18115684 0
-0.80557013 -1.3555063 -0.1471803 0
-0.81324708 -1.3684241 -0.11128464 0
-3.9654965 -6.6726103 -0.36135796 0
-7.9414668 -13.362844 -0.36141732 0
-0.41999158 -0.74912047 -0.31261241 0
-0.45137501 -0.80509764 -0.31184316 0
-0.48919898 -0.87256259 -0.31223208 0
-0.53073579 -0.94664997 -0.31121755 0
-0.58776736 -1.0483747 -0.31458122 0
-0.63912356 -1.1399764 -0.30975676 0
-0.72237098 -1.2884612 -0.31398451 0
-0.80221719 -1.4308794 -0.30897418 0
-0.9277246 -1.6547414 -0.3117846 0
-0.76949728 -1.3725183 -0.22113265 0
-0.82244229 -1.466954 -0.19655454 0
-0.77021778 -1.3738035 -0.14700945 0
-0.77853316 -1.3886352 -0.11129487 0
-3.7986796 -6.775537 -0.36162469 0
-7.6096158 -13.572935 -0.36178982 0
-0.39663011 -0.75128323 -0.309239 0
-0.43030521 -0.81506944 -0.31139976 0
-0.46718293 -0.88492191 -0.31233591 0
-0.50818503 -0.9625867 -0.31214079 0
-0.55926251 -1.0593359 -0.31353498 0
-0.60994488 -1.1553367 -0.30964887 0
-0.68553233 -1.2985119 -0.31211802 0
-0.76602119 -1.4509712 -0.30903947 0
-0.88230866 -1.671239 -0.31059831 0
-1.0363797 -1.9630749 -0.31196627 0
-1.2459661 -2.3600664 -0.31190822 0
-1.5527042 -2.9410791 -0.31042978 0
-2.4181747 -4.5804238 -0.36210015 0
-3.6263618 -6.8689308 -0.36160925 0
-7.2604651 -13.752525 -0.36157718 0
-0.38444358 -0.7749508 -0.31488678 0
-0.41378483 -0.83409613 -0.31457883 0
-0.44556358 -0.89815491 -0.31293771 0
-0.48199651 -0.97159541 -0.3110182 0
-0.52832305 -1.0649791 -0.31115949 0
-0.57960838 -1.1683587 -0.30911979 0
-0.64592499 -1.3020378 -0.30894858 0
-0.73701334 -1.4856513 -0.31236455 0
-0.84128791 -1.6958451 -0.31112608 0
-0.99146557 -1.9985691 -0.31353036 0
-1.1858845 -2.3904734 -0.31187186 0
-1.4905212 -3.0045519 -0.31305891 0
-1.9866623 -4.0046597 -0.31252035 0
-3.4550581 -6.9646115 -0.36194032 0
-6.9193754 -13.947888 -0.36200678 0
-0.35737559 -0.76850635 -0.30850488 0
-0.38985309 -0.83834654 -0.3123714 0
-0.41886702 -0.90073854 -0.31005573 0
-0.4528774 -0.97387505 -0.30799094 0
-0.50518018 -1.0863478 -0.31357774 0
-0.55017674 -1.183109 -0.30925003 0
-0.61698544 -1.3267757 -0.3110244 0
-0.69616967 -1.4970547 -0.31096885 0
-0.80335671 -1.7275515 -0.31312346 0
-0.93421882 -2.0089595 -0.31136227 0
-1.1292145 -2.4282813 -0.31298652 0
-1.4059873 -3.023458 -0.3112323 0
-2.1804149 -4.6887999 -0.36150041 0
-3.2734759 -7.0393367 -0.36141497 0
-6.5554004 -14.096841 -0.36146346 0
-0.34244454 -0.78779864 -0.31268033 0
-0.36737782 -0.84515798 -0.31135535 0
-0.39203584 -0.90188408 -0.30694634 0
-0.43223098 -0.99435365 -0.31091833 0
-0.4680182 -1.0766827 -0.30728033 0
-0.52404654 -1.2055767 -0.31156632 0
-0.58324999 -1.3417751 -0.31099066 0
-0.66689855 -1.5342098 -0.31509006 0
-0.75852758 -1.7450037 -0.31271714 0
-0.87532902 -2.0137069 -0.30857575 0
-1.0648375 -2.4496741 -0.31218043 0
-1.3309441 -3.061856 -0.31162781 0
-2.0659974 -4.7528567 -0.3623035 0
-3.0950751 -7.120265 -0.36144423 0
-6.1992331 -14.261426 -0.36155659 0
-0.3492581 -0.86235917 -0.31434473 0
-0.37299719 -0.92097372 -0.31014055 0
-0.40528917 -1.0007064 -0.30960768 0
-0.44551873 -1.1000379 -0.3106378 0
-0.49080268 -1.2118493 -0.30988738 0
-0.54816949 -1.3534946 -0.3104015 0
-0.61844951 -1.5270243 -0.31030977 0
-0.71371883 -1.7622553 -0.31248108 0
-0.82877624 -2.0463457 -0.31027305 0
-0.9991886 -2.4671137 -0.31109002 0
-1.2535596 -3.0951855 -0.31170061 0
-1.9417789 -4.7944794 -0.36162531 0
-2.9185238 -7.2061772 -0.3619509 0
-5.832963 -14.402269 -0.36127993 0
-0.3024644 -0.8045947 -0.31288418 0
-0.32955095 -0.87664849 -0.31642079 0
-0.35285383 -0.9386372 -0.31299007 0
-0.38295451 -1.0187089 -0.31208768 0
-0.41844687 -1.1131233 -0.31125146 0
-0.45804346 -1.2184553 -0.30852216 0
-0.51923031 -1.3812203 -0.31365463 0
-0.58451331 -1.5548816 -0.31287318 0
-0.669339 -1.780529 -0.31262627 0
-0.77899098 -2.0722177 -0.31111571 0
-0.93351924 -2.483283 -0.31005922 0
-1.1724151 -3.118777 -0.31099746 0
-1.8200449 -4.8415565 -0.36159623 0
-2.7361116 -7.2784138 -0.36199534 0
-5.4739208 -14.561343 -0.36168948 0
-0.28177169 -0.81111884 -0.31255618 0
-0.30177549 -0.86870247 -0.31070465 0
-0.3283664 -0.94524813 -0.31233153 0
-0.35697117 -1.027591 -0.31194928 0
-0.38856021 -1.1185243 -0.30992082 0
-0.42852455 -1.2335672 -0.30951148 0
-0.47980952 -1.3811982 -0.31080064 0
-0.54544306 -1.5701333 -0.31307235 0
-0.6232242 -1.7940372 -0.31213683 0
-0.72527617 -2.0878079 -0.31060919 0
-0.87147754 -2.5086689 -0.31038374 0
-1.0958714 -3.1546178 -0.31171408 0
-1.6992059 -4.8913994 -0.3620005 0
-2.547157 -7.3323445 -0.36136514 0
-5.1056066 -14.697195 -0.36174795 0
-0.25768018 -0.80689585 -0.30832461 0
-0.28088188 -0.87954938 -0.31194931 0
-0.30324048 -0.94956273 -0.31112918 0
-0.3291572 -1.030718 -0.31027776 0
-0.36164737 -1.1324571 -0.31115314 0
-0.40396208 -1.2649608 -0.31472999 0
-0.44719446 -1.4003381 -0.31246826 0
-0.50515652 -1.5818396 -0.3127647 0
-0.57544941 -1.8019537 -0.31088826 0
-0.67381704 -2.1099806 -0.31127867 0
-0.81030983 -2.5373921 -0.31130803 0
-1.014334 -3.1762702 -0.31122485 0
-1.5729744 -4.9255886 -0.36147752 0
-2.3613498 -7.3942957 -0.36136603 0
-4.7284975 -14.806747 -0.36139184 0
-0.25997329 -0.89106125 -0.31360522 0
-0.27875572 -0.9554382 -0.31065017 0
-0.30671254 -1.0512606 -0.31403139 0
-0.33577874 -1.1508852 -0.31378803 0
-0.36410806 -1.2479843 -0.30812156 0
-0.40985405 -1.4047792 -0.31105199 0
-0.46235043 -1.5847111 -0.31092617 0
-0.52991545 -1.816291 -0.31095532 0
-0.6189428 -2.1214333 -0.31056473 0
-0.74723965 -2.561172 -0.3118124 0
-0.93139201 -3.1923561 -0.31039882 0
-1.4523512 -4.9779496 -0.36251464 0
-2.1768827 -7.4612889 -0.36183974 0
-4.3597779 -14.943185 -0.36192098 0
-0.21696134 -0.82005358 -0.30877122 0
-0.23811115 -0.89999402 -0.3145338 0
-0.25604391 -0.96777487 -0.31246066 0
-0.27865461 -1.053237 -0.31242141 0
-0.30691671 -1.1600599 -0.31407744 0
-0.33169416 -1.2537117 -0.30737081 0
-0.37556013 -1.419513 -0.31211618 0
-0.42573279 -1.6091517 -0.31351346 0
-0.48620909 -1.8377353 -0.31242627 0
-0.56628722 -2.1404083 -0.31115115 0
-0.68232423 -2.5789959 -0.3117865 0
-0.8531124 -3.2245278 -0.31133422 0
-1.3252147 -5.0089436 -0.36222064 0
-1.9857444 -7.5055623 -0.3614412 0
-3.9798276 -15.042643 -0.36178184 0
-0.19818659 -0.83361632 -0.31189522 0
-0.21412896 -0.90067345 -0.31278288 0
-0.22929728 -0.96447474 -0.30942813 0
-0.25387713 -1.067863 -0.31475902 0
-0.27306634 -1.1485771 -0.30900419 0
-0.30205378 -1.2705045 -0.30952024 0
-0.33433858 -1.4063014 -0.30725804 0
-0.3818948 -1.6063334 -0.31098741 0
-0.4374997 -1.8402197 -0.31087244 0
-0.51441216 -2.1637306 -0.3125546 0
-0.6181637 -2.6001322 -0.31235611 0
-0.77545673 -3.2617414 -0.31293789 0
-1.1968815 -5.0343466 -0.36175796 0
-1.7967827 -7.557663 -0.36165115 0
-3.5995319 -15.140422 -0.36183327 0
-0.17833254 -0.84423101 -0.31408265 0
-0.19109361 -0.90464222 -0.31238675 0
-0.20638126 -0.97701442 -0.31168076 0
-0.22311401 -1.0562277 -0.30957103 0
-0.24739318 -1.1711659 -0.31330174 0
-0.27183178 -1.2868589 -0.31173384 0
-0.30218357 -1.4305451 -0.31078964 0
-0.34168324 -1.6175376 -0.31138784 0
-0.3934001 -1.8623667 -0.3128368 0
-0.45731038 -2.1649196 -0.31096005 0
-0.54991913 -2.603332 -0.31097412 0
-0.69267517 -3.2791429 -0.31283048 0
-1.0700662 -5.065722 -0.36195657 0
-1.6065737 -7.6055632 -0.36188772 0
-3.2164128 -15.226584 -0.36183715 0
-0.15679923 -0.84751171 -0.31373098 0
-0.16718355 -0.90363979 -0.31048465 0
-0.18106353 -0.97866213 -0.31064963 0
-0.19804072 -1.0704252 -0.31216779 0
-0.21641292 -1.1697282 -0.31135681 0
-0.23876579 -1.2905473 -0.31106845 0
-0.26698509 -1.4430747 -0.31194845 0
-0.30343899 -1.6401109 -0.31415898 0
-0.34645411 -1.8726108 -0.31298909 0
-0.40495056 -2.1887887 -0.31282082 0
-0.48810998 -2.6382713 -0.31357628 0
-0.60652262 -3.2783008 -0.31119066 0
-0.93866897 -5.0735769 -0.36071017 0
-1.413902 -7.6422482 -0.36182004 0
-2.8312335 -15.303032 -0.36184049 0
-0.13432316 -0.84464216 -0.31131461 0
-0.14710486 -0.92501521 -0.31645262 0
-0.15634799 -0.98313725 -0.31071863 0
-0.17187156 -1.0807514 -0.31381428 0
-0.18732394 -1.1779182 -0.31217894 0
-0.20503406 -1.2892817 -0.30941755 0
-0.2276502 -1.4314951 -0.30810514 0
-0.25806674 -1.6227585 -0.30948901 0
-0.29717726 -1.8686905 -0.31098118 0
-0.34547877 -2.1724169 -0.30913636 0
-0.41771588 -2.6266537 -0.31084335 0
-0.52377391 -3.293561 -0.31128526 0
-0.8122282 -5.1074004 -0.36154228 0
-1.2200798 -7.6720257 -0.36165679 0
-2.441448 -15.352154 -0.3614299 0
-0.11258501 -0.84487879 -0.31025571 0
-0.12224663 -0.91738313 -0.31268656 0
-0.1305078 -0.97937793 -0.30839127 0
-0.14272191 -1.0710371 -0.3098489 0
-0.15558831 -1.1675912 -0.30830309 0
-0.17262876 -1.2954689 -0.30975813 0
-0.19367543 -1.4534107 -0.31167075 0
-0.21923204 -1.6451969 -0.31261358 0
-0.25006402 -1.8765712 -0.31114325 0
-0.29168835 -2.1889353 -0.31034052 0
-0.35233787 -2.6440713 -0.31175295 0
-0.43924943 -3.2962873 -0.31039628 0
-0.68449414 -5.1366925 -0.36227754 0
-1.0232248 -7.6786513 -0.36063686 0
-2.0539956 -15.41393 -0.36154863 0
-0.09188778 -0.85354149 -0.31248567 0
-0.098585702 -0.91575825 -0.31118554 0
-0.10915471 -1.0139333 -0.31830335 0
-0.11611369 -1.0785749 -0.31108272 0
-0.12672673 -1.177159 -0.30988625 0
-0.1398734 -1.2992778 -0.30972612 0
-0.15601091 -1.4491785 -0.30982015 0
-0.178157 -1.6548924 -0.31350166 0
-0.20347328 -1.8900543 -0.31242785 0
-0.23580407 -2.1903737 -0.30960205 0
-0.28617895 -2.6583037 -0.31247988 0
-0.35705116 -3.3166325 -0.31136435 0
-0.55414069 -5.147388 -0.36193019 0
-0.8310023 -7.7191439 -0.36143848 0
-1.6649492 -15.465639 -0.36166072 0
-0.07004901 -0.85225666 -0.3112689 0
-0.074954152 -0.91193545 -0.30914521 0
-0.081128687 -0.9870584 -0.3091253 0
-0.089259349 -1.0859807 -0.31246942 0
-0.097387172 -1.1848685 -0.31116962 0
-0.10691863 -1.3008336 -0.3093552 0
-0.11926793 -1.4510825 -0.30948511 0
-0.13611984 -1.6561124 -0.31298226 0
-0.15607548 -1.8989042 -0.31313986 0
-0.18174048 -2.2111595 -0.31179243 0
-0.21766213 -2.6482029 -0.31054792 0
-0.27296612 -3.321063 -0.31103447 0
-0.42273408 -5.1432266 -0.36077249 0
-0.63753372 -7.7566032 -0.36232367 0
-1.2760845 -15.525579 -0.36219391 0
-0.049159683 -0.8649472 -0.31535026 0
-0.052289356 -0.92001265 -0.31133685 0
-0.056409568 -0.99250633 -0.31028679 0
-0.062311627 -1.0963509 -0.31490046 0
-0.068239532 -1.2006503 -0.3147617 0
-0.073882155 -1.2999302 -0.30859864 0
-0.082414851 -1.45006 -0.30872509 0
-0.082820214 -1.4571922 -0.27490652 0
-0.081899509 -1.4409927 -0.2372113 0
-0.082678549 -1.4546996 -0.20476565 0
-0.081520878 -1.4343309 -0.16790552 0
-0.0816411 -1.4364462 -0.13429475 0
-0.29407698 -5.1741796 -0.3623077 0
-0.44081151 -7.7559223 -0.36165699 0
-0.88297349 -15.535605 -0.36179268 0
-0.027129792 -0.85986549 -0.31314817 0
-0.028992221 -0.91889423 -0.31061184 0
-0.031337861 -0.99323821 -0.31016955 0
-0.034441635 -1.0916108 -0.31318954 0
-0.037708208 -1.1951432 -0.31296879 0
-0.041358814 -1.3108474 -0.31084353 0
-0.041566715 -1.3174367 -0.28017634 0
-0.041721188 -1.3223326 -0.24918658 0
-0.041928399 -1.3289002 -0.21851522 0
-0.041650765 -1.3201007 -0.18561222 0
-0.042249199 -1.3390677 -0.15657914 0
-0.041830324 -1.3257917 -0.12381143 0
-0.16297935 -5.1655507 -0.36130038 0
-0.24486038 -7.7607298 -0.36147788 0
-0.49019673 -15.536546 -0.36141136 0
-0.005463365 -0.86621487 -0.31530988 0
-0.0058245654 -0.92348313 -0.31201395 0
-0.0062658284 -0.99344522 -0.31008604 0
-0.0068558864 -1.0869987 -0.31171742 0
-0.007512229 -1.1910616 -0.31175104 0
-0.0076567982 -1.2139831 -0.28773648 0
-0.0077155293 -1.2232949 -0.26003116 0
-0.0077007362 -1.2209494 -0.22997159 0
-0.0076599163 -1.2144774 -0.19960499 0
-0.0077278069 -1.2252414 -0.17219232 0
-0.0077525065 -1.2291576 -0.14365856 0
-0.0075700586 -1.2002305 -0.11203215 0
-0.032591578 -5.1673851 -0.36125612 0
-0.048934348 -7.7585263 -0.36120269 0
-0.098090507 -15.55222 -0.36160326 0
0.016171262 -0.85431921 -0.31102926 0
0.017286513 -0.91323733 -0.30860138 0
0.019050173 -1.0064106 -0.31418303 0
0.020628562 -1.0897961 -0.31256938 0
0.022605393 -1.1942309 -0.31263036 0
0.022769999 -1.2029271 -0.28516141 0
0.022794342 -1.204213 -0.25601578 0
0.022629485 -1.1955038 -0.22521465 0
0.022805065 -1.2047796 -0.19804263 0
0.023227023 -1.2270713 -0.17247695 0
0.022792393 -1.2041101 -0.14075354 0
0.022913931 -1.2105309 -0.11301161 0
0.097553305 -5.1536894 -0.36035603 0
0.14715651 -7.7742009 -0.36199006 0
0.29441735 -15.553913 -0.36170021 0
0.037943888 -0.85867369 -0.31286359 0
0.041050125 -0.92896807 -0.31416717 0
0.044398274 -1.004737 -0.31391037 0
0.047943849 -1.0849737 -0.31143415 0
0.052760124 -1.1939664 -0.31281006 0
0.053231087 -1.2046243 -0.28579122 0
0.053827018 -1.2181103 -0.25917664 0
0.053431332 -1.2091559 -0.22796795 0
0.053947821 -1.2208441 -0.20084319 0
0.053020213 -1.1998522 -0.16878538 0
0.053576354 -1.2124377 -0.14183989 0
0.053549986 -1.2118411 -0.11322404 0
0.22863975 -5.1741385 -0.36207405 0
0.34337136 -7.7705255 -0.36210716 0
0.68607551 -15.525952 -0.36133757 0
0.059656851 -0.85830426 -0.31317788 0
0.063487113 -0.91341162 -0.30934954 0
0.069314457 -0.99725169 -0.31201896 0
0.076020531 -1.0937344 -0.31439942 0
0.081102565 -1.1668513 -0.30614492 0
0.08318042 -1.1967461 -0.28432968 0
0.084176928 -1.2110833 -0.25805137 0
0.083535261 -1.2018515 -0.22691604 0
0.084442742 -1.2149076 -0.20015344 0
0.084555812 -1.2165344 -0.17137773 0
0.083331645 -1.1989219 -0.14046003 0
0.084085092 -1.2097621 -0.11319204 0
0.35895568 -5.1644225 -0.36191288 0
0.5393697 -7.7601032 -0.36214051 0
1.0783492 -15.514592 -0.36159146 0
0.081468649 -0.85836899 -0.3138518 0
0.087309048 -0.91990453 -0.31219539 0
0.09429992 -0.99356163 -0.31150988 0
0.10285048 -1.083652 -0.312148 0
0.1115168 -1.1749619 -0.30891296 0
0.11433279 -1.2046317 -0.28679743 0
0.1136917 -1.1978772 -0.25576741 0
0.11381704 -1.1991976 -0.22688511 0
0.11457846 -1.2072201 -0.19929989 0
0.11460001 -1.2074472 -0.17045076 0
0.11483896 -1.2099649 -0.14204809 0
0.11357647 -1.196663 -0.1121989 0
0.48728669 -5.1341438 -0.36053807 0
0.73346901 -7.7279668 -0.36138964 0
1.4702168 -15.490479 -0.36177909 0
0.1023498 -0.84980959 -0.31156746 0
0.11133885 -0.92444563 -0.31459004 0
0.12036799 -0.9994145 -0.31419736 0
0.13058841 -1.0842745 -0.31317699 0
0.14127956 -1.1730431 -0.30924749 0
0.14638557 -1.2154381 -0.29015744 0
0.14762719 -1.2257475 -0.26243019 0
0.14504822 -1.2043341 -0.22847679 0
0.14570272 -1.2097685 -0.20026395 0
0.1478114 -1.2272768 -0.17372134 0
0.14525788 -1.2060751 -0.14197662 0
0.14526787 -1.206158 -0.1133968 0
0.61876154 -5.1375723 -0.36176029 0
0.92740703 -7.7002535 -0.36107326 0
1.8591256 -15.436306 -0.36149463 0
0.12425432 -0.85034823 -0.31281513 0
0.13472657 -0.92201626 -0.3148202 0
0.14671355 -1.0040505 -0.31671807 0
0.15419713 -1.0552652 -0.30582476 0
0.17151648 -1.1737921 -0.31048727 0
0.17887706 -1.224165 -0.29322514 0
0.17657425 -1.2084054 -0.25958878 0
0.17773411 -1.216343 -0.23153231 0
0.17620327 -1.2058666 -0.20029041 0
0.17703138 -1.2115339 -0.17207059 0
0.17804666 -1.218482 -0.1439203 0
0.17643011 -1.207419 -0.11389772 0
0.74742192 -5.1150646 -0.36138865 0
1.1243434 -7.6945691 -0.36202204 0
2.25037 -15.400657 -0.36187467 0
0.14595065 -0.84857488 -0.31341803 0
0.15919541 -0.92558151 -0.31730843 0
0.16974846 -0.98693818 -0.31257206 0
0.18673187 -1.0856819 -0.315905 0
0.20075464 -1.167212 -0.30998829 0
0.20779431 -1.2081414 -0.29055071 0
0.2068239 -1.2024994 -0.25935882 0
0.20311061 -1.1809099 -0.22569148 0
0.2070124 -1.2035954 -0.20071708 0
0.20779057 -1.2081198 -0.17227568 0
0.20759557 -1.206986 -0.14313574 0
0.20903586 -1.2153599 -0.11510783 0
0.87705243 -5.0992899 -0.36172286 0
1.3185288 -7.6660872 -0.3621324 0
2.6356514 -15.323998 -0.36152133 0
0.1788407 -0.90280747 -0.31094939 0
0.19259095 -0.97222024 -0.30935171 0
0.20959739 -1.0580707 -0.30931163 0
0.23295306 -1.1759726 -0.31377649 0
0.23912689 -1.2071388 -0.29166815 0
0.2395452 -1.2092505 -0.26203546 0
0.23986189 -1.2108492 -0.23249634 0
0.2409067 -1.2161235 -0.20375539 0
0.24097487 -1.2164676 -0.17427784 0
0.24047573 -1.2139479 -0.14463505 0
0.23812269 -1.2020694 -0.11438186 0
1.0042456 -5.0695419 -0.36129558 0
1.5099086 -7.6221843 -0.36174348 0
3.0238171 -15.26456 -0.36180434 0
0.18714714 -0.83378404 -0.31104994 0
0.19990973 -0.89064437 -0.30839974 0
0.22219393 -0.98992568 -0.31666899 0
0.23738202 -1.0575922 -0.31082422 0
0.26032028 -1.1597874 -0.31111193 0
0.27016768 -1.2036599 -0.29238203 0
0.27117682 -1.2081558 -0.26319751 0
0.27044013 -1.2048737 -0.2325855 0
0.26789612 -1.1935395 -0.2010404 0
0.27007732 -1.2032573 -0.17330664 0
0.26944989 -1.200462 -0.14379275 0
0.2731182 -1.2168051 -0.11640286 0
1.1339874 -5.0521779 -0.36198255 0
1.7002316 -7.5749273 -0.36142218 0
3.4094617 -15.189945 -0.36196014 0
0.20822634 -0.82920128 -0.31120178 0
0.22599532 -0.89996111 -0.313501 0
0.24398498 -0.9715997 -0.31267697 0
0.26402012 -1.0513839 -0.31085905 0
0.28724837 -1.1438837 -0.30869222 0
0.30496994 -1.2144548 -0.29677942 0
0.30277473 -1.2057129 -0.26424596 0
0.3007285 -1.1975644 -0.23256566 0
0.30286393 -1.2060682 -0.2043732 0
0.30398986 -1.2105519 -0.1754065 0
0.30393466 -1.210332 -0.14584738 0
0.30655846 -1.2207805 -0.11748591 0
1.2642481 -5.034503 -0.36288679 0
1.8889676 -7.5222683 -0.36106944 0
3.7871463 -15.081217 -0.36153179 0
0.22962186 -0.82562602 -0.31193569 0
0.24815971 -0.89228052 -0.31290767 0
0.26364258 -0.94795066 -0.30710989 0
0.29173154 -1.048947 -0.31221613 0
0.31574118 -1.1352758 -0.30842161 0
0.33921638 -1.2196831 -0.30005372 0
0.33903876 -1.2190443 -0.26895741 0
0.33409473 -1.2012677 -0.23484756 0
0.33483145 -1.2039167 -0.20537524 0
0.33541089 -1.2060001 -0.17591755 0
0.33359721 -1.1994787 -0.1455078 0
0.33556557 -1.2065562 -0.11689484 0
1.388238 -4.9915342 -0.36219981 0
2.0838664 -7.4927287 -0.36206079 0
4.1693277 -14.991193 -0.36178109 0
0.25107911 -0.82185769 -0.31280655 0
0.2717177 -0.88941395 -0.31420729 0
0.29165399 -0.9546715 -0.31157282 0
0.320005 -1.047473 -0.31408134 0
0.34504622 -1.1294403 -0.30910373 0
0.3712185 -1.2151102 -0.30113775 0
0.36744711 -1.2027652 -0.26732674 0
0.37061393 -1.2131312 -0.2389195 0
0.36426565 -1.1923513 -0.20490542 0
0.37045422 -1.2126085 -0.17818862 0
0.37215963 -1.2181908 -0.14886978 0
0.37325156 -1.2217649 -0.11924302 0
1.5154268 -4.9604492 -0.36260405 0
2.2702572 -7.4312372 -0.361743 0
4.5443196 -14.874929 -0.36162806 0
0.2697719 -0.80936998 -0.31054622 0
0.28922504 -0.86773336 -0.30902851 0
0.31612948 -0.94845206 -0.31204763 0
0.34512493 -1.0354443 -0.31298676 0
0.37340525 -1.120291 -0.30908054 0
0.41232768 -1.237066 -0.30905968 0
0.46440712 -1.3933148 -0.31218407 0
0.52820599 -1.5847242 -0.31462803 0
0.60382509 -1.8115969 -0.3138417 0
0.69853032 -2.0957315 -0.31045234 0
0.84416944 -2.5326781 -0.3120119 0
1.0566344 -3.1701159 -0.3119036 0
1.6368161 -4.910778 -0.36187777 0
2.4592533 -7.3782549 -0.36207002 0
4.920383 -14.762139 -0.36178988 0
0.30964056 -0.85632616 -0.30765122 0
0.34041589 -0.94143683 -0.31246683 0
0.37039703 -1.0243511 -0.31235993 0
0.40475047 -1.1193572 -0.31154212 0
0.44091898 -1.2193831 -0.30732426 0
0.49664336 -1.3734915 -0.31045213 0
0.56077421 -1.5508486 -0.31061351 0
0.64810401 -1.7923635 -0.31324375 0
0.75451231 -2.0866408 -0.31182736 0
0.9014011 -2.4928689 -0.30981168 0
1.136551 -3.1431878 -0.31197712 0
1.7594993 -4.8659816 -0.36173394 0
2.6427855 -7.3087535 -0.36181739 0
5.2873955 -14.622551 -0.36152428 0
0.31341103 -0.80280763 -0.31370234 0
0.32992744 -0.84511477 -0.30651736 0
0.36664051 -0.93915588 -0.31468087 0
0.39866826 -1.0211955 -0.3143658 0
0.43214968 -1.1069587 -0.31102794 0
0.47761813 -1.2234269 -0.31128246 0
0.53102779 -1.3602366 -0.31038666 0
0.60069722 -1.5386962 -0.31111699 0
0.68711048 -1.7600452 -0.3105275 0
0.80134284 -2.0526531 -0.30967206 0
0.96758771 -2.4784923 -0.31096095 0
1.208114 -3.0946045 -0.31008267 0
1.8813607 -4.8191371 -0.36166629 0
2.8239937 -7.2337074 -0.36151558 0
5.6595745 -14.497096 -0.36183894 0
0.33089516 -0.78827971 -0.31118974 0
0.35921353 -0.8557415 -0.31356001 0
0.39023206 -0.92963582 -0.31469092 0
0.42478812 -1.0119575 -0.31472215 0
0.46691447 -1.1123136 -0.31574315 0
0.51185393 -1.2193713 -0.31343773 0
0.56615895 -1.3487402 -0.31092495 0
0.63761824 -1.518975 -0.31028458 0
0.73332417 -1.7469718 -0.31138727 0
0.84927428 -2.0231955 -0.30836353 0
1.0326302 -2.4599979 -0.31181121 0
1.2949769 -3.0849769 -0.31229353 0
2.0062149 -4.7793336 -0.36236376 0
3.00687 -7.1631589 -0.36166739 0
6.0176597 -14.335655 -0.36148518 0
0.34922662 -0.77645099 -0.30990103 0
0.37384668 -0.83118993 -0.30792314 0
0.40599826 -0.90267396 -0.30893439 0
0.44222715 -0.98322326 -0.30915847 0
0.48546425 -1.0793542 -0.30976662 0
0.53767592 -1.1954386 -0.3106752 0
0.59825832 -1.3301343 -0.31001788 0
0.67708743 -1.5053984 -0.31090304 0
0.7848565 -1.7450062 -0.31446758 0
0.90907019 -2.0211761 -0.31145352 0
1.0902727 -2.4240515 -0.31064388 0
1.3700536 -3.0461009 -0.31175923 0
2.1210163 -4.7157493 -0.36148652 0
3.1875558 -7.0870342 -0.3617706 0
6.381402 -14.188054 -0.36170936 0
0.36847681 -0.76691532 -0.30970833 0
0.40453517 -0.84196407 -0.31559646 0
0.42630801 -0.88728017 -0.3072505 0
0.46723941 -0.97247118 -0.30938718 0
0.51696771 -1.0759712 -0.31244087 0
0.56168288 -1.1690376 -0.30740029 0
0.6351254 -1.3218944 -0.31173426 0
0.71048939 -1.4787505 -0.30900458 0
0.82211357 -1.7110752 -0.31199276 0
0.95763779 -1.9931436 -0.31075934 0
1.1596221 -2.4135361 -0.31294733 0
1.4431971 -3.0037441 -0.31105304 0
2.2372758 -4.6564698 -0.3611559 0
3.3627872 -6.999011 -0.36149469 0
6.7362103 -14.020158 -0.36164823 0
0.41574472 -0.81213975 -0.30825225 0
0.45059985 -0.8802278 -0.30864826 0
0.49631122 -0.96952301 -0.31233495 0
0.5457468 -1.0660933 -0.31347242 0
0.59806323 -1.1682913 -0.31107411 0
0.66166914 -1.2925428 -0.30865237 0
0.74382615 -1.453033 -0.30745563 0
0.87176633 -1.7029587 -0.31442457 0
1.0086547 -1.9703645 -0.31107786 0
1.2180136 -2.3793383 -0.31239969 0
1.52294 -2.974999 -0.31195742 0
2.3625255 -4.6150937 -0.36245605 0
3.54493 -6.924871 -0.36217117 0
7.0874496 -13.845034 -0.36162993 0
0.41093373 -0.75513929 -0.31293595 0
0.44302836 -0.8141169 -0.31314701 0
0.47880441 -0.87985963 -0.31265703 0
0.51807296 -0.95202023 -0.31080979 0
0.5603494 -1.0297081 -0.30683455 0
0.62810105 -1.1542099 -0.31144655 0
0.69648492 -1.2798733 -0.309726 0
0.79281652 -1.4568939 -0.31240711 0
0.90696371 -1.6666528 -0.3118484 0
1.0593591 -1.9466975 -0.31146339 0
1.2735121 -2.3402288 -0.31138575 0
1.5932465 -2.9277785 -0.31112343 0
2.4767101 -4.5512471 -0.36223572 0
3.7171724 -6.8307433 -0.36203966 0
7.4417295 -13.675057 -0.3619808 0
0.43307623 -0.75010854 -0.31528041 0
0.46981746 -0.81374609 -0.31746429 0
0.48618636 -0.8420977 -0.30350214 0
0.5370084 -0.93012393 -0.30798802 0
0.59571022 -1.0317982 -0.31183827 0
0.66374135 -1.1496314 -0.31463122 0
0.73856604 -1.2792313 -0.31398168 0
0.82661426 -1.431735 -0.31138673 0
0.94810086 -1.6421555 -0.31164286 0
1.1067524 -1.9169475 -0.31107369 0
1.3334202 -2.3095467 -0.31168196 0
1.6644685 -2.8829381 -0.31072366 0
2.5870638 -4.480917 -0.36171976 0
3.8844106 -6.7279825 -0.36167422 0
7.7814417 -13.477825 -0.36184344 0
0.44693714 -0.73088521 -0.31184253 0
0.47903103 -0.783369 -0.31023133 0
0.52236366 -0.85423177 -0.31252754 0
0.56793624 -0.92875743 -0.31218252 0
0.62406993 -1.0205541 -0.31310058 0
0.67752427 -1.1079689 -0.30781099 0
0.76229542 -1.2465969 -0.31059507 0
0.86402106 -1.4129509 -0.31194484 0
0.99430358 -1.6260045 -0.3132405 0
1.1616684 -1.8996996 -0.31293294 0
1.390595 -2.2740676 -0.31153122 0
1.7499709 -2.8617623 -0.31310198 0
2.7015615 -4.4179177 -0.36202306 0
4.0509372 -6.6245785 -0.3614966 0
8.1103287 -13.262982 -0.36145592 0
0.45983332 -0.71102226 -0.30822131 0
0.49909559 -0.77173197 -0.31051248 0
0.55208206 -0.85366285 -0.3173162 0
0.59859204 -0.92557937 -0.31609181 0
0.64654571 -0.99972826 -0.31161845 0
0.71436381 -1.1045928 -0.31178269 0
0.79317099 -1.2264493 -0.31046408 0
0.89505458 -1.3839878 -0.31043905 0
1.0328265 -1.5970193 -0.31257889 0
1.2048969 -1.8630849 -0.31181163 0
1.4503787 -2.2426636 -0.31214449 0
1.818054 -2.8111856 -0.31248924 0
2.8020105 -4.3326387 -0.36071518 0
4.2277989 -6.5372796 -0.3624402 0
8.4480028 -13.062817 -0.36169648 0
0.518493 -0.75901771 -0.31056327 0
