# .PCD v0.7 - Point Cloud Data file format
VERSION 0.7
FIELDS x y z intensity
SIZE 4 4 4 4
TYPE F F F F
COUNT 1 1 1 1
WIDTH 1322
HEIGHT 1
VIEWPOINT 0 0 0 1 0 0 0
POINTS 1322
DATA ascii
-0.95332134 -0.4956336 -0.30811688 0
-1.050426 -0.5461185 -0.30987269 0
-1.1634171 -0.60486281 -0.31078634 0
-1.2984453 -0.67506427 -0.31107286 0
-1.4755526 -0.76714259 -0.31323868 0
-1.6757994 -0.87125134 -0.31041887 0
-1.9597659 -1.0188861 -0.31041339 0
-2.7410827 -1.4250942 -0.36106905 0
-3.4397805 -1.7883486 -0.36187029 0
-4.5931897 -2.3880084 -0.36191198 0
-6.8925867 -3.5834692 -0.36165807 0
-13.81164 -7.1806979 -0.36193398 0
-0.7415055 -0.40959969 -0.30835089 0
-0.81684566 -0.45121679 -0.31528547 0
-0.87506014 -0.48337382 -0.31202912 0
-0.94993901 -0.52473617 -0.31120506 0
-1.0390196 -0.57394326 -0.31068212 0
-1.1531645 -0.63699573 -0.31224284 0
-1.2658752 -0.69925588 -0.30740014 0
-1.4309238 -0.79042697 -0.30790159 0
-1.6533561 -0.91329622 -0.31043252 0
-1.9437761 -1.0737212 -0.31207377 0
-2.7059102 -1.4947158 -0.36129025 0
-3.3981781 -1.8771172 -0.36236235 0
-4.527956 -2.5011945 -0.36163089 0
-6.8007655 -3.75667 -0.36169994 0
-13.612765 -7.5195456 -0.36158067 0
-0.74616134 -0.43709782 -0.3147743 0
-0.79304141 -0.46455994 -0.31052423 0
-0.86427921 -0.50629067 -0.31264177 0
-0.93550187 -0.54801261 -0.31090757 0
-1.0137986 -0.59387845 -0.30752465 0
-1.1346338 -0.66466314 -0.31166828 0
-1.2571846 -0.73645288 -0.30970481 0
-1.4246484 -0.83455241 -0.31098458 0
-1.6489465 -0.96594512 -0.31408206 0
-1.9214182 -1.1255578 -0.31294543 0
-2.6728559 -1.5657464 -0.36203796 0
-3.3379061 -1.9553299 -0.36108279 0
-4.464252 -2.6151378 -0.36169934 0
-6.696106 -3.9225473 -0.36128393 0
-13.421751 -7.8623986 -0.36166269 0
-0.74077672 -0.45943266 -0.31729344 0
-0.79026043 -0.49012268 -0.31417897 0
-0.84226483 -0.522376 -0.30934909 0
-0.92061061 -0.57096636 -0.31064892 0
-1.0131515 -0.62836057 -0.3120397 0
-1.1131209 -0.69036204 -0.31044626 0
-1.2400917 -0.76910979 -0.31017721 0
-1.4017588 -0.86937642 -0.31067884 0
-1.6119626 -0.99974555 -0.31174442 0
-1.8794552 -1.1656456 -0.3108035 0
-2.6293032 -1.6307044 -0.36159837 0
-3.2988272 -2.0459456 -0.36232594 0
-4.3972411 -2.7271864 -0.36173162 0
-6.6121945 -4.1009092 -0.36222565 0
-13.233485 -8.2074604 -0.3620562 0
-0.7075544 -0.46394837 -0.3079809 0
-0.78509241 -0.51479059 -0.3171888 0
-0.83089417 -0.54482311 -0.31012452 0
-0.91357625 -0.59903836 -0.31327727 0
-0.98584795 -0.64642739 -0.30855715 0
-1.1083529 -0.72675472 -0.31413215 0
-1.2273906 -0.80480862 -0.31198168 0
-1.3867197 -0.90928185 -0.31233257 0
-1.5938882 -1.0451236 -0.31325051 0
-1.8443915 -1.2093804 -0.30995399 0
-2.5838802 -1.6942683 -0.36111736 0
-3.2381523 -2.1232791 -0.36143261 0
-4.3228655 -2.8345332 -0.36138335 0
-6.5087118 -4.267808 -0.36234212 0
-13.008115 -8.5295124 -0.36166489 0
-0.72160709 -0.49964428 -0.31948501 0
-0.77379221 -0.53577751 -0.31798539 0
-0.81347251 -0.56325233 -0.30882964 0
-0.88997 -0.61621958 -0.31041676 0
-0.98026133 -0.67873776 -0.31207091 0
-1.079851 -0.74769413 -0.31130344 0
-1.2007642 -0.831415 -0.31044865 0
-1.3559439 -0.9388622 -0.31063905 0
-1.5663049 -1.0845172 -0.31310934 0
-1.8194438 -1.2597917 -0.3110058 0
-2.5377336 -1.7571391 -0.36075115 0
-3.1722996 -2.1965158 -0.36015543 0
-4.2381053 -2.934485 -0.36037439 0
-6.3871102 -4.4224663 -0.36167118 0
-12.789475 -8.8554955 -0.36168495 0
-0.68634915 -0.50131506 -0.30937821 0
-0.74935693 -0.54733646 -0.31352091 0
-0.80710602 -0.58951688 -0.31196195 0
-0.87104487 -0.63621837 -0.30931807 0
-0.95756972 -0.69941682 -0.31036788 0
-1.060647 -0.77470529 -0.31130484 0
-1.1915656 -0.87032932 -0.31364974 0
-1.3386222 -0.97774065 -0.31222469 0
-1.5266869 -1.1151047 -0.31071672 0
-1.7893151 -1.3069305 -0.31139502 0
-2.4841084 -1.8144132 -0.35952345 0
-3.1320059 -2.287643 -0.36202061 0
-4.1816983 -3.0543468 -0.36201769 0
-6.2813382 -4.5879412 -0.36212346 0
-12.572161 -9.1828098 -0.36197832 0
-0.68135041 -0.52453017 -0.31299275 0
-0.72937483 -0.56150126 -0.31099087 0
-0.79135549 -0.60921633 -0.31171793 0
-0.86415768 -0.66526234 -0.31273526 0
-0.93868005 -0.72263259 -0.31005809 0
-1.0433415 -0.80320501 -0.31207615 0
-1.1598959 -0.89293313 -0.31114662 0
-1.3103228 -1.0087377 -0.31146315 0
-1.4971396 -1.1525565 -0.31052464 0
-1.7518754 -1.348662 -0.3107042 0
-2.4608407 -1.8944514 -0.36296046 0
-3.0763013 -2.368257 -0.36237544 0
-4.0936384 -3.151443 -0.36116505 0
-6.1604352 -4.7425437 -0.36193866 0
-12.335526 -9.4963703 -0.36195073 0
-0.66398913 -0.53838402 -0.31116048 0
-0.71927643 -0.58321273 -0.31286168 0
-0.77745974 -0.63038963 -0.31241202 0
-0.83365792 -0.67595696 -0.30777365 0
-0.92235714 -0.74787718 -0.31080234 0
-1.010383 -0.81925148 -0.30830449 0
-1.1382803 -0.92295468 -0.31149778 0
-1.2807385 -1.0384644 -0.31056213 0
-1.4819553 -1.2016175 -0.31356567 0
-1.7100819 -1.3865901 -0.30940017 0
-2.4094961 -1.9536977 -0.36254478 0
-3.016391 -2.4457879 -0.36247426 0
-4.0301671 -3.2677908 -0.36272624 0
-6.0418587 -4.8989358 -0.36212108 0
-12.087965 -9.8013153 -0.36183003 0
-0.6594578 -0.56287289 -0.3155939 0
-0.69567978 -0.59378976 -0.30901819 0
-0.76390892 -0.65202594 -0.31347978 0
-0.82932466 -0.70786083 -0.31267002 0
-0.91097903 -0.777556 -0.31348133 0
-0.99762362 -0.85151058 -0.3108699 0
-1.1229231 -0.95845854 -0.31381515 0
-1.2638943 -1.0787829 -0.31298026 0
-1.4444642 -1.2329065 -0.31211767 0
-1.6783808 -1.4325633 -0.3101075 0
-2.3451042 -2.0016377 -0.36034271 0
-2.952018 -2.5196621 -0.36226526 0
-3.9426036 -3.3651655 -0.3623741 0
-5.9140072 -5.0478349 -0.36197889 0
-11.836461 -10.10288 -0.36181909 0
-0.63865221 -0.57358998 -0.31246567 0
-0.68931568 -0.61909217 -0.3130323 0
-0.73801279 -0.66282827 -0.3096194 0
-0.80893248 -0.72652304 -0.3117958 0
-0.87672037 -0.78740513 -0.30843291 0
-0.97927666 -0.87951356 -0.31197056 0
-1.0919405 -0.9806999 -0.31197459 0
-1.2285866 -1.1034253 -0.31103426 0
-1.410562 -1.266862 -0.31160188 0
-1.65751 -1.4886525 -0.31309363 0
-1.9771252 -1.775707 -0.31058756 0
-2.8803806 -2.5869441 -0.36137149 0
-3.856245 -3.463393 -0.36235559 0
-5.7762098 -5.1877627 -0.3614437 0
-11.566346 -10.388033 -0.36146152 0
-0.67193311 -0.63482952 -0.3123152 0
-0.72133023 -0.681499 -0.30973801 0
-0.7947253 -0.75084126 -0.31352422 0
-0.86011147 -0.81261688 -0.30970657 0
-0.96006066 -0.90704691 -0.31304225 0
-1.0740978 -1.014787 -0.31409431 0
-1.2082869 -1.1415663 -0.31308958 0
-1.3730094 -1.2971931 -0.31043985 0
-1.6200396 -1.5305823 -0.31321296 0
-1.9333221 -1.8265656 -0.31084952 0
-2.8195484 -2.6638553 -0.36205921 0
-3.7627103 -3.5549369 -0.36188218 0
-5.6385994 -5.3272409 -0.36113122 0
-11.310707 -10.68614 -0.36178598 0
-0.60577196 -0.60196495 -0.31085855 0
-0.6551007 -0.65098363 -0.31202888 0
-0.71422082 -0.70973217 -0.31427693 0
-0.77252483 -0.7676698 -0.31231019 0
-0.84203213 -0.83674026 -0.31070197 0
-0.94116247 -0.9352476 -0.31447676 0
-1.0348523 -1.0283486 -0.31010896 0
-1.1737919 -1.1664151 -0.31168029 0
-1.3421166 -1.3336818 -0.31096667 0
-1.5755658 -1.5656639 -0.31215501 0
-1.8769468 -1.8651509 -0.30925563 0
-2.7568574 -2.7395315 -0.3627722 0
-3.6758182 -3.6527169 -0.36227643 0
-5.5227766 -5.4880676 -0.36246902 0
-11.035571 -10.966216 -0.36172324 0
-0.64401245 -0.67310095 -0.31473893 0
-0.6987657 -0.73032725 -0.3154867 0
-0.75053918 -0.78443921 -0.31132683 0
-0.82506031 -0.86232626 -0.31237084 0
-0.92096174 -0.96255934 -0.31574392 0
-1.0101135 -1.0557379 -0.31058148 0
-1.1147767 -1.1651285 -0.30372152 0
-1.1027263 -1.1525339 -0.26215664 0
-1.1041428 -1.1540142 -0.2244546 0
-1.8347907 -1.9176638 -0.31018561 0
-2.6862669 -2.8075993 -0.36269233 0
-3.585264 -3.7472017 -0.36255732 0
-5.3701887 -5.6127472 -0.36163664 0
-10.757035 -11.242905 -0.36177927 0
-0.5854823 -0.64368385 -0.31672707 0
-0.6180439 -0.67948234 -0.31033006 0
-0.67328244 -0.74021202 -0.31231663 0
-0.73692119 -0.81017697 -0.31405997 0
-0.80317837 -0.88302064 -0.31242454 0
-0.87659842 -0.96373922 -0.30877525 0
-0.98956078 -1.0879309 -0.31260523 0
-0.98680162 -1.0848974 -0.27622685 0
-1.0460212 -1.1500039 -0.25549471 0
-1.0527833 -1.1574382 -0.21988244 0
-1.0637728 -1.1695203 -0.18477038 0
-2.60673 -2.8658593 -0.36160427 0
-3.4787669 -3.8245838 -0.36143419 0
-5.2329268 -5.7531209 -0.36205614 0
-10.473181 -11.514297 -0.36189121 0
-0.5610134 -0.64894897 -0.31225118 0
-0.59732497 -0.69095218 -0.30858487 0
-0.6571523 -0.76015705 -0.3136341 0
-0.71305436 -0.82482147 -0.3126609 0
-0.79040104 -0.91429186 -0.31632978 0
-0.86755002 -1.0035334 -0.31440955 0
-0.96098942 -1.1116189 -0.312343 0
-0.95827961 -1.1084844 -0.2759864 0
-0.95985639 -1.1103083 -0.24121656 0
-0.94759685 -1.0961272 -0.20362666 0
-0.96839482 -1.120185 -0.17305945 0
-1.0115843 -1.1701442 -0.14437734 0
-3.3881545 -3.9192281 -0.36218172 0
-5.0923634 -5.8905621 -0.36250171 0
-10.185081 -11.781533 -0.36209568 0
-0.54470813 -0.66319793 -0.3123928 0
-0.58239347 -0.70908093 -0.31001788 0
-0.64191252 -0.78154713 -0.31567442 0
-0.68809098 -0.83777076 -0.3108874 0
-0.75463545 -0.91879058 -0.31119749 0
-0.83803654 -1.0203338 -0.31294677 0
-0.92892867 -1.1309977 -0.31110132 0
-1.0538405 -1.2830814 -0.31273511 0
-0.91892368 -1.1188163 -0.23795049 0
-0.90816408 -1.1057161 -0.20108591 0
-0.90551901 -1.1024957 -0.16674267 0
-0.9199397 -1.1200533 -0.13528904 0
-3.2786186 -3.9918134 -0.36112747 0
-4.9281449 -6.0001597 -0.36147684 0
-9.871974 -12.019415 -0.36163393 0
-0.52420336 -0.67211682 -0.3102631 0
-0.5646975 -0.72403717 -0.3102268 0
-0.60504633 -0.77577108 -0.30707562 0
-0.6676802 -0.85607821 -0.31132853 0
-0.73112899 -0.93743026 -0.31116164 0
-0.81456983 -1.0444155 -0.31392726 0
-0.90436548 -1.1595485 -0.31257671 0
-1.0178286 -1.3050272 -0.3117235 0
-0.87631303 -1.1235806 -0.23418526 0
-0.89124179 -1.1427218 -0.20366015 0
-0.97650421 -1.2520425 -0.18557371 0
-0.88896102 -1.1397974 -0.13492087 0
-0.89436197 -1.1467224 -0.10166609 0
-4.7828341 -6.1323972 -0.36205575 0
-9.5732784 -12.274551 -0.36192536 0
-0.5475952 -0.73987263 -0.31099102 0
-0.59610653 -0.80541778 -0.31275579 0
-0.64943224 -0.87746775 -0.31304663 0
-0.70269102 -0.94942731 -0.3091585 0
-0.78806609 -1.0647802 -0.31396994 0
-0.86808467 -1.1728958 -0.31016982 0
-0.91047746 -1.2301739 -0.28826299 0
-0.9167819 -1.238692 -0.25327429 0
-0.87636715 -1.1840864 -0.20702431 0
-0.92563057 -1.2506478 -0.18184644 0
-0.86342448 -1.1665993 -0.13547075 0
-0.88533342 -1.1962011 -0.10403858 0
-4.6228547 -6.2460809 -0.36176383 0
-9.2578783 -12.508602 -0.36182165 0
-0.48860306 -0.69624102 -0.3096121 0
-0.52207875 -0.74394262 -0.30706537 0
-0.58471709 -0.83319998 -0.31771222 0
-0.62571472 -0.89162004 -0.31236202 0
-0.68843216 -0.98098999 -0.31367838 0
-0.75219315 -1.0718471 -0.31035694 0
-0.84471542 -1.2036879 -0.31257519 0
-0.88604212 -1.2625768 -0.29052311 0
-0.88933212 -1.267265 -0.25444606 0
-1.2714589 -1.8117813 -0.31106004 0
-1.5288513 -2.1785557 -0.31105629 0
-1.9185932 -2.7339234 -0.31175306 0
-2.9742546 -4.2382016 -0.3619698 0
-4.4619174 -6.3580656 -0.36161223 0
-8.9411573 -12.740814 -0.36189574 0
-0.50814348 -0.76440191 -0.31011769 0
-0.55596685 -0.83634275 -0.31346014 0
-0.59788394 -0.89939874 -0.30970204 0
-0.65317255 -0.98256958 -0.30881381 0
-0.73313451 -1.1028566 -0.31387815 0
-0.80983949 -1.2182442 -0.3109484 0
-0.91640496 -1.378551 -0.31178778 0
-1.0415634 -1.5668273 -0.30921659 0
-1.2262625 -1.8446707 -0.31129396 0
-1.4688733 -2.209631 -0.31010118 0
-1.8614409 -2.8001716 -0.31385019 0
-2.8677113 -4.3139076 -0.36213872 0
-4.3044772 -6.4752393 -0.36198226 0
-8.6218109 -12.969819 -0.36210421 0
-0.49182329 -0.78195304 -0.31210276 0
-0.53143322 -0.8449291 -0.31155199 0
-0.58362925 -0.92791599 -0.31434938 0
-0.6399467 -1.0174555 -0.31460163 0
-0.69667077 -1.1076413 -0.31013685 0
-0.77648598 -1.2345401 -0.31000692 0
-0.88443029 -1.4061614 -0.31288418 0
-1.0065719 -1.600355 -0.31072071 0
-1.1868891 -1.8870426 -0.31328943 0
-1.4162736 -2.2517426 -0.31089565 0
-1.7801298 -2.83024 -0.31208521 0
-2.7614923 -4.3905144 -0.36260328 0
-4.1371074 -6.5776143 -0.36175293 0
-8.2824697 -13.168352 -0.36169565 0
-0.43463537 -0.73134661 -0.30967441 0
-0.47196314 -0.79415679 -0.31211987 0
-0.50849795 -0.85563266 -0.31066748 0
-0.55680591 -0.93691891 -0.31253898 0
-0.60954726 -1.025665 -0.31228372 0
-0.6705249 -1.1282701 -0.31107527 0
-0.74530923 -1.2541072 -0.31009808 0
-0.84374076 -1.4197347 -0.31106693 0
-0.96667773 -1.6265967 -0.3109796 0
-1.1365986 -1.9125168 -0.31265652 0
-1.3624707 -2.2925844 -0.31168753 0
-1.7115734 -2.880008 -0.31271008 0
-2.6388087 -4.4402361 -0.36109427 0
-3.9639378 -6.6699872 -0.36121592 0
-7.9496832 -13.37667 -0.36179125 0
-0.41479728 -0.73985559 -0.3087461 0
-0.44913268 -0.80109811 -0.310294 0
-0.48767409 -0.86984271 -0.31125882 0
-0.52735841 -0.94062597 -0.30923712 0
-0.58663082 -1.0463475 -0.31397292 0
-0.64451683 -1.1495962 -0.31237066 0
-0.72065765 -1.2854053 -0.31323981 0
-0.80916607 -1.4432738 -0.31165051 0
-0.92590487 -1.6514956 -0.31117305 0
-1.0831438 -1.9319557 -0.31126615 0
-1.3017075 -2.3217981 -0.31109357 0
-1.6333041 -2.9132524 -0.31174448 0
-2.5289342 -4.5107484 -0.36152273 0
-3.8036485 -6.7843995 -0.36209771 0
-7.6099129 -13.573465 -0.36180395 0
-0.43215638 -0.81857586 -0.3127394 0
-0.46957836 -0.88945931 -0.3139374 0
-0.50342983 -0.9535796 -0.30922005 0
-0.5546146 -1.050532 -0.31092924 0
-0.61575806 -1.1663479 -0.31260005 0
-0.68296993 -1.2936583 -0.31095138 0
-0.76153094 -1.4424659 -0.30722794 0
-0.8830716 -1.6726841 -0.31086689 0
-1.0370082 -1.9642655 -0.31215546 0
-1.2505867 -2.3688188 -0.31306493 0
-1.5589638 -2.9529359 -0.31168127 0
-2.4109554 -4.5667496 -0.36101913 0
-3.6311746 -6.878047 -0.36208916 0
-7.2615414 -13.754563 -0.3616308 0
-0.38165516 -0.76933002 -0.31260285 0
-0.41707936 -0.84073716 -0.31708348 0
-0.44405788 -0.89511973 -0.3118802 0
-0.48186865 -0.97133762 -0.31093571 0
-0.52841079 -1.065156 -0.3112112 0
-0.58268696 -1.1745644 -0.31076166 0
-0.64942515 -1.3090935 -0.31062272 0
-0.73084325 -1.4732138 -0.30974951 0
-0.84267408 -1.6986393 -0.31163874 0
-0.98649508 -1.9885498 -0.31195855 0
-1.1866159 -2.391948 -0.31206426 0
-1.4840597 -2.9915271 -0.31170177 0
-1.9825102 -3.9962897 -0.31186721 0
-3.4556079 -6.9657202 -0.36199793 0
-6.9176283 -13.944366 -0.36191538 0
-0.36254114 -0.77961445 -0.31296408 0
-0.38679087 -0.83176148 -0.30991778 0
-0.41737831 -0.89753717 -0.30895373 0
-0.45856267 -0.98610073 -0.31185734 0
-0.50032103 -1.0758986 -0.31056154 0
-0.55222785 -1.1875198 -0.31040293 0
-0.61638087 -1.3254756 -0.31071961 0
-0.69850492 -1.5020765 -0.31201196 0
-0.79637641 -1.7125409 -0.31040275 0
-0.9321627 -2.0045381 -0.31067699 0
-1.123011 -2.4149415 -0.31126711 0
-1.4090774 -3.0301032 -0.31191635 0
-2.1848977 -4.6984396 -0.36224359 0
-3.2749 -7.0423989 -0.36157221 0
-6.5633354 -14.113904 -0.36190099 0
-0.34261754 -0.78819662 -0.31283829 0
-0.36745548 -0.84533668 -0.31142119 0
-0.40057456 -0.92152756 -0.31363177 0
-0.42514631 -0.97805524 -0.30582207 0
-0.47618705 -1.0954752 -0.31264365 0
-0.5183894 -1.1925623 -0.30820295 0
-0.58659822 -1.3494776 -0.31277597 0
-0.66122603 -1.52116 -0.31240994 0
-0.74640977 -1.7171265 -0.30772135 0
-0.8799302 -2.0242922 -0.3101978 0
-1.0650767 -2.4502244 -0.31225055 0
-1.3308198 -3.0615704 -0.31159872 0
-2.0577729 -4.7339363 -0.36086124 0
-3.096199 -7.1228509 -0.36157548 0
-6.2054062 -14.275626 -0.3619166 0
-0.3460702 -0.8544879 -0.31147552 0
-0.37329394 -0.92170644 -0.31038728 0
-0.41019773 -1.0128263 -0.31335741 0
-0.44632447 -1.1020274 -0.31119961 0
-0.49717641 -1.2275867 -0.31391168 0
-0.54598951 -1.3481121 -0.30916709 0
-0.6184144 -1.5269376 -0.31029215 0
-0.71351218 -1.7617451 -0.31239063 0
-0.82893866 -2.0467467 -0.31033388 0
-0.99618721 -2.459703 -0.31015557 0
-1.2510669 -3.0890307 -0.31108081 0
-1.9366241 -4.7817516 -0.36066532 0
-2.9173172 -7.203198 -0.36180124 0
-5.8470068 -14.436945 -0.36214978 0
-0.29825783 -0.7934047 -0.30853269 0
-0.3230193 -0.85927337 -0.31014937 0
-0.35121253 -0.9342711 -0.3115342 0
-0.38500363 -1.0241599 -0.31375763 0
-0.41671348 -1.1085122 -0.30996212 0
-0.46287614 -1.2313108 -0.31177729 0
-0.51584274 -1.372209 -0.31160828 0
-0.5806548 -1.5446174 -0.31080782 0
-0.66443992 -1.7674967 -0.31033805 0
-0.77855271 -2.0710516 -0.31094065 0
-0.93729997 -2.4933403 -0.31131494 0
-1.1767707 -3.1303632 -0.31215283 0
-1.8231895 -4.8499217 -0.36222097 0
-2.7375782 -7.2823153 -0.36218935 0
-5.4758911 -14.566585 -0.36181965 0
-0.29991791 -0.86335516 -0.30879211 0
-0.32984927 -0.94951683 -0.31374198 0
-0.35499093 -1.0218905 -0.31021878 0
-0.38865173 -1.1187879 -0.30999383 0
-0.43058836 -1.2395082 -0.31100211 0
-0.48147392 -1.3859893 -0.31187877 0
-0.54367042 -1.5650306 -0.3120549 0
-0.61986524 -1.7843679 -0.31045452 0
-0.72846478 -2.0969868 -0.31197473 0
-0.87138546 -2.5084038 -0.31035092 0
-1.0906515 -3.1395915 -0.3102293 0
-1.7001294 -4.8940578 -0.36219725 0
-2.5533574 -7.350193 -0.36224478 0
-5.1074309 -14.702447 -0.3618772 0
-0.26095483 -0.81715006 -0.31224287 0
-0.28305057 -0.88634032 -0.31435785 0
-0.30394864 -0.95178026 -0.31185579 0
-0.33080328 -1.0358725 -0.31182942 0
-0.36365774 -1.1387525 -0.31288284 0
-0.39596361 -1.2399145 -0.30849832 0
-0.44312486 -1.3875946 -0.30962473 0
-0.50375432 -1.5774487 -0.31189653 0
-0.57902849 -1.8131611 -0.31282187 0
-0.67441899 -2.1118655 -0.31155673 0
-0.81611639 -2.5555747 -0.31353882 0
-1.017102 -3.1849382 -0.31207415 0
-1.5772504 -4.9389782 -0.36246017 0
-2.3704822 -7.4228926 -0.36276358 0
-4.7350516 -14.82727 -0.36189276 0
-0.23702614 -0.81240964 -0.3080475 0
-0.2586486 -0.88652092 -0.31200725 0
-0.2806161 -0.9618147 -0.31272343 0
-0.29937512 -1.0261115 -0.30651888 0
-0.32767874 -1.1231223 -0.30621848 0
-0.36851245 -1.2630804 -0.3118487 0
-0.40881857 -1.4012301 -0.31026614 0
-0.46164533 -1.5822943 -0.31045201 0
-0.53074336 -1.8191286 -0.31144115 0
-0.61749601 -2.1164742 -0.30983874 0
-0.74552745 -2.5553033 -0.31109789 0
-0.93892086 -3.2181613 -0.31290787 0
-1.4496586 -4.9687204 -0.36184254 0
-2.1773505 -7.4628921 -0.3619175 0
-4.360363 -14.94519 -0.36196956 0
-0.21986924 -0.83104467 -0.31290966 0
-0.23423533 -0.88534445 -0.309414 0
-0.25648826 -0.96945435 -0.31300288 0
-0.27779531 -1.0499891 -0.31145802 0
-0.30255598 -1.1435775 -0.30961496 0
-0.33347902 -1.2604581 -0.30902481 0
-0.37387165 -1.413131 -0.31071296 0
-0.4220964 -1.5954071 -0.31083557 0
-0.48670948 -1.8396266 -0.31274781 0
-0.56539536 -2.1370373 -0.31066111 0
-0.68416852 -2.5859668 -0.31262922 0
-0.85378641 -3.2270756 -0.31158018 0
-1.3240324 -5.0044746 -0.36189747 0
-1.9903657 -7.5230298 -0.36228237 0
-3.9818678 -15.050354 -0.36196727 0
-0.19709681 -0.82903248 -0.31018022 0
-0.20970313 -0.88205743 -0.30631799 0
-0.2315525 -0.97396064 -0.31247145 0
-0.25047249 -1.0535423 -0.31053787 0
-0.27337343 -1.1498686 -0.30935168 0
-0.30357251 -1.2768927 -0.31107655 0
-0.33797976 -1.421617 -0.3106043 0
-0.37913159 -1.5947106 -0.30873725 0
-0.44052175 -1.8529311 -0.31301978 0
-0.5144366 -2.1638334 -0.31256944 0
-0.61604464 -2.5912189 -0.31128535 0
-0.77196258 -3.2470441 -0.31152782 0
-1.1990038 -5.0432734 -0.36239943 0
-1.7978257 -7.5620499 -0.36186108 0
-3.5967226 -15.128605 -0.36155087 0
-0.17696415 -0.837753 -0.3116726 0
-0.19179788 -0.90797633 -0.31353807 0
-0.20484905 -0.96976089 -0.30936679 0
-0.22496842 -1.0650065 -0.31214401 0
-0.24478535 -1.1588204 -0.30999917 0
-0.27198502 -1.2875844 -0.31190959 0
-0.30171585 -1.428331 -0.31030861 0
-0.34100246 -1.6143148 -0.31076741 0
-0.39191678 -1.8553445 -0.31165722 0
-0.45853871 -2.1707346 -0.31179529 0
-0.54907244 -2.5993237 -0.31049532 0
-0.689641 -3.2647789 -0.31146017 0
-1.0692575 -5.0618935 -0.36168301 0
-1.6074448 -7.6096864 -0.36208391 0
-3.2187438 -15.237619 -0.36209938 0
-0.15718789 -0.84961253 -0.31450865 0
-0.1676954 -0.9064064 -0.31143525 0
-0.17732869 -0.95847505 -0.30424181 0
-0.198246 -1.0715346 -0.31249136 0
-0.21588439 -1.1668715 -0.31059641 0
-0.23788917 -1.285809 -0.30992636 0
-0.26449448 -1.4296126 -0.30903837 0
-0.30193749 -1.6319951 -0.31260443 0
-0.34474605 -1.8633785 -0.31144601 0
-0.40297455 -2.178108 -0.31129438 0
-0.48363635 -2.6140912 -0.31070226 0
-0.60602283 -3.2755995 -0.31093425 0
-0.93916184 -5.076241 -0.3608996 0
-1.4133363 -7.6391902 -0.36167526 0
-2.8311856 -15.302773 -0.36183438 0
-0.1337834 -0.84124804 -0.31006363 0
-0.14393154 -0.90506089 -0.30962616 0
-0.15647358 -0.98392689 -0.31096819 0
-0.17059107 -1.0726995 -0.31147626 0
-0.18624534 -1.1711358 -0.31038141 0
-0.20633937 -1.2974898 -0.31138739 0
-0.22999887 -1.4462638 -0.31128386 0
-0.25823143 -1.623794 -0.30968648 0
-0.29831004 -1.8758136 -0.3121666 0
-0.34755462 -2.1854701 -0.31099385 0
-0.41703311 -2.6223602 -0.31033528 0
-0.52262604 -3.2863431 -0.31060305 0
-0.81254852 -5.1094146 -0.36168486 0
-1.2182642 -7.6606097 -0.36111861 0
-2.4446104 -15.372038 -0.36189801 0
-0.12297866 -0.92287654 -0.31455898 0
-0.13201439 -0.99068403 -0.3119514 0
-0.14465727 -1.0855608 -0.31405059 0
-0.15825628 -1.1876127 -0.31358978 0
-0.1723543 -1.2934092 -0.30926564 0
-0.19289865 -1.4475815 -0.31042075 0
-0.2198851 -1.6500976 -0.31354478 0
-0.25174779 -1.8892069 -0.31323832 0
-0.29287124 -2.1978121 -0.31159905 0
-0.35210678 -2.6423373 -0.31154847 0
-0.44132906 -3.3118937 -0.31186587 0
-0.68324393 -5.1273108 -0.36161584 0
-1.027753 -7.7126322 -0.36223283 0
-2.055126 -15.422413 -0.36174762 0
-0.091704957 -0.8518433 -0.31186393 0
-0.10074112 -0.93577975 -0.31798908 0
-0.10740475 -0.99767798 -0.31320035 0
-0.11610749 -1.0785173 -0.31106609 0
-0.12729514 -1.182439 -0.3112762 0
-0.1394477 -1.2953235 -0.30878347 0
-0.15601066 -1.4491761 -0.30981964 0
-0.17741591 -1.6480085 -0.31219754 0
-0.20205255 -1.8768572 -0.31024635 0
-0.23662576 -2.1980062 -0.3106809 0
-0.28596279 -2.6562955 -0.31224385 0
-0.35705858 -3.3167014 -0.31137085 0
-0.55582047 -5.162992 -0.36302736 0
-0.83129275 -7.7218418 -0.36156482 0
-1.6632044 -15.449432 -0.36128172 0
-0.071049809 -0.86443293 -0.31571603 0
-0.076116517 -0.92607743 -0.31393933 0
-0.081678681 -0.99374992 -0.31122094 0
-0.090323023 -1.0989219 -0.31619301 0
-0.097858682 -1.1906052 -0.31267619 0
-0.10850111 -1.320087 -0.31393391 0
-0.11944521 -1.4532393 -0.30994511 0
-0.13612318 -1.6561531 -0.31298995 0
-0.15612181 -1.8994678 -0.31323281 0
-0.18061645 -2.197484 -0.30986404 0
-0.21897876 -2.6642218 -0.31242642 0
-0.27273959 -3.3183072 -0.31077638 0
-0.42368716 -5.1548223 -0.36158589 0
-0.63711506 -7.7515092 -0.36208573 0
-1.2749214 -15.511429 -0.36186379 0
-0.048908353 -0.86052507 -0.31373802 0
-0.052740265 -0.92794621 -0.31402159 0
-0.056449164 -0.99320292 -0.31050459 0
-0.0615656 -1.0832248 -0.31113032 0
-0.067653984 -1.1903478 -0.31206077 0
-0.074340649 -1.3079972 -0.31051371 0
-0.082081787 -1.4441999 -0.30747744 0
-0.081481211 -1.4336329 -0.27046195 0
-0.082225561 -1.4467295 -0.23815569 0
-0.082424 -1.4502211 -0.20413524 0
-0.08280538 -1.4569312 -0.17055117 0
-0.081363127 -1.4315554 -0.13383751 0
-0.29349381 -5.163919 -0.36158922 0
-0.44064185 -7.7529364 -0.36151776 0
-0.88291401 -15.534558 -0.36176831 0
-0.026890038 -0.85226655 -0.31038079 0
-0.029254861 -0.9272185 -0.31342566 0
-0.031745289 -1.0061513 -0.31420207 0
-0.034040287 -1.0788902 -0.30953994 0
-0.037504073 -1.1886733 -0.31127453 0
-0.041033439 -1.3005347 -0.30839807 0
-0.041689385 -1.3213247 -0.28100318 0
-0.041440815 -1.3134464 -0.24751203 0
-0.041904129 -1.3281308 -0.21838872 0
-0.042089686 -1.334012 -0.18756822 0
-0.041279893 -1.308346 -0.15298681 0
-0.041172102 -1.3049296 -0.12186319 0
-0.16324979 -5.1741219 -0.36189991 0
-0.24461399 -7.7529206 -0.36111414 0
-0.49103394 -15.563081 -0.36202863 0
-0.005893393 -0.93439567 -0.31570092 0
-0.0062657283 -0.9934293 -0.31008109 0
-0.0068936353 -1.0929838 -0.31343374 0
-0.0075091952 -1.1905806 -0.31162512 0
-0.0077575929 -1.229964 -0.29152426 0
-0.0077419356 -1.2274816 -0.26092112 0
-0.0076370081 -1.2108454 -0.22806846 0
-0.0077221524 -1.224345 -0.20122674 0
-0.007695613 -1.2201371 -0.17147498 0
-0.0077119423 -1.2227261 -0.14290689 0
-0.0076587792 -1.2142972 -0.11334517 0
-0.032723889 -5.1883631 -0.36272269 0
-0.048969496 -7.7640991 -0.36146215 0
-0.098124534 -15.557615 -0.3617287 0
0.01629653 -0.86093706 -0.31343859 0
0.017455023 -0.92213964 -0.31160963 0
0.018905856 -0.99878633 -0.31180283 0
0.020439846 -1.0798262 -0.30970988 0
0.02225971 -1.1759688 -0.30784959 0
0.022748372 -1.2017845 -0.28489053 0
0.022765435 -1.202686 -0.25569111 0
0.023080381 -1.2193244 -0.22970207 0
0.023197455 -1.2255094 -0.2014502 0
0.022907764 -1.2102051 -0.17010623 0
0.0228444 -1.2068577 -0.1410747 0
0.023087695 -1.2197108 -0.11386862 0
0.097942434 -5.1742473 -0.36179346 0
0.14723061 -7.7781157 -0.36217234 0
0.29439467 -15.552714 -0.36167234 0
0.037726071 -0.85374439 -0.31106758 0
0.041075602 -0.92954463 -0.31436214 0
0.044190649 -1.0000384 -0.31244242 0
0.048381433 -1.0948763 -0.31427661 0
0.05210169 -1.1790661 -0.30890629 0
0.053875063 -1.2191976 -0.28924865 0
0.053645775 -1.2140088 -0.25830397 0
0.053126946 -1.2022676 -0.22666927 0
0.053485721 -1.2103868 -0.19912283 0
0.053783461 -1.2171247 -0.17121512 0
0.053354468 -1.2074165 -0.14125246 0
0.053864378 -1.2189559 -0.11388879 0
0.22860771 -5.1734138 -0.36202332 0
0.34291962 -7.7603021 -0.36163074 0
0.68707269 -15.548517 -0.36186275 0
0.059410885 -0.85476547 -0.31188664 0
0.063902989 -0.91939497 -0.31137595 0
0.068447545 -0.98477912 -0.30811656 0
0.075115882 -1.0807189 -0.31065807 0
0.081933461 -1.1788058 -0.30928138 0
0.084903851 -1.2215418 -0.29022077 0
0.084862091 -1.2209411 -0.2601518 0
0.084715053 -1.2188255 -0.23012082 0
0.08452107 -1.2160345 -0.20033909 0
0.084800586 -1.2200561 -0.17187384 0
0.084837429 -1.2205862 -0.1429981 0
0.084368244 -1.2138358 -0.1135732 0
0.35857821 -5.1589918 -0.3615323 0
0.53671581 -7.7219205 -0.36035866 0
1.0793356 -15.528784 -0.36192223 0
0.081851698 -0.86240488 -0.3153275 0
0.087335899 -0.92018741 -0.31229138 0
0.093585022 -0.98602933 -0.30914828 0
0.10278752 -1.0829886 -0.31195694 0
0.11150775 -1.1748666 -0.3088879 0
0.11441208 -1.2054671 -0.28699633 0
0.11577032 -1.2197777 -0.26044357 0
0.114168 -1.2028954 -0.2275847 0
0.11543027 -1.216195 -0.20078155 0
0.11483486 -1.2099216 -0.17080006 0
0.11502553 -1.2119306 -0.14227886 0
0.1144445 -1.2058088 -0.1130564 0
0.48945791 -5.1570206 -0.36214453 0
0.73448271 -7.7386479 -0.36188909 0
1.4712194 -15.501044 -0.36202586 0
0.10198482 -0.84677917 -0.31045642 0
0.11076178 -0.91965425 -0.31295952 0
0.1192624 -0.99023485 -0.31131142 0
0.12962285 -1.0762575 -0.31086138 0
0.14256983 -1.1837561 -0.31207174 0
0.14674784 -1.2184463 -0.29087555 0
0.14423998 -1.1976234 -0.2564089 0
0.14498046 -1.2037717 -0.22837007 0
0.14765598 -1.2259865 -0.20294863 0
0.14621538 -1.2140253 -0.17184557 0
0.14466994 -1.2011933 -0.14140196 0
0.14551778 -1.208233 -0.11359188 0
0.61869287 -5.137002 -0.36172014 0
0.93018544 -7.7233224 -0.36215499 0
1.8614235 -15.455385 -0.36194146 0
0.12289945 -0.84107602 -0.30940416 0
0.1323151 -0.90551305 -0.30918524 0
0.14305158 -0.9789893 -0.30881277 0
0.15752424 -1.0780346 -0.31242353 0
0.16948798 -1.1599097 -0.30681518 0
0.17706172 -1.2117416 -0.29024935 0
0.17723536 -1.2129298 -0.26056072 0
0.17747609 -1.2145773 -0.23119619 0
0.17672206 -1.209417 -0.20088014 0
0.17604347 -1.2047729 -0.17111036 0
0.17809029 -1.2187806 -0.14395557 0
0.17527479 -1.1995124 -0.11315188 0
0.74979693 -5.1313181 -0.362537 0
1.1215636 -7.6755447 -0.36112699 0
2.2499967 -15.398101 -0.36181459 0
0.14410375 -0.8378368 -0.30945197 0
0.15685599 -0.91197985 -0.31264549 0
0.16769622 -0.97500634 -0.30879316 0
0.18502283 -1.0757453 -0.31301373 0
0.1997956 -1.161636 -0.30850741 0
0.20712368 -1.2042423 -0.28961301 0
0.20739543 -1.2058223 -0.26007551 0
0.20755151 -1.2067298 -0.23062609 0
0.20597647 -1.1975724 -0.19971265 0
0.21155028 -1.2299792 -0.17539279 0
0.20524612 -1.193326 -0.14151581 0
0.20839255 -1.2116197 -0.11475358 0
0.87742573 -5.10146 -0.36187682 0
1.3194579 -7.6714892 -0.36238757 0
2.6381395 -15.338465 -0.3618626 0
0.16653205 -0.84067208 -0.31195223 0
0.17876537 -0.90242726 -0.31081843 0
0.1952543 -0.98566508 -0.31362975 0
0.21061146 -1.0631897 -0.31080812 0
0.22896233 -1.1558269 -0.30840117 0
0.24297342 -1.2265564 -0.29635984 0
0.24009983 -1.2120503 -0.26264217 0
0.23792727 -1.2010829 -0.23062111 0
0.23848461 -1.2038965 -0.20170683 0
0.24112888 -1.217245 -0.17438923 0
0.24093917 -1.2162874 -0.14491378 0
0.23875588 -1.2052659 -0.11468601 0
1.0050732 -5.07372 -0.36159334 0
1.5093387 -7.6193075 -0.36160696 0
3.0231016 -15.260949 -0.36171874 0
0.18663512 -0.83150285 -0.31019893 0
0.2026054 -0.90265417 -0.31255829 0
0.21925879 -0.9768489 -0.31248581 0
0.23809567 -1.0607716 -0.31175867 0
0.25842643 -1.1513499 -0.30884856 0
0.26856941 -1.1965392 -0.29065233 0
0.27398473 -1.2206657 -0.26592284 0
0.27369815 -1.219389 -0.2353875 0
0.27017671 -1.2037001 -0.20275185 0
0.27023745 -1.2039707 -0.1734094 0
0.27233207 -1.2133027 -0.14533083 0
0.27085066 -1.2067027 -0.11543643 0
1.13471 -5.055397 -0.36221319 0
1.6980526 -7.5652194 -0.36095902 0
3.4090257 -15.188003 -0.36191383 0
0.2238405 -0.89138019 -0.31051186 0
0.24585405 -0.97904277 -0.31507224 0
0.26365972 -1.0499487 -0.31043473 0
0.29055336 -1.1570449 -0.31224394 0
0.30490813 -1.2142086 -0.29671928 0
0.30586421 -1.2180159 -0.26694229 0
0.30328545 -1.2077467 -0.23454306 0
0.29813218 -1.1872253 -0.20118022 0
0.29910561 -1.1911017 -0.17258821 0
0.30001804 -1.1947352 -0.14396794 0
0.30381411 -1.209852 -0.11643417 0
1.2601125 -5.0180345 -0.36169976 0
1.8942401 -7.5432644 -0.36207727 0
3.7903099 -15.093815 -0.36183378 0
0.22991098 -0.82666564 -0.31232846 0
0.24790157 -0.89135242 -0.31258219 0
0.26719227 -0.96071392 -0.31124482 0
0.29134491 -1.0475569 -0.31180236 0
0.31656396 -1.1382343 -0.30922532 0
0.33452761 -1.2028241 -0.29590628 0
0.33409604 -1.2012724 -0.26503637 0
0.33575872 -1.2072507 -0.23601724 0
0.33263993 -1.1960368 -0.20403104 0
0.33748797 -1.2134684 -0.17700695 0
0.33606008 -1.2083343 -0.14658205 0
0.33685496 -1.2111924 -0.117344 0
1.3873117 -4.988204 -0.36195815 0
2.0831525 -7.4901619 -0.36193678 0
4.1703663 -14.994927 -0.36187121 0
0.24863286 -0.8138504 -0.3097589 0
0.26623902 -0.87148064 -0.30787191 0
0.29365647 -0.96122622 -0.31371206 0
0.3165305 -1.0360998 -0.31067112 0
0.34259245 -1.1214083 -0.30690554 0
0.36800131 -1.2045792 -0.29852793 0
0.36884534 -1.207342 -0.26834399 0
0.36931473 -1.2088785 -0.23808195 0
0.37081993 -1.2138056 -0.20859231 0
0.36885732 -1.2073812 -0.17742051 0
0.37160119 -1.2163628 -0.1486464 0
0.3731038 -1.2212813 -0.11919582 0
1.5132322 -4.9532657 -0.36207896 0
2.2716408 -7.4357657 -0.36196345 0
4.542593 -14.869277 -0.36149067 0
0.26769653 -0.8031435 -0.30815718 0
0.29050806 -0.87158263 -0.31039935 0
0.31945699 -0.95843524 -0.31533217 0
0.34665915 -1.0400473 -0.31437811 0
0.3732067 -1.1196952 -0.30891618 0
0.41319278 -1.2396616 -0.30970812 0
0.46024904 -1.3808398 -0.30938891 0
0.51955467 -1.5587685 -0.30947486 0
0.60061264 -1.8019589 -0.31217203 0
0.6969592 -2.091018 -0.30975407 0
0.84320945 -2.529798 -0.3116571 0
1.057565 -3.1729078 -0.31217828 0
1.638628 -4.916214 -0.36227834 0
2.4505455 -7.3521299 -0.36078802 0
4.9228258 -14.769468 -0.3619695 0
0.29558331 -0.81745017 -0.31640813 0
0.31178883 -0.86226732 -0.30978569 0
0.34422731 -0.95197755 -0.31596535 0
0.36576819 -1.0115498 -0.30845636 0
0.40384412 -1.1168507 -0.31084451 0
0.44600514 -1.2334491 -0.31086937 0
0.49361068 -1.3651046 -0.30855641 0
0.56042713 -1.5498887 -0.31042126 0
0.65081346 -1.7998567 -0.31455329 0
0.75088441 -2.0766077 -0.31032801 0
0.90267324 -2.4963872 -0.31024894 0
1.1396326 -3.1517098 -0.31282297 0
1.7614095 -4.8712645 -0.36212668 0
2.6469388 -7.3202391 -0.36238599 0
5.2943063 -14.641664 -0.36199683 0
0.30939758 -0.79252714 -0.30968517 0
0.33331525 -0.85379261 -0.30966476 0
0.36470452 -0.93419677 -0.31301925 0
0.39711651 -1.0172206 -0.31314215 0
0.43399534 -1.1116863 -0.31235632 0
0.47698835 -1.2218137 -0.31087199 0
0.5309661 -1.3600786 -0.31035063 0
0.60256177 -1.5434722 -0.31208268 0
0.68823159 -1.7629168 -0.31103414 0
0.80450571 -2.060755 -0.31089431 0
0.96357876 -2.4682233 -0.30967259 0
1.2165493 -3.1162114 -0.31224775 0
1.8818878 -4.8204875 -0.36176762 0
2.8248317 -7.2358541 -0.3616229 0
5.6561117 -14.488226 -0.36161754 0
0.33440787 -0.79664785 -0.31449324 0
0.35797226 -0.85278445 -0.31247649 0
0.38670775 -0.92124003 -0.31184885 0
0.41825163 -0.99638587 -0.30987933 0
0.45959207 -1.0948697 -0.31079149 0
0.50837857 -1.211092 -0.31130955 0
0.56458712 -1.3449956 -0.31006172 0
0.6335175 -1.5092061 -0.30828902 0
0.73811692 -1.7583895 -0.31342238 0
0.8549521 -2.0367217 -0.3104251 0
1.0338223 -2.4628377 -0.31217116 0
1.293484 -3.0814207 -0.31193352 0
2.002718 -4.7710032 -0.36173216 0
3.0044382 -7.1573653 -0.36137488 0
6.0220828 -14.346191 -0.36175087 0
0.35058984 -0.77948189 -0.31111071 0
0.3794378 -0.8436209 -0.31252831 0
0.40984249 -0.91122097 -0.31185955 0
0.442543 -0.98392546 -0.30937928 0
0.4854326 -1.0792838 -0.30974644 0
0.53308523 -1.185232 -0.30802265 0
0.60047024 -1.3350521 -0.31116408 0
0.6761874 -1.5033975 -0.3104898 0
0.77879697 -1.7315338 -0.31203973 0
0.90450037 -2.0110157 -0.30988786 0
1.1016358 -2.4493158 -0.31388149 0
1.3716395 -3.0496268 -0.31212011 0
2.1244791 -4.7234483 -0.3620767 0
3.1866212 -7.0849566 -0.36166453 0
6.3860426 -14.198372 -0.36197242 0
0.36691949 -0.76367408 -0.30839938 0
0.40437889 -0.8416388 -0.31547454 0
0.42855075 -0.89194798 -0.30886689 0
0.47775948 -0.99436677 -0.31635314 0
0.51532859 -1.0725598 -0.31145027 0
0.57189673 -1.1902957 -0.31299016 0
0.6304611 -1.3121866 -0.30944493 0
0.71321875 -1.484431 -0.31019163 0
0.82285225 -1.7126127 -0.31227311 0
0.96207571 -2.0023801 -0.31219947 0
1.1523039 -2.3983045 -0.31097236 0
1.4481943 -3.0141447 -0.31213009 0
2.2359855 -4.6537848 -0.36094761 0
3.3620195 -6.9974132 -0.36141217 0
6.7434034 -14.03513 -0.36203441 0
0.41870248 -0.81791764 -0.31044528 0
0.45462278 -0.88808638 -0.31140387 0
0.49346042 -0.96395409 -0.31054094 0
0.54440564 -1.0634735 -0.31270206 0
0.59624517 -1.1647397 -0.31012848 0
0.66351163 -1.296142 -0.30951184 0
0.74697381 -1.4591818 -0.30875671 0
0.86211824 -1.6841116 -0.31094474 0
1.0081158 -1.9693116 -0.31091166 0
1.2175874 -2.3785055 -0.31229037 0
1.5228324 -2.9747887 -0.31193537 0
2.3534553 -4.5973754 -0.36106452 0
3.5425096 -6.9201427 -0.36192387 0
7.0897732 -13.849572 -0.36174852 0
0.40893224 -0.75146127 -0.31141174 0
0.44108376 -0.81054348 -0.3117725 0
0.47373921 -0.87055171 -0.30934945 0
0.51150137 -0.93994415 -0.30686724 0
0.56900358 -1.0456111 -0.31157336 0
0.63162416 -1.160684 -0.31319347 0
0.70907152 -1.3030027 -0.31532326 0
0.78600252 -1.4443724 -0.3097221 0
0.90977961 -1.6718274 -0.31281662 0
1.0629205 -1.9532418 -0.31251046 0
1.2762598 -2.345278 -0.31205758 0
1.5901314 -2.9220543 -0.31051514 0
2.4729364 -4.544313 -0.36168379 0
3.7144401 -6.8257222 -0.36177355 0
7.4447155 -13.680544 -0.36212602 0
0.42840129 -0.74201125 -0.31187704 0
0.46494728 -0.80531067 -0.31417343 0
0.49631739 -0.85964519 -0.30982646 0
0.54931432 -0.95143837 -0.31504577 0
0.59596419 -1.0322381 -0.31197119 0
0.65918356 -1.1417371 -0.31247073 0
0.7319079 -1.2676991 -0.31115115 0
0.83310997 -1.4429859 -0.31383368 0
0.94463569 -1.6361536 -0.31050381 0
1.1082213 -1.9194916 -0.31148654 0
1.3324074 -2.3077924 -0.31144521 0
1.6657783 -2.8852067 -0.31096816 0
2.5859179 -4.4789324 -0.36155954 0
3.8877537 -6.7337732 -0.3619855 0
7.7839556 -13.482179 -0.36196032 0
0.44349554 -0.7252571 -0.30944121 0
0.48719957 -0.79672718 -0.31552148 0
0.52386779 -0.85669148 -0.31342742 0
0.56314379 -0.92092031 -0.30954823 0
0.6126802 -1.0019282 -0.30738628 0
0.68296516 -1.1168666 -0.31028289 0
0.7662465 -1.2530582 -0.31220493 0
0.86048317 -1.4071653 -0.31066754 0
0.99665958 -1.6298574 -0.31398273 0
1.1603445 -1.8975345 -0.31257626 0
1.3883127 -2.2703354 -0.31101996 0
1.7512558 -2.8638635 -0.31333187 0
2.7088561 -4.4298468 -0.36300057 0
4.0593977 -6.6384144 -0.36225161 0
8.119256 -13.277582 -0.36185384 0
0.47044945 -0.72743756 -0.31533718 0
0.49921912 -0.77192301 -0.31058934 0
0.54429561 -0.84162295 -0.31284085 0
0.5882079 -0.90952283 -0.31060839 0
0.64441401 -0.99643213 -0.31059104 0
0.71160042 -1.1003199 -0.31057662 0
0.79244965 -1.2253338 -0.31018174 0
0.89134789 -1.3782563 -0.30915341 0
1.0227313 -1.5814093 -0.30952361 0
1.200955 -1.8569897 -0.31079152 0
1.4539722 -2.2482202 -0.31291786 0
1.8038806 -2.7892699 -0.31005311 0
2.815927 -4.3541574 -0.36250672 0
4.2157941 -6.5187173 -0.36141104 0
8.4430714 -13.05519 -0.36148533 0
0.48177835 -0.70527142 -0.31090045 0
0.5157373 -0.75498366 -0.30891266 0
0.56413889 -0.82583833 -0.31216663 0
0.6155709 -0.90112919 -0.31294805 0
0.66762322 -0.97732824 -0.30978987 0
0.73992401 -1.0831687 -0.31090772 0
0.82398605 -1.2062265 -0.31051046 0
0.92809176 -1.358626 -0.30990571 0
1.0784822 -1.5787811 -0.31423676 0
1.2515899 -1.8321923 -0.31182885 0
1.5013522 -2.1978171 -0.31107754 0
1.8817192 -2.7546334 -0.31138304 0
2.9216983 -4.2770505 -0.36211115 0
4.3815432 -6.4141054 -0.3616271 0
8.7798901 -12.852809 -0.36190212 0
0.49817511 -0.69116443 -0.31012568 0
0.53921998 -0.74810976 -0.31156936 0
0.58270818 -0.80844504 -0.31105214 0
0.63197088 -0.87679172 -0.30993661 0
0.69976014 -0.970842 -0.31323236 0
0.75833148 -1.0521035 -0.30738676 0
0.86086291 -1.1943548 -0.31294787 0
0.96750492 -1.3423091 -0.31165454 0
1.1043038 -1.5321029 -0.31039467 0
1.2918413 -1.7922909 -0.31048813 0
1.5533772 -2.1551437 -0.31048787 0
1.9568534 -2.7149239 -0.31237775 0
3.0164573 -4.1850104 -0.36064953 0
4.5442815 -6.3047023 -0.36181012 0
9.0976591 -12.622025 -0.36175403 0
0.5157789 -0.67880082 -0.31032038 0
0.55549514 -0.73107022 -0.31021309 0
0.60409671 -0.79503328 -0.31165895 0
0.64750415 -0.85216045 -0.30690885 0
0.72722965 -0.95708477 -0.31461543 0
0.7912398 -1.0413265 -0.30997396 0
0.88852906 -1.169366 -0.31217685 0
0.99635112 -1.3112674 -0.3101871 0
1.1428188 -1.504029 -0.31045175 0
1.3372772 -1.7599498 -0.31063354 0
1.6127307 -2.1224658 -0.3115449 0
2.3457623 -3.0871863 -0.36190689 0
3.1383536 -4.1302915 -0.36264446 0
4.7001586 -6.1857352 -0.36167547 0
9.416502 -12.392771 -0.3618798 0
0.53286558 -0.66572618 -0.31039268 0
0.57515526 -0.71856004 -0.31096533 0
0.62659121 -0.78282058 -0.31297126 0
0.68670243 -0.85791951 -0.31512472 0
0.73974752 -0.92419046 -0.3098411 0
0.83592421 -1.0443472 -0.31705239 0
0.90073389 -1.1253159 -0.30638859 0
1.0282941 -1.284681 -0.30993861 0
1.185058 -1.4805313 -0.31167603 0
1.3842659 -1.7294081 -0.31131029 0
1.6700842 -2.0864902 -0.31235191 0
2.4272449 -3.0324354 -0.36255464 0
3.2438791 -4.0526829 -0.36290327 0
4.8554192 -6.0660324 -0.36172649 0
9.7205467 -12.144193 -0.36166999 0
0.5547297 -0.65828395 -0.3133508 0
0.5930624 -0.70377243 -0.31094453 0
0.64539832 -0.76587814 -0.31261054 0
0.70179302 -0.83280033 -0.31230471 0
0.76855189 -0.9120214 -0.31216505 0
0.85126877 -1.0101795 -0.31310242 0
0.93791884 -1.1130049 -0.30938336 0
1.0567012 -1.253961 -0.30886319 0
1.2153479 -1.4422232 -0.30997023 0
1.4377149 -1.7061006 -0.31354678 0
1.7180047 -2.0387135 -0.31159163 0
2.4920042 -2.9571996 -0.3609643 0
3.3398867 -3.9633605 -0.36233774 0
5.0120869 -5.9477191 -0.36209941 0
10.025022 -11.896444 -0.36171183 0
0.56914335 -0.64180142 -0.31224319 0
0.61455446 -0.69300973 -0.31294265 0
0.66331607 -0.74799639 -0.31204569 0
0.72651368 -0.81926191 -0.314004 0
0.7851193 -0.88534927 -0.30971959 0
0.87616783 -0.98802125 -0.31298891 0
0.96510565 -1.0883131 -0.30919218 0
1.0890508 -1.2280812 -0.3091605 0
1.2551186 -1.4153497 -0.31090385 0
1.4806902 -1.6697183 -0.31362861 0
1.7727207 -1.99903 -0.31226525 0
2.5694585 -2.897481 -0.36147562 0
3.4283781 -3.8660519 -0.3612372 0
5.1499295 -5.8073802 -0.36135361 0
10.32885 -11.647452 -0.36195225 0
0.58080071 -0.62256908 -0.30991948 0
0.64369428 -0.68998569 -0.31881186 0
0.67549992 -0.72407866 -0.30908179 0
0.74439961 -0.79793328 -0.31293055 0
0.80793601 -0.86603892 -0.30999908 0
0.89392602 -0.95821291 -0.31059444 0
1.0017295 -1.073769 -0.31214365 0
1.1256149 -1.2065637 -0.31079653 0
1.2866521 -1.379182 -0.30999368 0
1.5121105 -1.6208543 -0.31151965 0
1.8165296 -1.9471657 -0.31122625 0
2.6469564 -2.8373129 -0.36218849 0
3.5258751 -3.7794392 -0.36134422 0
5.3038244 -5.6852503 -0.3619684 0
10.609771 -11.372775 -0.36162275 0
0.60066104 -0.61213678 -0.31217358 0
0.65034211 -0.66276705 -0.31371963 0
0.6997866 -0.71315622 -0.31185931 0
0.76536977 -0.77999234 -0.3133705 0
0.83713049 -0.85312408 -0.31283948 0
0.91561711 -0.93311024 -0.30984962 0
1.0201334 -1.0396233 -0.3096036 0
1.1648428 -1.1870974 -0.31325543 0
1.3163304 -1.3414793 -0.30888841 0
1.5521752 -1.5818299 -0.31144947 0
1.8617313 -1.8973001 -0.31066743 0
2.7093656 -2.7611287 -0.36107746 0
3.6276832 -3.6969912 -0.36210001 0
5.4298353 -5.5335736 -0.36092183 0
10.902743 -11.111043 -0.3619349 0
0.64978296 -0.62960315 -0.30568707 0
0.72443765 -0.7019394 -0.31484953 0
0.7843492 -0.75999033 -0.31318808 0
0.85606986 -0.82948363 -0.31199422 0
0.94777799 -0.91834366 -0.31278983 0
1.0587573 -1.0258763 -0.31336778 0
1.1835017 -1.1467466 -0.31039098 0
1.368345 -1.3258494 -0.31314194 0
1.6027267 -1.5529522 -0.31362835 0
1.9124212 -1.8530288 -0.31122267 0
2.7860951 -2.6995697 -0.36210763 0
3.7170308 -3.6015942 -0.36182973 0
5.5774755 -5.4042602 -0.36155394 0
11.173143 -10.826149 -0.36172542 0
0.63205123 -0.58223122 -0.31280467 0
0.68110871 -0.62742186 -0.31287473 0
0.72929633 -0.67181122 -0.30949339 0
0.80327898 -0.73996234 -0.31318969 0
0.87184101 -0.80312014 -0.31025586 0
0.97739559 -0.90035462 -0.31496456 0
1.0788895 -0.99384844 -0.31180295 0
1.201928 -1.1071887 -0.30779672 0
1.388833 -1.2793614 -0.31034231 0
1.6280618 -1.4997334 -0.31107992 0
1.9632605 -1.8085109 -0.31196862 0
2.8503807 -2.6257057 -0.36173448 0
3.8017244 -3.5020621 -0.36135498 0
5.7148976 -5.2644339 -0.36173391 0
11.449395 -10.546923 -0.36193576 0
0.64303809 -0.56303215 -0.31111026 0
0.69643593 -0.60978633 -0.31274611 0
0.74573344 -0.65295029 -0.30937675 0
0.81219518 -0.71114296 -0.30956951 0
0.88953841 -0.77886319 -0.30945969 0
0.97366846 -0.85252595 -0.306732 0
1.1057503 -0.9681744 -0.31240436 0
1.2385229 -1.0844275 -0.31006038 0
1.425264 -1.2479346 -0.31134579 0
1.6748356 -1.4664547 -0.31284556 0
2.3267026 -2.0372174 -0.36143529 0
2.9144256 -2.5518167 -0.36157361 0
3.880779 -3.3979378 -0.36060274 0
5.851666 -5.1236095 -0.36209038 0
11.709393 -10.252525 -0.36185953 0
0.65314764 -0.54339081 -0.30926758 0
0.70469272 -0.58627409 -0.3097105 0
0.77307409 -0.64316446 -0.313885 0
0.83806723 -0.69723594 -0.3126238 0
0.90874064 -0.75603318 -0.30940315 0
1.0027707 -0.83426213 -0.30916834 0
1.1422594 -0.95031077 -0.31584218 0
1.2573977 -1.0461009 -0.30807772 0
1.450743 -1.2069559 -0.31015837 0
1.7116268 -1.424 -0.31290486 0
2.3746643 -1.9756188 -0.36102504 0
2.9867208 -2.4848235 -0.36264673 0
3.9793289 -3.3106308 -0.36188063 0
5.9714575 -4.9679961 -0.36162898 0
11.958055 -9.9485893 -0.3616693 0
0.67687905 -0.5348205 -0.31401297 0
0.72622347 -0.57380885 -0.31270865 0
0.77863234 -0.61521852 -0.30973861 0
0.84456837 -0.66731638 -0.3086679 0
0.92709899 -0.73252606 -0.30926043 0
1.0188568 -0.80502635 -0.30776554 0
1.1587806 -0.91558391 -0.31392077 0
1.2920361 -1.0208727 -0.31015283 0
1.4852644 -1.1735477 -0.31110737 0
1.7311099 -1.3677969 -0.31005687 0
2.4182963 -1.9107616 -0.36021191 0
3.0379133 -2.4003377 -0.36139157 0
4.0591226 -3.2072229 -0.36166057 0
6.0967402 -4.8171997 -0.36173791 0
12.209873 -9.6473522 -0.36180592 0
0.67735368 -0.5079698 -0.30818737 0
0.73222584 -0.54912031 -0.30922705 0
0.80287403 -0.60210168 -0.31323707 0
0.8680172 -0.65095466 -0.31113419 0
0.95637423 -0.71721655 -0.312888 0
1.0595136 -0.79456413 -0.31388909 0
1.1684836 -0.87628436 -0.31045902 0
1.3238337 -0.99278647 -0.31167167 0
1.5148727 -1.1360528 -0.3112042 0
1.7707212 -1.3279222 -0.31104964 0
2.4719002 -1.8537595 -0.36111233 0
3.0955727 -2.3214719 -0.36116564 0
4.1397643 -3.1045456 -0.36174902 0
6.2143683 -4.6603594 -0.36162305 0
12.454576 -9.3400974 -0.36195645 0
0.70001972 -0.49787644 -0.31268322 0
0.74989599 -0.53335005 -0.31090552 0
0.81479895 -0.57951111 -0.31208372 0
0.88418919 -0.62886369 -0.31114268 0
0.96652603 -0.68742424 -0.31043419 0
1.0690067 -0.76031178 -0.31091744 0
1.1896993 -0.84615231 -0.31032291 0
1.3254316 -0.94268948 -0.30634883 0
1.5523589 -1.1040874 -0.31308079 0
1.8085132 -1.2862725 -0.31188619 0
2.5220244 -1.7937444 -0.3617059 0
3.1545317 -2.2436039 -0.36132273 0
4.2173924 -2.9995446 -0.36180183 0
6.3340402 -4.504972 -0.36185527 0
12.670511 -9.0116739 -0.36150676 0
0.70496124 -0.47507063 -0.30943614 0
0.7704764 -0.51922101 -0.313905 0
0.81460565 -0.54895955 -0.30660528 0
0.90591151 -0.6104902 -0.31326488 0
0.99551731 -0.67087519 -0.31420735 0
1.09433 -0.73746467 -0.31276953 0
1.2110419 -0.81611645 -0.31041831 0
1.3707445 -0.92373931 -0.31133425 0
1.575462 -1.0616976 -0.31223652 0
1.8286774 -1.2323385 -0.30990106 0
2.5678115 -1.7304381 -0.36189365 0
3.2083023 -2.1620624 -0.36111638 0
4.300662 -2.8981991 -0.3625547 0
6.4422798 -4.3414268 -0.36166391 0
12.903206 -8.6954193 -0.36176905 0
0.71562976 -0.45643502 -0.30896401 0
0.75939924 -0.48435158 -0.30431458 0
0.84898931 -0.54149294 -0.31430271 0
0.91645586 -0.58452368 -0.3117103 0
1.023404 -0.65273619 -0.31770813 0
1.102787 -0.70336735 -0.31001413 0
1.2292997 -0.78405821 -0.30992711 0
1.3993542 -0.89252061 -0.31261641 0
1.5846614 -1.0107111 -0.30890572 0
1.872528 -1.194315 -0.31212458 0
2.6154397 -1.6681507 -0.36255693 0
3.2644689 -2.0821073 -0.36140832 0
4.3701334 -2.7873099 -0.36236534 0
6.5613542 -4.1848898 -0.3623037 0
13.123733 -8.3704329 -0.36191356 0
0.73418599 -0.44261515 -0.31205305 0
0.78686655 -0.47437444 -0.31042489 0
0.85731858 -0.51684749 -0.3124575 0
0.92711592 -0.55892587 -0.31043914 0
1.0189486 -0.61428857 -0.31141269 0
1.1310441 -0.68186706 -0.31302008 0
1.2464674 -0.75145173 -0.30937526 0
1.4188378 -0.8553679 -0.31204677 0
1.6273826 -0.98109233 -0.31230721 0
1.8871965 -1.137725 -0.3096846 0
2.6596439 -1.6034065 -0.36295921 0
3.3200748 -2.0015574 -0.36185643 0
4.4415917 -2.677681 -0.36257133 0
6.6515832 -4.0100079 -0.36158231 0
13.328554 -8.0353212 -0.36185399 0
0.73715889 -0.41942048 -0.30871901 0
0.79312897 -0.45126569 -0.30830401 0
0.88127196 -0.50141633 -0.31647441 0
0.94819194 -0.53949171 -0.31283736 0
1.0400711 -0.59176815 -0.31320381 0
1.1407702 -0.64906275 -0.31107908 0
1.2676537 -0.72125548 -0.31001678 0
1.4423978 -0.82067949 -0.31257334 0
1.6325517 -0.9288711 -0.30870184 0
1.9207381 -1.0928402 -0.31056362 0
2.6896718 -1.5303395 -0.36167091 0
3.3636186 -1.9137943 -0.36122277 0
4.4907312 -2.5550864 -0.36120337 0
6.7653117 -3.8492517 -0.36236805 0
13.535517 -7.7012877 -0.36208048 0
0.76559126 -0.41038167 -0.31618795 0
0.80627662 -0.43219033 -0.30907616 0
0.87748444 -0.47036004 -0.31075218 0
0.96479797 -0.51716292 -0.31390977 0
1.0518323 -0.56381613 -0.31236085 0
1.1695858 -0.62693584 -0.31452185 0
1.288219 -0.69052702 -0.31068507 0
1.4445405 -0.77432042 -0.30870432 0
1.6828294 -0.90205091 -0.31380397 0
1.950394 -1.0454743 -0.31099319 0
2.7282534 -1.462432 -0.36178043 0
3.4180644 -1.832193 -0.36198843 0
4.5758772 -2.4528182 -0.362957 0
6.8467269 -3.6700671 -0.36165226 0
13.718171 -7.3533831 -0.36188665 0
0.77038735 -0.38825601 -0.31402168 0
0.84175265 -0.42422235 -0.31846967 0
0.88484377 -0.44593921 -0.30927405 0
0.97530812 -0.49153098 -0.31319326 0
1.0634357 -0.53594506 -0.31169039 0
1.1690862 -0.5891903 -0.31028971 0
1.3144099 -0.66242981 -0.31286979 0
1.4759721 -0.74385309 -0.31131008 0
1.7016435 -0.85758591 -0.31317642 0
1.9896246 -1.0027212 -0.31311351 0
2.7692461 -1.3956311 -0.36242995 0
3.4554293 -1.7414502 -0.36117575 0
4.6240301 -2.3303959 -0.36199585 0
6.9466043 -3.5009155 -0.3621453 0
13.882697 -6.9965334 -0.36145341 0
0.83822 -0.39624596 -0.31324962 0
0.90907985 -0.42974305 -0.31385416 0
0.97944176 -0.46300474 -0.31066918 0
1.080206 -0.51063836 -0.31272873 0
1.1782079 -0.55696607 -0.30888137 0
1.3208522 -0.62439734 -0.31055319 0
1.4985635 -0.70840561 -0.31220454 0
1.7043295 -0.80567592 -0.30982968 0
2.3270121 -1.1000323 -0.36172476 0
2.7915404 -1.3196256 -0.36087382 0
3.5078726 -1.6582525 -0.36216739 0
4.6899233 -2.2170351 -0.36265832 0
7.0252705 -3.3210077 -0.36176148 0
14.082239 -6.6569996 -0.36215889 0
0.77650666 -0.34337753 -0.30905232 0
0.84227389 -0.37246031 -0.31115246 0
0.91524625 -0.40472928 -0.31235692 0
0.99830037 -0.4414565 -0.31301716 0
