# .PCD v0.7 - Point Cloud Data file format
VERSION 0.7
FIELDS x y z intensity
SIZE 4 4 4 4
TYPE F F F F
COUNT 1 1 1 1
WIDTH 1340
HEIGHT 1
VIEWPOINT 0 0 0 1 0 0 0
POINTS 1340
DATA ascii
-0.17582601 -0.83236504 -0.30966812 0
-0.18910281 -0.89521784 -0.30913237 0
-0.20821452 -0.98569316 -0.3144494 0
-0.22283182 -1.0548918 -0.30917948 0
-0.24841464 -1.1760015 -0.31459531 0
-0.27058095 -1.2809374 -0.3102994 0
-0.30214557 -1.4303652 -0.31075054 0
-0.34373096 -1.6272316 -0.313254 0
-0.38811371 -1.8373407 -0.30863297 0
-0.45545477 -2.1561351 -0.30969828 0
-0.5512923 -2.6098325 -0.31175062 0
-0.69157082 -3.2739148 -0.31233174 0
-1.0667666 -5.0501018 -0.36084047 0
-1.6038169 -7.5925121 -0.36126673 0
-3.2167408 -15.228137 -0.36187404 0
-0.15706442 -0.84894514 -0.31426162 0
-0.16747779 -0.90523022 -0.3110311 0
-0.1811534 -0.97914791 -0.31080386 0
-0.19711427 -1.0654176 -0.31070745 0
-0.21894883 -1.1834351 -0.31500527 0
-0.24017817 -1.2981813 -0.3129085 0
-0.2668716 -1.4424613 -0.31181583 0
-0.3014521 -1.6293714 -0.31210187 0
-0.34565249 -1.8682779 -0.31226489 0
-0.40333325 -2.1800468 -0.31157145 0
-0.48792249 -2.6372581 -0.31345582 0
-0.60692036 -3.2804506 -0.31139475 0
-0.94403487 -5.1025801 -0.3627722 0
-1.4109129 -7.626091 -0.36105511 0
-2.832931 -15.312208 -0.36205745 0
-0.13479078 -0.84758252 -0.31239837 0
-0.14456031 -0.9090147 -0.31097877 0
-0.15725541 -0.98884314 -0.31252196 0
-0.1685728 -1.0600084 -0.30779117 0
-0.18633112 -1.1716752 -0.31052437 0
-0.20640028 -1.2978728 -0.3114793 0
-0.23095506 -1.4522765 -0.31257799 0
-0.26222816 -1.6489259 -0.31447962 0
-0.2992202 -1.881537 -0.31311905 0
-0.34769285 -2.1863394 -0.31111756 0
-0.41965324 -2.6388359 -0.31228504 0
-0.52188534 -3.2816851 -0.31016284 0
-0.81254894 -5.109417 -0.36168504 0
-1.2213197 -7.6798224 -0.36202431 0
-2.4450979 -15.375104 -0.36197019 0
-0.11243088 -0.84372216 -0.30983096 0
-0.12208665 -0.91618258 -0.31227735 0
-0.12976773 -0.97382414 -0.30664247 0
-0.14327611 -1.075196 -0.31105208 0
-0.15715097 -1.179318 -0.31139958 0
-0.17211561 -1.2916181 -0.30883735 0
-0.19332685 -1.4507949 -0.31110981 0
-0.21959919 -1.6479521 -0.31313711 0
-0.25076342 -1.8818198 -0.31201351 0
-0.29262948 -2.195998 -0.31134182 0
-0.35034102 -2.6290865 -0.30998611 0
-0.44335589 -3.3271039 -0.31329814 0
-0.68431687 -5.1353626 -0.36218372 0
-1.0262514 -7.7013636 -0.36170357 0
-2.0560563 -15.429393 -0.36191136 0
-0.090835519 -0.84376717 -0.30890724 0
-0.098693773 -0.91676205 -0.31152666 0
-0.10782356 -1.0015682 -0.31442162 0
-0.11506893 -1.0688702 -0.30828366 0
-0.12683943 -1.1782058 -0.31016183 0
-0.14011022 -1.3014777 -0.31025055 0
-0.15669687 -1.4555503 -0.31118238 0
-0.17633575 -1.637975 -0.3102968 0
-0.20174548 -1.8740048 -0.30977485 0
-0.23761307 -2.2071774 -0.31197721 0
-0.28461859 -2.6438096 -0.31077614 0
-0.35705039 -3.3166254 -0.3113637 0
-0.55472571 -5.1528225 -0.36231232 0
-0.83289027 -7.736681 -0.36225963 0
-1.6666701 -15.481625 -0.36203453 0
-0.076187804 -0.92694473 -0.31423333 0
-0.083096817 -1.0110037 -0.31662449 0
-0.088799052 -1.0803804 -0.31085807 0
-0.098018751 -1.1925526 -0.31318763 0
-0.10724878 -1.3048505 -0.31031045 0
-0.1193025 -1.451503 -0.30957478 0
-0.13542786 -1.6476934 -0.31139117 0
-0.15555586 -1.8925823 -0.31209734 0
-0.18093942 -2.2014134 -0.31041813 0
-0.21739708 -2.644978 -0.31016976 0
-0.27301902 -3.3217065 -0.31109476 0
-0.42243472 -5.1395841 -0.36051702 0
-0.63624269 -7.7408953 -0.36158994 0
-1.274087 -15.501276 -0.36162692 0
-0.047990527 -0.84437627 -0.30785033 0
-0.052500449 -0.92372674 -0.31259373 0
-0.057190493 -1.0062463 -0.31458232 0
-0.061187427 -1.076571 -0.30921915 0
-0.066988662 -1.1786417 -0.30899191 0
-0.075002387 -1.3196404 -0.31327775 0
-0.082390115 -1.4496248 -0.3086324 0
-0.082045428 -1.4435602 -0.27233478 0
-0.081491254 -1.4338096 -0.23602885 0
-0.081412598 -1.4324257 -0.20163035 0
-0.081818804 -1.4395728 -0.16851915 0
-0.082112156 -1.4447342 -0.13506961 0
-0.29422069 -5.1767082 -0.36248475 0
-0.44092873 -7.7579846 -0.36175317 0
-0.88297004 -15.535543 -0.36179125 0
-0.027114645 -0.85938543 -0.31297332 0
-0.028740494 -0.91091585 -0.30791491 0
-0.031443108 -0.99657393 -0.31121123 0
-0.034200005 -1.0839524 -0.31099233 0
-0.037920609 -1.2018752 -0.31473169 0
-0.041272238 -1.3081034 -0.31019285 0
-0.041692927 -1.321437 -0.28102705 0
-0.041479714 -1.3146793 -0.24774435 0
-0.041904975 -1.3281577 -0.21839313 0
-0.041772846 -1.3239698 -0.18615624 0
-0.041872669 -1.3271338 -0.15518369 0
-0.041388094 -1.3117753 -0.12250249 0
-0.16331635 -5.1762319 -0.36204746 0
-0.24542665 -7.7786775 -0.36231387 0
-0.49109799 -15.56511 -0.36207587 0
-0.0054132463 -0.85826856 -0.31241736 0
-0.0058455234 -0.92680597 -0.31313661 0
-0.0063625961 -1.0087878 -0.31487495 0
-0.0069012661 -1.0941937 -0.3137807 0
-0.0074762362 -1.1853551 -0.31025738 0
-0.0077021713 -1.221177 -0.28944156 0
-0.0077364403 -1.2266103 -0.26073593 0
-0.0077237883 -1.2246044 -0.23066002 0
-0.0077717663 -1.2322112 -0.20251961 0
-0.007696298 -1.2202457 -0.17149024 0
-0.0076715378 -1.21632 -0.14215817 0
-0.0076676635 -1.2157058 -0.11347665 0
-0.032641537 -5.1753058 -0.36180988 0
-0.048947055 -7.760541 -0.36129647 0
-0.098169029 -15.56467 -0.36189273 0
0.017815381 -0.94117719 -0.31804281 0
0.018697109 -0.98775846 -0.30836013 0
0.020605247 -1.0885643 -0.3122161 0
0.022489373 -1.1881016 -0.3110258 0
0.022897245 -1.2096494 -0.28675497 0
0.023056056 -1.2180393 -0.25895524 0
0.023207569 -1.2260437 -0.23096789 0
0.022819474 -1.2055408 -0.19816776 0
0.02289756 -1.209666 -0.17003046 0
0.023006519 -1.2154223 -0.14207587 0
0.022855852 -1.2074625 -0.11272516 0
0.09809716 -5.1824212 -0.36236501 0
0.14706638 -7.7694397 -0.36176836 0
0.29459813 -15.563464 -0.36192232 0
0.037668161 -0.85243392 -0.31059012 0
0.040416937 -0.914639 -0.30932122 0
0.044318166 -1.0029242 -0.313344 0
0.047995005 -1.0861313 -0.31176645 0
0.052290123 -1.1833303 -0.31002349 0
0.053436004 -1.2092617 -0.2868914 0
0.053222943 -1.2044401 -0.25626802 0
0.05352696 -1.2113199 -0.22837596 0
0.053797353 -1.2174391 -0.20028301 0
0.05323942 -1.2048129 -0.16948321 0
0.053548373 -1.2118045 -0.14176582 0
0.054158978 -1.2256227 -0.11451168 0
0.22830528 -5.1665692 -0.36154437 0
0.34373894 -7.7788439 -0.36249477 0
0.68700498 -15.546986 -0.36182711 0
0.060066104 -0.86419237 -0.31532633 0
0.064173974 -0.92329377 -0.31269637 0
0.06935209 -0.99779308 -0.31218836 0
0.075028181 -1.079457 -0.31029537 0
0.082220219 -1.1829314 -0.31036383 0
0.084267832 -1.2123911 -0.28804672 0
0.083444431 -1.2005447 -0.25580585 0
0.083519563 -1.2016256 -0.2268734 0
0.084011547 -1.2087039 -0.19913138 0
0.083748899 -1.2049251 -0.16974229 0
0.08285059 -1.1920009 -0.13964918 0
0.084393278 -1.2141961 -0.1136069 0
0.35912222 -5.1668186 -0.36208078 0
0.53896815 -7.7543259 -0.36187088 0
1.0794747 -15.530786 -0.36196887 0
0.081521787 -0.85892886 -0.31405652 0
0.088455655 -0.93198532 -0.31629536 0
0.094470143 -0.99535513 -0.31207219 0
0.10135028 -1.0678456 -0.30759493 0
0.11288752 -1.189404 -0.31270999 0
0.11404705 -1.2016212 -0.28608069 0
0.11469835 -1.2084833 -0.25803202 0
0.11475199 -1.2090485 -0.22874886 0
0.11464595 -1.2079313 -0.19941729 0
0.1138448 -1.1994902 -0.1693275 0
0.11500873 -1.2117535 -0.14225808 0
0.11496504 -1.2112931 -0.11357062 0
0.48913485 -5.1536164 -0.36190549 0
0.73583758 -7.7529225 -0.36255664 0
1.4711846 -15.500677 -0.36201727 0
0.10464367 -0.8688556 -0.31855035 0
0.11053939 -0.9178077 -0.31233114 0
0.1193073 -0.99060762 -0.31142864 0
0.13017437 -1.0808368 -0.31218407 0
0.14109297 -1.1714939 -0.30883905 0
0.14568242 -1.2096001 -0.28876373 0
0.1453456 -1.2068034 -0.2583743 0
0.14520702 -1.2056528 -0.22872694 0
0.14529096 -1.2063497 -0.19969799 0
0.14842865 -1.2324018 -0.17444679 0
0.14826992 -1.231084 -0.14492063 0
0.14636746 -1.2152879 -0.11425514 0
0.61717999 -5.1244407 -0.36083564 0
0.92932153 -7.7161498 -0.36181864 0
1.8598942 -15.442687 -0.36164406 0
0.13463427 -0.92138457 -0.31460452 0
0.14346282 -0.98180372 -0.30970055 0
0.15655102 -1.0713743 -0.31049332 0
0.17196354 -1.1768515 -0.31129655 0
0.17712174 -1.2121524 -0.29034775 0
0.17537066 -1.2001686 -0.25781935 0
0.17535485 -1.2000604 -0.22843286 0
0.17856826 -1.2220516 -0.2029787 0
0.17685901 -1.2103542 -0.17190304 0
0.18025348 -1.2335846 -0.14570415 0
0.17778547 -1.2166946 -0.1147727 0
0.74646676 -5.1085277 -0.36092681 0
1.1240608 -7.6926346 -0.36193103 0
2.2505257 -15.401722 -0.36189967 0
0.14517568 -0.84406912 -0.31175387 0
0.15645607 -0.90965462 -0.31184837 0
0.16860805 -0.98030782 -0.31047216 0
0.18341489 -1.0663965 -0.3102935 0
0.19851376 -1.1541833 -0.30652812 0
0.21050096 -1.2238783 -0.29433534 0
0.20782582 -1.2083248 -0.26061523 0
0.20720501 -1.2047153 -0.23024108 0
0.20891879 -1.2146794 -0.20256549 0
0.20910949 -1.215788 -0.17336917 0
0.20702249 -1.2036539 -0.14274059 0
0.20759235 -1.2069672 -0.11431295 0
0.87793475 -5.1044197 -0.36208677 0
1.3171006 -7.657784 -0.36174017 0
2.6368701 -15.331085 -0.36168852 0
0.16701737 -0.84312207 -0.31286135 0
0.17744648 -0.89576936 -0.30852529 0
0.19432144 -0.9809559 -0.31213132 0
0.21196719 -1.0700336 -0.31280881 0
0.23197961 -1.1710585 -0.31246528 0
0.24144448 -1.2188383 -0.29449499 0
0.23972797 -1.2101731 -0.2622354 0
0.23784907 -1.2006882 -0.23054533 0
0.24211214 -1.2222087 -0.20477495 0
0.24124414 -1.2178268 -0.17447259 0
0.24035226 -1.2133245 -0.14456078 0
0.24034545 -1.2132902 -0.11544956 0
1.0040002 -5.0683031 -0.36120731 0
1.509555 -7.620399 -0.36165878 0
3.0244994 -15.268004 -0.36188596 0
0.18712413 -0.83368152 -0.3110117 0
0.19893685 -0.88630998 -0.30689886 0
0.21671492 -0.96551538 -0.30886033 0
0.23884618 -1.0641153 -0.31274137 0
0.25789765 -1.148994 -0.3082166 0
0.27193606 -1.2115384 -0.29429582 0
0.27424818 -1.2218394 -0.26617852 0
0.26963836 -1.2013016 -0.23189595 0
0.27190599 -1.2114044 -0.20404957 0
0.27144086 -1.2093322 -0.17418163 0
0.27031931 -1.2043355 -0.14425671 0
0.27107498 -1.207702 -0.11553204 0
1.131508 -5.0411315 -0.36119109 0
1.7028941 -7.5867891 -0.36198816 0
3.4065387 -15.176923 -0.36164981 0
0.20967177 -0.83495724 -0.31336203 0
0.22233889 -0.88540041 -0.30842879 0
0.24254552 -0.96586746 -0.31083223 0
0.26394501 -1.0510849 -0.31077063 0
0.28925842 -1.1518881 -0.31085235 0
0.30497038 -1.2144566 -0.29677987 0
0.30408016 -1.2109114 -0.26538524 0
0.30348936 -1.2085588 -0.23470074 0
0.3028309 -1.2059367 -0.20435092 0
0.30506283 -1.2148247 -0.17602561 0
0.30481431 -1.213835 -0.1462695 0
0.30554384 -1.21674 -0.11709706 0
1.2634819 -5.0314512 -0.36266685 0
1.8942162 -7.543169 -0.36207268 0
3.7915225 -15.098643 -0.36194956 0
0.22693619 -0.81596947 -0.30828726 0
0.24808095 -0.8919974 -0.31280836 0
0.26688576 -0.95961177 -0.31088778 0
0.29170194 -1.0488405 -0.31218445 0
0.31160703 -1.1204112 -0.30438328 0
0.3401871 -1.2231734 -0.30091238 0
0.33943757 -1.2204784 -0.26927379 0
0.33231094 -1.1948539 -0.23359369 0
0.33559793 -1.2066725 -0.20584537 0
0.33584362 -1.207556 -0.17614451 0
0.33768794 -1.2141874 -0.14729208 0
0.33483189 -1.2039182 -0.11663926 0
1.3915646 -5.0034957 -0.36306775 0
2.0820701 -7.4862704 -0.36174873 0
4.1688833 -14.989595 -0.36174256 0
0.24770389 -0.81080955 -0.30860153 0
0.26907095 -0.88075036 -0.31114668 0
0.29404166 -0.9624871 -0.31412357 0
0.32371181 -1.0596064 -0.31771952 0
0.34896708 -1.1422745 -0.31261617 0
0.36885208 -1.2073641 -0.29921809 0
0.37103593 -1.2145125 -0.26993769 0
0.3714121 -1.2157439 -0.23943403 0
0.37095267 -1.21424 -0.20866697 0
0.36804074 -1.2047085 -0.17702773 0
0.36899412 -1.207829 -0.14760351 0
0.36679494 -1.2006305 -0.11718033 0
1.5119092 -4.948935 -0.3617624 0
2.2679763 -7.4237709 -0.36137956 0
4.5470948 -14.884013 -0.36184889 0
0.26969847 -0.80914968 -0.31046167 0
0.29403529 -0.88216507 -0.3141681 0
0.31631264 -0.94900161 -0.31222844 0
0.34528011 -1.0359098 -0.31312749 0
0.36953115 -1.1086679 -0.30587381 0
0.40956885 -1.2287891 -0.30699182 0
0.46615303 -1.398553 -0.31335771 0
0.525204 -1.5757177 -0.3128399 0
0.60155559 -1.8047879 -0.31266212 0
0.69529116 -2.0860136 -0.30901274 0
0.84723496 -2.5418756 -0.31314495 0
1.0555441 -3.1668448 -0.31158176 0
1.637404 -4.9125419 -0.36200771 0
2.4580338 -7.3745961 -0.36189049 0
4.9255295 -14.777579 -0.36216828 0
0.29037884 -0.8030569 -0.31083697 0
0.31519529 -0.87168801 -0.31317025 0
0.33528703 -0.92725277 -0.30775908 0
0.37075493 -1.0253409 -0.31266174 0
0.40658516 -1.1244313 -0.31295431 0
0.4432103 -1.2257198 -0.30892134 0
0.49616414 -1.3721663 -0.31015259 0
0.5641675 -1.5602329 -0.31249306 0
0.64467692 -1.7828857 -0.31158733 0
0.74848253 -2.0699651 -0.30933532 0
0.90181112 -2.4940031 -0.30995262 0
1.1333833 -3.1344271 -0.31110761 0
1.7614584 -4.8713994 -0.36213669 0
2.645129 -7.3152337 -0.36213821 0
5.2878304 -14.623754 -0.36155403 0
0.33449042 -0.85680288 -0.31075656 0
0.36673009 -0.93938535 -0.31475776 0
0.39232582 -1.0049492 -0.30936453 0
0.43794599 -1.121806 -0.31519967 0
0.47288159 -1.2112942 -0.30819547 0
0.53512394 -1.3707291 -0.31278089 0
0.60606474 -1.5524451 -0.31389695 0
0.68913019 -1.7652187 -0.31144029 0
0.80328912 -2.0576386 -0.31042421 0
0.9688893 -2.4818263 -0.31137925 0
1.2167881 -3.1168232 -0.31230903 0
1.8865284 -4.8323741 -0.36265969 0
2.8218913 -7.228322 -0.36124647 0
5.6541991 -14.483326 -0.36149526 0
0.32808322 -0.78158087 -0.30854526 0
0.364342 -0.8679589 -0.31803668 0
0.37984291 -0.90488613 -0.30631289 0
0.41981518 -1.0001106 -0.31103775 0
0.4624452 -1.1016666 -0.31272087 0
0.50973397 -1.2143209 -0.31213954 0
0.5634408 -1.3422648 -0.30943218 0
0.63728637 -1.5181844 -0.31012309 0
0.73460984 -1.7500348 -0.31193322 0
0.85534978 -2.0376692 -0.31056949 0
1.0349493 -2.4655228 -0.31251147 0
1.2917383 -3.0772619 -0.31151253 0
2.0038769 -4.7737641 -0.36194149 0
3.0113211 -7.1737618 -0.36220273 0
6.0202889 -14.341918 -0.36164311 0
0.34717065 -0.77187991 -0.30807656 0
0.37667653 -0.83748162 -0.31025395 0
0.41095787 -0.91370088 -0.31270826 0
0.4444401 -0.98814338 -0.31070554 0
0.4937312 -1.0977345 -0.31504163 0
0.53375554 -1.1867224 -0.30840996 0
0.5942266 -1.3211703 -0.30792862 0
0.67947888 -1.5107156 -0.31200117 0
0.77326208 -1.7192279 -0.30982208 0
0.906156 -2.0146968 -0.31045511 0
1.099388 -2.4443181 -0.31324103 0
1.3719665 -3.050354 -0.3121945 0
2.1176074 -4.7081699 -0.36090553 0
3.1852047 -7.0818067 -0.36150375 0
6.3867855 -14.200024 -0.36201453 0
0.36989337 -0.76986367 -0.31089896 0
0.39896923 -0.83037966 -0.3112542 0
0.43459538 -0.90452874 -0.31322339 0
0.47396576 -0.98647082 -0.31384107 0
0.51347721 -1.0687065 -0.31033134 0
0.56570148 -1.1774015 -0.30959961 0
0.64004385 -1.3321313 -0.31414837 0
0.72155601 -1.5017835 -0.31381765 0
0.81707275 -1.7005837 -0.31007975 0
0.95762664 -1.9931203 -0.3107557 0
1.161707 -2.4178753 -0.31350997 0
1.4442009 -3.0058334 -0.3112694 0
2.241641 -4.6655555 -0.36186057 0
3.3599811 -6.9931703 -0.36119303 0
6.7392731 -14.026533 -0.36181268 0
0.38755187 -0.75706619 -0.30958238 0
0.42146242 -0.82330906 -0.31249163 0
0.45611021 -0.89099205 -0.31242272 0
0.4886542 -0.95456535 -0.30751631 0
0.53977931 -1.0544361 -0.31004474 0
0.59136629 -1.1552092 -0.30759081 0
0.66622186 -1.3014363 -0.31077611 0
0.75684577 -1.4784663 -0.31283721 0
0.85907143 -1.6781597 -0.30984583 0
1.0154765 -1.9836904 -0.31318176 0
1.2062653 -2.3563883 -0.30938643 0
1.5200319 -2.9693182 -0.3113617 0
2.3507261 -4.5920444 -0.3606458 0
3.5426884 -6.9204922 -0.36194214 0
7.091064 -13.852094 -0.36181438 0
0.4069193 -0.74776226 -0.30987883 0
0.44199327 -0.81221479 -0.31241536 0
0.48142001 -0.88466609 -0.314365 0
0.51817179 -0.95220178 -0.31086904 0
0.56784451 -1.0434812 -0.31093869 0
0.62534678 -1.1491485 -0.31008083 0
0.70130038 -1.2887222 -0.31186742 0
0.78920329 -1.4502542 -0.31098333 0
0.90484369 -1.662757 -0.31111947 0
1.0569372 -1.942247 -0.31075135 0
1.2717438 -2.3369794 -0.31095338 0
1.5980525 -2.93661 -0.31206191 0
2.4803979 -4.5580239 -0.36277509 0
3.71088 -6.81918 -0.3614268 0
7.43297 -13.658959 -0.36155471 0
0.42952693 -0.74396092 -0.31269649 0
0.46236449 -0.80083716 -0.31242818 0
0.48904911 -0.84705615 -0.30528924 0
0.54123998 -0.93745315 -0.31041491 0
0.58866423 -1.0195942 -0.30814987 0
0.65170503 -1.1287839 -0.30892569 0
0.73318356 -1.2699085 -0.31169343 0
0.82562006 -1.4300129 -0.31101221 0
0.94747633 -1.6410738 -0.31143755 0
1.105639 -1.9150189 -0.31076074 0
1.3339047 -2.3103862 -0.31179523 0
1.6757336 -2.9024496 -0.3128266 0
2.5849488 -4.4772534 -0.36142403 0
3.8850067 -6.7290154 -0.36172974 0
7.7820907 -13.478949 -0.3618736 0
0.44712994 -0.73120052 -0.31197706 0
0.48475093 -0.79272288 -0.31393567 0
0.51318061 -0.83921444 -0.30703333 0
0.57030612 -0.93263298 -0.31348521 0
0.61423594 -1.0044724 -0.3081668 0
0.68514138 -1.1204253 -0.31127158 0
0.76502252 -1.2510566 -0.31170622 0
0.86288756 -1.4110973 -0.31153563 0
0.99705911 -1.6305107 -0.31410858 0
1.1566753 -1.8915343 -0.3115879 0
1.3893815 -2.2720833 -0.31125939 0
1.7448901 -2.8534536 -0.31219295 0
2.7003508 -4.4159374 -0.36186081 0
4.0476441 -6.6191931 -0.36120272 0
8.1205034 -13.279621 -0.36190939 0
0.46029046 -0.71172911 -0.30852774 0
0.50628859 -0.78285426 -0.31498763 0
0.53774834 -0.83149916 -0.30907771 0
0.58930218 -0.91121489 -0.31118625 0
0.64717406 -1.0006999 -0.31192133 0
0.71444064 -1.1047115 -0.31181625 0
0.79498231 -1.22925 -0.31117308 0
0.90352207 -1.3970808 -0.31337589 0
1.0252279 -1.5852697 -0.31027919 0
1.2065057 -1.8655725 -0.31222793 0
1.4397331 -2.226203 -0.30985337 0
1.8106394 -2.7997205 -0.31121483 0
2.8106205 -4.3459525 -0.36182362 0
4.2177391 -6.5217252 -0.36157781 0
8.4491119 -13.064531 -0.36174399 0
0.47859234 -0.70060742 -0.30884445 0
0.52262098 -0.76506054 -0.31303579 0
0.56401855 -0.82566208 -0.31210002 0
0.61647987 -0.90245986 -0.31341016 0
0.67345655 -0.98586756 -0.31249663 0
0.74273562 -1.0872846 -0.31208915 0
0.83015317 -1.2152544 -0.31283447 0
0.9244467 -1.35329 -0.30868855 0
1.0682254 -1.5637664 -0.31124827 0
1.2518455 -1.8325663 -0.31189251 0
1.5087039 -2.2085795 -0.31260082 0
1.8807256 -2.7531788 -0.31121862 0
2.9141896 -4.2660584 -0.36118051 0
4.3826852 -6.4157772 -0.36172137 0
8.7743101 -12.844641 -0.36167213 0
0.50232661 -0.69692415 -0.31271008 0
0.53676605 -0.74470526 -0.31015149 0
0.58292824 -0.80875027 -0.31116962 0
0.63379389 -0.87932092 -0.31083065 0
0.69573617 -0.96525919 -0.31143111 0
0.76300323 -1.058585 -0.30928043 0
0.85316485 -1.1836746 -0.31014943 0
0.96673751 -1.3412445 -0.31140736 0
1.1096269 -1.5394882 -0.31189087 0
1.2985197 -1.8015566 -0.31209329 0
1.558162 -2.1617823 -0.31144425 0
1.9548031 -2.7120793 -0.31205043 0
3.0261309 -4.1984315 -0.36180609 0
4.5416036 -6.3009872 -0.36159694 0
9.1036921 -12.630395 -0.36199391 0
0.51754397 -0.68112385 -0.31138235 0
0.55497253 -0.73038244 -0.30992123 0
0.60326815 -0.79394281 -0.31123146 0
0.65336651 -0.85987574 -0.30968753 0
0.71183646 -0.93682623 -0.30795601 0
0.79006773 -1.0397841 -0.30951479 0
0.88560456 -1.1655171 -0.31114936 0
0.99924433 -1.315075 -0.31108785 0
1.1501935 -1.5137345 -0.31245509 0
1.3390635 -1.7623007 -0.31104848 0
1.6147523 -2.1251264 -0.3119354 0
2.3409529 -3.0808566 -0.36116487 0
3.1244807 -4.1120338 -0.36104143 0
4.704061 -6.1908712 -0.36197579 0
9.4150658 -12.390881 -0.3618246 0
0.57787246 -0.7219547 -0.31243441 0
0.62332159 -0.77873576 -0.31133813 0
0.68513453 -0.85596067 -0.3144052 0
0.74139595 -0.92624986 -0.31053153 0
0.82773578 -1.034117 -0.31394663 0
0.91426808 -1.1422247 -0.3109923 0
1.0368978 -1.2954299 -0.31253186 0
1.1790662 -1.4730455 -0.31010011 0
1.3845373 -1.7297472 -0.31137133 0
1.6654571 -2.0807095 -0.31148651 0
2.4201105 -3.0235221 -0.36148897 0
3.2331102 -4.0392289 -0.36169851 0
4.8633962 -6.0759978 -0.36232075 0
9.7319393 -12.158425 -0.36209384 0
0.59206951 -0.70259416 -0.31042391 0
0.64207739 -0.76193726 -0.31100196 0
0.69991982 -0.83057743 -0.3114711 0
0.76733851 -0.91058159 -0.31167224 0
0.85557741 -1.0152924 -0.31468716 0
0.94376624 -1.119944 -0.3113122 0
1.0691731 -1.2687612 -0.31250861 0
1.2088549 -1.4345181 -0.30831423 0
1.4320462 -1.6993736 -0.31231049 0
1.7182187 -2.0389674 -0.31163043 0
2.5025477 -2.9697111 -0.36249152 0
3.3282611 -3.9495649 -0.3610765 0
5.0008569 -5.9343929 -0.36128807 0
10.029969 -11.902316 -0.36189035 0
0.56183273 -0.6335575 -0.30823243 0
0.61908758 -0.69812161 -0.31525102 0
0.65566289 -0.73936617 -0.30844539 0
0.72252285 -0.81476164 -0.31227916 0
0.77966887 -0.87920302 -0.30756947 0
0.87176377 -0.98305494 -0.31141567 0
0.97372466 -1.0980325 -0.31195346 0
1.0986719 -1.2389307 -0.31189176 0
1.2522993 -1.4121704 -0.31020546 0
1.4702171 -1.6579081 -0.31141028 0
1.7630162 -1.9880866 -0.31055582 0
2.577038 -2.9060283 -0.36254191 0
3.4343846 -3.8728251 -0.36187008 0
5.1583757 -5.8169045 -0.36194625 0
10.333217 -11.652376 -0.36210525 0
0.58247608 -0.62436497 -0.31081346 0
0.63179326 -0.67722881 -0.31291747 0
0.68204743 -0.73109698 -0.31207767 0
0.74017465 -0.79340452 -0.31115448 0
0.81228483 -0.87070048 -0.31166768 0
0.9049269 -0.97000492 -0.31441668 0
1.0066724 -1.0790675 -0.3136839 0
1.1210977 -1.2017217 -0.30954927 0
1.2856507 -1.3781086 -0.30975243 0
1.5201136 -1.6294329 -0.31316841 0
1.8054065 -1.9352427 -0.30932051 0
2.6431084 -2.8331881 -0.36166191 0
3.5278599 -3.7815666 -0.36154762 0
5.3066287 -5.6882563 -0.36215982 0
10.616186 -11.379651 -0.36184138 0
0.60039806 -0.6118688 -0.3120369 0
0.64316827 -0.65545619 -0.31025901 0
0.69030923 -0.70349777 -0.30763572 0
0.75579268 -0.77023226 -0.30944929 0
0.8439306 -0.86005414 -0.31538075 0
0.91810578 -0.93564641 -0.31069177 0
1.0123442 -1.0316854 -0.30723962 0
1.1510293 -1.1730201 -0.30954066 0
1.3251041 -1.3504206 -0.31094721 0
1.5622236 -1.5920702 -0.31346571 0
1.8615487 -1.897114 -0.31063697 0
2.718003 -2.7699313 -0.3622286 0
3.6343472 -3.7037823 -0.36276516 0
5.4407587 -5.5447059 -0.36164793 0
10.89788 -11.106087 -0.36177346 0
0.61289686 -0.59386259 -0.31064403 0
0.67052472 -0.64970076 -0.31544492 0
0.70823228 -0.68623734 -0.30780646 0
0.78319842 -0.75887531 -0.31272855 0
0.84349829 -0.81730247 -0.30741253 0
0.93726486 -0.90815705 -0.30932024 0
1.0517796 -1.0191153 -0.31130257 0
1.1875551 -1.1506742 -0.31145406 0
1.358405 -1.3162181 -0.31086719 0
1.5939859 -1.5444828 -0.3119179 0
1.9089887 -1.8497028 -0.31066406 0
2.7790985 -2.6927903 -0.36119828 0
3.7223728 -3.60677 -0.36234975 0
5.5865393 -5.413043 -0.36214152 0
11.17116 -10.824226 -0.36166117 0
0.63362998 -0.58368552 -0.313586 0
0.6851272 -0.6311236 -0.31472066 0
0.73066562 -0.67307258 -0.31007448 0
0.79455268 -0.73192388 -0.30978742 0
0.87438476 -0.80546337 -0.31116107 0
0.96876687 -0.89240599 -0.31218395 0
1.0740989 -0.98943549 -0.31041849 0
1.2019933 -1.1072489 -0.30781347 0
1.3974502 -1.2872994 -0.31226787 0
1.6387247 -1.5095559 -0.31311733 0
1.9559335 -1.8017614 -0.31080434 0
2.8544588 -2.6294625 -0.36225203 0
3.8038023 -3.5039761 -0.36155248 0
5.7158623 -5.2653222 -0.36179498 0
11.440748 -10.538957 -0.36166242 0
0.64665377 -0.56619799 -0.31285959 0
0.69909269 -0.61211252 -0.31393918 0
0.75032187 -0.65696782 -0.31128031 0
0.82611126 -0.72332758 -0.31487364 0
0.89472705 -0.78340632 -0.31126475 0
0.98855448 -0.86555982 -0.31142151 0
1.1091229 -0.97112727 -0.31335717 0
1.2314218 -1.07821 -0.30828267 0
1.4199314 -1.2432655 -0.31018087 0
1.6739056 -1.4656404 -0.31267184 0
2.3329718 -2.0427065 -0.36240917 0
2.9067392 -2.5450866 -0.36062002 0
3.90574 -3.4197929 -0.3629221 0
5.8489528 -5.1212339 -0.3619225 0
11.703318 -10.247206 -0.36167178 0
0.66070902 -0.54968154 -0.31284791 0
0.70167005 -0.58375937 -0.30838206 0
0.76832306 -0.63921177 -0.31195599 0
0.83733755 -0.69662887 -0.31235158 0
0.92159116 -0.76672429 -0.3137784 0
1.0103701 -0.84058464 -0.3115114 0
1.1254283 -0.93630809 -0.31118828 0
1.2652593 -1.0526414 -0.31000391 0
1.4444907 -1.2017542 -0.30882168 0
1.707641 -1.420684 -0.3121762 0
2.3745756 -1.9755449 -0.36101153 0
2.9781826 -2.47772 -0.36161003 0
3.9884405 -3.3182111 -0.36270922 0
5.9789405 -4.9742217 -0.36208212 0
11.973425 -9.9613752 -0.36213413 0
0.67671949 -0.53469443 -0.31393895 0
0.72431183 -0.57229847 -0.31188554 0
0.79181129 -0.62563163 -0.31498119 0
0.85113704 -0.67250651 -0.31106856 0
0.93706644 -0.74040163 -0.31258538 0
1.0361493 -0.81868964 -0.31298909 0
1.1478422 -0.90694124 -0.31095749 0
1.2944415 -1.0227733 -0.31073025 0
1.4889627 -1.1764698 -0.31188202 0
1.7220154 -1.3606111 -0.30842796 0
2.4242284 -1.9154487 -0.36109552 0
3.0324888 -2.3960516 -0.36074626 0
4.043983 -3.1952605 -0.36031163 0
6.0948792 -4.8157296 -0.36162749 0
12.213347 -9.6500969 -0.36190888 0
0.68887109 -0.51660711 -0.31342763 0
0.73388624 -0.55036545 -0.30992827 0
0.80215669 -0.60156369 -0.31295717 0
0.87076479 -0.6530152 -0.31211907 0
0.94952464 -0.71207976 -0.31064707 0
1.0528268 -0.78954953 -0.31190807 0
1.1761068 -0.88200122 -0.31248444 0
1.3114728 -0.98351663 -0.30876154 0
1.5100238 -1.1324166 -0.31020808 0
1.752274 -1.314088 -0.30780914 0
2.4820118 -1.8613424 -0.36258948 0
3.0974393 -2.3228719 -0.36138344 0
4.1469774 -3.1099551 -0.36237937 0
6.2186227 -4.6635499 -0.36187062 0
12.444316 -9.3324032 -0.36165825 0
0.69769132 -0.49622044 -0.31164318 0
0.74728209 -0.53149098 -0.30982181 0
0.80894703 -0.57534903 -0.30984235 0
0.88777614 -0.63141483 -0.31240493 0
0.96880335 -0.68904394 -0.31116563 0
1.0726855 -0.76292825 -0.3119874 0
1.1908401 -0.84696364 -0.31062049 0
1.3442732 -0.95609021 -0.31070372 0
1.5321608 -1.0897218 -0.3090072 0
1.7956539 -1.2771267 -0.30966857 0
2.5363483 -1.8039322 -0.36376023 0
3.1687162 -2.2536926 -0.36294743 0
4.2079005 -2.9927938 -0.36098757 0
6.3305368 -4.502481 -0.36165515 0
12.67791 -9.0169353 -0.36171785 0
0.70629424 -0.4759689 -0.31002122 0
0.75841933 -0.51109582 -0.30899274 0
0.828807 -0.55852973 -0.31195042 0
0.8944428 -0.60276145 -0.30929896 0
0.98713726 -0.66522789 -0.31156242 0
1.0909326 -0.73517519 -0.31179854 0
1.2016014 -0.80975449 -0.30799848 0
1.3611977 -0.91730577 -0.30916592 0
1.5794723 -1.0644002 -0.31303132 0
1.8198566 -1.2263943 -0.30840623 0
2.5748765 -1.7351992 -0.36288938 0
3.2073028 -2.1613886 -0.36100388 0
4.2714725 -2.8785286 -0.36009398 0
6.4451852 -4.3433847 -0.36182702 0
12.903371 -8.6955309 -0.36177367 0
0.72826755 -0.46449554 -0.31442022 0
0.77417272 -0.49377424 -0.31023476 0
0.84107578 -0.53644562 -0.31137305 0
0.91249979 -0.58200049 -0.31036475 0
1.0074047 -0.64253169 -0.31274128 0
1.1054891 -0.70509076 -0.31077373 0
1.2314068 -0.78540224 -0.31045836 0
1.3932153 -0.88860512 -0.31124496 0
1.5950366 -1.0173285 -0.31092823 0
1.8769869 -1.1971589 -0.31286782 0
2.6056631 -1.6619151 -0.3612017 0
3.26912 -2.0850739 -0.36192325 0
4.3655682 -2.7843983 -0.36198679 0
6.5537 -4.1800079 -0.36188108 0
13.115511 -8.3651896 -0.36168686 0
0.73936588 -0.44573793 -0.31425467 0
0.79798174 -0.48107538 -0.31480989 0
0.85903007 -0.51787931 -0.31308126 0
0.93042165 -0.56091881 -0.31154603 0
1.0300838 -0.62100166 -0.31481585 0
1.1349105 -0.68419802 -0.31409013 0
1.2633373 -0.76162201 -0.31356239 0
1.4108521 -0.85055357 -0.31029046 0
1.6355613 -0.98602301 -0.31387678 0
1.8882427 -1.1383557 -0.3098563 0
2.6470666 -1.5958242 -0.36124283 0
3.3229859 -2.0033123 -0.36217371 0
4.4395003 -2.67642 -0.36240056 0
6.6601377 -4.0151649 -0.36204731 0
13.323786 -8.0324459 -0.36172453 0
0.74867469 -0.42597258 -0.31354177 0
0.81092083 -0.46138874 -0.31522006 0
0.86954832 -0.49474591 -0.31226432 0
0.94147813 -0.53567177 -0.3106223 0
1.047027 -0.59572583 -0.3152985 0
1.1383483 -0.64768475 -0.31041864 0
1.2799369 -0.72824425 -0.31302077 0
1.4377612 -0.81804138 -0.31156856 0
1.6484002 -0.93788838 -0.31169865 0
1.9398408 -1.1037091 -0.31365234 0
2.700772 -1.5366553 -0.36316353 0
3.3594766 -1.9114376 -0.36077794 0
4.4997225 -2.5602021 -0.36192659 0
6.7485094 -3.8396919 -0.36146808 0
13.522385 -7.6938162 -0.3617292 0
0.80520892 -0.43161803 -0.30866688 0
0.87290126 -0.46790329 -0.30912909 0
0.95933157 -0.51423275 -0.31213123 0
1.0310676 -0.55268556 -0.30619437 0
1.1548177 -0.61901963 -0.31055042 0
1.2740738 -0.68294477 -0.30727363 0
1.4515896 -0.778099 -0.31021073 0
1.6777855 -0.89934725 -0.31286341 0
1.9625731 -1.0520025 -0.31293514 0
2.7216756 -1.4589062 -0.36090821 0
3.4136448 -1.829824 -0.36152035 0
4.5606074 -2.444633 -0.3617458 0
6.8455501 -3.6694362 -0.36159009 0
13.724154 -7.3565907 -0.36204451 0
0.81729412 -0.41189587 -0.30921599 0
0.90982145 -0.45852733 -0.31800434 0
0.96986705 -0.48878881 -0.31144604 0
1.0762937 -0.54242522 -0.31545907 0
1.1695549 -0.58942658 -0.31041414 0
1.3143252 -0.66238719 -0.31284964 0
1.4751463 -0.74343699 -0.31113595 0
1.6892351 -0.85133237 -0.31089273 0
1.9862549 -1.0010229 -0.31258321 0
2.7553983 -1.3886521 -0.36061758 0
3.4586709 -1.7430838 -0.36151457 0
4.6236496 -2.3302042 -0.36196607 0
6.9470572 -3.5011437 -0.36216891 0
13.890717 -7.0005751 -0.36166221 0
0.77599192 -0.36682934 -0.31243283 0
0.83497566 -0.3947123 -0.3120372 0
0.91233385 -0.4312813 -0.31497759 0
0.97936553 -0.46296874 -0.31064501 0
1.0824852 -0.51171577 -0.31338856 0
1.1785413 -0.55712366 -0.30896878 0
1.3260477 -0.62685335 -0.3117747 0
1.4918325 -0.70522368 -0.31080219 0
1.7147335 -0.81059414 -0.311721 0
2.330622 -1.1017388 -0.36228591 0
2.7935886 -1.3205938 -0.36113861 0
3.5045176 -1.6566664 -0.36182103 0
4.6723294 -2.2087181 -0.36129785 0
7.0283723 -3.322474 -0.36192119 0
14.074468 -6.653326 -0.36195904 0
0.79153901 -0.35002494 -0.31503522 0
0.84678024 -0.37445307 -0.31281722 0
0.91763705 -0.40578651 -0.31317288 0
0.98010647 -0.433411 -0.30731246 0
1.0775505 -0.47650158 -0.30837998 0
1.205351 -0.53301597 -0.31237099 0
1.3396599 -0.59240848 -0.31136063 0
1.5116665 -0.66847116 -0.31132028 0
1.7243494 -0.76252121 -0.30987179 0
2.3592043 -1.0432591 -0.36252046 0
2.8400588 -1.2558969 -0.36293274 0
3.5537863 -1.5715129 -0.36269718 0
4.739954 -2.096046 -0.3623209 0
7.0985365 -3.1390302 -0.36133948 0
14.233626 -6.2942247 -0.36185148 0
0.79412776 -0.32747182 -0.31267646 0
0.85917068 -0.35429335 -0.3139911 0
0.92684668 -0.38220069 -0.31292418 0
0.99487227 -0.41025218 -0.30859739 0
1.1011419 -0.45407423 -0.31175241 0
1.2117293 -0.49967679 -0.31065673 0
1.3557962 -0.55908519 -0.31173211 0
1.5237499 -0.6283437 -0.31044388 0
1.7581909 -0.72501934 -0.31256533 0
2.3805583 -0.98166293 -0.36187935 0
2.8592558 -1.1790619 -0.36146799 0
3.581239 -1.4767836 -0.36157984 0
4.7853093 -1.9733022 -0.36186561 0
7.1900311 -2.9649293 -0.36207238 0
14.380736 -5.9301367 -0.36167121 0
0.80248874 -0.30746558 -0.31281343 0
0.86750114 -0.33237445 -0.31386986 0
0.94175643 -0.36082461 -0.3147831 0
1.0143065 -0.38862145 -0.31148401 0
1.113259 -0.42653409 -0.31203574 0
1.2196106 -0.46728167 -0.30955511 0
1.3671948 -0.52382708 -0.311214 0
1.5329819 -0.58734673 -0.3092061 0
1.7661526 -0.67668378 -0.31084555 0
2.4028685 -0.92063516 -0.36162347 0
2.8935449 -1.1086329 -0.36215016 0
3.6163437 -1.3855661 -0.3614783 0
4.8251481 -1.8487076 -0.36123478 0
7.2628584 -2.782692 -0.36208773 0
14.52972 -5.5669179 -0.36176929 0
0.79799289 -0.28286716 -0.30817986 0
0.87232727 -0.30921671 -0.31269273 0
0.94727832 -0.33578485 -0.31369618 0
1.0119973 -0.35872599 -0.30789647 0
1.1116147 -0.39403766 -0.30868906 0
1.2423586 -0.4403829 -0.31240827 0
1.3742346 -0.48712939 -0.30991915 0
1.5713174 -0.55699003 -0.31400299 0
1.7904556 -0.63466865 -0.31220421 0
2.4276078 -0.86052203 -0.36196277 0
2.9215114 -1.0355977 -0.36226371 0
3.6603537 -1.2974975 -0.3624886 0
4.8920979 -1.734118 -0.36285478 0
7.3195615 -2.5945888 -0.36153477 0
14.675407 -5.2020397 -0.36201236 0
0.81141806 -0.26477778 -0.3106848 0
0.86740583 -0.28304741 -0.30826968 0
0.95062155 -0.31020194 -0.31211123 0
1.0437224 -0.34058213 -0.31483316 0
1.1374695 -0.37117323 -0.31316763 0
1.2504994 -0.40805653 -0.3117663 0
1.3877625 -0.45284754 -0.31029361 0
1.5669172 -0.51130831 -0.31044593 0
1.8023696 -0.58813995 -0.31159407 0
2.4596138 -0.80260849 -0.36359879 0
2.9506114 -0.96282828 -0.36274329 0
3.6871693 -1.2031782 -0.36202165 0
4.9239664 -1.6067634 -0.3620953 0
7.3879561 -2.4107997 -0.36179242 0
14.797854 -4.8287597 -0.36191127 0
0.81417686 -0.24312663 -0.30929312 0
0.88128364 -0.26316583 -0.31074226 0
0.95967537 -0.2865749 -0.31260955 0
1.0312526 -0.30794901 -0.30862895 0
1.134075 -0.3386535 -0.30978116 0
1.244746 -0.37170166 -0.30789495 0
1.4034212 -0.41908467 -0.31133062 0
1.5734102 -0.46984619 -0.30928439 0
1.807984 -0.53989381 -0.31011021 0
2.4634027 -0.73561269 -0.36129928 0
2.9610679 -0.88422364 -0.36117017 0
3.7054076 -1.1064957 -0.36095542 0
4.9517856 -1.4786848 -0.36128154 0
7.4470606 -2.2238152 -0.36182302 0
14.907421 -4.4516015 -0.36172789 0
0.82123172 -0.22282685 -0.30973807 0
0.89107722 -0.24177819 -0.31194448 0
0.98021615 -0.26596451 -0.31701303 0
1.0497657 -0.28483552 -0.31191865 0
1.1490339 -0.31177023 -0.31161863 0
1.2652135 -0.34329355 -0.31071559 0
1.4209341 -0.38554558 -0.31295732 0
1.5984159 -0.43370217 -0.31194875 0
1.8171495 -0.49305171 -0.30944929 0
2.4811769 -0.67322391 -0.36129901 0
2.9875469 -0.81061858 -0.36178923 0
3.733988 -1.0131522 -0.36113358 0
5.0008583 -1.3568953 -0.36224788 0
7.5001745 -2.0350411 -0.36179289 0
15.004077 -4.0710936 -0.36146492 0
0.88180894 -0.21553144 -0.30669788 0
0.9736383 -0.23797634 -0.31284356 0
1.0520542 -0.25714272 -0.31057134 0
1.1617144 -0.28394586 -0.31301439 0
1.2831451 -0.31362587 -0.31307563 0
1.4195001 -0.34695372 -0.31061393 0
1.6002157 -0.39112416 -0.31027463 0
1.8284538 -0.44691005 -0.30935499 0
2.4879329 -0.6080997 -0.35993326 0
3.009218 -0.73551202 -0.36205024 0
3.7606587 -0.9191789 -0.36135426 0
5.0210357 -1.2272398 -0.36135072 0
7.540009 -1.8429264 -0.36135563 0
15.109132 -3.6929688 -0.36163518 0
0.8357715 -0.18206181 -0.3113566 0
0.90779126 -0.19775037 -0.3138988 0
0.97659451 -0.21273825 -0.31196883 0
1.0537034 -0.22953542 -0.30924952 0
1.1590576 -0.25248542 -0.31048262 0
1.2878126 -0.28053302 -0.31238744 0
1.4252254 -0.31046656 -0.31005335 0
1.6030078 -0.34919414 -0.30900875 0
1.8269606 -0.39797929 -0.30730504 0
2.5041001 -0.5454852 -0.36016572 0
3.0263145 -0.65924275 -0.36199006 0
3.7921042 -0.82605994 -0.36225709 0
5.0546889 -1.1010975 -0.36165747 0
7.5808663 -1.6513919 -0.3612012 0
15.207989 -3.31286 -0.36188477 0
0.8556183 -0.16388915 -0.31710836 0
0.91619664 -0.17549261 -0.3151733 0
0.99611145 -0.19079988 -0.31656429 0
1.0639929 -0.2038022 -0.31066078 0
1.162945 -0.22275597 -0.30991924 0
1.2983384 -0.24868986 -0.3133184 0
1.449898 -0.2777203 -0.31379601 0
1.6286118 -0.31195197 -0.31232718 0
1.8452035 -0.35343897 -0.30877483 0
2.5231812 -0.483302 -0.36104074 0
3.0359883 -0.58152747 -0.36127651 0
3.8040013 -0.72863632 -0.36152172 0
5.0718894 -0.9714936 -0.36101884 0
7.6239052 -1.4603187 -0.36138067 0
15.267597 -2.9244275 -0.36143178 0
0.84687734 -0.14016291 -0.31245819 0
0.90971577 -0.15056303 -0.31153741 0
0.97333753 -0.16109279 -0.30793658 0
1.0761411 -0.17810735 -0.31279567 0
1.1719723 -0.19396794 -0.31092128 0
1.2958617 -0.21447235 -0.31131527 0
1.4282128 -0.23637716 -0.30771357 0
1.6317046 -0.27005619 -0.31151396 0
1.8755277 -0.31041032 -0.31243876 0
2.5380433 -0.42006034 -0.36153522 0
3.045711 -0.50408214 -0.36080465 0
3.839992 -0.63554007 -0.36330202 0
5.1029811 -0.84457177 -0.36159948 0
7.6654868 -1.2686808 -0.36171868 0
15.348982 -2.5403421 -0.36172539 0
0.84464264 -0.11798228 -0.31043616 0
0.91801929 -0.12823176 -0.31317297 0
1.0030352 -0.14010705 -0.31611267 0
1.0803541 -0.15090719 -0.31281358 0
1.1648669 -0.1627122 -0.30784872 0
1.2978595 -0.18128902 -0.31059706 0
1.4531989 -0.20298731 -0.31189379 0
1.6509787 -0.2306138 -0.31398246 0
1.8784069 -0.26238167 -0.31171593 0
2.5540268 -0.35675433 -0.36241397 0
3.0635245 -0.42792252 -0.36152029 0
3.8272514 -0.53460228 -0.36070523 0
5.138279 -0.71773064 -0.36270159 0
7.696866 -1.0751219 -0.36180374 0
15.406213 -2.1519873 -0.36167893 0
0.86057025 -0.098141164 -0.31527936 0
0.91580409 -0.10444015 -0.31141886 0
1.0034963 -0.11444075 -0.3152473 0
1.0762528 -0.12273804 -0.31063014 0
1.1778582 -0.13432533 -0.31028727 0
1.3133293 -0.14977472 -0.3132948 0
1.4635767 -0.16690923 -0.31311727 0
1.6419439 -0.1872506 -0.3112663 0
1.8977442 -0.21642257 -0.31391847 0
2.5639107 -0.29239357 -0.36265385 0
3.0842907 -0.35173872 -0.36280775 0
3.8397319 -0.43789077 -0.36072499 0
5.1346803 -0.58556926 -0.36128926 0
7.7226896 -0.88071108 -0.3618575 0
15.457664 -1.7628232 -0.36172715 0
0.85026139 -0.075289063 -0.31070748 0
0.92473179 -0.081883274 -0.31365204 0
0.99780768 -0.088354014 -0.31266013 0
1.0906472 -0.096574783 -0.31398121 0
1.1382366 -0.10078873 -0.29908425 0
1.1404479 -0.10098454 -0.2713595 0
1.4585975 -0.1291561 -0.31125551 0
1.6509467 -0.14618826 -0.31217414 0
1.8960432 -0.16789109 -0.31283653 0
2.5659413 -0.22720933 -0.36201465 0
3.0887611 -0.27350402 -0.36240616 0
3.8641992 -0.34216765 -0.36209694 0
5.1549115 -0.45645782 -0.36178699 0
7.7446718 -0.68577623 -0.36196125 0
15.491404 -1.371735 -0.36159134 0
0.84856355 -0.053602021 -0.30949411 0
0.9206019 -0.058152542 -0.31165421 0
0.99926335 -0.063121423 -0.31251752 0
1.071249 -0.067668609 -0.30780706 0
1.1289248 -0.071311869 -0.29607025 0
1.1393753 -0.071972013 -0.27058592 0
1.4509717 -0.091654919 -0.30903617 0
1.6483202 -0.10412101 -0.3110815 0
1.8804152 -0.11878198 -0.30966476 0
2.5702987 -0.1623605 -0.361936 0
3.095963 -0.19556564 -0.36255661 0
3.856215 -0.24358921 -0.36065784 0
5.1504526 -0.32534355 -0.36078286 0
7.7532644 -0.48975784 -0.36166996 0
15.535336 -0.98133534 -0.3619234 0
0.86214995 -0.032648385 -0.31404889 0
0.91754669 -0.034746177 -0.31022424 0
1.0065192 -0.038115442 -0.3143858 0
1.0796061 -0.040883135 -0.30981317 0
1.1199827 -0.042412143 -0.29335096 0
1.1423563 -0.043259397 -0.27094826 0
1.4457227 -0.054747447 -0.30752596 0
1.6677527 -0.063155405 -0.31434801 0
1.8925074 -0.071666546 -0.31125909 0
2.5738039 -0.097466268 -0.36196792 0
3.100199 -0.11740009 -0.36259019 0
3.8832629 -0.1470536 -0.3627249 0
5.1640511 -0.19555521 -0.3612746 0
7.7729492 -0.29435048 -0.36212635 0
15.555824 -0.58907676 -0.3619391 0
0.92265058 -0.011641541 -0.31175128 0
1.0049483 -0.012679932 -0.31369525 0
1.0796506 -0.013622489 -0.3096287 0
1.1368814 -0.014344597 -0.29758754 0
1.1274796 -0.01422597 -0.26724949 0
1.1377773 -0.014355903 -0.24186748 0
1.137303 -0.014349917 -0.21422918 0
1.1330303 -0.014296006 -0.1862299 0
1.1214119 -0.014149412 -0.15760981 0
1.1418731 -0.01440758 -0.1334651 0
1.1221818 -0.014159125 -0.10475317 0
1.1306201 -0.014265595 -0.079047292 0
1.1293964 -0.014250156 -0.052582849 0
1.1276138 -0.014227662 -0.02621961 0
1.1408688 -0.014394909 3.2572556e-05 0
1.1158464 -0.014079188 0.026009742 0
1.1358221 -0.014331232 0.052947011 0
1.1234808 -0.014175516 0.078612618 0
1.1368221 -0.014343849 0.10618529 0
1.122321 -0.014160882 0.13124476 0
1.1479005 -0.01448363 0.16139948 0
0.99125415 -0.012507145 0.16298506 0
0.85162652 0.010745395 -0.31001809 0
0.92488903 0.011669785 -0.3125076 0
0.99906111 0.01260565 -0.31185758 0
1.089412 0.013745653 -0.31242812 0
1.1318659 0.014281314 -0.29627466 0
1.1457319 0.014456269 -0.2715759 0
1.451912 0.018319495 -0.30864587 0
1.6477824 0.02079089 -0.31038612 0
1.8898829 0.023845593 -0.31062955 0
2.5716562 0.032447863 -0.36143562 0
3.0863545 0.038942069 -0.36074117 0
3.879617 0.048951056 -0.36215359 0
5.1783333 0.065337606 -0.36204314 0
7.7615719 0.097931609 -0.36136606 0
15.560615 0.196336 -0.36182004 0
0.8612718 0.032615129 -0.31372902 0
0.92121029 0.034884915 -0.31146291 0
0.99861699 0.037816197 -0.31191754 0
1.0919334 0.041349955 -0.31335074 0
1.1265475 0.042660739 -0.29507041 0
1.1359347 0.043016221 -0.26942518 0
1.4700019 0.055666868 -0.31269053 0
1.6516852 0.062546954 -0.31131953 0
1.903127 0.072068691 -0.31300566 0
2.5604818 0.096961774 -0.36009437 0
3.0948627 0.11719801 -0.36196607 0
3.8735707 0.14668658 -0.36181957 0
5.1664977 0.19564787 -0.36144578 0
7.7676249 0.29414883 -0.36187828 0
15.546389 0.58871949 -0.36171958 0
0.8519184 0.053813942 -0.31071773 0
0.93074828 0.058793467 -0.31508911 0
0.99657667 0.062951706 -0.31167728 0
1.0894861 0.068820603 -0.3130472 0
1.1201987 0.07076066 -0.29378176 0
1.1415206 0.072107516 -0.2710954 0
1.4497937 0.091580503 -0.30878526 0
1.6447815 0.10389748 -0.31041366 0
1.9026632 0.12018734 -0.31332853 0
2.5588887 0.16163976 -0.36032933 0
3.0863807 0.19496034 -0.36143443 0
3.8570926 0.24364464 -0.36073989 0
5.1661806 0.32633707 -0.36188456 0
7.7487059 0.48946989 -0.36145732 0
15.539484 0.98159742 -0.36202005 0
0.84703344 0.075003237 -0.3095279 0
0.9268086 0.082067177 -0.31435648 0
0.99820387 0.088389091 -0.31278425 0
1.0812626 0.09574379 -0.31127951 0
1.1781578 0.10432369 -0.30957398 0
1.3063333 0.11567338 -0.31083047 0
1.4626919 0.12951864 -0.31212923 0
1.6524507 0.14632143 -0.31245852 0
1.8916426 0.16750142 -0.31211045 0
2.5885687 0.22921294 -0.36520702 0
3.0778615 0.2725389 -0.36112732 0
3.8653307 0.34226784 -0.36220297 0
5.1531258 0.45629969 -0.36166164 0
7.7528024 0.6864962 -0.36234125 0
15.496793 1.3722122 -0.36171713 0
0.91392338 0.10422567 -0.3107793 0
0.98769593 0.11263883 -0.31028363 0
1.0838842 0.12360835 -0.31283277 0
1.1847204 0.1351079 -0.31209499 0
1.3000059 0.1482553 -0.31011653 0
1.4676896 0.16737829 -0.31399721 0
1.6492339 0.18808196 -0.3126483 0
1.881523 0.21457268 -0.31123522 0
2.5694327 0.29302329 -0.36343491 0
3.0855532 0.35188273 -0.36295626 0
3.8586419 0.44004729 -0.36250147 0
5.1277561 0.58477968 -0.36080208 0
7.7143016 0.87975448 -0.36146447 0
15.449975 1.7619463 -0.36154717 0
0.92057031 0.1285881 -0.31404319 0
0.99490082 0.13897081 -0.31354907 0
1.0781075 0.15059337 -0.31216305 0
1.1668962 0.16299565 -0.30838501 0
1.3051813 0.18231173 -0.31234926 0
1.4586289 0.20374578 -0.31305918 0
1.6571337 0.23147354 -0.315153 0
1.8826187 0.26296997 -0.31241485 0
1.740746 0.24315275 -0.2470102 0
3.0671458 0.42842838 -0.36194766 0
3.8338666 0.53552628 -0.36132866 0
5.1249542 0.71586937 -0.361761 0
7.6909938 1.0743017 -0.36152771 0
15.413684 2.1530309 -0.36185434 0
0.84932095 0.14056735 -0.31335977 0
0.9027018 0.14940219 -0.30913547 0
0.98529208 0.16307133 -0.31171864 0
1.0661021 0.17644584 -0.30987769 0
1.1808063 0.19543003 -0.31326494 0
1.2936047 0.21409878 -0.31077304 0
1.4465461 0.23941143 -0.31166354 0
1.6387018 0.27121428 -0.31284982 0
1.7730664 0.29345238 -0.29537001 0
1.6390437 0.27127087 -0.23347592 0
1.7018805 0.28167072 -0.20161019 0
3.8147683 0.63136542 -0.3609156 0
5.1076498 0.84534448 -0.36193031 0
7.6645432 1.2685246 -0.36167416 0
15.344232 2.539556 -0.36161342 0
0.84437662 0.16173588 -0.31294197 0
0.89950293 0.17229503 -0.30943063 0
0.97240549 0.18625912 -0.30903056 0
1.0723721 0.20540719 -0.31310731 0
1.1659739 0.22333613 -0.3107264 0
1.2943795 0.24793153 -0.312363 0
1.3361295 0.25592855 -0.28917351 0
1.3645339 0.26136926 -0.26168364 0
1.3559648 0.2597279 -0.22690602 0
1.3472866 0.25806561 -0.19278258 0
1.3570931 0.25994402 -0.16149136 0
1.3418391 0.25702217 -0.12752464 0
5.0856824 0.97413558 -0.36200061 0
7.6240621 1.4603487 -0.36138812 0
15.28439 2.927644 -0.36182931 0
0.83258021 0.18136664 -0.31016773 0
0.88664562 0.19314407 -0.30658698 0
0.97137672 0.21160163 -0.31030205 0
1.0617863 0.23129615 -0.31162173 0
1.1729854 0.25551942 -0.31421351 0
1.2058877 0.26268676 -0.29251474 0
1.2039971 0.26227492 -0.26192585 0
1.2149374 0.26465812 -0.23420116 0
1.2130883 0.26425532 -0.20404828 0
1.2230425 0.2664237 -0.1759107 0
1.1941566 0.2601313 -0.14283803 0
1.2083476 0.2632226 -0.11543261 0
5.0527902 1.1006838 -0.36152163 0
7.5890083 1.6531655 -0.36158913 0
15.196136 3.3102779 -0.36160272 0
0.82657862 0.20203206 -0.30973288 0
0.89113581 0.21781111 -0.3099418 0
0.96980917 0.23704043 -0.3116132 0
1.0570976 0.25837541 -0.31206015 0
1.1546634 0.28222245 -0.31111455 0
1.2033316 0.2941179 -0.2936019 0
1.2177997 0.29765415 -0.26647797 0
1.1908438 0.29106563 -0.23089927 0
1.2026422 0.2939494 -0.2034743 0
1.2143072 0.29680055 -0.17567578 0
1.1978221 0.29277125 -0.14411443 0
1.1999551 0.29329261 -0.11530131 0
1.701914 0.41598123 -0.12248226 0
7.5459933 1.8443891 -0.36164242 0
15.118859 3.6953464 -0.36186799 0
0.83035064 0.2253011 -0.31317738 0
0.88467032 0.24003981 -0.30970159 0
0.95847201 0.2600646 -0.30998072 0
1.0489168 0.28460523 -0.31166643 0
1.1444263 0.31052005 -0.31036907 0
1.2042664 0.32675663 -0.29574797 0
1.2084825 0.32790059 -0.26616538 0
1.2161087 0.32996979 -0.23733722 0
1.207647 0.32767385 -0.20565479 0
1.2064344 0.32734483 -0.17567612 0
1.2085091 0.3279078 -0.14634936 0
1.2013059 0.32595333 -0.1161846 0
1.7066735 0.46307597 -0.12362655 0
7.5056825 2.0365355 -0.36205858 0
15.015705 4.0742488 -0.36174506 0
0.81338209 0.24288929 -0.30899119 0
0.88218141 0.2634339 -0.31105879 0
0.97121423 0.29002059 -0.31636828 0
1.0374424 0.30979741 -0.3104814 0
1.1350673 0.33894983 -0.31005222 0
1.206429 0.36025956 -0.29841703 0
1.2057933 0.36006972 -0.26748943 0
1.2053169 0.35992751 -0.23692851 0
1.2029755 0.35922831 -0.20633754 0
1.2109567 0.36161163 -0.17760709 0
1.203127 0.35927355 -0.14674895 0
1.2058448 0.3600851 -0.11746513 0
1.7238179 0.51476043 -0.1257695 0
7.4484949 2.2242434 -0.3618927 0
14.918829 4.455008 -0.3620047 0
0.80697894 0.26332924 -0.30898511 0
0.87323892 0.28495082 -0.3103427 0
0.95691645 0.31225607 -0.31417799 0
1.0345944 0.33760354 -0.31207976 0
1.1224248 0.3662639 -0.30902553 0
1.2016538 0.39211753 -0.29958847 0
1.2142686 0.39623386 -0.2715016 0
1.2120261 0.39550212 -0.24013303 0
1.2179402 0.397432 -0.21055779 0
1.2016771 0.3921251 -0.17764103 0
1.2041703 0.39293867 -0.14803872 0
1.210743 0.3950834 -0.11887578 0
4.9156108 1.6040369 -0.36148086 0
7.3852258 2.4099088 -0.36165869 0
14.781502 4.8234234 -0.36151132 0
0.81000501 0.28712511 -0.31281886 0
0.86564201 0.30684695 -0.31029633 0
0.93837553 0.33262902 -0.31074795 0
1.0334423 0.36632764 -0.314421 0
1.1220673 0.39774287 -0.31159168 0
1.2076224 0.42806983 -0.30367339 0
1.1997997 0.42529687 -0.27058035 0
1.206651 0.42772549 -0.24113013 0
1.2065654 0.42769518 -0.21039048 0
1.2027364 0.42633787 -0.1793312 0
1.2130672 0.42999989 -0.1504188 0
1.1962255 0.42402995 -0.11846345 0
1.500159 0.53176624 -0.11126921 0
7.3206615 2.5949788 -0.36158913 0
14.672015 5.2008371 -0.3619287 0
0.79680657 0.30528852 -0.31059849 0
0.84831995 0.32502535 -0.30692992 0
0.92452675 0.35422322 -0.30902407 0
1.0032502 0.38438535 -0.30808872 0
1.1120617 0.4260754 -0.31170017 0
1.2107594 0.46389043 -0.30730855 0
1.2078964 0.46279347 -0.27495298 0
1.2013794 0.46029657 -0.24232109 0
1.200366 0.45990828 -0.21126623 0
1.196311 0.45835465 -0.1800407 0
1.205174 0.46175045 -0.15083712 0
1.1997471 0.45967117 -0.11992293 0
4.8431787 1.8556157 -0.36258462 0
7.2571697 2.7805123 -0.36180413 0
14.536184 5.5693946 -0.36193025 0
0.84375221 0.34793529 -0.30835631 0
0.89730644 0.37001929 -0.30295071 0
1.0063781 0.4149968 -0.31216636 0
1.1000667 0.45363083 -0.31144798 0
1.1957915 0.49310458 -0.30657068 0
1.203952 0.49646971 -0.27681926 0
1.2026893 0.495949 -0.24503203 0
1.207599 0.49797362 -0.21468295 0
1.202286 0.49578273 -0.1827649 0
1.1994145 0.49459857 -0.15163034 0
1.1904843 0.49091604 -0.12019726 0
4.7718101 1.9677354 -0.36084476 0
7.1739302 2.9582899 -0.36126158 0
14.390293 5.9340773 -0.36191157 0
0.78810591 0.34850681 -0.31366885 0
0.84989959 0.37583247 -0.31396952 0
0.90287519 0.3992587 -0.30813491 0
0.99372661 0.43943393 -0.31158304 0
1.0854187 0.47998092 -0.31063175 0
1.2183238 0.53875262 -0.31573293 0
1.2091872 0.53471237 -0.28103647 0
1.2039478 0.53239542 -0.2479471 0
1.2027974 0.5318867 -0.21614702 0
1.2140092 0.53684467 -0.18654728 0
1.2112714 0.53563404 -0.15478908 0
1.2000695 0.53068042 -0.12247834 0
4.7241158 2.0890422 -0.36111021 0
7.12391 3.1502504 -0.36263108 0
14.226933 6.2912645 -0.36168131 0
0.77175856 0.36482811 -0.31072837 0
0.83142287 0.39303282 -0.31070951 0
0.89862978 0.42480308 -0.31024635 0
0.97847575 0.46254808 -0.31036276 0
1.075194 0.50826901 -0.31127769 0
1.1874409 0.56133074 -0.31130192 0
1.3252155 0.62645996 -0.31157905 0
1.493341 0.70593679 -0.31111649 0
1.6993437 0.80331898 -0.30892327 0
2.3131328 1.0934713 -0.35956728 0
2.7986653 1.3229938 -0.36179489 0
3.5079324 1.6582807 -0.36217359 0
4.6859002 2.2151334 -0.36234725 0
7.0150223 3.3161631 -0.36123374 0
14.063788 6.6482778 -0.36168438 0
0.77826285 0.39222509 -0.31723186 0
0.81793135 0.41221702 -0.30945709 0
0.90214896 0.45466059 -0.31532264 0
0.98206472 0.49493614 -0.31536296 0
1.0680608 0.53827596 -0.31304598 0
1.1606325 0.58492982 -0.30804598 0
1.3064476 0.65841705 -0.31097451 0
1.4845967 0.74819976 -0.31312922 0
1.6890681 0.85124826 -0.310862 0
1.9800979 0.99791998 -0.31161425 0
