# .PCD v0.7 - Point Cloud Data file format
VERSION 0.7
FIELDS x y z intensity
SIZE 4 4 4 4
TYPE F F F F
COUNT 1 1 1 1
WIDTH 1360
HEIGHT 1
VIEWPOINT 0 0 0 1 0 0 0
POINTS 1360
DATA ascii
0.83291054 -0.80704355 -0.19060926 0
0.98075062 -0.95029229 -0.19191742 0
1.168637 -1.1323436 -0.19018108 0
1.4761639 -1.4303199 -0.1918564 0
1.9594684 -1.8986148 -0.19074202 0
3.7317817 -3.6158869 -0.24190882 0
7.4613295 -7.2296095 -0.24155714 0
0.67173231 -0.61878455 -0.19413307 0
0.7508471 -0.69166332 -0.19228131 0
0.85502768 -0.78763205 -0.19106059 0
1.0004556 -0.92159694 -0.19116084 0
1.2080112 -1.1127925 -0.191957 0
1.514696 -1.3953036 -0.19222619 0
2.5371087 -2.337127 -0.2411529 0
3.8137679 -3.5131564 -0.24139877 0
7.6467695 -7.0440302 -0.24172799 0
0.67879879 -0.5943436 -0.191779 0
0.75852591 -0.66415113 -0.18989463 0
0.87667012 -0.76759595 -0.19150664 0
1.0224297 -0.8952204 -0.19098149 0
1.2192873 -1.0675852 -0.18940687 0
1.5231867 -1.3336738 -0.18897174 0
2.5991471 -2.2757647 -0.24151325 0
3.9029641 -3.4173625 -0.24150828 0
7.8268452 -6.8530393 -0.24187578 0
0.69523585 -0.57840633 -0.19223724 0
0.78281569 -0.65126908 -0.19179937 0
0.89714402 -0.74638528 -0.19180292 0
1.0529107 -0.8759765 -0.19248405 0
1.2496656 -1.0396681 -0.18998919 0
1.5579952 -1.296185 -0.1891713 0
2.6604869 -2.2134109 -0.241945 0
3.9887018 -3.3184288 -0.24155411 0
7.9874568 -6.6452212 -0.24157922 0
0.71371698 -0.56392717 -0.19335032 0
0.79729438 -0.62996393 -0.19139026 0
0.91465092 -0.72269052 -0.19158517 0
1.0610588 -0.83837134 -0.19004488 0
1.2715548 -1.0046899 -0.1894016 0
1.5999326 -1.2641501 -0.1903287 0
2.7165978 -2.1464577 -0.242044 0
4.071826 -3.2172604 -0.24159369 0
8.1668596 -6.452857 -0.24200237 0
0.71931124 -0.53943521 -0.19111665 0
0.8131718 -0.6098243 -0.19144596 0
0.93089575 -0.69810939 -0.19123632 0
1.0955229 -0.82156867 -0.19244248 0
1.3107153 -0.98294866 -0.19147839 0
1.6209872 -1.2156317 -0.18912329 0
2.7648394 -2.0734441 -0.24160264 0
4.1575336 -3.1178715 -0.2419329 0
8.3222923 -6.2411609 -0.24186347 0
0.73961401 -0.52603722 -0.19292201 0
0.83317953 -0.59258395 -0.19257392 0
0.94794124 -0.6742062 -0.19118142 0
1.1107289 -0.78998595 -0.19155017 0
1.3281219 -0.94460285 -0.19047776 0
1.6723031 -1.1893955 -0.19154702 0
2.8097916 -1.9984138 -0.24104652 0
4.232193 -3.0100713 -0.24177957 0
8.4682732 -6.0229073 -0.24161124 0
0.74679363 -0.50326127 -0.19142061 0
0.84636641 -0.57036299 -0.19223338 0
0.96966004 -0.65345007 -0.19217429 0
1.1285466 -0.76052308 -0.19125175 0
1.3483883 -0.90867358 -0.19003464 0
1.6894447 -1.1385101 -0.19015856 0
2.867187 -1.9321861 -0.24170981 0
4.3031049 -2.8998454 -0.24157251 0
8.6161394 -5.8063827 -0.24157196 0
0.75083977 -0.47889227 -0.18929933 0
0.84852779 -0.54119855 -0.18956152 0
0.98810488 -0.63022208 -0.19261608 0
1.1458545 -0.73083621 -0.19099815 0
1.3728889 -0.87564075 -0.19031233 0
1.7342712 -1.1061336 -0.19200061 0
2.9187598 -1.861611 -0.24201949 0
4.3853192 -2.7969956 -0.2421478 0
8.768507 -5.5926318 -0.2418094 0
0.77420592 -0.4667418 -0.19215919 0
0.87052035 -0.52480638 -0.19145462 0
0.99640781 -0.60069954 -0.1912183 0
1.1670357 -0.70356512 -0.19150788 0
1.4050508 -0.84705615 -0.19174603 0
1.7505211 -1.0553282 -0.19079007 0
2.9561574 -1.7821643 -0.2413139 0
4.4485474 -2.6818743 -0.24182454 0
8.902256 -5.3668599 -0.24168539 0
0.79189366 -0.45056286 -0.19366515 0
0.88024497 -0.50083202 -0.19075258 0
1.0197494 -0.58020568 -0.19282606 0
1.1937174 -0.67918801 -0.19301184 0
1.4108278 -0.80271709 -0.18970916 0
1.7762979 -1.0106583 -0.19075862 0
3.0090113 -1.7120339 -0.24202406 0
4.5109081 -2.5665665 -0.24161622 0
9.0397635 -5.1433439 -0.2418173 0
0.80385029 -0.43088976 -0.19386788 0
0.90047228 -0.48268226 -0.19243467 0
1.032501 -0.55345392 -0.19253461 0
1.2049752 -0.64590567 -0.19213507 0
1.4389217 -0.77130854 -0.19080842 0
1.8102708 -0.97036368 -0.19171584 0
3.0610967 -1.6408467 -0.24280512 0
4.5773716 -2.4536192 -0.2417822 0
9.1649313 -4.9126992 -0.24177176 0
0.80082816 -0.40359744 -0.19062161 0
0.90675247 -0.45698065 -0.19125105 0
1.0423476 -0.52531719 -0.19183728 0
1.2192651 -0.61447918 -0.19187959 0
1.4532038 -0.73237848 -0.1901906 0
1.8384287 -0.92652225 -0.19216017 0
3.0901866 -1.557377 -0.2419177 0
4.6269622 -2.3318737 -0.24121606 0
9.2864552 -4.6801419 -0.2417845 0
0.81185222 -0.38378128 -0.19087926 0
0.92520988 -0.43736807 -0.19275439 0
1.0527761 -0.49767157 -0.19138393 0
1.2351619 -0.58388954 -0.192001 0
1.4823987 -0.70076418 -0.19163574 0
1.8663676 -0.88227504 -0.19269156 0
3.120548 -1.4751552 -0.24130304 0
4.6962214 -2.2200124 -0.24182869 0
9.4014168 -4.4442673 -0.24178022 0
0.8259536 -0.36524335 -0.19196621 0
0.93080616 -0.41161001 -0.19169493 0
1.0626602 -0.46991694 -0.19096386 0
1.2459033 -0.5509485 -0.19144821 0
1.5015844 -0.66401279 -0.19188833 0
1.8742778 -0.82882077 -0.19128762 0
3.165122 -1.3996426 -0.24194114 0
4.7493362 -2.1001949 -0.24175726 0
9.5037966 -4.2026558 -0.24160835 0
0.83188623 -0.34304217 -0.19127186 0
0.93587369 -0.38592315 -0.19067189 0
1.0746136 -0.44313484 -0.19104125 0
1.2490226 -0.5150553 -0.18986954 0
1.5247773 -0.62876737 -0.19276282 0
1.9000444 -0.78351504 -0.19183801 0
3.1986091 -1.3189999 -0.24187915 0
4.8037772 -1.9809177 -0.24190648 0
9.6055336 -3.9610019 -0.24157628 0
0.8461138 -0.3241801 -0.19260055 0
0.95437616 -0.36565971 -0.19249994 0
1.0847437 -0.41560876 -0.19091654 0
1.2619163 -0.48349068 -0.18991408 0
1.5192862 -0.58209938 -0.19015075 0
1.9149741 -0.73370326 -0.19141476 0
3.2232642 -1.2349616 -0.2413097 0
4.8479619 -1.8574485 -0.24169378 0
9.7200212 -3.7241294 -0.24201465 0
0.84307754 -0.29884845 -0.19013193 0
0.9586553 -0.33981767 -0.19157211 0
1.0876272 -0.38553476 -0.18965107 0
1.2791697 -0.45343146 -0.19072761 0
1.5553023 -0.5513131 -0.19285552 0
1.9368565 -0.68656385 -0.19180891 0
3.2552066 -1.1538837 -0.2414439 0
4.8966932 -1.7357467 -0.24186216 0
9.8017197 -3.4744475 -0.24178842 0
0.85367948 -0.2785683 -0.19087651 0
0.96592963 -0.3151972 -0.19137511 0
1.1060828 -0.36093125 -0.19121985 0
1.2891011 -0.42065284 -0.19056472 0
1.5622612 -0.50978905 -0.19206181 0
1.9614253 -0.64004219 -0.19258089 0
3.2880476 -1.0729387 -0.2417942 0
4.9380035 -1.611344 -0.24181686 0
9.89151 -3.2277465 -0.24191675 0
0.85610664 -0.25564754 -0.18991604 0
0.96669459 -0.28867093 -0.19002265 0
1.1082929 -0.33095455 -0.19009735 0
1.3103191 -0.39128286 -0.19218023 0
1.5568771 -0.4649092 -0.1898969 0
1.9571081 -0.58442473 -0.19064806 0
3.3120987 -0.98904729 -0.24165024 0
4.9710102 -1.4844257 -0.2415216 0
9.9631033 -2.975147 -0.24175426 0
0.86466485 -0.23461168 -0.19044036 0
0.97989517 -0.2658774 -0.19123751 0
1.1234962 -0.30484101 -0.19132443 0
1.3072972 -0.35471222 -0.19036336 0
1.5700306 -0.4260003 -0.19012927 0
1.9688232 -0.53420573 -0.19041523 0
3.3364003 -0.9052738 -0.2416793 0
5.017354 -1.3613712 -0.24202678 0
10.044971 -2.725527 -0.24199453 0
0.87040704 -0.21274459 -0.1904618 0
0.98777688 -0.24143209 -0.1915255 0
1.1319853 -0.27667946 -0.1915199 0
1.3076954 -0.31962645 -0.18918641 0
1.5783582 -0.38578176 -0.18989816 0
1.9765347 -0.48310393 -0.1899213 0
3.3591142 -0.82103354 -0.2417466 0
5.0353255 -1.2307326 -0.24131845 0
10.101659 -2.469044 -0.24178194 0
0.88935876 -0.19373509 -0.19347723 0
0.99999821 -0.21783644 -0.19276774 0
1.1384139 -0.24798848 -0.19148763 0
1.3247313 -0.28857526 -0.19053665 0
1.5984696 -0.34820554 -0.19119959 0
1.9885936 -0.43318892 -0.18996897 0
3.3833425 -0.73701662 -0.24207446 0
5.0690756 -1.1042314 -0.24152334 0
10.160501 -2.2133315 -0.24177627 0
0.88640511 -0.1697862 -0.19184133 0
1.0079867 -0.19307451 -0.19330673 0
1.1410226 -0.21855684 -0.19093777 0
1.3358874 -0.25588214 -0.19115147 0
1.6168212 -0.30969355 -0.19239847 0
2.5517232 -0.48876908 -0.24250868 0
3.3959544 -0.65047711 -0.24172519 0
5.0987444 -0.97663754 -0.24168555 0
10.20952 -1.9555796 -0.24169128 0
0.88202602 -0.14598022 -0.19003567 0
1.0140401 -0.16782929 -0.19359365 0
1.1469351 -0.18982415 -0.1910646 0
1.3376222 -0.22138393 -0.19053951 0
1.6303221 -0.2698274 -0.19313315 0
2.5545497 -0.42279223 -0.2416862 0
3.4144785 -0.56511521 -0.24195147 0
5.129108 -0.84889597 -0.24203214 0
10.248141 -1.6961246 -0.24151522 0
0.90144181 -0.12591617 -0.19347255 0
1.0027843 -0.140072 -0.19070911 0
1.1542251 -0.16122572 -0.19154017 0
1.3472718 -0.18819107 -0.19117659 0
1.6191013 -0.22616106 -0.19106686 0
2.5697978 -0.35895726 -0.24219456 0
3.4341693 -0.47969535 -0.24241164 0
5.1378946 -0.71767694 -0.24151511 0
10.296215 -1.438207 -0.24171574 0
0.8966074 -0.10225092 -0.19182 0
1.0099398 -0.11517558 -0.19145614 0
1.1501157 -0.13116153 -0.1902483 0
1.3425171 -0.15310337 -0.18989311 0
1.6320211 -0.18611898 -0.19197603 0
2.5777826 -0.29397553 -0.24217072 0
3.4453075 -0.39290982 -0.24242067 0
5.1534619 -0.58771116 -0.24147272 0
10.329473 -1.1779939 -0.24172154 0
0.90047318 -0.079735219 -0.1921553 0
1.0213867 -0.090441898 -0.19313192 0
1.1341705 -0.10042869 -0.18713179 0
1.1412008 -0.1010512 -0.1610058 0
1.6351618 -0.14479053 -0.19185451 0
2.5854969 -0.22894092 -0.24227542 0
3.452625 -0.30572352 -0.24231546 0
5.169508 -0.45775029 -0.24160631 0
10.351748 -0.91662806 -0.2416245 0
0.90203971 -0.056980003 -0.19212152 0
1.0107436 -0.06384661 -0.190754 0
1.1317649 -0.071491271 -0.18637782 0
1.1358005 -0.071746193 -0.15993749 0
1.6353658 -0.10330271 -0.19151156 0
2.5822911 -0.16311803 -0.24151233 0
3.4520347 -0.21805796 -0.24181077 0
5.1775184 -0.32705325 -0.24151799 0
10.372791 -0.65522802 -0.24165273 0
0.89545262 -0.033909507 -0.19047563 0
1.010653 -0.038271982 -0.19049393 0
1.1376108 -0.043079693 -0.18710189 0
1.1240683 -0.042566855 -0.15808378 0
1.6424925 -0.06219884 -0.19210112 0
2.5880678 -0.098006427 -0.24174429 0
3.463546 -0.13115953 -0.24230807 0
5.1818719 -0.19623007 -0.24141318 0
10.392722 -0.39355752 -0.24180862 0
0.90174258 -0.011377734 -0.19169146 0
1.0277593 -0.012967749 -0.19359487 0
1.1319213 -0.014282013 -0.1860476 0
1.1353637 -0.014325448 -0.15957066 0
1.1429445 -0.014421097 -0.13359033 0
1.1257035 -0.014203561 -0.10508192 0
1.1277151 -0.014228943 -0.078844197 0
1.1271632 -0.014221977 -0.052478869 0
1.1426674 -0.014417602 -0.026569642 0
1.1249236 -0.014193719 3.211731e-05 0
1.125566 -0.014201825 0.026236299 0
1.1230115 -0.014169593 0.052349836 0
1.1306037 -0.014265388 0.079111025 0
1.1269035 -0.014218701 0.10525884 0
1.134717 -0.014317288 0.13269435 0
1.1240479 -0.014182671 0.15804572 0
1.1296743 -0.014253661 0.18574452 0
1.1268454 -0.014217968 0.21232595 0
0.90780187 0.011454187 -0.19297954 0
1.0162665 0.012822739 -0.19143002 0
1.128543 0.014239388 -0.18549234 0
1.1301197 0.014259282 -0.15883364 0
1.6431853 0.020732883 -0.19205977 0
2.5890455 0.032667276 -0.24168164 0
3.4545567 0.043587856 -0.24152531 0
5.1906338 0.065492809 -0.24166739 0
10.401446 0.13124022 -0.24185751 0
0.90039492 0.034096666 -0.19152692 0
1.0137657 0.038389854 -0.19108063 0
1.1462908 0.043408386 -0.18852946 0
1.1245104 0.042583596 -0.15814596 0
1.6454358 0.062310297 -0.19244535 0
2.591665 0.098142639 -0.24208029 0
3.4623842 0.13111553 -0.24222679 0
5.1829429 0.19627063 -0.24146307 0
10.393292 0.39357913 -0.2418219 0
0.8956387 0.056575663 -0.1907582 0
1.0121371 0.063934624 -0.19101696 0
1.1277128 0.071235314 -0.18571053 0
1.131729 0.071489006 -0.15936415 0
1.63515 0.10328908 -0.19148627 0
2.5784054 0.1628726 -0.24114893 0
3.4439921 0.21754993 -0.2412474 0
5.1884494 0.32774371 -0.24202788 0
10.379454 0.65564883 -0.24180792 0
0.88845092 0.078670673 -0.18958983 0
1.0156795 0.089936525 -0.19205275 0
1.1626202 0.10294785 -0.19182584 0
1.3530935 0.1198139 -0.19090058 0
1.6354672 0.14481758 -0.19189034 0
2.5742874 0.22794834 -0.24122503 0
3.4454281 0.30508626 -0.24181037 0
5.1763396 0.45835525 -0.2419256 0
10.351398 0.91659695 -0.24161629 0
0.8953554 0.10210814 -0.19155213 0
1.0123181 0.11544681 -0.191907 0
1.1430049 0.13035059 -0.18907204 0
1.3395627 0.15276642 -0.18947521 0
1.6275957 0.18561429 -0.19145547 0
2.5707583 0.29317448 -0.24151079 0
3.4390223 0.39219305 -0.24197844 0
5.1613083 0.588606 -0.24184039 0
10.330402 1.1781 -0.24174331 0
0.8856433 0.12370939 -0.19008179 0
1.0125121 0.14143081 -0.19255915 0
1.1479886 0.16035458 -0.19050522 0
1.3468368 0.18813032 -0.19111487 0
1.6299486 0.22767624 -0.19234693 0
2.5656333 0.35837558 -0.24180208 0
3.4311082 0.47926778 -0.24219558 0
5.1418142 0.71822447 -0.24169937 0
10.301527 1.4389491 -0.24184045 0
0.89355719 0.14788871 -0.19252011 0
0.99714351 0.1650328 -0.19036788 0
1.1519899 0.19066076 -0.19190668 0
1.3495774 0.22336258 -0.19224249 0
1.6166093 0.26755786 -0.19150871 0
2.5455563 0.42130375 -0.24083532 0
3.3996789 0.56266582 -0.24090275 0
5.1271977 0.84857982 -0.241942 0
10.264258 1.698792 -0.24189505 0
0.89261007 0.17097475 -0.19318426 0
1.0037444 0.19226192 -0.19249317 0
1.1414179 0.21863255 -0.19100392 0
1.3257495 0.25394031 -0.18970086 0
1.3417875 0.25701231 -0.15967003 0
1.3497169 0.25853112 -0.12827334 0
1.3366191 0.2560223 -0.095141008 0
1.3436803 0.25737485 -0.06369178 0
1.3369299 0.25608185 -0.03164931 0
1.3453952 0.25770333 3.9107115e-05 0
0.8777836 0.19121359 -0.19095908 0
0.99945492 0.21771809 -0.19266301 0
1.1334122 0.24689892 -0.19064632 0
1.2081872 0.26318768 -0.17377406 0
1.2110572 0.26381284 -0.14485957 0
1.1987444 0.26113066 -0.11451522 0
1.2106398 0.26372194 -0.086619958 0
1.2087274 0.26330534 -0.057591543 0
1.2057291 0.26265222 -0.028691173 0
1.1992635 0.26124373 3.5039946e-05 0
0.87580729 0.21406451 -0.19164348 0
0.99329799 0.24278156 -0.19259602 0
1.1245382 0.27485922 -0.19025993 0
1.2087181 0.29543445 -0.17486718 0
1.2010021 0.29354852 -0.14449704 0
1.2164826 0.29733226 -0.11688941 0
1.2054758 0.29464197 -0.086754918 0
1.2089579 0.2954931 -0.057939421 0
1.2081721 0.29530099 -0.028917447 0
1.2151845 0.29701495 3.5712779e-05 0
0.86320549 0.23421571 -0.19011894 0
0.98517525 0.26731005 -0.19226797 0
1.1141661 0.30230948 -0.18973559 0
1.2092695 0.32811412 -0.17608896 0
1.2039168 0.32666174 -0.14579323 0
1.2003906 0.32570496 -0.11609607 0
1.2049336 0.32693765 -0.08728195 0
1.2042743 0.32675874 -0.0580917 0
1.2061759 0.32727471 -0.029058119 0
1.1998565 0.32556003 3.5492489e-05 0
0.85820818 0.25627509 -0.19038224 0
0.98226345 0.29332006 -0.19308302 0
1.1095569 0.33133197 -0.19031414 0
1.2148054 0.3627609 -0.17817155 0
1.201654 0.35883367 -0.14656928 0
1.2034707 0.35937619 -0.11723387 0
1.2013479 0.3587423 -0.087650165 0
1.2055448 0.35999557 -0.058572624 0
1.2173979 0.36353508 -0.029540105 0
1.2163404 0.36321932 3.6239726e-05 0
0.8518573 0.27797368 -0.1904691 0
0.96015757 0.31331366 -0.1902315 0
1.1027213 0.35983437 -0.19063872 0
1.203406 0.39268923 -0.1778966 0
1.2137791 0.39607418 -0.14922 0
1.2051355 0.39325362 -0.11832522 0
1.2025619 0.39241379 -0.088433176 0
1.2140354 0.39615777 -0.059452005 0
1.2010707 0.39192721 -0.029374598 0
1.2077167 0.3940959 3.6267589e-05 0
0.84590143 0.29984945 -0.19076879 0
0.95546412 0.33868647 -0.1909344 0
1.090654 0.38660768 -0.19017884 0
1.201381 0.42585745 -0.17912911 0
1.2067204 0.42775008 -0.1496318 0
1.2116417 0.42949459 -0.11999014 0
1.1935978 0.42309853 -0.088531069 0
1.2098981 0.42887655 -0.059760451 0
1.2064959 0.42767051 -0.029761791 0
1.2096024 0.42877167 3.6637524e-05 0
0.843099 0.32302502 -0.19191431 0
0.94376916 0.36159575 -0.19036049 0
1.0898488 0.41756472 -0.19181505 0
1.2088282 0.46315053 -0.18192451 0
1.2018453 0.46047506 -0.1504205 0
1.2131126 0.46479201 -0.1212589 0
1.2184238 0.46682698 -0.091217317 0
1.1999605 0.45975292 -0.059823688 0
1.2105057 0.46379325 -0.030139865 0
1.2091317 0.46326679 3.6965648e-05 0
0.83577168 0.3446444 -0.19216521 0
0.95145947 0.3923502 -0.19384727 0
1.0817277 0.44606847 -0.19230597 0
1.1994697 0.49462137 -0.18233678 0
1.2041816 0.49656436 -0.152233 0
1.2073557 0.49787328 -0.12190069 0
1.203464 0.49626848 -0.091006078 0
1.2125437 0.50001264 -0.061060734 0
1.2104548 0.49915123 -0.030442575 0
1.2069575 0.49770904 3.7271344e-05 0
0.81502932 0.36041254 -0.18942721 0
0.93606383 0.41393501 -0.19277774 0
1.061981 0.46961659 -0.19084181 0
1.2085803 0.53444391 -0.18571307 0
1.202038 0.53155094 -0.15360913 0
1.1956391 0.52872127 -0.12202618 0
1.2024974 0.53175408 -0.091918595 0
1.2065674 0.53355384 -0.061418358 0
1.1959376 0.5288533 -0.030403484 0
1.2073114 0.53388286 3.7686375e-05 0
0.81651795 0.38598689 -0.19197625 0
0.91948283 0.43466076 -0.19156125 0
1.0509179 0.49679315 -0.19104612 0
1.2309705 0.58190823 -0.19134948 0
1.4726985 0.69617856 -0.19038174 0
1.8582052 0.87841654 -0.19184886 0
3.1178885 1.4738979 -0.24109738 0
4.7002358 2.2219102 -0.24203542 0
9.4137707 4.4501071 -0.24209793 0
0.80198306 0.40417948 -0.19089651 0
0.90971065 0.45847148 -0.19187498 0
1.047511 0.52791941 -0.19278757 0
1.2097824 0.6097002 -0.19038728 0
1.4590695 0.73533463 -0.19095828 0
1.8453667 0.93001878 -0.19288535 0
3.0907927 1.5576825 -0.24196514 0
4.6390219 2.3379512 -0.24184476 0
9.2925825 4.6832304 -0.24194404 0
0.79648119 0.42693967 -0.19209063 0
0.89698118 0.48081091 -0.1916886 0
1.0226438 0.54817015 -0.19069651 0
1.1963912 0.64130437 -0.19076633 0
1.4398165 0.77178818 -0.19092707 0
1.8157794 0.97331649 -0.19229923 0
3.0467906 1.6331784 -0.24167039 0
4.5780883 2.4540033 -0.24182007 0
9.1673613 4.9140019 -0.24183585 0
0.77167207 0.43905738 -0.18871976 0
0.88842142 0.50548416 -0.19252445 0
1.015246 0.57764339 -0.19197449 0
1.1863929 0.67502064 -0.19182755 0
1.2134525 0.69041669 -0.16316877 0
1.2176102 0.69278234 -0.13076054 0
3.0082519 1.7116017 -0.24196298 0
4.5154738 2.5691643 -0.24186076 0
9.0367298 5.1416183 -0.24173613 0
0.77767986 0.4688361 -0.19302142 0
0.87149018 0.52539104 -0.19166791 0
0.99759066 0.60141265 -0.19144529 0
1.1569182 0.69746566 -0.18984762 0
1.1492432 0.69283873 -0.1568362 0
1.1978382 0.72213495 -0.13055292 0
2.9622731 1.7858512 -0.24181312 0
4.4444575 2.6794086 -0.24160221 0
8.9061251 5.3691926 -0.24179043 0
0.7654323 0.48819953 -0.19297835 0
0.86101508 0.54916304 -0.19235118 0
0.98910123 0.63085753 -0.1928103 0
1.1506875 0.73391873 -0.19180374 0
1.1497537 0.73332316 -0.15938093 0
1.1777868 0.75120288 -0.1303924 0
2.9239154 1.8648992 -0.24244696 0
4.3765631 2.7914107 -0.24166429 0
8.7662725 5.591207 -0.24174778 0
0.74697453 0.50338316 -0.19146699 0
0.84299695 0.56809235 -0.19146807 0
0.96687257 0.65157163 -0.19162184 0
1.1212409 0.7555998 -0.19001368 0
1.1378675 0.7668044 -0.16036497 0
1.152982 0.77699 -0.129776 0
2.8618793 1.9286093 -0.24126236 0
4.3043776 2.9007032 -0.24164397 0
8.6245956 5.8120809 -0.24180904 0
0.73608989 0.52353072 -0.19200276 0
0.83259571 0.59216875 -0.19243899 0
0.94887364 0.67486936 -0.19136947 0
1.109449 0.78907567 -0.19132945 0
1.1390377 0.81012017 -0.16335952 0
1.1364055 0.80824798 -0.13016485 0
2.8171873 2.0036738 -0.24168098 0
4.2223244 3.0030522 -0.24121577 0
8.4742556 6.0271616 -0.24178192 0
0.7232796 0.54241121 -0.19217101 0
0.81786782 0.61334604 -0.19255157 0
0.92907143 0.69674128 -0.19086154 0
1.0920509 0.81896496 -0.19183259 0
1.1073171 0.83041352 -0.16176455 0
1.0973254 0.82292044 -0.12802678 0
1.0976361 0.8231535 -0.095915802 0
1.0934758 0.82003355 -0.063630939 0
1.0993752 0.82445771 -0.031950176 0
1.0970532 0.82271636 3.9147613e-05 0
1.0987918 0.82402027 0.032011688 0
1.096897 0.82259917 0.063908473 0
1.0964735 0.8222816 0.095892847 0
0.7105667 0.56143802 -0.1924969 0
0.79828304 0.63074511 -0.19162759 0
0.9162938 0.72398859 -0.1919293 0
1.0602295 0.8377161 -0.18989635 0
1.0955905 0.86565578 -0.16319123 0
1.0939695 0.86437494 -0.13013911 0
1.092988 0.86359948 -0.097383276 0
1.101432 0.87027133 -0.06535127 0
1.0910014 0.86202985 -0.032328822 0
1.097855 0.86744505 3.994476e-05 0
1.0891143 0.86053872 0.032352194 0
1.100868 0.86982572 0.06539809 0
1.1031853 0.8716566 0.098372504 0
0.70117062 0.58334386 -0.19387825 0
0.78544039 0.65345269 -0.19244245 0
0.89245158 0.74248141 -0.19079971 0
1.0169572 0.84606469 -0.18591134 0
1.1090488 0.92268103 -0.16861093 0
1.0978864 0.91339439 -0.13330504 0
1.0989887 0.91431135 -0.099942155 0
1.0988077 0.91416079 -0.066543333 0
1.0925967 0.90899348 -0.033045392 0
1.1030023 0.91765058 4.096168e-05 0
1.097631 0.91318178 0.033279222 0
1.0952595 0.91120893 0.066409983 0
1.0983557 0.91378474 0.099966571 0
0.68056297 0.5958882 -0.19227742 0
0.77193415 0.67589116 -0.19325134 0
0.87235707 0.76381958 -0.19056447 0
1.0018121 0.877168 -0.18713029 0
1.0957613 0.95942819 -0.17021807 0
1.1037992 0.96646595 -0.13694111 0
1.0862988 0.95114297 -0.1009391 0
1.0984312 0.96176583 -0.067968912 0
1.1011405 0.96413803 -0.034028936 0
1.1020863 0.96496624 4.1818799e-05 0
1.0955079 0.95920622 0.03393805 0
1.0954328 0.95914048 0.06786669 0
1.1032801 0.96601146 0.10260114 0
1.1006575 0.96371508 0.13663559 0
1.0873541 0.9520669 0.27230117 0
0.65935463 0.60738248 -0.19055587 0
0.74628502 0.68746078 -0.19111301 0
0.85066175 0.78361028 -0.19008501 0
0.96006864 0.88439339 -0.18344396 0
1.0633453 0.9795295 -0.16896909 0
1.1006372 1.0138819 -0.13967903 0
1.1000394 1.0133313 -0.10455906 0
1.100099 1.0133861 -0.06963259 0
1.0950699 1.0087535 -0.034617111 0
1.1026274 1.0157154 4.2798449e-05 0
1.1016604 1.0148245 0.034911014 0
1.0990021 1.0123757 0.069648661 0
1.0988927 1.012275 0.10453579 0
1.1047211 1.0176439 0.14028382 0
1.0401409 0.95815408 0.26644894 0
0.64632106 0.62624878 -0.19129616 0
0.73526514 0.71243066 -0.19283427 0
0.83691293 0.81092161 -0.19152519 0
0.83867192 0.812626 -0.16411486 0
0.83813858 0.81210923 -0.13639659 0
0.84237778 0.81621677 -0.10948349 0
0.83647352 0.81049585 -0.081425473 0
0.83708483 0.8110882 -0.054263141 0
0.8306371 0.80484068 -0.026891496 0
0.83454335 0.80862564 3.3174379e-05 0
0.84263074 0.81646186 0.027346812 0
0.83727181 0.81126934 0.054341972 0
0.84087968 0.81476516 0.081921563 0
1.0944207 1.0604322 0.14232917 0
1.0046406 0.97344029 0.19667377 0
1.0037478 0.97257519 0.22978684 0
0.98664361 0.9560023 0.25884324 0
0.6361261 0.64827949 -0.19305998 0
0.71300447 0.72662663 -0.19174477 0
0.82391036 0.83965135 -0.19333774 0
0.8351531 0.85110891 -0.16757645 0
0.84159148 0.85767031 -0.14043652 0
0.83651185 0.85249364 -0.11148204 0
0.8430295 0.85913581 -0.08414764 0
0.83885312 0.85487962 -0.055758674 0
0.83461148 0.85055697 -0.027706333 0
0.842372 0.85846573 3.4335939e-05 0
0.8390016 0.85503095 0.027920505 0
0.83778387 0.85378993 0.055756044 0
0.83334512 0.84926641 0.083249249 0
0.83831859 0.85433489 0.11179176 0
1.1006688 1.1216974 0.18375975 0
0.93610674 0.95399129 0.18791096 0
0.94726062 0.96535832 0.22236226 0
0.9578864 0.97618711 0.25768054 0
0.6146912 0.65889686 -0.19154069 0
0.69288158 0.74271035 -0.19131339 0
0.79133475 0.84824371 -0.19065665 0
0.84056866 0.90101832 -0.17317097 0
0.84229219 0.90286577 -0.14431003 0
0.8419832 0.9025346 -0.11521029 0
0.84166795 0.90219671 -0.086257122 0
0.83793664 0.89819705 -0.057186395 0
0.84020376 0.9006272 -0.02863745 0
0.84107083 0.90155661 3.5199184e-05 0
0.83981794 0.9002136 0.028694632 0
0.83680254 0.89698142 0.05717919 0
0.83778143 0.89803064 0.085929282 0
0.8359468 0.8960641 0.1144549 0
1.0959584 1.1747745 0.18786369 0
0.92733973 0.99402958 0.19112639 0
0.93257177 0.9996379 0.22476512 0
0.93234897 0.99939907 0.25751418 0
0.5939849 0.66981429 -0.19029574 0
0.67561698 0.76186764 -0.19179463 0
0.77311957 0.87181765 -0.19150846 0
0.84662092 0.95470232 -0.17932485 0
0.83440447 0.94092625 -0.14698057 0
0.83804309 0.94502944 -0.11789727 0
0.83446455 0.94099402 -0.087924853 0
0.84234744 0.94988328 -0.059104748 0
0.8436262 0.9513253 -0.029563058 0
0.84551668 0.95345712 3.6380759e-05 0
0.84162956 0.94907373 0.029565556 0
0.83500111 0.94159913 0.058661297 0
0.84207094 0.94957149 0.088799134 0
0.84367627 0.95138174 0.11876299 0
1.09263 1.2321175 0.1925624 0
1.0975794 1.2376987 0.23257729 0
0.59238797 0.70297211 -0.19540603 0
0.65516901 0.77747273 -0.19149935 0
0.73410589 0.87114525 -0.18723114 0
0.84539485 1.0032091 -0.18436953 0
0.84136993 0.99843282 -0.15259784 0
0.83948278 0.99619335 -0.12159823 0
0.83473063 0.99055409 -0.090558283 0
0.83952761 0.99624658 -0.060651869 0
0.84169173 0.99881464 -0.030368997 0
0.8382169 0.99469119 3.7135054e-05 0
0.83093286 0.98604739 0.030054471 0
0.83654833 0.99271113 0.060510911 0
0.84260356 0.99989676 0.09148743 0
0.84162253 0.99873251 0.12198339 0
0.84215134 0.99936008 0.15281521 0
1.0955623 1.3000767 0.23902678 0
0.56643987 0.70767164 -0.19267702 0
0.64353317 0.80398679 -0.19396764 0
0.72705358 0.90833151 -0.19121861 0
0.8494693 1.0612695 -0.19103883 0
0.84435648 1.0548818 -0.15791801 0
0.83713204 1.0458561 -0.12504141 0
0.84201044 1.0519509 -0.094198443 0
0.83451444 1.0425858 -0.062170941 0
0.8393926 1.0486803 -0.031231074 0
0.8405351 1.0501076 3.8399707e-05 0
0.83849829 1.0475631 0.031274453 0
0.83812416 1.0470957 0.062516607 0
0.84060049 1.0501894 0.09411788 0
0.8450619 1.0557631 0.12630376 0
0.83905071 1.0482532 0.15700339 0
1.0975211 1.3711685 0.24692592 0
1.0978434 1.3715712 0.28884116 0
0.54894543 0.72245032 -0.19286713 0
0.61498922 0.80936861 -0.19146036 0
0.70468211 0.92741066 -0.19142999 0
0.72817802 0.95833284 -0.16914706 0
0.73229045 0.96374512 -0.14146276 0
0.72985137 0.96053511 -0.1126023 0
0.725573 0.95490456 -0.083841749 0
0.7176972 0.94453937 -0.055226535 0
0.72609353 0.95558959 -0.027904056 0
0.73388183 0.96583945 3.4629891e-05 0
0.72949141 0.96006137 0.028103517 0
0.73353136 0.96537822 0.056514345 0
0.7336762 0.96556884 0.084847666 0
0.72669441 0.95638031 0.11218441 0
0.72746152 0.95738989 0.1405995 0
0.72231442 0.950616 0.16785455 0
0.73085475 0.96185565 0.19861074 0
0.72645986 0.95607167 0.22623472 0
0.53209656 0.73822677 -0.19343206 0
0.58786213 0.81559557 -0.18936329 0
0.67737126 0.93977988 -0.19039364 0
0.72400403 1.0044779 -0.17401107 0
0.95397931 1.3235438 -0.19068067 0
0.84312975 1.1697519 -0.13459106 0
0.82662749 1.1468569 -0.098832093 0
0.8433345 1.1700361 -0.067145266 0
0.83581758 1.1596072 -0.033234965 0
0.83120412 1.1532065 4.0582767e-05 0
0.84139448 1.1673445 0.033538926 0
0.8330192 1.1557246 0.06640549 0
0.83639002 1.1604012 0.10008138 0
0.83820522 1.1629198 0.13388751 0
0.8427977 1.1692913 0.16854119 0
0.83626992 1.1602347 0.20107692 0
1.0995921 1.525566 0.30918059 0
0.5064432 0.74137807 -0.19084778 0
0.57006836 0.83451843 -0.19035557 0
0.65324557 0.95628083 -0.19033581 0
0.7632755 1.1173528 -0.19016717 0
0.92083544 1.3480034 -0.19079548 0
1.1534439 1.6885171 -0.19086954 0
0.84650666 1.2391942 -0.10491484 0
0.83932042 1.2286743 -0.069272622 0
0.83833814 1.2272364 -0.034555826 0
0.8411116 1.2312964 4.2570227e-05 0
0.83655 1.2246188 0.034566846 0
0.84015942 1.2299025 0.069427103 0
0.84257859 1.233444 0.1045137 0
0.83799386 1.2267324 0.13875508 0
0.84214866 1.2328146 0.17457815 0
0.83422744 1.2212187 0.20793068 0
1.0963967 1.6050061 0.31957048 0
1.1053026 1.6180434 0.36919528 0
0.49105415 0.75929779 -0.19220909 0
0.54893297 0.84879351 -0.19039087 0
0.62905711 0.97268641 -0.19038042 0
0.73664069 1.1390387 -0.19063301 0
0.88480043 1.3681322 -0.19042307 0
1.1083903 1.7138605 -0.19051144 0
1.4819003 2.2914045 -0.19077159 0
0.85094309 1.3157799 -0.072949536 0
0.83442104 1.2902325 -0.035725266 0
0.83497876 1.2910949 4.3895088e-05 0
0.83617735 1.2929482 0.035888426 0
0.84032875 1.2993674 0.072128139 0
0.84412384 1.3052356 0.10875698 0
0.84159762 1.3013295 0.14474405 0
0.83577853 1.2923316 0.17996186 0
0.84118444 1.3006905 0.21777776 0
0.84159136 1.3013197 0.25479352 0
1.1029481 1.7054454 0.3826645 0
0.47429737 0.77562797 -0.1932511 0
0.53280091 0.87129998 -0.19236164 0
0.60347283 0.98687112 -0.19011509 0
0.70767856 1.1572809 -0.1906361 0
0.85180038 1.3929662 -0.19082654 0
1.0694717 1.7489285 -0.19134818 0
1.4172759 2.3176997 -0.18992223 0
0.84676248 1.3847276 -0.0755632 0
0.84820485 1.3870864 -0.037802253 0
0.84116095 1.3755673 4.6030564e-05 0
0.84188759 1.3767556 0.037612896 0
0.84651989 1.3843309 0.075634398 0
0.84068006 1.3747809 0.11274789 0
0.84763479 1.3861541 0.15175104 0
0.83833045 1.3709385 0.18790191 0
0.83120006 1.3592781 0.22400336 0
0.83776098 1.3700073 0.26401827 0
1.1019329 1.8020128 0.39796507 0
0.44847494 0.77677983 -0.19065717 0
0.50844389 0.88064885 -0.19153152 0
0.57689834 0.99921513 -0.18962775 0
0.67743754 1.1733538 -0.19040662 0
0.8118279 1.4061242 -0.18976173 0
1.0288737 1.7820579 -0.19207054 0
1.3650104 2.3642623 -0.19085389 0
1.3735336 2.3790252 -0.12788858 0
0.84809709 1.4689442 -0.039437212 0
0.83889127 1.4529994 4.7897913e-05 0
0.84349972 1.4609814 0.039319802 0
0.84100842 1.4566664 0.078401841 0
0.83946174 1.4539874 0.11746873 0
0.84197593 1.4583421 0.15727739 0
0.84324372 1.460538 0.19720267 0
0.83878976 1.4528235 0.23585539 0
0.84034544 1.455518 0.27632195 0
0.84271359 1.4596199 0.31755105 0
0.43052477 0.79114008 -0.19145384 0
0.49028277 0.90095246 -0.19319454 0
0.5549404 1.0197685 -0.19080949 0
0.64903611 1.1926805 -0.19082385 0
0.78102219 1.4352205 -0.19096731 0
0.97797817 1.7971504 -0.19097604 0
1.2940668 2.3780005 -0.18926609 0
1.2878121 2.3665068 -0.12542842 0
1.2923913 2.3749216 -0.062864527 0
0.85027349 1.5624779 5.0783259e-05 0
0.83945185 1.5425918 0.040932965 0
0.84532779 1.5533895 0.082433179 0
0.84309381 1.5492843 0.12340941 0
0.84143513 1.5462364 0.16441381 0
0.84255898 1.5483016 0.20611565 0
0.84629232 1.5551621 0.24892247 0
0.83631581 1.536829 0.28765959 0
0.83781552 1.5395849 0.33024248 0
0.41234106 0.80549085 -0.19234695 0
0.46631771 0.91093194 -0.19274934 0
0.5245775 1.0247401 -0.18920216 0
0.61653769 1.2043803 -0.19014557 0
0.74986875 1.464837 -0.19232851 0
0.93271387 1.8220172 -0.19105612 0
1.2454395 2.4329135 -0.19107395 0
1.2460861 2.4341767 -0.12730759 0
1.2380928 2.4185619 -0.06317243 0
1.240319 2.4229107 7.7706631e-05 0
0.84987366 1.6601924 0.043470494 0
0.83780545 1.6366175 0.0857004 0
0.83828652 1.6375573 0.12871455 0
0.83681524 1.6346833 0.17151812 0
0.83727032 1.6355722 0.21485187 0
0.83740216 1.6358298 0.25836909 0
0.83656806 1.6342005 0.30183709 0
0.83789301 1.6367886 0.34644625 0
0.39074257 0.8132574 -0.1917855 0
0.43952394 0.91478664 -0.19115685 0
0.50631529 1.0538003 -0.19214708 0
0.58703023 1.2217933 -0.19049489 0
0.70903039 1.4757137 -0.19134609 0
0.89058477 1.8535851 -0.19194822 0
1.185551 2.4675021 -0.19137952 0
1.7804384 3.7056487 -0.19139452 0
4.5017238 9.3694935 -0.24168493 0
0.84567267 1.7601089 0.091020301 0
0.83968139 1.7476393 0.13565819 0
0.83900404 1.7462295 0.18094257 0
0.83935678 1.7469637 0.22662947 0
0.83538532 1.7386978 0.27119997 0
0.83609343 1.7401717 0.31741133 0
0.83984774 1.7479855 0.36537948 0
0.37023562 0.8231613 -0.19185635 0
0.41737399 0.92796606 -0.19164859 0
0.474379 1.0547079 -0.19006892 0
0.55565715 1.2354172 -0.19037186 0
0.6727519 1.4957591 -0.19168258 0
0.84625208 1.8815098 -0.19256684 0
1.1164522 2.4822576 -0.19027784 0
1.6914877 3.7607596 -0.19197483 0
4.2711778 9.4962988 -0.24209806 0
1.0689952 2.3767445 0.12147438 0
0.8485713 1.8866663 0.1447414 0
0.83924508 1.8659308 0.19109021 0
0.84192455 1.8718882 0.24000256 0
0.83774483 1.8625952 0.2871359 0
0.83945179 1.8663905 0.33646226 0
0.8368116 1.8605204 0.38436538 0
0.34854043 0.83031535 -0.19141251 0
0.39361379 0.93769205 -0.19154453 0
0.44855839 1.0685846 -0.1904688 0
0.52599955 1.2530698 -0.1909855 0
0.63621312 1.5156276 -0.19210979 0
0.7952745 1.8945539 -0.19178648 0
1.0599706 2.52513 -0.19145255 0
1.5950449 3.7998183 -0.19185255 0
4.0227427 9.5832367 -0.24164908 0
0.9953503 2.3711874 0.11986823 0
0.84745747 2.0188675 0.15319392 0
0.83857763 1.9977134 0.20235415 0
0.83720082 1.9944334 0.25292486 0
0.83936149 1.9995807 0.30489054 0
0.84298378 2.0082102 0.35807914 0
0.83882332 1.9982988 0.40832528 0
0.32453275 0.83129615 -0.18968996 0
0.37535727 0.96148396 -0.19440746 0
0.42490467 1.0884005 -0.19202819 0
0.49267563 1.2619969 -0.19039027 0
0.59642041 1.527741 -0.19167614 0
0.7486009 1.9175538 -0.19214095 0
1.000751 2.5634406 -0.19238092 0
1.4972415 3.8352094 -0.19167046 0
3.780201 9.6830482 -0.24168316 0
0.93240392 2.3883684 0.11950907 0
0.84546816 2.1656811 0.16266328 0
0.84009695 2.1519225 0.215758 0
0.83955973 2.1505463 0.26994926 0
0.84199423 2.1567826 0.32551625 0
0.83949453 2.1503794 0.37953016 0
0.83983719 2.151257 0.43511045 0
0.30923235 0.85519725 -0.19330138 0
0.3426722 0.94767684 -0.18980655 0
0.39594671 1.09501 -0.19137025 0
0.4388724 1.2137232 -0.18137863 0
0.43487698 1.2026737 -0.14946729 0
0.43641087 1.2069157 -0.11979243 0
0.93167996 2.5766068 -0.19154328 0
1.4023886 3.8783746 -0.19199765 0
3.5364449 9.7802124 -0.24180351 0
0.85866928 2.3746922 0.11770283 0
0.84616542 2.340112 0.1741052 0
0.83890557 2.3200345 0.23041713 0
0.84133166 2.3267441 0.28930902 0
0.83699495 2.3147507 0.34605938 0
0.83863693 2.3192916 0.40547734 0
0.84059036 2.3246939 0.46575016 0
0.2841624 0.85254443 -0.19101983 0
0.32363051 0.97095668 -0.19277184 0
0.36644059 1.0993956 -0.1904597 0
0.40255791 1.2077549 -0.17891142 0
0.402576 1.2078091 -0.14879538 0
0.40379098 1.2114543 -0.11919341 0
0.86652881 2.599761 -0.19157772 0
1.3008252 3.9027376 -0.19151743 0
3.2914472 9.8750048 -0.2420162 0
0.78931487 2.3681035 0.1163518 0
0.84770042 2.5432718 0.18756883 0
0.83960217 2.5189755 0.24799165 0
0.84046251 2.5215566 0.31079563 0
0.83785456 2.5137324 0.37252742 0
0.84118026 2.5237103 0.43736449 0
0.83740848 2.512394 0.49896234 0
0.26429719 0.86512446 -0.19228266 0
0.29586923 0.96846926 -0.19073467 0
0.33814096 1.1068374 -0.19020985 0
0.38009399 1.2441623 -0.18282536 0
0.3807601 1.2463427 -0.1523101 0
0.38070342 1.2461572 -0.12162367 0
0.72668374 2.3786552 -0.1738774 0
0.72365534 2.3687422 -0.11530731 0
0.72635263 2.3775711 -0.057801716 0
0.72597373 2.3763311 7.0935632e-05 0
0.7234931 2.3682113 0.057715628 0
0.72319776 2.3672445 0.11537603 0
0.84161222 2.7548509 0.20154221 0
0.83630508 2.7374787 0.26734 0
0.83539343 2.7344947 0.33433616 0
0.83330518 2.7276592 0.40098616 0
0.83478588 2.732506 0.46974832 0
0.2437378 0.87638122 -0.19335574 0
0.27256018 0.98001462 -0.19159265 0
0.31059372 1.1167678 -0.19050857 0
0.36512348 1.3128343 -0.19150132 0
0.4391273 1.5789217 -0.19153772 0
0.5508858 1.9807595 -0.19190201 0
0.6600731 2.3733523 -0.17221712 0
0.65661854 2.3609312 -0.11408402 0
0.66089332 2.3763013 -0.057347067 0
0.65953112 2.3714035 7.0269263e-05 0
0.65661091 2.3609037 0.057115465 0
0.66143787 2.3782592 0.11506259 0
0.81216455 2.9202106 0.21207263 0
0.81163031 2.9182899 0.28290725 0
0.8108837 2.9156053 0.35386488 0
0.80922329 2.9096351 0.42460027 0
0.81311333 2.9236221 0.49891645 0
0.21944261 0.8738668 -0.19151802 0
0.24882515 0.99087429 -0.19242667 0
0.28366947 1.1296318 -0.19142075 0
0.33299193 1.3260442 -0.1921411 0
0.39693353 1.5806731 -0.19047423 0
0.4992623 1.988168 -0.19133802 0
0.59324175 2.3624139 -0.17028271 0
0.59616137 2.3740406 -0.11395412 0
0.59666967 2.3760645 -0.056959786 0
0.59621567 2.3742568 6.988566e-05 0
0.59639031 2.3749521 0.057073005 0
0.5966711 2.3760705 0.11419174 0
0.77083313 3.0696204 0.22143972 0
0.76610327 3.0507851 0.29378372 0
0.76682478 3.0536582 0.36815405 0
0.76777768 3.0574529 0.44320226 0
0.19696175 0.87751043 -0.19116622 0
0.22527145 1.0036367 -0.19373928 0
0.25461289 1.1343596 -0.19107211 0
0.29721025 1.3241408 -0.19071764 0
0.35405216 1.5773847 -0.18894099 0
0.44705498 1.9917339 -0.19053465 0
0.55140179 2.4566233 -0.17601414 0
0.54989767 2.4499221 -0.11689303 0
0.55151546 2.4571297 -0.058550771 0
0.55154234 2.4572496 7.1895898e-05 0
0.55348569 2.4659076 0.058904316 0
0.55014157 2.4510086 0.11708861 0
0.71386999 3.1804569 0.22806299 0
0.71259546 3.1747787 0.30389529 0
0.71213728 3.1727374 0.38022241 0
0.71270895 3.1752844 0.45752963 0
0.17722 0.89462596 -0.19385871 0
0.19852661 1.0021842 -0.19243035 0
0.22378495 1.129691 -0.18927407 0
0.26470828 1.3362765 -0.19144234 0
0.31794351 1.6050137 -0.19122835 0
0.39477956 1.9928905 -0.18963173 0
0.4130511 2.0851274 -0.14860263 0
0.41542482 2.0971103 -0.099527374 0
0.41348371 2.0873113 -0.04947396 0
0.41457763 2.0928333 6.0908009e-05 0
0.41354543 2.0876226 0.049602922 0
0.41299644 2.0848515 0.099067189 0
0.41433612 2.0916142 0.14918728 0
0.41521186 2.096035 0.19956942 0
0.4147267 2.093586 0.24956249 0
0.40800589 2.0596585 0.29520026 0
0.29392144 1.4837477 0.2486832 0
0.27016571 1.3638262 0.2619518 0
0.15202686 0.88390267 -0.19064289 0
0.17182519 0.99901253 -0.19092789 0
0.19532166 1.1356239 -0.18938185 0
0.23160306 1.3465685 -0.19201821 0
0.28063884 1.6316684 -0.19349857 0
0.34657952 2.0150557 -0.19084772 0
0.36767986 2.1377356 -0.15164226 0
0.88071162 5.1205645 -0.24188642 0
1.7632009 10.251465 -0.24185093 0
0.58099556 3.377979 0.15976588 0
0.58141953 3.380444 0.23999175 0
0.58102006 3.3781214 0.3201423 0
0.2613681 1.519626 0.18030077 0
0.27187115 1.5806921 0.2254972 0
0.27154893 1.5788186 0.26338497 0
0.23589186 1.3715041 0.26219949 0
0.13125432 0.8982535 -0.19296215 0
0.14630184 1.0012329 -0.19058582 0
0.1660696 1.1365156 -0.18877146 0
0.1965187 1.3448975 -0.19101183 0
0.23837322 1.6313336 -0.19268402 0
0.2968595 2.0315909 -0.19164315 0
0.39585057 2.7090473 -0.19139913 0
0.75105691 5.1399412 -0.24182928 0
1.5041537 10.293842 -0.24187803 0
0.50712055 3.4705355 0.16348605 0
0.50413692 3.4501169 0.2439571 0
0.50523651 3.4576418 0.32636601 0
0.22009511 1.5062453 0.1779974 0
0.2732684 1.8701427 0.2657209 0
0.20039603 1.3714324 0.2611357 0
0.1083092 0.8992905 -0.19253638 0
0.12143189 1.0082481 -0.19127689 0
0.13771984 1.1434869 -0.18929173 0
0.1634779 1.3573557 -0.19213405 0
0.19627801 1.6296947 -0.19184424 0
0.24650781 2.0467525 -0.19242518 0
0.32528064 2.7008026 -0.19017604 0
0.61998868 5.1477613 -0.24138412 0
1.2442529 10.331022 -0.24193671 0
0.42485437 3.5275626 0.16561455 0
0.42360702 3.5172057 0.24786602 0
0.42351708 3.5164592 0.33080345 0
0.42357019 3.5168998 0.4142071 0
0.23053643 1.9141421 0.27105957 0
0.16539603 1.373282 0.26061001 0
0.084839456 0.89388442 -0.19085974 0
0.095921211 1.010644 -0.19121122 0
0.11007313 1.1597512 -0.19146325 0
0.12878001 1.3568503 -0.19154143 0
0.15506773 1.6338227 -0.19180837 0
0.19389269 2.0428898 -0.19154096 0
0.25806516 2.719023 -0.19093958 0
0.49249765 5.1890478 -0.24265994 0
0.98216909 10.348317 -0.24168426 0
0.34034789 3.5859692 0.16789991 0
0.33948714 3.5769002 0.25138894 0
0.33941904 3.5761828 0.33550909 0
0.33926028 3.5745101 0.41985002 0
0.3390609 3.5724094 0.50451249 0
0.17181924 1.8103198 0.29897222 0
0.12904783 1.3596721 0.2573272 0
0.06268964 0.90193808 -0.19218029 0
0.070835546 1.0191362 -0.19241841 0
0.080662183 1.1605154 -0.19119243 0
0.094886154 1.3651607 -0.19231527 0
0.11367512 1.6354842 -0.1916056 0
0.1409438 2.0278084 -0.18973298 0
0.18967924 2.7289824 -0.19124188 0
0.36016703 5.1818509 -0.24182127 0
0.7204423 10.365258 -0.24157831 0
0.25276449 3.6366124 0.16991828 0
0.25153682 3.6189492 0.2538172 0
0.13149194 1.8918213 0.17711848 0
0.13188994 1.8975474 0.22241777 0
0.13311422 1.9151614 0.26990768 0
0.12484888 1.7962451 0.29603314 0
0.095826037 1.3786832 0.26038453 0
0.039783493 0.90030402 -0.19155717 0
0.044874854 1.015522 -0.19146122 0
0.050914157 1.1521921 -0.18954912 0
0.060347695 1.3656738 -0.19211181 0
0.072218917 1.6343207 -0.19119486 0
0.089914702 2.0347779 -0.1901122 0
0.12046197 2.7260654 -0.19076365 0
0.22937517 5.1907811 -0.24189083 0
0.45907757 10.388968 -0.24178386 0
0.16195242 3.6649981 0.17099914 0
0.16180134 3.6615789 0.256439 0
0.085351281 1.9315072 0.18057483 0
0.08517798 1.9275855 0.2256148 0
0.085388981 1.9323604 0.27194124 0
0.075970046 1.7192091 0.282931 0
0.060857024 1.3772 0.25973162 0
0.016958252 0.89589548 -0.19046745 0
0.019326681 1.0210184 -0.19234426 0
0.021985503 1.1614825 -0.19092542 0
0.025843093 1.3652771 -0.19190311 0
0.03127376 1.6521763 -0.1931299 0
0.038647413 2.0417225 -0.19060922 0
0.052059934 2.750299 -0.19230627 0
0.098122202 5.1837444 -0.24137065 0
0.19687048 10.400563 -0.24186105 0
0.070086092 3.7026112 0.17261657 0
0.069802627 3.6876361 0.25805834 0
0.069730245 3.6838121 0.34412208 0
0.069952458 3.6955514 0.43220261 0
0.031624321 1.6706963 0.27472836 0
0.025898131 1.3681846 0.25782597 0
-0.0056869606 0.90166593 -0.19166373 0
-0.0063809389 1.011696 -0.19055772 0
-0.0072740871 1.1533043 -0.18955089 0
-0.008677966 1.3758889 -0.19336393 0
-0.010357002 1.6420995 -0.19192141 0
-0.012835741 2.0351028 -0.18996097 0
-0.017274857 2.7389233 -0.19148037 0
-0.032726835 5.1888299 -0.24156898 0
-0.065605186 10.401683 -0.24184857 0
-0.023454031 3.7186296 0.17333575 0
-0.023405846 3.71099 0.25965127 0
-0.023394112 3.7091293 0.34643191 0
-0.023412172 3.711993 0.43405634 0
-0.010378039 1.645435 0.27053133 0
-0.0086672697 1.374193 0.258917 0
-0.028656021 0.90823859 -0.19315307 0
-0.032392759 1.0266727 -0.19347103 0
-0.036413901 1.1541208 -0.18977569 0
-0.043270733 1.3714447 -0.19283144 0
-0.052001312 1.6481562 -0.19272131 0
-0.065049283 2.0617051 -0.19253603 0
-0.086460158 2.7403126 -0.191669 0
-0.11995692 3.801976 -0.17708775 0
-0.11947186 3.786602 -0.088083997 0
-0.11986632 3.7991042 0.00010851227 0
-0.11991966 3.8007948 0.088631392 0
-0.11759053 3.7269745 0.17380771 0
-0.11703472 3.7093582 0.25966108 0
-0.11724018 3.7158699 0.34722728 0
-0.11723319 3.7156487 0.4346914 0
-0.051581811 1.6348603 0.26892111 0
-0.043403298 1.3756462 0.25931463 0
-0.051070131 0.89856082 -0.19130813 0
-0.057995286 1.0204064 -0.19250472 0
-0.065906577 1.1596028 -0.19088985 0
-0.076929219 1.3535422 -0.19052659 0
-0.093064323 1.6374338 -0.19168113 0
-0.11725938 2.0631371 -0.19288471 0
-0.15635391 2.7509916 -0.19263062 0
-0.21557847 3.7930264 -0.17686801 0
-0.21525899 3.7874055 -0.088200979 0
-0.21504782 3.78369 0.00010819257 0
-0.21546488 3.791028 0.088502266 0
-0.21244785 3.7379444 0.17451377 0
-0.212109 3.7319825 0.26153627 0
-0.21233383 3.7359383 0.34949204 0
-0.078862242 1.3875531 0.16251007 0
-0.077561453 1.3646662 0.19217201 0
-0.078254029 1.3768519 0.22673354 0
-0.077714227 1.3673542 0.25803912 0
-0.074422769 0.90547031 -0.1931176 0
-0.083481409 1.0156829 -0.19194998 0
-0.095008656 1.1559302 -0.1906193 0
-0.11135294 1.354784 -0.19103615 0
-0.1352395 1.6454016 -0.19295199 0
-0.16892329 2.055218 -0.19248165 0
-0.22478153 2.7348218 -0.19183454 0
-0.4253166 5.1746469 -0.24171625 0
-0.85293621 10.377314 -0.24209079 0
-0.30608851 3.7240491 0.17417026 0
-0.30523852 3.7137077 0.26071244 0
-0.30619022 3.7252867 0.34910738 0
-0.30570424 3.7193739 0.43637735 0
-0.11457539 1.3939903 0.196646 0
-0.11367473 1.3830323 0.22815108 0
-0.11195176 1.3620697 0.25749308 0
-0.096114762 0.89280576 -0.19087312 0
-0.1099153 1.0209984 -0.19341721 0
-0.12416413 1.1533551 -0.19065075 0
-0.14612128 1.3573141 -0.19185184 0
-0.17599326 1.6347936 -0.19216771 0
-0.2187483 2.0319433 -0.19075817 0
-0.29312873 2.7228599 -0.19145346 0
-0.55501217 5.1554832 -0.24139854 0
-1.1128998 10.337677 -0.2417444 0
-0.39967605 3.7125733 0.1740499 0
-0.39941648 3.7101619 0.2610881 0
-0.39854649 3.7020807 0.34776458 0
-0.39979309 3.7136602 0.43675175 0
-0.14933118 1.3871309 0.19614758 0
-0.14957593 1.3894042 0.22975184 0
-0.14650372 1.3608665 0.25788254 0
-0.11772425 0.88344556 -0.1894469 0
-0.13360822 1.0026447 -0.19051844 0
-0.15539269 1.1661232 -0.19334805 0
-0.18117671 1.3596158 -0.19276215 0
-0.21833609 1.6384733 -0.19318649 0
-0.27142879 2.0369005 -0.19180559 0
-0.36149576 2.7127955 -0.19132639 0
-0.68562979 5.145215 -0.24165106 0
-1.3729011 10.302748 -0.24166094 0
-0.492955 3.6993136 0.17395616 0
-0.49156737 3.6889002 0.26038203 0
-0.24339759 1.826544 0.17210342 0
-0.24370483 1.8288496 0.21573986 0
-0.18673719 1.4013437 0.19876051 0
-0.1861663 1.3970596 0.23172089 0
-0.18152648 1.3622407 0.25892866 0
-0.14255373 0.89639705 -0.19293432 0
-0.15840779 0.99608952 -0.18997204 0
-0.18100426 1.1381791 -0.18941194 0
-0.21523264 1.3534118 -0.1925914 0
-0.25710621 1.6167185 -0.19132565 0
-0.31999344 2.0121617 -0.19017601 0
-0.42794964 2.6910048 -0.19049066 0
-0.81530041 5.126719 -0.24167185 0
-1.6312211 10.257338 -0.24148458 0
-0.58149529 3.6565206 0.17257905 0
-0.58203489 3.6599135 0.25929034 0
-0.28044173 1.7634554 0.1667728 0
-0.27983865 1.7596631 0.20834512 0
-0.27921546 1.7557443 0.2499471 0
-0.21964067 1.3811301 0.26348886 0
-0.16420814 0.88755751 -0.19186267 0
-0.18551826 1.0027404 -0.19207232 0
-0.21063752 1.1385118 -0.19029142 0
-0.24967405 1.3495072 -0.19287105 0
-0.29767999 1.608983 -0.19123843 0
-0.37283984 2.0152276 -0.19129424 0
-0.49532679 2.6772788 -0.19034337 0
-0.94342959 5.0993085 -0.24142531 0
-1.8916295 10.224401 -0.24175617 0
-0.66842264 3.612875 0.17126077 0
-0.66820228 3.6116838 0.25698641 0
-0.66856247 3.613631 0.34323335 0
-0.66733557 3.6069996 0.42892841 0
-0.28793368 1.5563034 0.26021412 0
-0.25792757 1.3941181 0.26712352 0
-0.18783581 0.88921976 -0.1931853 0
-0.20819564 0.98560369 -0.18973593 0
-0.2375277 1.1244625 -0.18888506 0
-0.27874705 1.3195961 -0.1895413 0
-0.3402026 1.6105282 -0.19238138 0
-0.42417347 2.0080485 -0.191568 0
-0.56453973 2.6725461 -0.1909591 0
-0.61804479 2.9258406 -0.13921727 0
-0.61780286 2.9246953 -0.069501035 0
-0.61537009 2.9131784 8.5001782e-05 0
-0.75596797 3.5787728 0.17049438 0
-0.75230002 3.5614085 0.25467902 0
-0.75388187 3.568897 0.34068313 0
-0.75421321 3.5704656 0.42671168 0
-0.28964478 1.371186 0.26404622 0
-0.20870481 0.87785828 -0.1918003 0
-0.23582774 0.99194324 -0.19204099 0
-0.27076194 1.1388842 -0.19239424 0
-0.31337336 1.3181173 -0.1904043 0
-0.37371418 1.571924 -0.18883656 0
-0.47267777 1.9881865 -0.19075052 0
-0.52268732 2.1985376 -0.15798245 0
-0.62040979 2.6095798 -0.12487426 0
-0.61963075 2.606303 -0.062286716 0
-0.62083042 2.6113491 7.6627693e-05 0
-0.83551621 3.5143647 0.16837695 0
-0.83657634 3.5188236 0.25306308 0
-0.83514863 3.5128186 0.33723468 0
-0.83337384 3.5053532 0.42130962 0
-0.83849394 3.5268896 0.50967634 0
-0.23259564 0.87914687 -0.1933029 0
-0.25991207 0.98239547 -0.19140159 0
-0.29939139 1.1316162 -0.19238171 0
-0.34964687 1.321568 -0.19211634 0
-0.41487175 1.5680999 -0.18957469 0
-0.52237856 1.9744459 -0.19063646 0
-0.58284414 2.2029889 -0.15930866 0
-0.64928114 2.4541023 -0.11818084 0
-0.64857298 2.4514256 -0.058957808 0
-0.64806575 2.4495084 7.2335555e-05 0
-0.91497827 3.4583635 0.1667472 0
-0.91333687 3.4521596 0.24984704 0
-0.91229063 3.4482052 0.33313611 0
-0.91079801 3.4425633 0.41639316 0
-0.91305882 3.4511087 0.50189549 0
-0.25450298 0.87231171 -0.19315085 0
-0.28493831 0.97662914 -0.19161825 0
-0.32732037 1.1218941 -0.19207217 0
-0.34350058 1.177352 -0.17235705 0
-0.46274877 1.5860764 -0.19309841 0
-0.57218874 1.9611832 -0.19068953 0
-0.71244437 2.4419107 -0.17782994 0
-0.71546292 2.4522569 -0.11892369 0
-0.71660841 2.456183 -0.059488267 0
-0.71453607 2.44908 7.2832278e-05 0
-0.98497832 3.3760238 0.16392356 0
-0.98465616 3.3749197 0.24597715 0
-0.98385292 3.3721664 0.32808441 0
-0.98182559 3.3652177 0.4099046 0
-0.98255962 3.3677337 0.4932197 0
-0.27631956 0.86526299 -0.19307283 0
-0.31043583 0.97209412 -0.19220454 0
-0.3508268 1.0985738 -0.18953523 0
-0.38078555 1.1923862 -0.17590889 0
-0.38982165 1.2206817 -0.14976323 0
-0.39814022 1.2467303 -0.12216008 0
-0.39860052 1.2481718 -0.091600433 0
-0.3991369 1.2498513 -0.061081387 0
-0.39900869 1.2494498 -0.030495625 0
-0.39742467 1.2444897 3.7295831e-05 0
-0.39864981 1.2483261 0.030543059 0
-0.39744473 1.2445525 0.060897186 0
-0.39690322 1.2428569 0.091285236 0
-0.39664602 1.2420515 0.12177672 0
-0.39877349 1.2487134 0.15327823 0
-0.39802244 1.2463616 0.18394789 0
-0.39928254 1.2503074 0.21579055 0
-0.39547873 1.2383962 0.24493521 0
-0.29460683 0.84806657 -0.19083405 0
-0.33272448 0.95779353 -0.19097656 0
-0.3793897 1.0921258 -0.19001429 0
-0.43037963 1.2389073 -0.18431582 0
-0.4285917 1.2337606 -0.15264638 0
-0.43389344 1.2490224 -0.12341839 0
-0.43032846 1.2387601 -0.091677599 0
-0.42867461 1.2339993 -0.060816061 0
-0.43487248 1.2518407 -0.030812053 0
-0.43172455 1.2427789 3.7559148e-05 0
-0.43455812 1.2509358 0.030865433 0
-0.43243352 1.2448198 0.061424743 0
-0.43584034 1.2546268 0.092928067 0
-0.43070275 1.2398374 0.12258641 0
-0.42803973 1.2321715 0.15252528 0
-0.432217 1.2441965 0.18517938 0
-0.42914468 1.2353524 0.21501034 0
-0.43369052 1.2484382 0.249007 0
-0.31801194 0.84595323 -0.19210342 0
-0.35939616 0.95604062 -0.19237444 0
-0.40786675 1.0849787 -0.19050115 0
-0.47847694 1.2728111 -0.19109553 0
-0.4898439 1.3030486 -0.16269682 0
-0.51073581 1.3586239 -0.13547893 0
-0.51109982 1.3595922 -0.10154243 0
-0.51142466 1.3604562 -0.067662932 0
-0.51400793 1.367328 -0.033963084 0
-0.5106656 1.3584371 4.1430885e-05 0
-1.2041726 3.2032561 0.079761229 0
-1.1949865 3.1788199 0.15829442 0
