# .PCD v0.7 - Point Cloud Data file format
VERSION 0.7
FIELDS x y z intensity
SIZE 4 4 4 4
TYPE F F F F
COUNT 1 1 1 1
WIDTH 1360
HEIGHT 1
VIEWPOINT 0 0 0 1 0 0 0
POINTS 1360
DATA ascii
0.2200231 -0.87617844 -0.19202465 0
0.2475802 -0.98591667 -0.1914639 0
0.28111446 -1.1194572 -0.18969662 0
0.30303344 -1.2067431 -0.17485462 0
0.30564374 -1.2171379 -0.14666751 0
0.3018598 -1.2020695 -0.11568519 0
0.30459154 -1.2129478 -0.08742924 0
0.30335069 -1.2080065 -0.057984401 0
0.30396527 -1.2104539 -0.029017391 0
0.30226755 -1.2036933 3.5430414e-05 0
0.24099457 -0.86651766 -0.19117954 0
0.27350551 -0.98341364 -0.19225715 0
0.30917192 -1.1116555 -0.18963647 0
0.3375783 -1.2137932 -0.17705432 0
0.33644029 -1.2097013 -0.14674789 0
0.33840907 -1.2167802 -0.11788537 0
0.3371633 -1.2123009 -0.087967969 0
0.33908814 -1.2192219 -0.058914777 0
0.33788592 -1.2148992 -0.029319052 0
0.338258 -1.2162371 3.6039455e-05 0
0.26453036 -0.8658877 -0.1924523 0
0.29887173 -0.97829729 -0.19267026 0
0.34188777 -1.1191018 -0.19231749 0
0.372906 -1.2206339 -0.17936793 0
0.36760423 -1.2032795 -0.14704753 0
0.36896703 -1.2077404 -0.11787423 0
0.36714926 -1.2017902 -0.087849714 0
0.36980873 -1.2104956 -0.058925357 0
0.36960444 -1.2098268 -0.029412396 0
0.36870447 -1.2068809 3.6026486e-05 0
0.28618935 -0.85862571 -0.1923824 0
0.32224247 -0.96679229 -0.19194503 0
0.37140843 -1.1143 -0.19304176 0
0.43216243 -1.2965744 -0.19206876 0
0.51935905 -1.5581816 -0.19195934 0
0.65274304 -1.9583606 -0.19268055 0
0.8636229 -2.5910425 -0.19093525 0
1.3050054 -3.9152792 -0.19213286 0
3.2890046 -9.8676758 -0.24183658 0
0.3068004 -0.84847152 -0.19178116 0
0.34466842 -0.95319748 -0.19091226 0
0.39766237 -1.0997548 -0.19219947 0
0.46133426 -1.2758425 -0.19066174 0
0.55926514 -1.5466751 -0.19221951 0
0.69676661 -1.9269423 -0.19125868 0
0.93055832 -2.5735047 -0.19131269 0
1.402203 -3.8778613 -0.19197223 0
3.5375569 -9.783287 -0.24187955 0
0.33319789 -0.85349202 -0.19475476 0
0.37145257 -0.951482 -0.19238511 0
0.42500687 -1.0886623 -0.19207437 0
0.49302444 -1.2628905 -0.19052507 0
0.59804857 -1.5319115 -0.19219938 0
0.74497193 -1.9082582 -0.19120952 0
0.99537057 -2.5496585 -0.1913466 0
1.4995682 -3.8411694 -0.19196831 0
3.7814825 -9.6863317 -0.2417651 0
0.34913659 -0.83173561 -0.19173993 0
0.39531335 -0.94174081 -0.19237159 0
0.44962236 -1.0711193 -0.19092059 0
0.52777898 -1.257309 -0.1916316 0
0.63007623 -1.5010079 -0.1902567 0
0.79731143 -1.8994064 -0.19227771 0
1.0602244 -2.5257347 -0.19149838 0
1.5936201 -3.7964239 -0.19168118 0
4.0275731 -9.5947428 -0.24193923 0
0.36651987 -0.81489986 -0.18993086 0
0.42003036 -0.9338721 -0.19286834 0
0.48039868 -1.0680918 -0.19248082 0
0.56023794 -1.2456019 -0.19194126 0
0.67213845 -1.4943951 -0.19150777 0
0.8398301 -1.8672315 -0.1911055 0
1.1260604 -2.5036199 -0.19191538 0
1.695073 -3.7687309 -0.19238175 0
4.2664061 -9.4856901 -0.24182761 0
0.39242634 -0.81676185 -0.19261193 0
0.44012833 -0.91604453 -0.19141969 0
0.50579989 -1.0527277 -0.19195148 0
0.58584321 -1.2193228 -0.1901097 0
0.7050066 -1.4673389 -0.19026019 0
0.89139253 -1.8552663 -0.19212231 0
1.1921841 -2.4813075 -0.19245026 0
1.7846721 -3.7144604 -0.19184963 0
4.5128369 -9.3926239 -0.24228157 0
0.41019526 -0.8012991 -0.19134599 0
0.46357864 -0.9055813 -0.19161716 0
0.53457326 -1.0442662 -0.19280736 0
0.61993533 -1.2110175 -0.19119343 0
0.74623442 -1.4577373 -0.19139637 0
0.93533742 -1.8271422 -0.19159353 0
1.2484372 -2.4387691 -0.19153385 0
1.8736089 -3.6600158 -0.19141905 0
4.7390509 -9.2575359 -0.24180529 0
0.43140265 -0.79275334 -0.19184425 0
0.48707056 -0.89504963 -0.19192877 0
0.55360937 -1.0173225 -0.19035183 0
0.64578754 -1.1867108 -0.18986875 0
0.77664727 -1.427181 -0.1898976 0
0.97645617 -1.7943535 -0.19067883 0
1.3147017 -2.4159195 -0.19228406 0
1.9674022 -3.6153338 -0.19161813 0
4.970458 -9.1338034 -0.24177314 0
0.45267874 -0.78406096 -0.19244429 0
0.51101017 -0.88509369 -0.19249822 0
0.57509679 -0.99609482 -0.18903558 0
0.67348748 -1.1665121 -0.18929638 0
0.81100178 -1.4046934 -0.18956862 0
1.0203375 -1.7672728 -0.19047701 0
1.3715104 -2.3755209 -0.19176273 0
2.5923984 -4.4901567 -0.24137606 0
5.1999097 -9.0064898 -0.24180007 0
0.47233787 -0.77242357 -0.1924527 0
0.52832103 -0.86397392 -0.19074422 0
0.61039644 -0.9981935 -0.19229628 0
0.71052682 -1.1619387 -0.19140336 0
0.8499161 -1.3898848 -0.1904044 0
1.0713955 -1.7520745 -0.19169237 0
1.4281347 -2.3354571 -0.19137734 0
2.7088771 -4.4298806 -0.24173415 0
5.4248543 -8.8713722 -0.24177143 0
0.49187106 -0.76056093 -0.19252884 0
0.56077552 -0.86710525 -0.19449833 0
0.63636231 -0.98398209 -0.19259129 0
0.73480111 -1.1361942 -0.19015695 0
0.88672227 -1.3711039 -0.19083668 0
1.1166556 -1.7266408 -0.19193208 0
1.4846468 -2.2956512 -0.19112515 0
2.8214514 -4.3627 -0.24187703 0
5.6463809 -8.7307777 -0.24174662 0
0.50638872 -0.74129832 -0.19082725 0
0.57106036 -0.83597064 -0.19068682 0
0.66357386 -0.97140038 -0.19334516 0
0.76770407 -1.1238357 -0.19127053 0
0.91994292 -1.346697 -0.19061056 0
1.1630605 -1.7025948 -0.19246088 0
1.5498744 -2.2688487 -0.19208924 0
2.9303608 -4.2897315 -0.24185494 0
5.8653693 -8.5862656 -0.24176721 0
0.52628219 -0.73016 -0.19131838 0
0.59406614 -0.8242029 -0.19136173 0
0.68568641 -0.95131624 -0.19273084 0
0.79422796 -1.1019059 -0.19088906 0
0.95045984 -1.318661 -0.18997721 0
1.1989875 -1.6634663 -0.19139758 0
1.6048493 -2.2265561 -0.19187678 0
3.0353394 -4.2112074 -0.24167001 0
6.0845985 -8.4417267 -0.24194442 0
0.54247224 -0.7139312 -0.19059284 0
0.61643106 -0.81126612 -0.19190922 0
0.70661497 -0.92995441 -0.19195506 0
0.82455194 -1.0851676 -0.19153358 0
0.9920066 -1.3055496 -0.19163434 0
1.2390264 -1.6306449 -0.19115841 0
1.6609986 -2.1859896 -0.19193247 0
3.142576 -4.1358485 -0.24182007 0
6.2909694 -8.2793531 -0.24176438 0
0.56171274 -0.70176589 -0.19106907 0
0.63608176 -0.79467744 -0.19172171 0
0.72799051 -0.90950209 -0.19146504 0
0.8541106 -1.067068 -0.19208261 0
1.0154907 -1.2686852 -0.18992481 0
1.2873064 -1.6082735 -0.19228341 0
1.7184057 -2.1468596 -0.19224362 0
3.2421136 -4.050477 -0.24153596 0
6.4970994 -8.1170359 -0.24173597 0
0.58162659 -0.69020182 -0.19185625 0
0.65749472 -0.78023267 -0.19217914 0
0.75244743 -0.89291072 -0.19190909 0
0.87790167 -1.0417842 -0.19145885 0
1.0486373 -1.2443919 -0.19018959 0
1.3245596 -1.5718219 -0.19186112 0
1.7651477 -2.0946569 -0.1914974 0
3.3451672 -3.9696267 -0.24167237 0
6.6988072 -7.9493079 -0.24169901 0
0.59532779 -0.6713286 -0.19072595 0
0.66951609 -0.7549879 -0.1900627 0
0.77256006 -0.87118673 -0.19136986 0
0.90338725 -1.0187155 -0.19134866 0
1.0820227 -1.220156 -0.19059859 0
1.3612722 -1.535055 -0.191506 0
1.817135 -2.0491142 -0.19146569 0
3.4420378 -3.8814557 -0.24151647 0
6.9048452 -7.7863326 -0.2419654 0
0.61715263 -0.66153532 -0.1923077 0
0.69501787 -0.74500024 -0.19190323 0
0.79116285 -0.84805948 -0.19061522 0
0.93598789 -1.0032997 -0.19282891 0
1.1158708 -1.196119 -0.1911823 0
1.3978977 -1.4984277 -0.19127721 0
1.8599619 -1.9937215 -0.1906155 0
3.5449915 -3.7999303 -0.24193391 0
7.0885992 -7.5983777 -0.24160735 0
0.6339193 -0.64603049 -0.19239022 0
0.71415824 -0.7278024 -0.19205506 0
0.8192206 -0.83487201 -0.19223726 0
0.9581899 -0.97649634 -0.19226421 0
1.1416737 -1.1634856 -0.19051129 0
1.4427445 -1.4703084 -0.19227473 0
1.9091834 -1.9456588 -0.1905666 0
3.6346636 -3.7041047 -0.24159653 0
7.2885122 -7.4277616 -0.24195445 0
0.64994407 -0.62975925 -0.19236849 0
0.72628337 -0.70372778 -0.19047865 0
0.83465844 -0.80873716 -0.19100925 0
0.97827202 -0.94789064 -0.1914324 0
1.1780672 -1.1414809 -0.19171573 0
1.4714744 -1.4257761 -0.19124693 0
1.9633837 -1.9024085 -0.19112314 0
3.7239363 -3.6082852 -0.24140024 0
7.4619966 -7.2302556 -0.24157873 0
0.6646055 -0.61221951 -0.1920734 0
0.74423265 -0.68557018 -0.19058745 0
0.86056924 -0.79273683 -0.19229887 0
1.0041653 -0.92501426 -0.19186968 0
1.2036566 -1.1087811 -0.19126503 0
1.5119542 -1.3927778 -0.19187823 0
2.53916 -2.3390164 -0.24134786 0
3.8184412 -3.5174613 -0.24169455 0
7.6560922 -7.052618 -0.24202271 0
0.66731369 -0.58428741 -0.18853414 0
0.76285833 -0.66794455 -0.19097923 0
0.87682235 -0.76772928 -0.1915399 0
1.0279658 -0.90006769 -0.19201559 0
1.2219707 -1.0699347 -0.18982372 0
1.5260344 -1.3361671 -0.18932503 0
2.602138 -2.2783835 -0.24179117 0
3.9111261 -3.424509 -0.24201334 0
7.8295579 -6.8554149 -0.24195962 0
0.69442153 -0.57772893 -0.19201209 0
0.78761327 -0.65526038 -0.19297482 0
0.90266329 -0.7509771 -0.1929829 0
1.0475765 -0.8715387 -0.1915089 0
1.2494116 -1.0394568 -0.18995057 0
1.563871 -1.3010736 -0.18988475 0
2.6612432 -2.21404 -0.24201377 0
3.9857912 -3.3160071 -0.24137785 0
7.9932351 -6.6500287 -0.24175398 0
0.70798147 -0.55939537 -0.19179653 0
0.80195516 -0.63364655 -0.19250907 0
0.91798431 -0.72532433 -0.19228339 0
1.0677632 -0.8436687 -0.19124569 0
1.2751809 -1.0075551 -0.18994173 0
1.5974061 -1.262154 -0.19002818 0
2.7018576 -2.1348109 -0.24073069 0
4.0795779 -3.2233851 -0.24205361 0
8.1575699 -6.4455175 -0.2417271 0
0.71358514 -0.53514105 -0.18959525 0
0.81215769 -0.6090638 -0.19120723 0
0.93250191 -0.69931394 -0.19156627 0
1.0951227 -0.82126862 -0.19237219 0
1.309031 -0.98168546 -0.19123231 0
1.6303294 -1.2226378 -0.19021326 0
2.7635696 -2.0724919 -0.24149169 0
4.1645393 -3.1231253 -0.24234058 0
8.3193245 -6.2389355 -0.24177721 0
0.73896152 -0.52557313 -0.19275181 0
0.83773822 -0.59582627 -0.19362758 0
0.94805324 -0.67428583 -0.19120401 0
1.1074708 -0.7876687 -0.19098829 0
1.3159114 -0.93591839 -0.18872654 0
1.6786758 -1.193928 -0.19227695 0
2.8169811 -2.0035272 -0.24166329 0
4.2348924 -3.011991 -0.24193375 0
8.4853878 -6.0350795 -0.24209955 0
0.74362373 -0.5011251 -0.1906081 0
0.8499226 -0.57275945 -0.19304109 0
0.96603876 -0.65100974 -0.1914566 0
1.1253792 -0.75838858 -0.190715 0
1.3510852 -0.91049099 -0.19041473 0
1.6877275 -1.1373528 -0.18996526 0
2.8658819 -1.9313065 -0.24159977 0
4.311172 -2.9052818 -0.24202541 0
8.629365 -5.8152947 -0.24194275 0
0.7646355 -0.48769131 -0.19277747 0
0.86480314 -0.55157912 -0.19319743 0
0.98820591 -0.63028651 -0.19263577 0
1.1476674 -0.73199254 -0.19130033 0
1.365031 -0.87062889 -0.18922305 0
1.7259163 -1.1008047 -0.19107564 0
2.9228027 -1.8641895 -0.24235469 0
4.3779092 -2.7922695 -0.24173863 0
8.7794523 -5.5996132 -0.24211124 0
0.77889848 -0.46957076 -0.19332388 0
0.87310648 -0.52636552 -0.1920234 0
0.99632627 -0.60065037 -0.19120264 0
1.1690876 -0.70480222 -0.1918446 0
1.3981522 -0.8428973 -0.19080459 0
1.7628325 -1.0627503 -0.19213191 0
2.96878 -1.7897741 -0.24234429 0
4.4484391 -2.6818089 -0.24181865 0
8.904911 -5.3684602 -0.24175747 0
0.78469002 -0.44646421 -0.19190343 0
0.88550621 -0.50382549 -0.19189271 0
1.0080345 -0.57354027 -0.19061086 0
1.1823572 -0.67272443 -0.19117501 0
1.4104325 -0.8024922 -0.189656 0
1.7840848 -1.0150887 -0.19159487 0
3.0097313 -1.7124434 -0.24208197 0
4.5193658 -2.5713785 -0.24206923 0
9.0431023 -5.1452441 -0.24190661 0
0.7989763 -0.42827713 -0.1926924 0
0.9093107 -0.48741993 -0.19432347 0
1.0246439 -0.54924226 -0.19106947 0
1.2038478 -0.64530134 -0.1919553 0
1.4401846 -0.77198553 -0.19097589 0
1.8099207 -0.97017598 -0.19167876 0
3.0456522 -1.632568 -0.24158007 0
4.5904732 -2.4606421 -0.24247424 0
9.1687794 -4.9147625 -0.24187328 0
0.80779743 -0.40710977 -0.19228052 0
0.90590084 -0.45655143 -0.19107142 0
1.0401489 -0.52420914 -0.19143264 0
1.2107428 -0.61018419 -0.19053842 0
1.4521539 -0.73184937 -0.19005318 0
1.8374245 -0.92601615 -0.19205521 0
3.0806057 -1.5525485 -0.24116766 0
4.6354694 -2.3361611 -0.24165958 0
9.2863054 -4.6800666 -0.24178061 0
0.81521845 -0.38537258 -0.19167072 0
0.9312045 -0.44020188 -0.1940033 0
1.0532417 -0.49789169 -0.19146857 0
1.2334973 -0.58310264 -0.19174224 0
1.4816768 -0.70042288 -0.19154242 0
1.8557365 -0.87724954 -0.19159399 0
3.1266174 -1.4780242 -0.24177235 0
4.6963162 -2.2200572 -0.24183358 0
9.3993845 -4.4433064 -0.24172795 0
0.82837182 -0.36631271 -0.19252825 0
0.92713308 -0.40998572 -0.19093847 0
1.0686216 -0.4725531 -0.19203515 0
1.2410464 -0.54880077 -0.1907019 0
1.5070632 -0.66643548 -0.19258846 0
1.8894447 -0.83552772 -0.19283554 0
3.1694295 -1.4015473 -0.2422704 0
4.7428193 -2.0973132 -0.24142554 0
9.5120134 -4.2062893 -0.24181724 0
0.82594788 -0.34059337 -0.18990648 0
0.95983446 -0.39580378 -0.19555357 0
1.0764862 -0.44390705 -0.19137415 0
1.2503418 -0.51559931 -0.19007006 0
1.5261256 -0.62932336 -0.19293326 0
1.90517 -0.78562862 -0.19235551 0
3.1946983 -1.3173871 -0.24158342 0
4.79984 -1.9792942 -0.2417082 0
9.6115179 -3.9634697 -0.2417268 0
0.84461182 -0.32360461 -0.19225866 0
0.96261728 -0.36881724 -0.19416219 0
1.0845246 -0.41552481 -0.19087799 0
1.2744818 -0.48830503 -0.19180514 0
1.5248874 -0.58424544 -0.19085179 0
1.9236314 -0.73702025 -0.19228013 0
3.2225585 -1.2346913 -0.24125688 0
4.8456287 -1.8565545 -0.24157745 0
9.713273 -3.721544 -0.24184664 0
0.85658354 -0.30363595 -0.19317782 0
0.9546997 -0.3384155 -0.19078165 0
1.0971969 -0.38892698 -0.19131975 0
1.2810802 -0.45410872 -0.19101249 0
1.5415584 -0.54644126 -0.19115129 0
1.9396973 -0.68757081 -0.19209023 0
3.2553308 -1.1539277 -0.24145311 0
4.8954682 -1.7353126 -0.24180165 0
9.8002243 -3.4739175 -0.24175154 0
0.85710949 -0.27968755 -0.19164345 0
0.97005206 -0.31654242 -0.19219187 0
1.0993823 -0.35874477 -0.19006146 0
1.2991778 -0.42394102 -0.19205433 0
1.5507193 -0.50602275 -0.19064286 0
1.9469252 -0.63531059 -0.19115722 0
3.2862737 -1.0723599 -0.24166377 0
4.9324098 -1.6095185 -0.24154292 0
9.8877878 -3.226532 -0.24182571 0
0.85766178 -0.25611195 -0.19026105 0
0.9810403 -0.2929548 -0.19284259 0
1.1115222 -0.33191884 -0.19065122 0
1.298874 -0.38786519 -0.19050163 0
1.5567077 -0.46485859 -0.18987623 0
1.9603206 -0.58538401 -0.190961 0
3.3095908 -0.98829836 -0.24146727 0
4.9727445 -1.4849435 -0.24160586 0
9.9574862 -2.9734695 -0.24161795 0
0.86898661 -0.23578431 -0.19139221 0
0.98739773 -0.26791307 -0.19270171 0
1.1291533 -0.30637595 -0.1922878 0
1.3151398 -0.35684016 -0.19150537 0
1.5717506 -0.426467 -0.19033757 0
1.9619251 -0.53233403 -0.18974808 0
3.3485742 -0.90857697 -0.24256115 0
5.0044432 -1.3578681 -0.241404 0
10.038251 -2.7237036 -0.24183263 0
0.87685102 -0.21431962 -0.19187185 0
0.9857772 -0.24094333 -0.19113778 0
1.1327696 -0.27687117 -0.19165261 0
1.3220873 -0.32314414 -0.1912685 0
1.570405 -0.38383785 -0.18894129 0
1.9815279 -0.4843244 -0.19040111 0
3.3573122 -0.82059312 -0.24161692 0
5.039155 -1.2316685 -0.24150197 0
10.109468 -2.4709527 -0.24196884 0
0.87716848 -0.1910796 -0.19082527 0
0.99500579 -0.21674891 -0.19180536 0
1.1279057 -0.24569941 -0.18972009 0
1.3258821 -0.28882593 -0.19070216 0
1.6051697 -0.34966508 -0.19200101 0
1.9839411 -0.43217543 -0.18952452 0
3.3819437 -0.73671186 -0.24197437 0
5.0855541 -1.107821 -0.2423085 0
10.158047 -2.2127967 -0.24171786 0
0.87966114 -0.16849443 -0.19038177 0
0.99670565 -0.19091369 -0.19114332 0
1.1487544 -0.2200378 -0.1922316 0
1.3351386 -0.25573871 -0.19104432 0
1.6173952 -0.30980349 -0.19246678 0
2.5396817 -0.48646259 -0.24136429 0
3.3965232 -0.65058601 -0.24176568 0
5.1120439 -0.97918499 -0.24231596 0
10.211194 -1.9559001 -0.24173088 0
0.88332635 -0.14619544 -0.19031583 0
1.0116729 -0.16743749 -0.19314171 0
1.1438373 -0.18931146 -0.19054857 0
1.3491827 -0.22329727 -0.19218627 0
1.6180292 -0.26779285 -0.19167691 0
2.5528293 -0.42250746 -0.24152341 0
3.4110765 -0.56455219 -0.24171039 0
5.116642 -0.84683275 -0.2414439 0
10.257506 -1.6976745 -0.24173594 0
0.88857085 -0.12411831 -0.19071011 0
1.0124928 -0.1414281 -0.19255546 0
1.144061 -0.15980597 -0.18985344 0
1.3402864 -0.18721533 -0.19018537 0
1.6247139 -0.22694504 -0.1917292 0
2.5622125 -0.35789776 -0.24147968 0
3.43103 -0.47925684 -0.24219006 0
5.1453876 -0.7187236 -0.24186735 0
10.283981 -1.4364982 -0.24142852 0
0.89554715 -0.10213 -0.19159316 0
1.0051899 -0.11463389 -0.19055569 0
1.148996 -0.13103382 -0.19006306 0
1.3375118 -0.15253253 -0.18918513 0
1.6282411 -0.1856879 -0.19153139 0
2.5832305 -0.29459682 -0.2426825 0
3.4394419 -0.39224091 -0.24200796 0
5.1638155 -0.58889192 -0.24195786 0
10.335125 -1.1786386 -0.24185382 0
0.89108872 -0.078904241 -0.1901527 0
1.0166231 -0.09002009 -0.19223119 0
1.1280302 -0.099884972 -0.18611868 0
1.1243141 -0.099555917 -0.15862334 0
1.6310225 -0.14442401 -0.19136885 0
2.5731063 -0.22784378 -0.24111436 0
3.4488087 -0.30538556 -0.24204761 0
5.1714444 -0.45792177 -0.2416968 0
10.356878 -0.91708231 -0.24174424 0
0.89843142 -0.056752071 -0.19135299 0
1.0189238 -0.064363331 -0.1922978 0
1.1389587 -0.07194569 -0.1875625 0
1.1320082 -0.071506642 -0.15940347 0
1.641016 -0.10365962 -0.19217323 0
2.5664287 -0.16211605 -0.24002878 0
3.4442775 -0.21756795 -0.24126738 0
5.1837378 -0.3274461 -0.24180812 0
10.383223 -0.65588695 -0.24189574 0
0.91358566 -0.034596182 -0.19433278 0
1.012476 -0.038341012 -0.19083752 0
1.1359292 -0.043016013 -0.18682532 0
1.1312368 -0.04283832 -0.15909193 0
1.6298783 -0.061721157 -0.1906258 0
2.5810082 -0.097739086 -0.24108486 0
3.4534795 -0.13077833 -0.24160382 0
5.1827359 -0.19626279 -0.24145342 0
10.394409 -0.39362139 -0.24184786 0
0.90866786 -0.011465114 -0.19316363 0
1.020486 -0.012875979 -0.19222483 0
1.1217721 -0.014153956 -0.18437943 0
1.1279641 -0.014232084 -0.15853068 0
1.128013 -0.014232701 -0.1318451 0
1.1288322 -0.014243037 -0.10537398 0
1.1310221 -0.014270667 -0.079075396 0
1.1218462 -0.014154891 -0.052231316 0
1.1289866 -0.014244984 -0.02625153 0
1.1260691 -0.014208172 3.2150012e-05 0
1.1290872 -0.014246254 0.026318379 0
1.1250368 -0.014195149 0.052444249 0
1.1383369 -0.014362962 0.079652131 0
1.1295305 -0.014251849 0.10550422 0
1.1346374 -0.014316283 0.13268505 0
1.1272459 -0.014223021 0.15849537 0
1.1408623 -0.014394827 0.1875841 0
1.133896 -0.014306929 0.21365447 0
0.90238512 0.011385841 -0.19182804 0
1.0250263 0.012933266 -0.19308008 0
1.1280906 0.01423368 -0.18541798 0
1.1251159 0.014196145 -0.15813036 0
1.6376466 0.020663001 -0.1914124 0
2.5788114 0.032538146 -0.24072631 0
3.4554515 0.043599147 -0.24158786 0
5.2002063 0.065613583 -0.24211307 0
10.390113 0.13109721 -0.241594 0
0.89516103 0.033898465 -0.19041361 0
1.0191661 0.038594361 -0.19209853 0
1.128358 0.042729303 -0.18558009 0
1.1246049 0.042587176 -0.15815926 0
1.6409104 0.062138926 -0.19191608 0
2.5925798 0.098177284 -0.24216574 0
3.4488058 0.13060133 -0.24127686 0
5.1945448 0.19670998 -0.24200357 0
10.386305 0.39331448 -0.2416593 0
0.89487314 0.056527302 -0.19059514 0
1.0070232 0.063611597 -0.19005184 0
1.1373042 0.07184118 -0.18729003 0
1.1275616 0.071225755 -0.15877731 0
1.6405834 0.10363229 -0.19212256 0
2.5858333 0.16334179 -0.24184363 0
3.4581678 0.21844538 -0.24224038 0
5.1864634 0.32761827 -0.24193524 0
10.372147 0.65518731 -0.24163769 0
0.89128035 0.078921214 -0.19019361 0
1.0146677 0.089846939 -0.19186144 0
1.1585723 0.10258942 -0.19115797 0
1.3619527 0.12059837 -0.19215046 0
1.6316822 0.14448242 -0.19144624 0
2.5826643 0.2286901 -0.24200998 0
3.4314125 0.30384517 -0.2408267 0
5.1791902 0.45860764 -0.24205883 0
10.35703 0.91709572 -0.24174778 0
0.88837641 0.10131223 -0.19005905 0
1.0229013 0.11665373 -0.19391328 0
1.1522732 0.13140756 -0.19060516 0
1.3503245 0.15399373 -0.19099744 0
1.6347892 0.18643466 -0.19230165 0
2.5827539 0.29454249 -0.24263774 0
3.4339354 0.39161292 -0.2416205 0
5.1570597 0.58812153 -0.24164131 0
10.335179 1.1786448 -0.2418551 0
0.89650941 0.1252272 -0.19241393 0
0.996593 0.13920718 -0.18953165 0
1.1550483 0.1613407 -0.19167675 0
1.340459 0.18723945 -0.19020987 0
1.6330537 0.22810997 -0.19271335 0
2.5687885 0.3588163 -0.24209945 0
3.4276485 0.4787845 -0.24195136 0
5.1464458 0.71887136 -0.24191707 0
10.294682 1.4379928 -0.24167974 0
0.89524776 0.14816849 -0.19288434 0
1.0018595 0.16581334 -0.19126822 0
1.1571236 0.19151041 -0.19276187 0
1.3430206 0.22227739 -0.19130848 0
1.6185603 0.26788077 -0.19173983 0
2.5499854 0.4220368 -0.24125437 0
3.4089229 0.56419575 -0.24155779 0
5.1310024 0.84920955 -0.24212155 0
10.261602 1.6983525 -0.24183246 0
0.88575876 0.1696624 -0.19170146 0
0.99678093 0.19092812 -0.19115776 0
1.133692 0.2171527 -0.18971108 0
1.3402593 0.25671956 -0.19177704 0
1.3463334 0.25788304 -0.16021097 0
1.3485126 0.25830045 -0.1281589 0
1.3408859 0.2568396 -0.095444717 0
1.3367865 0.25605437 -0.063365005 0
1.3454379 0.25771153 -0.031850722 0
1.3513397 0.25884196 3.9279905e-05 0
0.89421028 0.19479193 -0.19453266 0
0.9924196 0.21618554 -0.19130683 0
1.1315004 0.24648246 -0.19032474 0
1.2058339 0.26267505 -0.17343558 0
1.2087759 0.26331589 -0.1445867 0
1.2023668 0.26191977 -0.11486127 0
1.1937594 0.26004478 -0.085412189 0
1.2039559 0.26226592 -0.057364199 0
1.2027794 0.26200965 -0.028620983 0
1.2123978 0.2641049 3.5423705e-05 0
0.8754378 0.21397421 -0.19156262 0
0.98099202 0.23977374 -0.19020994 0
1.1265074 0.27534056 -0.19059312 0
1.2018313 0.29375121 -0.17387088 0
1.2097222 0.2956799 -0.14554618 0
1.2024403 0.29390004 -0.11554011 0
1.1958116 0.29227987 -0.086059414 0
1.1969783 0.29256502 -0.057365298 0
1.2071723 0.29505664 -0.028893517 0
1.2121336 0.2962693 3.5623118e-05 0
0.87534612 0.23750985 -0.19279288 0
0.98488557 0.26723146 -0.19221143 0
1.1159562 0.30279517 -0.19004042 0
1.200307 0.32568231 -0.17478389 0
1.2087663 0.32797757 -0.1463805 0
1.2003766 0.32570118 -0.11609472 0
1.2083435 0.32786286 -0.087528959 0
1.2079806 0.32776439 -0.058270488 0
1.2003309 0.32568878 -0.028917307 0
1.2020919 0.32616663 3.5558616e-05 0
0.86300445 0.25770736 -0.19144624 0
0.98454171 0.29400039 -0.19353086 0
1.1096547 0.33136117 -0.19033091 0
1.2085907 0.36090511 -0.17726007 0
1.2096895 0.3612332 -0.14754939 0
1.2104347 0.36145577 -0.11791226 0
1.1945373 0.35670853 -0.087153263 0
1.2138096 0.36246356 -0.058974173 0
1.2045399 0.35969546 -0.029228108 0
1.2094368 0.36115777 3.6034038e-05 0
0.85856736 0.28016329 -0.19196941 0
0.97438997 0.31795791 -0.19305131 0
1.1029644 0.35991365 -0.19068073 0
1.2073678 0.39398205 -0.17848228 0
1.2040703 0.39290604 -0.14802642 0
1.2066247 0.39373958 -0.11847144 0
1.2074449 0.39400721 -0.088792264 0
1.2062168 0.39360648 -0.059069127 0
1.2022789 0.39232144 -0.029404145 0
1.2070678 0.39388418 3.6248108e-05 0
0.8550694 0.30309924 -0.19283636 0
0.95803469 0.3395977 -0.19144811 0
1.1045305 0.39152652 -0.19259851 0
1.1958872 0.42391002 -0.17830996 0
1.2006345 0.42559284 -0.14887716 0
1.2101216 0.42895576 -0.1198396 0
1.2047623 0.42705604 -0.089359157 0
1.1920054 0.42253402 -0.058876671 0
1.2251358 0.43427789 -0.0302216 0
1.2128559 0.42992502 3.6736074e-05 0
0.84847552 0.32508495 -0.19313815 0
0.94696409 0.36281988 -0.19100492 0
1.0865294 0.41629294 -0.19123083 0
1.206943 0.46242824 -0.18164079 0
1.2078087 0.46275991 -0.15116687 0
1.2129488 0.46472928 -0.12124253 0
1.2042885 0.46141115 -0.090159066 0
1.2037733 0.46121377 -0.060013779 0
1.2007328 0.46004882 -0.029896531 0
1.2051698 0.46174881 3.6844522e-05 0
0.82689953 0.34098583 -0.19012529 0
0.94351655 0.38907477 -0.192229 0
1.0866504 0.44809839 -0.1931811 0
1.2023009 0.49578884 -0.18276715 0
1.2063875 0.49747404 -0.15251188 0
1.1968541 0.49354276 -0.12084039 0
1.2090662 0.49857864 -0.09142971 0
1.2045649 0.49672246 -0.060658947 0
1.2099186 0.49893016 -0.030429091 0
1.2042538 0.49659416 3.7187856e-05 0
0.82557523 0.36507604 -0.19187826 0
0.92478353 0.40894675 -0.1904546 0
1.071366 0.47376665 -0.19252831 0
1.2030705 0.53200752 -0.18486643 0
1.2014254 0.53128004 -0.15353084 0
1.2080204 0.53419638 -0.1232898 0
1.2047231 0.53273827 -0.092088729 0
1.2045802 0.53267509 -0.061317202 0
1.2113405 0.53566456 -0.030795058 0
1.2054509 0.53306013 3.7628299e-05 0
0.81698203 0.38620627 -0.19208536 0
0.92105478 0.43540388 -0.19188875 0
1.0540849 0.4982903 -0.19162185 0
1.22084 0.57711923 -0.18977472 0
1.4739513 0.69677085 -0.19054371 0
1.8607731 0.87963045 -0.19211398 0
3.1284969 1.4789127 -0.24191768 0
4.6999836 2.2217908 -0.24202242 0
9.3918114 4.4397264 -0.24153319 0
0.8027885 0.40458539 -0.19108824 0
0.90822381 0.45772219 -0.19156139 0
1.0491617 0.52875137 -0.19309139 0
1.2160003 0.61283386 -0.19136581 0
1.4652759 0.73846251 -0.19177054 0
1.8411909 0.92791432 -0.19244888 0
3.090683 1.5576272 -0.24195656 0
4.6406803 2.3387873 -0.24193124 0
9.2842579 4.6790347 -0.24172729 0
0.79070604 0.42384401 -0.19069782 0
0.88821298 0.47611088 -0.18981481 0
1.0319052 0.55313456 -0.19242352 0
1.1932482 0.63961959 -0.19026516 0
1.4494853 0.77697098 -0.19220921 0
1.8141464 0.97244114 -0.19212629 0
3.0482531 1.6339622 -0.24178638 0
4.5752778 2.452497 -0.24167162 0
9.1668978 4.9137535 -0.24182363 0
0.78766698 0.448158 -0.19263147 0
0.89249718 0.50780308 -0.19340768 0
1.0011498 0.56962305 -0.18930902 0
1.1807901 0.6718328 -0.19092163 0
1.2064927 0.6864568 -0.16223292 0
1.2149975 0.6912958 -0.13047995 0
3.0056648 1.7101297 -0.24175489 0
4.5041041 2.562695 -0.24125178 0
9.0446968 5.1461511 -0.24194925 0
0.77007085 0.46424887 -0.19113284 0
0.8636691 0.52067602 -0.18994781 0
0.99753165 0.60137707 -0.19143398 0
1.1589279 0.69867724 -0.19017741 0
1.1402961 0.68744481 -0.1556152 0
1.1887128 0.71663356 -0.12955834 0
2.9613981 1.7853239 -0.24174172 0
4.4504972 2.6830494 -0.24193051 0
8.8997736 5.3653636 -0.24161801 0
0.75384778 0.48081082 -0.19005771 0
0.85642058 0.54623264 -0.19132477 0
0.99273938 0.633178 -0.1935195 0
1.1425279 0.72871453 -0.19044366 0
1.1467096 0.7313816 -0.15895894 0
1.1815466 0.7536009 -0.13080864 0
2.9165759 1.860218 -0.2418384 0
4.3811889 2.7943611 -0.24191973 0
8.7660217 5.5910468 -0.24174085 0
0.74751896 0.50375009 -0.19160654 0
0.84412575 0.56885302 -0.19172446 0
0.96644878 0.65128601 -0.19153786 0
1.1254581 0.75844181 -0.19072838 0
1.1398437 0.7681362 -0.16064349 0
1.1678547 0.7870127 -0.13145004 0
2.8594809 1.9269929 -0.24106015 0
4.3109875 2.9051576 -0.24201505 0
8.620841 5.8095508 -0.24170376 0
0.7332716 0.52152628 -0.19126764 0
0.82043874 0.58352232 -0.18962912 0
0.95589358 0.67986214 -0.19278526 0
1.1008955 0.78299212 -0.18985435 0
1.1513979 0.81891114 -0.16513221 0
1.1414812 0.811858 -0.13074623 0
2.8104107 1.9988543 -0.24109964 0
4.2343645 3.0116158 -0.24190362 0
8.4700804 6.0241923 -0.2416628 0
0.71939534 0.53949827 -0.19113898 0
0.81571412 0.61173087 -0.19204451 0
0.94627333 0.70964158 -0.19439538 0
1.0860193 0.81444162 -0.19077304 0
1.097244 0.82285947 -0.16029301 0
1.1023953 0.82672256 -0.1286183 0
1.1011031 0.82575345 -0.096218757 0
1.0946611 0.82092243 -0.063699916 0
1.1011446 0.82578456 -0.032001596 0
1.1021866 0.82656598 3.9330793e-05 0
1.0938057 0.82028085 0.03186642 0
1.1072229 0.83034295 0.064510092 0
1.0995831 0.82461363 0.096164808 0
0.70722008 0.55879378 -0.19159026 0
0.79236013 0.62606525 -0.1902058 0
0.91470629 0.72273427 -0.19159678 0
1.0572107 0.83533078 -0.18935563 0
1.1050189 0.87310535 -0.1645956 0
1.0857329 0.85786706 -0.12915929 0
1.0921527 0.86293948 -0.097308852 0
1.0908263 0.86189145 -0.064722002 0
1.0963203 0.86623245 -0.032486431 0
1.0959215 0.86591738 3.9874412e-05 0
1.0894883 0.8608343 0.032363307 0
1.0942861 0.8646251 0.065007083 0
1.102356 0.87100136 0.098298557 0
0.69372481 0.57714927 -0.19181944 0
0.77891493 0.64802378 -0.19084364 0
0.89694911 0.74622315 -0.19176124 0
1.0306122 0.85742509 -0.18840763 0
1.0935946 0.90982378 -0.1662614 0
1.0952549 0.91120499 -0.13298552 0
1.1040133 0.91849172 -0.10039911 0
1.092889 0.90923667 -0.066184893 0
1.0952479 0.91119921 -0.033125579 0
1.0939928 0.91015512 4.0627099e-05 0
1.1051658 0.91945052 0.033507675 0
1.1053472 0.91960138 0.067021638 0
1.093118 0.90942723 0.09948986 0
0.68201393 0.59715867 -0.19268736 0
0.76714516 0.67169797 -0.19205242 0
0.87934226 0.76993567 -0.19209038 0
0.99702901 0.87298 -0.18623686 0
1.1019945 0.96488583 -0.17118634 0
1.1011559 0.9641515 -0.13661316 0
1.0984941 0.9618209 -0.10207228 0
1.0959511 0.95959437 -0.067815453 0
1.1025654 0.96538568 -0.034072973 0
1.1057273 0.96815419 4.1956959e-05 0
1.0997736 0.96294129 0.034070205 0
1.0992928 0.96252024 0.068105832 0
1.1022573 0.9651159 0.10250602 0
1.0979805 0.96137118 0.13630326 0
1.0932212 0.95720404 0.27377045 0
0.66785645 0.61521417 -0.19301292 0
0.75174248 0.69248807 -0.1925106 0
0.85211498 0.78494895 -0.19040972 0
0.97298169 0.89628863 -0.18591131 0
1.0564303 0.97315955 -0.16787028 0
1.0992086 1.012566 -0.13949774 0
1.0993791 1.012723 -0.10449629 0
1.1098772 1.0223936 -0.070251517 0
1.096609 1.0101713 -0.034665763 0
1.0901459 1.0042176 4.2313979e-05 0
1.098483 1.0118974 0.034810323 0
1.0924603 1.0063496 0.069234073 0
1.0959005 1.0095187 0.10425115 0
1.1042613 1.0172204 0.14022544 0
1.0425019 0.96032906 0.26705375 0
0.63763279 0.61783034 -0.18872464 0
0.73415488 0.71135485 -0.19254309 0
0.83367276 0.80778205 -0.19078368 0
0.83627641 0.81030488 -0.1636461 0
0.83513594 0.80919981 -0.13590795 0
0.83081365 0.80501175 -0.1079805 0
0.83198863 0.80615026 -0.080988899 0
0.84070826 0.81459904 -0.054498024 0
0.83688426 0.81089383 -0.027093744 0
0.83824456 0.81221187 3.332151e-05 0
0.83737731 0.81137162 0.027176319 0
0.84477812 0.81854254 0.054829158 0
0.84642702 0.82014024 0.082462005 0
1.0970798 1.0630087 0.14267498 0
1.0202744 0.98858857 0.19973432 0
1.0119942 0.98056561 0.2316747 0
0.98279727 0.9522754 0.25783417 0
0.63413548 0.64625084 -0.19245584 0
0.71223432 0.72584176 -0.19153766 0
0.81345439 0.82899565 -0.19088416 0
0.83970249 0.8557452 -0.16848929 0
0.84039378 0.85644972 -0.14023665 0
0.8423298 0.85842276 -0.1122574 0
0.84668577 0.86286193 -0.084512591 0
0.84330076 0.85941225 -0.056054309 0
0.83905661 0.85508698 -0.027853897 0
0.8421213 0.85821027 3.432572e-05 0
0.84232563 0.85841846 0.028031122 0
0.84001589 0.85606456 0.05590459 0
0.84634572 0.86251539 0.084547982 0
0.83650327 0.85248488 0.11154968 0
1.0988252 1.1198186 0.18345197 0
0.95176679 0.96995056 0.19105452 0
0.95122409 0.96939743 0.22329266 0
0.9609763 0.97933602 0.25851175 0
0.62039924 0.6650154 -0.19331934 0
0.69193399 0.74169457 -0.19105174 0
0.796767 0.85406667 -0.19196545 0
0.84181398 0.90235317 -0.17342752 0
0.84825134 0.90925354 -0.14533103 0
0.8366853 0.89685571 -0.11448537 0
0.84536743 0.9061622 -0.08663626 0
0.83580935 0.89591682 -0.057041217 0
0.83746821 0.89769495 -0.028544212 0
0.8446278 0.9053694 3.5348043e-05 0
0.84034932 0.90078324 0.028712789 0
0.8342272 0.89422083 0.057003215 0
0.83429462 0.89429313 0.085571654 0
0.84000027 0.9004091 0.11500988 0
1.0955975 1.1743876 0.18780182 0
0.9327209 0.9997977 0.19223545 0
0.92661315 0.99325073 0.22332899 0
0.9220112 0.98831785 0.25465888 0
0.60129207 0.67805427 -0.19263673 0
0.67343175 0.75940347 -0.1911743 0
0.77597797 0.87504095 -0.19221652 0
0.85094446 0.9595778 -0.18024062 0
0.83983362 0.94704854 -0.14793693 0
0.8397103 0.94690949 -0.11813182 0
0.84197283 0.94946086 -0.088715978 0
0.83858424 0.94563961 -0.058840696 0
0.8413015 0.94870383 -0.029481595 0
0.8393628 0.94651765 3.6115973e-05 0
0.83927053 0.94641358 0.029482687 0
0.84278679 0.95037872 0.059208259 0
0.8387441 0.94581991 0.088448308 0
0.83818531 0.94518983 0.11799004 0
1.0985214 1.2387609 0.19360067 0
1.0977228 1.2378603 0.23260768 0
0.58823472 0.69804358 -0.19403604 0
0.65788794 0.78069931 -0.19229408 0
0.72904813 0.8651433 -0.18594117 0
0.85437393 1.0138643 -0.18632776 0
0.84519625 1.0029734 -0.15329182 0
0.84210551 0.99930567 -0.12197813 0
0.83004695 0.98499614 -0.090050168 0
0.83613908 0.99222547 -0.060407061 0
0.84264815 0.99994963 -0.030403504 0
0.8377884 0.99418271 3.7116071e-05 0
0.83520436 0.99111629 0.030208971 0
0.84197325 0.99914873 0.060903318 0
0.83821142 0.9946847 0.091010541 0
0.83690834 0.99313837 0.12130013 0
0.84327757 1.0006965 0.15301956 0
1.0989567 1.3041047 0.23976734 0
0.5647307 0.70553637 -0.19209564 0
0.63563001 0.7941131 -0.19158554 0
0.73628944 0.9198702 -0.1936477 0
0.84815824 1.0596315 -0.19074397 0
0.84874338 1.0603625 -0.15873846 0
0.84576923 1.0566468 -0.12633152 0
0.83657509 1.0451603 -0.093590364 0
0.83565098 1.0440058 -0.06225561 0
0.83487356 1.0430346 -0.031062935 0
0.83866882 1.047776 3.8314447e-05 0
0.84778887 1.05917 0.031620976 0
0.84077239 1.0504042 0.062714145 0
0.83421528 1.0422121 0.093402967 0
0.84230262 1.052316 0.12589136 0
0.8343823 1.0424207 0.15612984 0
1.0994933 1.3736326 0.24736966 0
1.0940063 1.3667774 0.28783163 0
0.54507118 0.71735156 -0.19150595 0
0.61185056 0.80523789 -0.19048321 0
0.69898099 0.91990757 -0.18988125 0
0.72904587 0.95947504 -0.16934866 0
0.7244069 0.95336986 -0.13993983 0
0.72943449 0.95998651 -0.11253799 0
0.72765923 0.95765007 -0.084082812 0
0.72233373 0.95064145 -0.055583317 0
0.72800952 0.95811111 -0.027977686 0
0.72731495 0.95719701 3.4320019e-05 0
0.73237759 0.9638598 0.028214708 0
0.72947097 0.96003449 0.056201514 0
0.72722679 0.95708102 0.084101811 0
0.72354347 0.95223349 0.11169799 0
0.72788751 0.95795059 0.14068185 0
0.72677487 0.95648628 0.16889109 0
0.72263879 0.95104289 0.19637804 0
0.72543538 0.95472342 0.22591569 0
0.5292514 0.73427945 -0.19239777 0
0.59491432 0.82537973 -0.19163495 0
0.677858 0.94045514 -0.19053045 0
0.72090483 1.000178 -0.17326619 0
0.95469391 1.3245353 -0.19082351 0
0.84913713 1.1780865 -0.13555004 0
0.83498222 1.1584481 -0.099830993 0
0.83863741 1.1635194 -0.066771284 0
0.84356683 1.1703584 -0.033543099 0
0.84053767 1.1661557 4.1038471e-05 0
0.84468043 1.1719034 0.033669908 0
0.84047574 1.1660697 0.066999897 0
0.83630884 1.1602887 0.10007167 0
0.84083837 1.1665729 0.1343081 0
0.83821052 1.162927 0.16762386 0
0.83887011 1.1638421 0.20170212 0
1.1048318 1.5328354 0.31065387 0
0.50716954 0.7424413 -0.19112149 0
0.57684052 0.84443212 -0.19261689 0
0.66011775 0.96634096 -0.19233815 0
0.76962727 1.126651 -0.19174968 0
0.92132944 1.3487266 -0.19089785 0
1.1558723 1.692072 -0.19127138 0
0.85266626 1.2482111 -0.10567824 0
0.84003973 1.2297273 -0.069331989 0
0.84224087 1.2329495 -0.034716696 0
0.84306395 1.2341545 4.2669039e-05 0
0.83941352 1.2288105 0.034685165 0
0.8378225 1.2264816 0.069233991 0
0.83763599 1.2262086 0.10390062 0
0.84074897 1.2307656 0.13921127 0
0.84496772 1.2369413 0.17516254 0
0.84460437 1.2364094 0.21051714 0
1.1015756 1.6125876 0.32108003 0
1.0988632 1.6086169 0.36704439 0
0.48956221 0.75699091 -0.19162512 0
0.55411333 0.85680372 -0.19218762 0
0.62494421 0.96632677 -0.18913569 0
0.73767275 1.1406345 -0.1909001 0
0.88531357 1.3689257 -0.19053352 0
1.1099327 1.7162454 -0.19077654 0
1.4836347 2.2940862 -0.19099484 0
0.85078126 1.3155297 -0.072935663 0
0.84043193 1.2995269 -0.03598262 0
0.83302498 1.2880739 4.3792381e-05 0
0.83979762 1.2985462 0.036043808 0
0.83702981 1.2942665 0.07184498 0
0.84130085 1.3008705 0.10839327 0
0.83846241 1.2964816 0.14420483 0
0.8372159 1.2945541 0.18027136 0
0.84019542 1.2991613 0.21752171 0
0.84496289 1.3065331 0.25581428 0
1.0984502 1.6984905 0.38110399 0
0.46667442 0.76316202 -0.19014513 0
0.53744704 0.87889785 -0.19403906 0
0.61163557 1.0002198 -0.19268665 0
0.71100622 1.1627227 -0.19153251 0
0.85092384 1.3915328 -0.19063017 0
1.0680748 1.7466441 -0.19109824 0
1.4287331 2.3364358 -0.19145754 0
0.84597325 1.3834369 -0.075492769 0
0.84890157 1.3882257 -0.037833303 0
0.83836627 1.3709972 4.5877634e-05 0
0.8333739 1.362833 0.037232533 0
0.84146988 1.3760725 0.075183198 0
0.83681041 1.3684528 0.11222891 0
0.84131342 1.3758167 0.15061933 0
0.83735901 1.36935 0.18768418 0
0.84334725 1.3791426 0.22727697 0
0.83708119 1.3688956 0.26380402 0
1.1003938 1.7994958 0.3974092 0
0.44748539 0.77506584 -0.19023648 0
0.50803119 0.87993401 -0.19137605 0
0.58074296 1.0058743 -0.19089149 0
0.68208468 1.1814029 -0.19171278 0
0.81840891 1.4175229 -0.1913 0
1.0245941 1.7746453 -0.19127163 0
1.3610194 2.3573499 -0.19029588 0
1.3687727 2.370779 -0.12744528 0
0.84349388 1.4609712 -0.039223161 0
0.84252256 1.459289 4.8105248e-05 0
0.84360403 1.4611621 0.039324667 0
0.84327167 1.4605864 0.078612827 0
0.83497834 1.4462219 0.11684135 0
0.84009182 1.4550787 0.15692544 0
0.83901823 1.4532193 0.19621448 0
0.83318025 1.4431076 0.23427808 0
0.8436175 1.4611853 0.27739787 0
0.84006888 1.455039 0.31655446 0
0.43019563 0.79053527 -0.19130749 0
0.48172736 0.8852309 -0.18982331 0
0.55746359 1.0244051 -0.19167705 0
0.64225209 1.180214 -0.18882927 0
0.7835654 1.4398938 -0.19158915 0
0.98125428 1.8031706 -0.19161579 0
1.2906466 2.3717153 -0.18876584 0
1.2928116 2.375694 -0.12591536 0
1.2938441 2.3775911 -0.062935196 0
0.84767175 1.5576969 5.0627867e-05 0
0.83630514 1.5368094 0.040779527 0
0.83738059 1.5387857 0.081658199 0
0.84126627 1.5459261 0.1231419 0
0.83814675 1.5401937 0.16377126 0
0.83854431 1.5409241 0.20513354 0
0.83767015 1.5393177 0.24638639 0
0.84607857 1.5547693 0.29101759 0
0.83544999 1.535238 0.32931006 0
0.41157517 0.80399472 -0.19198968 0
0.46351427 0.90545559 -0.19159056 0
0.5327546 1.0407135 -0.19215143 0
0.6183694 1.2079585 -0.19071048 0
0.74262446 1.4506856 -0.19047049 0
0.93367165 1.8238881 -0.19125231 0
1.2412162 2.4246633 -0.19042601 0
1.246284 2.4345632 -0.1273278 0
1.2443841 2.4308517 -0.063493438 0
1.2411754 2.4245837 7.7760284e-05 0
0.85132736 1.6630321 0.043544848 0
0.83179438 1.6248752 0.085085519 0
0.839849 1.6406096 0.12895446 0
0.83950156 1.6399308 0.17206872 0
0.8380695 1.6371334 0.21505696 0
0.83538038 1.6318803 0.2577453 0
0.84179968 1.6444201 0.30372468 0
0.83879745 1.6385554 0.34682024 0
0.39116764 0.81414205 -0.19199413 0
0.44370085 0.92348009 -0.19297345 0
0.50628018 1.0537273 -0.19213375 0
0.58824909 1.2243302 -0.19089043 0
0.70790499 1.4733715 -0.19104239 0
0.88809609 1.8484054 -0.19141182 0
1.1825578 2.4612722 -0.19089632 0
1.7851189 3.7153902 -0.19189766 0
4.5019197 9.3699017 -0.24169546 0
0.84690601 1.762676 0.091153055 0
0.84114587 1.7506874 0.13589479 0
0.83689576 1.7418416 0.18048789 0
0.83505481 1.73801 0.22546792 0
0.839068 1.7463627 0.27239552 0
0.84181261 1.7520751 0.31958255 0
0.83619434 1.7403817 0.36379007 0
0.37146857 0.82590258 -0.19249527 0
0.41947696 0.93264174 -0.19261423 0
0.47712079 1.0608038 -0.19116746 0
0.55656362 1.2374326 -0.19068241 0
0.67091841 1.4916826 -0.19116016 0
0.84428066 1.8771266 -0.19211824 0
1.116855 2.4831533 -0.19034651 0
1.6931815 3.7645254 -0.19216707 0
4.2695994 9.4927902 -0.2420086 0
1.0654181 2.3687913 0.1210679 0
0.84992737 1.8896812 0.1449727 0
0.8394568 1.8664014 0.19113842 0
0.84252709 1.8732278 0.24017432 0
0.83939254 1.8662586 0.28770065 0
0.838359 1.8639607 0.33602422 0
0.83627307 1.8593229 0.38411799 0
0.34910193 0.83165306 -0.1917209 0
0.39511293 0.94126338 -0.19227406 0
0.44860682 1.0687 -0.19048935 0
0.52251607 1.2447712 -0.18972068 0
0.63891363 1.5220611 -0.19292524 0
0.7931872 1.8895814 -0.19128312 0
1.064268 2.5353675 -0.19222875 0
1.5917909 3.7920666 -0.19146118 0
4.0244255 9.587245 -0.24175017 0
0.99759769 2.3765411 0.12013888 0
0.84921992 2.0230663 0.15351252 0
0.83873099 1.9980787 0.20239116 0
0.8406617 2.0026784 0.25397044 0
0.84384531 2.0102625 0.30651927 0
0.8369953 1.9939438 0.35553536 0
0.83743411 1.9949893 0.40764901 0
0.32465553 0.83161062 -0.18976174 0
0.37199584 0.95287359 -0.19266649 0
0.42718798 1.0942492 -0.19306009 0
0.49452609 1.2667369 -0.19110537 0
0.60203308 1.5421178 -0.19347991 0
0.74512625 1.9086535 -0.19124913 0
0.99842036 2.5574706 -0.19193289 0
1.4993662 3.840652 -0.19194245 0
3.7816875 9.6868563 -0.24177819 0
0.92657006 2.3734248 0.11876132 0
0.84591061 2.1668143 0.1627484 0
0.83673197 2.1433032 0.21489379 0
0.83676398 2.1433852 0.26905033 0
0.83617324 2.1418719 0.32326585 0
0.83971334 2.1509399 0.37962908 0
0.84026629 2.1523564 0.43533275 0
0.30504009 0.84360337 -0.1906808 0
0.3453615 0.95511419 -0.19129615 0
0.394999 1.0923891 -0.1909122 0
0.43356562 1.199047 -0.17918544 0
0.43417877 1.2007427 -0.14922732 0
0.43584546 1.2053521 -0.11963722 0
0.9345777 2.5846205 -0.19213901 0
1.3999994 3.871767 -0.19167054 0
3.530525 9.7638397 -0.24139874 0
0.85691178 2.3698316 0.11746192 0
0.84861153 2.3468769 0.1746085 0
0.83870655 2.319484 0.23036247 0
0.83884829 2.319876 0.28845507 0
0.840455 2.3243196 0.34748992 0
0.836492 2.3133597 0.40444031 0
0.83878142 2.3196912 0.46474785 0
0.28561255 0.85689515 -0.19199465 0
0.32114771 0.96350783 -0.19129296 0
0.3662518 1.0988292 -0.19036157 0
0.40292698 1.2088621 -0.17907545 0
0.40317249 1.2095987 -0.14901584 0
0.40128073 1.203923 -0.11845241 0
0.86859322 2.6059544 -0.19203413 0
1.2988244 3.8967347 -0.19122285 0
3.2886026 9.8664703 -0.24180703 0
0.78963637 2.3690679 0.11639918 0
0.84709603 2.5414586 0.18743511 0
0.83882874 2.5166552 0.24776322 0
0.83847201 2.5155849 0.31005958 0
0.84072936 2.5223575 0.37380561 0
0.83955646 2.5188384 0.43652019 0
0.83924234 2.5178959 0.50005502 0
0.26639146 0.87197965 -0.19380629 0
0.29809445 0.97575307 -0.19216917 0
0.34031463 1.1139524 -0.19143258 0
0.37885541 1.240108 -0.18222959 0
0.38156942 1.2489918 -0.15263383 0
0.38084894 1.2466335 -0.12167016 0
0.72941762 2.387604 -0.17453155 0
0.72318178 2.367192 -0.11523185 0
0.72539586 2.3744395 -0.057725582 0
0.72611755 2.376802 7.0949682e-05 0
0.72583139 2.375865 0.057902157 0
0.72343278 2.3680136 0.11541352 0
0.84160686 2.7548332 0.20154093 0
0.83592898 2.7362478 0.26721978 0
0.83424175 2.7307248 0.33387524 0
0.83776367 2.7422533 0.4031316 0
0.83445388 2.7314193 0.46956152 0
0.24400836 0.87735403 -0.19357038 0
0.27265543 0.98035717 -0.1916596 0
0.30970362 1.1135672 -0.1899626 0
0.36294433 1.304999 -0.19035839 0
0.43784583 1.5743141 -0.19097877 0
0.55012035 1.9780071 -0.19163536 0
0.65754479 2.3642614 -0.17155747 0
0.65878892 2.3687348 -0.11446111 0
0.65872413 2.3685019 -0.057158839 0
0.66005194 2.3732762 7.0324757e-05 0
0.65852648 2.3677912 0.05728209 0
0.66042978 2.3746347 0.11488723 0
0.81285864 2.9227064 0.21225387 0
0.80987507 2.9119787 0.28229544 0
0.81203681 2.9197514 0.35436809 0
0.81352079 2.9250872 0.42685518 0
0.81331694 2.9243543 0.49904141 0
0.22045018 0.87787914 -0.19239739 0
0.24693693 0.98335505 -0.19096644 0
0.28425553 1.1319655 -0.19181621 0
0.33063567 1.3166611 -0.1907815 0
0.39601919 1.5770321 -0.19003546 0
0.49695083 1.9789631 -0.19045216 0
0.59476352 2.368474 -0.17071952 0
0.59564787 2.3719957 -0.11385597 0
0.59577096 2.3724859 -0.056873996 0
0.59591556 2.3730617 6.9850481e-05 0
0.59774685 2.3803542 0.057202823 0
0.59670508 2.3762057 0.11419825 0
0.76644909 3.0521622 0.22018029 0
0.76823068 3.0592568 0.29459953 0
0.76895773 3.0621521 0.36917809 0
0.76762366 3.0568397 0.44311336 0
0.19478478 0.8678115 -0.1890533 0
0.22235659 0.9906503 -0.19123241 0
0.25553194 1.1384542 -0.19176179 0
0.29784349 1.326962 -0.19112399 0
0.35554409 1.5840317 -0.18973717 0
0.4467504 1.9903769 -0.19040483 0
0.54975283 2.4492767 -0.17548777 0
0.55135792 2.4564278 -0.11720344 0
0.55039042 2.4521172 -0.058431331 0
0.55135751 2.4564259 7.1871793e-05 0
0.54927444 2.4471452 0.058456134 0
0.55302352 2.4638484 0.11770199 0
0.71596962 3.1898112 0.22873376 0
0.71178341 3.1711605 0.30354896 0
0.71073139 3.1664736 0.37947175 0
0.7134102 3.1784084 0.4579798 0
0.17558661 0.88638049 -0.19207197 0
0.1978081 0.99855697 -0.19173391 0
0.22416402 1.1316046 -0.18959469 0
0.26354504 1.3304043 -0.19060105 0
0.32028827 1.6168504 -0.19263861 0
0.39736906 2.0059626 -0.19087559 0
0.41551492 2.0975649 -0.14948903 0
0.41392505 2.0895391 -0.099168055 0
0.41520262 2.0959885 -0.04967963 0
0.41525647 2.0962603 6.1007744e-05 0
0.41320899 2.0859244 0.04956257 0
0.41345817 2.0871823 0.099177949 0
0.41433743 2.0916207 0.14918774 0
0.41428471 2.0913546 0.1991238 0
0.41514915 2.0957186 0.2498167 0
0.40556303 2.0473266 0.2934328 0
0.29515421 1.4899708 0.24972622 0
0.26966688 1.361308 0.26146814 0
0.1537718 0.89404798 -0.19283105 0
0.1753597 1.0195627 -0.19485536 0
0.1967949 1.1441896 -0.19081029 0
0.23090048 1.3424835 -0.19143571 0
0.27719456 1.611643 -0.19112377 0
0.34628558 2.0133467 -0.19068585 0
0.36809236 2.1401339 -0.15181239 0
0.88102084 5.1223626 -0.24197136 0
1.7613595 10.240759 -0.24159834 0
0.58288103 3.3889413 0.16028436 0
0.57856315 3.3638365 0.23881271 0
0.57960582 3.369899 0.31936309 0
0.26095602 1.5172302 0.18001652 0
0.26995355 1.5695429 0.2239067 0
0.26956281 1.567271 0.26145855 0
0.23864801 1.3875287 0.26526299 0
0.13128704 0.89847744 -0.19301027 0
0.14712615 1.0068741 -0.19165964 0
0.16654383 1.1397612 -0.18931052 0
0.19616489 1.3424761 -0.19066794 0
0.2360481 1.6154214 -0.19080457 0
0.29671761 2.0306199 -0.19155154 0
0.39493811 2.7028029 -0.19095795 0
0.75028419 5.1346531 -0.24158047 0
1.5038619 10.291845 -0.24183112 0
0.50604415 3.4631693 0.16313905 0
0.5039897 3.4491093 0.24388586 0
0.50412089 3.4500072 0.32564536 0
0.22097746 1.5122837 0.17871098 0
0.27498734 1.8819063 0.26739237 0
0.20023587 1.3703364 0.26092699 0
0.1080614 0.89723301 -0.19209588 0
0.1213672 1.0077109 -0.19117498 0
0.13896249 1.1538044 -0.1909997 0
0.16352737 1.3577664 -0.19219218 0
0.19529335 1.6215192 -0.19088185 0
0.24464281 2.0312674 -0.19096935 0
0.32526559 2.7006776 -0.19016723 0
0.62152892 5.1605501 -0.24198379 0
1.2414368 10.30764 -0.24138914 0
0.42392388 3.5198367 0.16525182 0
0.42462534 3.525661 0.24846189 0
0.4235872 3.5170412 0.33085823 0
0.42415103 3.5217228 0.4147751 0
0.22984076 1.9083661 0.27024162 0
0.16623728 1.3802669 0.26193556 0
0.084964566 0.89520258 -0.19114119 0
0.095921375 1.0106456 -0.19121154 0
0.11003144 1.1593119 -0.19139074 0
0.12941451 1.3635356 -0.19248517 0
0.15545392 1.6378917 -0.19228606 0
0.19388422 2.0428007 -0.1915326 0
0.25859264 2.7245803 -0.19132984 0
0.49060062 5.1690602 -0.24172525 0
0.98321772 10.359366 -0.2419423 0
0.33964077 3.5785189 0.16755107 0
0.33862764 3.5678444 0.25075251 0
0.33845711 3.5660477 0.33455825 0
0.33866927 3.5682831 0.41911861 0
0.33833256 3.5647354 0.5034287 0
0.17146015 1.8065363 0.29834738 0
0.13073823 1.3774825 0.26069796 0
0.062130891 0.89389914 -0.1904674 0
0.070650503 1.0164739 -0.19191575 0
0.080201931 1.1538936 -0.1901015 0
0.09439747 1.3581299 -0.1913248 0
0.11419093 1.6429054 -0.19247502 0
0.14248794 2.0500245 -0.19181164 0
0.19027956 2.7376196 -0.19184716 0
0.36036754 5.1847353 -0.24195591 0
0.72113442 10.375216 -0.24181041 0
0.2523489 3.6306331 0.1696389 0
0.25170889 3.6214249 0.25399083 0
0.13215755 1.9013975 0.17801504 0
0.13325912 1.9172462 0.22472674 0
0.13266996 1.9087696 0.26900688 0
0.12446176 1.7906755 0.29511523 0
0.095114335 1.3684436 0.25845066 0
0.040148929 0.90857393 -0.19331674 0
0.045061521 1.0197464 -0.19225766 0
0.050942704 1.152838 -0.18965538 0
0.060014199 1.3581269 -0.19105016 0
0.072285607 1.6358299 -0.19137143 0
0.08987122 2.0337939 -0.19002028 0
0.11130178 2.5187695 -0.17625757 0
0.11041986 2.4988117 -0.11644483 0
0.45858338 10.377784 -0.24152356 0
0.16190355 3.663892 0.17094754 0
0.16196246 3.6652255 0.25669438 0
0.085504293 1.93497 0.18089858 0
0.085269257 1.929651 0.22585657 0
0.085397184 1.932546 0.27196738 0
0.076465406 1.7304192 0.28477582 0
0.060169347 1.3616378 0.25679669 0
0.01715163 0.90611148 -0.19263937 0
0.019394048 1.0245773 -0.19301471 0
0.022153484 1.1703569 -0.19238418 0
0.02584775 1.365523 -0.1919377 0
0.031106142 1.643321 -0.19209476 0
0.038464423 2.0320551 -0.1897067 0
0.051991779 2.7466981 -0.1920545 0
0.046558753 2.4596744 -0.1145298 0
0.048196658 2.5462041 -0.059210986 0
0.070030056 3.699651 0.17247856 0
0.069661736 3.6801927 0.25753745 0
0.069794498 3.6872065 0.34443918 0
0.069864422 3.6909008 0.43165869 0
0.031660277 1.6725957 0.27504072 0
0.025949698 1.3709089 0.25833935 0
-0.0056757308 0.89988542 -0.19128524 0
-0.0063455575 1.0060862 -0.18950111 0
-0.0073512928 1.1655452 -0.19156276 0
-0.008580856 1.3604921 -0.19120011 0
-0.010322873 1.6366885 -0.19128899 0
-0.012810025 2.0310256 -0.18958041 0
-0.017290246 2.7413633 -0.19165096 0
-0.015594601 2.4725194 -0.11510957 0
-0.016070945 2.5480437 -0.059244331 0
-0.016502444 2.6164575 7.4697127e-05 0
-0.023459589 3.719511 0.17337683 0
-0.023475682 3.7220626 0.26042601 0
-0.023336636 3.7000167 0.34558079 0
-0.02348456 3.7234697 0.43539837 0
-0.010334397 1.6385155 0.26939368 0
-0.0086583095 1.3727725 0.25864935 0
-0.028512113 0.90367746 -0.19218308 0
-0.032012071 1.014607 -0.19119731 0
-0.036270492 1.1495756 -0.18902831 0
-0.042706039 1.353547 -0.19031492 0
-0.051564239 1.6343033 -0.19110148 0
-0.065143913 2.0647047 -0.19281614 0
-0.084556527 2.6799779 -0.18744895 0
-0.084377609 2.6743069 -0.12456339 0
-0.11995177 3.8018126 -0.088437825 0
-0.11990802 3.800426 0.00010855003 0
-0.11987578 3.7994041 0.088598959 0
-0.11795676 3.7385821 0.17434902 0
-0.11735541 3.7195222 0.26037258 0
-0.11709273 3.7111967 0.34679061 0
-0.11735301 3.7194464 0.43513569 0
-0.051476359 1.631518 0.26837134 0
-0.043004945 1.3630207 0.25693467 0
