# .PCD v0.7 - Point Cloud Data file format
VERSION 0.7
FIELDS x y z intensity
SIZE 4 4 4 4
TYPE F F F F
COUNT 1 1 1 1
WIDTH 1338
HEIGHT 1
VIEWPOINT 0 0 0 1 0 0 0
POINTS 1338
DATA ascii
-2.5713358 -2.3093829 -0.24161792 0
-3.8653803 -3.4715974 -0.24187441 0
-7.7385049 -6.9501505 -0.24183711 0
-0.66029376 -0.62383294 -0.19308721 0
-0.72916675 -0.6889028 -0.18894064 0
-0.84937412 -0.80247241 -0.19204499 0
-0.99058867 -0.93588924 -0.19151707 0
-1.1843772 -1.118977 -0.19043028 0
-1.4909942 -1.4086628 -0.1914591 0
-1.9877765 -1.8780133 -0.19117627 0
-3.776407 -3.5678773 -0.24186476 0
-7.5593834 -7.1419606 -0.24179557 0
-0.64179361 -0.63776016 -0.19232303 0
-0.72370994 -0.71916169 -0.19216874 0
-0.82689303 -0.82169634 -0.19159004 0
-0.96922135 -0.96313012 -0.19202454 0
-1.1673174 -1.1599813 -0.19233336 0
-1.4528915 -1.4437605 -0.19118458 0
-1.9394559 -1.9272671 -0.19114633 0
-3.6834614 -3.6603122 -0.2417517 0
-7.3831143 -7.3367138 -0.24200325 0
-0.63046533 -0.65894192 -0.19385035 0
-0.70438331 -0.7361986 -0.19190963 0
-0.80017823 -0.83632034 -0.19023035 0
-0.94203109 -0.98458034 -0.19149987 0
-1.1334116 -1.1846051 -0.19161204 0
-1.4161088 -1.4800711 -0.19119909 0
-1.8836809 -1.9687623 -0.19048592 0
-3.5865245 -3.7485192 -0.241522 0
-7.1941137 -7.5190544 -0.24195154 0
-0.60323036 -0.66319621 -0.19056228 0
-0.69113362 -0.75983775 -0.19346306 0
-0.77991289 -0.85744238 -0.19049673 0
-0.91654742 -1.0076594 -0.19142848 0
-1.1010273 -1.2104781 -0.19124123 0
-1.3834852 -1.5210145 -0.19191638 0
-1.8507808 -2.0347629 -0.19229096 0
-3.4956038 -3.8430943 -0.2418541 0
-6.9935627 -7.6887779 -0.24165618 0
-0.59291059 -0.68584591 -0.19270918 0
-0.66651273 -0.77098471 -0.19195697 0
-0.76006126 -0.87919647 -0.19100708 0
-0.89325774 -1.0332707 -0.19194986 0
-1.0756885 -1.2442964 -0.19223365 0
-1.3412782 -1.5515157 -0.19143257 0
-1.7962658 -2.0778201 -0.19201446 0
-3.406363 -3.9402905 -0.24248315 0
-6.8013167 -7.8673835 -0.24179752 0
-0.57101274 -0.69522458 -0.19123407 0
-0.64759105 -0.78846091 -0.19217752 0
-0.75076991 -0.91408414 -0.19440794 0
-0.85855013 -1.0453098 -0.19010039 0
-1.0491436 -1.2773628 -0.19318977 0
-1.3004111 -1.5832883 -0.19124229 0
-1.7419083 -2.1208241 -0.19186462 0
-3.292799 -4.0090785 -0.24152505 0
-6.5983067 -8.0336304 -0.24171171 0
-0.55524784 -0.7119211 -0.19191086 0
-0.62981403 -0.80752748 -0.19288892 0
-0.71940303 -0.92239559 -0.19225276 0
-0.837156 -1.0733747 -0.19130085 0
-1.0070872 -1.2912551 -0.19138569 0
-1.2666625 -1.6240742 -0.192246 0
-1.6803144 -2.1544456 -0.19100879 0
-3.1942189 -4.0955257 -0.24179918 0
-6.3955121 -8.2001219 -0.24178739 0
-0.53719723 -0.72582358 -0.19194251 0
-0.59947324 -0.80996662 -0.18979706 0
-0.69334692 -0.93680221 -0.19154714 0
-0.81025064 -1.0947545 -0.19140559 0
-0.97511721 -1.3175107 -0.19156843 0
-1.2177129 -1.6452892 -0.19105838 0
-1.6349386 -2.2090156 -0.19212726 0
-3.0874937 -4.171607 -0.24161337 0
-6.1950593 -8.3703337 -0.24211882 0
-0.51843321 -0.73874789 -0.19183899 0
-0.58204228 -0.82938838 -0.19084503 0
-0.66661018 -0.94989455 -0.19072327 0
-0.78104097 -1.1129541 -0.19108021 0
-0.94305807 -1.3438224 -0.19187227 0
-1.1786964 -1.6795981 -0.1915269 0
-1.5768857 -2.2470031 -0.19190858 0
-2.9882793 -4.2581863 -0.24218249 0
-5.9772129 -8.5173044 -0.24192931 0
-0.49716815 -0.74789172 -0.19089419 0
-0.56196964 -0.8453728 -0.19119851 0
-0.64418578 -0.96905077 -0.19124416 0
-0.75121933 -1.1300617 -0.19070145 0
-0.90759856 -1.3653035 -0.19160767 0
-1.1364945 -1.7096324 -0.19161986 0
-1.5157847 -2.2802 -0.19141547 0
-2.8796053 -4.3317995 -0.24215856 0
-5.7587256 -8.6628704 -0.24185856 0
-0.47745034 -0.75910139 -0.1906189 0
-0.5392707 -0.85738993 -0.19077736 0
-0.62035501 -0.98630643 -0.19149865 0
-0.72179794 -1.1475912 -0.19052468 0
-0.87298334 -1.3879619 -0.19163437 0
-1.0973015 -1.7446069 -0.19237451 0
-1.458553 -2.3189628 -0.19151822 0
-2.7689233 -4.4023294 -0.24211749 0
-5.533711 -8.7980833 -0.2416573 0
-0.46452439 -0.78163987 -0.19327296 0
-0.52144945 -0.87742573 -0.19224587 0
-0.59594727 -1.0027808 -0.19171587 0
-0.692002 -1.1644089 -0.19035652 0
-0.83955091 -1.4126846 -0.19206105 0
-1.0466446 -1.7611542 -0.19122538 0
-1.4021679 -2.3593817 -0.19187249 0
-2.6531146 -4.4643083 -0.24176645 0
-5.3166118 -8.9460878 -0.2419598 0
-0.4381943 -0.78158784 -0.19046476 0
-0.5008961 -0.89342624 -0.19292027 0
-0.56850207 -1.014012 -0.19105907 0
-0.66569805 -1.1873761 -0.19130357 0
-0.79500532 -1.4180158 -0.1899974 0
-0.99932528 -1.7824523 -0.19073859 0
-1.3405963 -2.3911624 -0.19164439 0
-2.5393739 -4.5293694 -0.24174199 0
-5.087326 -9.0740385 -0.24187066 0
-0.41998532 -0.79552186 -0.19121633 0
-0.47528315 -0.9002651 -0.19174567 0
-0.54353738 -1.02955 -0.19134098 0
-0.63501352 -1.2028209 -0.19114885 0
-0.76212513 -1.4435915 -0.19078617 0
-0.96311563 -1.8243008 -0.19255425 0
-1.2851307 -2.4342506 -0.19243689 0
-1.9263059 -3.6487429 -0.19208509 0
-4.8555555 -9.1972275 -0.24181069 0
-0.40686581 -0.820149 -0.1946056 0
-0.45006362 -0.90722591 -0.19074814 0
-0.51492333 -1.0379684 -0.19042955 0
-0.60121471 -1.2119122 -0.19012165 0
-0.72290385 -1.4572098 -0.19011413 0
-0.91999406 -1.8544989 -0.19322927 0
-1.2164339 -2.452054 -0.1913563 0
-1.8344105 -3.6977546 -0.19216672 0
-4.6200943 -9.3130598 -0.24171335 0
-0.38395953 -0.82567292 -0.19355525 0
-0.42766941 -0.91966736 -0.19103369 0
-0.49048942 -1.0547565 -0.19117752 0
-0.5715434 -1.2290562 -0.19048753 0
-0.6931482 -1.4905573 -0.19212121 0
-0.86811543 -1.8668097 -0.19216786 0
-1.1552812 -2.4843357 -0.19153906 0
-1.7410839 -3.7440553 -0.19222802 0
-4.3832359 -9.4257822 -0.24169075 0
-0.35790864 -0.82337403 -0.19083798 0
-0.4065094 -0.93518078 -0.19206379 0
-0.46986535 -1.080932 -0.19371076 0
-0.54048741 -1.2433991 -0.19053558 0
-0.65025061 -1.495911 -0.1906352 0
-0.82214785 -1.891363 -0.19249804 0
-1.0930262 -2.5145226 -0.19167846 0
-1.6423289 -3.7782013 -0.19179189 0
-4.1456409 -9.5371065 -0.24178535 0
-0.33801001 -0.83458632 -0.19139849 0
-0.38559201 -0.95207185 -0.19347249 0
-0.43560317 -1.0755553 -0.19071622 0
-0.50994378 -1.2591109 -0.19091018 0
-0.61374283 -1.5154029 -0.19108433 0
-0.77055931 -1.9026012 -0.19160146 0
-1.0309384 -2.5455077 -0.19199583 0
-1.5520396 -3.8321679 -0.19248161 0
-3.9083354 -9.6501379 -0.24207304 0
-0.31766734 -0.84503651 -0.19189525 0
-0.35620403 -0.94754916 -0.19066578 0
-0.41062713 -1.0923218 -0.19179045 0
-0.47661868 -1.2678678 -0.19035338 0
-0.57449853 -1.528241 -0.19081403 0
-0.72216743 -1.9210595 -0.19156374 0
-0.96581209 -2.569186 -0.19188209 0
-1.4511362 -3.8602114 -0.19198944 0
-3.662816 -9.7435684 -0.24202067 0
-0.29538301 -0.85030085 -0.19133681 0
-0.33390215 -0.96118361 -0.19165252 0
-0.37952799 -1.0925238 -0.19008353 0
-0.44565395 -1.2828766 -0.19085725 0
-0.53992629 -1.5542526 -0.19229908 0
-0.67543405 -1.9443305 -0.19212317 0
-0.90143275 -2.5948989 -0.19204213 0
-1.3479519 -3.880266 -0.1912339 0
-3.4110682 -9.819232 -0.24168468 0
-0.27577028 -0.86354291 -0.19268902 0
-0.31071451 -0.97296679 -0.19237708 0
-0.35348052 -1.1068836 -0.1909689 0
-0.41021854 -1.2845522 -0.18950586 0
-0.49998564 -1.5656476 -0.19208646 0
-0.62681746 -1.9628068 -0.1923244 0
-0.83007425 -2.599282 -0.19075528 0
-1.2556837 -3.9320292 -0.19216189 0
-3.1657212 -9.9130917 -0.24195123 0
-0.25152183 -0.86209375 -0.19088835 0
-0.28558207 -0.97883558 -0.19205117 0
-0.32414529 -1.1110115 -0.19020903 0
-0.38168114 -1.3082162 -0.19151478 0
-0.46144637 -1.5816125 -0.19255495 0
-0.57605189 -1.974424 -0.19197696 0
-0.77049381 -2.6408758 -0.19231936 0
-1.154672 -3.9576507 -0.19192868 0
-2.9140725 -9.9880152 -0.24190776 0
-0.23118544 -0.87381673 -0.19213094 0
-0.26034385 -0.98402739 -0.19171955 0
-0.29779175 -1.1255701 -0.19135381 0
-0.34785482 -1.3147945 -0.19113168 0
-0.42159894 -1.5935268 -0.19264866 0
-0.52681786 -1.9912251 -0.19225651 0
-0.7021488 -2.6539273 -0.19191816 0
-1.0540957 -3.984189 -0.19186437 0
-2.6583529 -10.047835 -0.24165463 0
-0.20719157 -0.87149328 -0.19040963 0
-0.23654017 -0.99493986 -0.19262114 0
-0.26777655 -1.1263269 -0.19027293 0
-0.31537816 -1.3265498 -0.19162239 0
-0.37950033 -1.5962617 -0.19176029 0
-0.47268438 -1.9882144 -0.19075321 0
-0.63608462 -2.6755116 -0.19225684 0
-0.94828224 -3.9886832 -0.19086745 0
-2.4054112 -10.117688 -0.24179751 0
-0.18553279 -0.87831724 -0.1908167 0
-0.21230654 -1.0050648 -0.19348234 0
-0.24085186 -1.1401992 -0.19152848 0
-0.27895707 -1.3205901 -0.18968408 0
-0.33936724 -1.6065736 -0.19190899 0
-0.42425388 -2.0084293 -0.19160432 0
-0.56514782 -2.6754248 -0.19116478 0
-0.8460964 -4.0054431 -0.19058689 0
-2.15044 -10.180241 -0.24191828 0
-0.1661468 -0.89803612 -0.19412783 0
-0.18618189 -1.0063273 -0.19275938 0
-0.21035957 -1.1370095 -0.19004032 0
-0.24549255 -1.3269058 -0.18964088 0
-0.29919517 -1.6171726 -0.19221181 0
-0.37128896 -2.006845 -0.19049852 0
-0.50108045 -2.7083778 -0.19255438 0
-0.94466734 -5.105999 -0.24174204 0
-1.8920392 -10.226615 -0.24180852 0
-0.14088985 -0.88593435 -0.19068241 0
-0.16051626 -1.0093479 -0.19250067 0
-0.18264942 -1.1485242 -0.19113351 0
-0.21203615 -1.3333119 -0.18973117 0
-0.25892398 -1.6281488 -0.19267832 0
-0.32094982 -2.0181758 -0.19074441 0
-0.43211865 -2.7172203 -0.19234639 0
-0.81498355 -5.1247263 -0.24157792 0
-1.6338832 -10.274078 -0.24187869 0
-0.11911786 -0.89390367 -0.19168954 0
-0.13476655 -1.0113372 -0.19217016 0
-0.15382124 -1.1543305 -0.19139278 0
-0.17933699 -1.3458099 -0.19080479 0
-0.21649347 -1.6246457 -0.19155613 0
-0.27085426 -2.0325887 -0.19139957 0
-0.36224842 -2.7184436 -0.19172475 0
-0.68594486 -5.1475797 -0.24176212 0
-1.3734426 -10.306813 -0.24175628 0
-0.096532628 -0.89668733 -0.19170296 0
-0.10714491 -0.99526441 -0.18854219 0
-0.12511264 -1.1621658 -0.19210716 0
-0.14422517 -1.3397012 -0.18936232 0
-0.17562349 -1.6313589 -0.19176395 0
-0.22040009 -2.0472867 -0.1921986 0
-0.29384696 -2.7295315 -0.19192256 0
-0.55665946 -5.170785 -0.24211504 0
-1.1132969 -10.341366 -0.24183066 0
-0.073724851 -0.89697909 -0.19130661 0
-0.083533242 -1.0163136 -0.19206916 0
-0.095234081 -1.1586727 -0.19107157 0
-0.11091419 -1.3494459 -0.19028343 0
-0.13454638 -1.6369689 -0.19196311 0
-0.16735324 -2.0361161 -0.19069265 0
-0.22494572 -2.7368193 -0.19197465 0
-0.42544505 -5.1762099 -0.24178925 0
-0.85175705 -10.362967 -0.2417561 0
-0.051148847 -0.89994574 -0.19160299 0
-0.057750203 -1.0160943 -0.19169122 0
-0.066768274 -1.1747642 -0.19338566 0
-0.076922789 -1.3534292 -0.19051068 0
-0.082252182 -1.4471979 -0.16941176 0
-0.082015261 -1.4430294 -0.13491023 0
-0.08198981 -1.4425815 -0.10101281 0
-0.082398571 -1.4497737 -0.067602634 0
-0.082204871 -1.4463655 -0.033682913 0
-0.081416324 -1.4324912 4.0961313e-05 0
-0.028569581 -0.90549892 -0.19257043 0
-0.031908728 -1.0113316 -0.19058007 0
-0.036584549 -1.1595293 -0.19066505 0
-0.041426703 -1.3129991 -0.18461372 0
-0.04169653 -1.3215511 -0.1545309 0
-0.041656844 -1.3202933 -0.12329795 0
-0.04171652 -1.3221847 -0.092479169 0
-0.041782215 -1.3242669 -0.061681468 0
-0.041845594 -1.3262757 -0.030851847 0
-0.041486885 -1.3149065 3.755714e-05 0
-0.0056666769 -0.89844996 -0.19098011 0
-0.0063933996 -1.0136716 -0.19092984 0
-0.0072239102 -1.1453488 -0.18824337 0
-0.0076334206 -1.2102766 -0.1700892 0
-0.0077014649 -1.221065 -0.14271274 0
-0.0076865316 -1.2186973 -0.11375589 0
-0.0076152887 -1.2074018 -0.084410444 0
-0.007684119 -1.2183148 -0.056719352 0
-0.007718951 -1.2238374 -0.028455332 0
-0.0076865242 -1.2186961 3.4792498e-05 0
0.01718179 -0.90770483 -0.19297811 0
0.019168308 -1.0126517 -0.19076809 0
0.021983678 -1.1613861 -0.19090956 0
0.022703873 -1.1994336 -0.1685922 0
0.022877894 -1.2086271 -0.14128155 0
0.022931313 -1.2114493 -0.11309734 0
0.022928732 -1.2113128 -0.084697358 0
0.023105795 -1.2206669 -0.056837905 0
0.022832792 -1.2062445 -0.028050745 0
0.022829426 -1.2060666 3.4437424e-05 0
0.03959826 -0.8961122 -0.19066527 0
0.044939291 -1.0169803 -0.19173615 0
0.051137045 -1.157236 -0.1903789 0
0.053298458 -1.206149 -0.16967116 0
0.053332202 -1.2069126 -0.14119351 0
0.053574383 -1.2123932 -0.11327562 0
0.053538926 -1.2115908 -0.084784277 0
0.053225741 -1.2045034 -0.056129958 0
0.053489313 -1.2104681 -0.028171387 0
0.052829083 -1.195527 3.4163673e-05 0
0.063125134 -0.90820372 -0.19351535 0
0.070400394 -1.0128754 -0.19123633 0
0.07982605 -1.1484857 -0.18921056 0
0.084750503 -1.2193356 -0.17177233 0
0.084165677 -1.2109214 -0.14186583 0
0.083716959 -1.2044655 -0.11269646 0
0.084852107 -1.2207973 -0.08555115 0
0.084474415 -1.2153634 -0.056717329 0
0.08428587 -1.2126508 -0.028262693 0
0.084308304 -1.2129735 3.4711979e-05 0
0.085522503 -0.90108114 -0.19239636 0
0.096768513 -1.0195712 -0.19290024 0
0.10982341 -1.15712 -0.19102886 0
0.11436891 -1.2050123 -0.17010704 0
0.11460851 -1.2075368 -0.14176303 0
0.11506139 -1.2123084 -0.11366581 0
0.1147792 -1.2093352 -0.084923871 0
0.11544064 -1.2163043 -0.056879096 0
0.11470943 -1.2086 -0.028226772 0
0.11511938 -1.2129195 3.4782504e-05 0
0.10866518 -0.90224618 -0.19316919 0
0.12133288 -1.0074259 -0.19112091 0
0.13970643 -1.1599815 -0.19202223 0
0.1455038 -1.2081169 -0.17100926 0
0.14536737 -1.2069842 -0.14208364 0
0.14626214 -1.2144134 -0.11417293 0
0.14608987 -1.212983 -0.085411757 0
0.14609508 -1.2130264 -0.056880124 0
0.14650801 -1.2164549 -0.028487509 0
0.14614201 -1.2134159 3.4891404e-05 0
0.13035145 -0.89207458 -0.19163482 0
0.14754798 -1.0097609 -0.19220915 0
0.16780576 -1.1483973 -0.19074497 0
0.17678005 -1.2098138 -0.1718263 0
0.17697524 -1.2111497 -0.14305425 0
0.17623422 -1.2060784 -0.11377125 0
0.17683128 -1.2101644 -0.085500322 0
0.17697518 -1.2111492 -0.056983404 0
0.17731345 -1.2134643 -0.028513197 0
0.17708443 -1.2118969 3.4965109e-05 0
0.15215488 -0.88464701 -0.19080342 0
0.17235214 -1.0020764 -0.19151343 0
0.19558775 -1.137171 -0.18963985 0
0.20633124 -1.1996349 -0.17106576 0
0.20720237 -1.2046999 -0.14286463 0
0.20858568 -1.2127426 -0.11485993 0
0.20807819 -1.2097919 -0.085817717 0
0.20840244 -1.2116772 -0.057237487 0
0.20911913 -1.2158442 -0.028684001 0
0.20730449 -1.2052937 3.4914432e-05 0
0.17590207 -0.88797295 -0.19241704 0
0.1970135 -0.99454576 -0.1909637 0
0.2255953 -1.1388298 -0.19080524 0
0.24070878 -1.2151244 -0.17408541 0
0.24095155 -1.2163498 -0.14492123 0
0.24145968 -1.218915 -0.11598478 0
0.23901351 -1.2065665 -0.085989453 0
0.24143161 -1.2187732 -0.057842121 0
0.23835775 -1.203256 -0.028519869 0
0.23852211 -1.2040858 3.5042671e-05 0
0.19850579 -0.88438946 -0.19266482 0
0.22158173 -0.98719817 -0.19056603 0
0.25514498 -1.1367302 -0.19147141 0
0.27163622 -1.2102026 -0.17430699 0
0.27339703 -1.2180474 -0.14589915 0
0.27161214 -1.2100953 -0.11576098 0
0.27579296 -1.2287219 -0.088036463 0
0.26983222 -1.2021654 -0.057358865 0
0.27177173 -1.2108063 -0.028852217 0
0.27172863 -1.2106143 3.5420984e-05 0
0.22055398 -0.8782925 -0.19248798 0
0.248146 -0.98816973 -0.19190145 0
0.28176197 -1.1220356 -0.19013354 0
0.30620268 -1.2193638 -0.17668332 0
0.30387366 -1.2100891 -0.14581811 0
0.3032895 -1.2077628 -0.11623312 0
0.30326205 -1.2076535 -0.087047629 0
0.30565292 -1.2171745 -0.058424465 0
0.30340603 -1.2082269 -0.028964005 0
0.30539289 -1.2161391 3.5796751e-05 0
0.24035653 -0.86422354 -0.1906734 0
0.27307865 -0.98187882 -0.19195709 0
0.31235531 -1.1231016 -0.19158906 0
0.33559862 -1.2066749 -0.176016 0
0.3380129 -1.2153559 -0.14743383 0
0.33506024 -1.2047393 -0.11671881 0
0.33888623 -1.2184958 -0.088417493 0
0.33757687 -1.2137879 -0.0586522 0
0.33836249 -1.2166127 -0.029360404 0
0.33571365 -1.2070886 3.5768368e-05 0
0.2632919 -0.86183381 -0.19155128 0
0.29825735 -0.97628629 -0.19227418 0
0.33991048 -1.1126295 -0.19120525 0
0.36730838 -1.2023112 -0.17667547 0
0.36892989 -1.2076188 -0.14757782 0
0.36814213 -1.2050402 -0.1176107 0
0.37022898 -1.2118711 -0.088586614 0
0.37245646 -1.2191623 -0.059347246 0
0.36854875 -1.2063712 -0.029328387 0
0.37126753 -1.2152705 3.6276924e-05 0
0.286403 -0.8592667 -0.19252601 0
0.32401258 -0.972103 -0.19299942 0
0.37016204 -1.1105607 -0.19239394 0
0.429445 -1.2884214 -0.19086102 0
0.51854849 -1.5557499 -0.19165976 0
0.64820927 -1.9447583 -0.19134225 0
0.86420792 -2.5927978 -0.1910646 0
1.3016659 -3.9052596 -0.19164118 0
3.2893341 -9.8686638 -0.24186081 0
0.30548915 -0.84484524 -0.1909615 0
0.34526059 -0.95483512 -0.19124025 0
0.39746779 -1.0992167 -0.19210543 0
0.46096358 -1.2748175 -0.19050856 0
0.55934823 -1.5469049 -0.19224808 0
0.70138526 -1.9397153 -0.19252646 0
0.93386346 -2.5826452 -0.19199218 0
1.4011731 -3.8750131 -0.19183123 0
3.5370359 -9.781846 -0.24184391 0
0.32647982 -0.83628362 -0.19082804 0
0.36825401 -0.9432888 -0.19072849 0
0.42239362 -1.0819684 -0.19089337 0
0.49437547 -1.2663511 -0.19104716 0
0.59540534 -1.5251409 -0.19134991 0
0.74563169 -1.9099481 -0.19137885 0
0.99543351 -2.5498197 -0.1913587 0
1.5038235 -3.8520694 -0.19251306 0
3.78139 -9.6860943 -0.24175918 0
0.35095853 -0.8360759 -0.1927405 0
0.39296389 -0.93614382 -0.19122827 0
0.45411828 -1.0818297 -0.19282965 0
0.52776581 -1.2572776 -0.19162682 0
0.62868571 -1.4976954 -0.18983684 0
0.79834187 -1.9018612 -0.19252621 0
1.0594555 -2.5239029 -0.19135951 0
1.5933756 -3.7958415 -0.19165176 0
4.02672 -9.5927105 -0.24188797 0
0.37126955 -0.82546008 -0.19239214 0
0.41603753 -0.92499465 -0.19103491 0
0.48090869 -1.0692255 -0.19268516 0
0.5582934 -1.2412784 -0.19127505 0
0.67150003 -1.4929757 -0.19132587 0
0.84245318 -1.8730636 -0.1917024 0
1.1221924 -2.4950202 -0.19125617 0
1.6920785 -3.762073 -0.19204189 0
4.2691212 -9.4917269 -0.24198151 0
0.39027178 -0.8122775 -0.19155443 0
0.43985894 -0.91548389 -0.19130255 0
0.50764912 -1.0565765 -0.19265327 0
0.58784366 -1.2234863 -0.19075887 0
0.70680368 -1.4710793 -0.19074517 0
0.8871243 -1.8463829 -0.19120239 0
1.1883798 -2.4733896 -0.19183615 0
1.7877779 -3.7209244 -0.19218351 0
4.5059352 -9.3782587 -0.24191102 0
0.40655002 -0.79417825 -0.18964557 0
0.46339759 -0.9052276 -0.19154233 0
0.53167892 -1.0386124 -0.19176346 0
0.61592352 -1.2031807 -0.18995616 0
0.74701816 -1.4592685 -0.19159739 0
0.93393457 -1.8244017 -0.19130616 0
1.2509516 -2.4436812 -0.19191962 0
1.8792353 -3.6710069 -0.19199388 0
4.7357097 -9.251009 -0.2416348 0
0.43141642 -0.79277861 -0.19185036 0
0.48536065 -0.89190751 -0.191255 0
0.55075479 -1.012077 -0.18937032 0
0.64862663 -1.191928 -0.19070345 0
0.78093779 -1.4350654 -0.19094667 0
0.97768557 -1.7966126 -0.19091891 0
1.3093755 -2.4061322 -0.19150509 0
1.9630852 -3.6074007 -0.19119766 0
4.9655108 -9.124712 -0.24153249 0
0.4465144 -0.77338403 -0.18982369 0
0.50592363 -0.87628365 -0.19058214 0
0.58480722 -1.0129137 -0.19222742 0
0.67316473 -1.165953 -0.18920566 0
0.81424612 -1.4103128 -0.19032697 0
1.0319331 -1.7873569 -0.19264168 0
1.3717991 -2.3760209 -0.19180308 0
2.5960672 -4.496511 -0.24171765 0
5.2007051 -9.0078669 -0.24183707 0
0.46980226 -0.76827705 -0.19141957 0
0.52137446 -0.8526141 -0.18823625 0
0.60522521 -0.98973686 -0.19066717 0
0.71100289 -1.1627172 -0.1915316 0
0.85369766 -1.3960688 -0.19125158 0
1.0748056 -1.7576511 -0.1923025 0
1.4242808 -2.3291547 -0.19086091 0
2.7101247 -4.431921 -0.24184549 0
5.4300594 -8.8798847 -0.24200341 0
0.48698789 -0.75301033 -0.19061749 0
0.55186886 -0.85333323 -0.19140916 0
0.63335162 -0.97932678 -0.19168013 0
0.7393285 -1.1431947 -0.19132857 0
0.88694829 -1.3714534 -0.19088534 0
1.1223277 -1.7354113 -0.19290701 0
1.491774 -2.3066716 -0.19204266 0
2.8244886 -4.3673959 -0.24213739 0
5.6449623 -8.7285843 -0.24168587 0
0.50333738 -0.73683149 -0.1896774 0
0.58032465 -0.84953254 -0.19378032 0
0.6546573 -0.9583475 -0.19074716 0
0.76670474 -1.1223729 -0.19102156 0
0.92432761 -1.3531156 -0.19151905 0
1.1581281 -1.6953744 -0.19164468 0
1.5397701 -2.2540569 -0.19083692 0
2.9277096 -4.28585 -0.24163613 0
5.8657503 -8.5868244 -0.24178292 0
0.5328089 -0.73921508 -0.19369102 0
0.59714448 -0.82847381 -0.19235332 0
0.67684352 -0.93904769 -0.19024532 0
0.80443627 -1.1160688 -0.19334258 0
0.95115715 -1.3196284 -0.19011658 0
1.2036594 -1.6699481 -0.19214337 0
1.6063445 -2.2286305 -0.19205554 0
3.0411966 -4.2193332 -0.24213634 0
6.089993 -8.4492111 -0.24215893 0
0.54883552 -0.72230566 -0.19282852 0
0.61336046 -0.80722505 -0.19095328 0
0.71113724 -0.93590605 -0.19318356 0
0.83180636 -1.094715 -0.19321869 0
0.99057776 -1.3036692 -0.19135831 0
1.2393916 -1.6311255 -0.19121474 0
1.6601083 -2.184818 -0.19182961 0
3.145226 -4.1393361 -0.24202399 0
6.2921839 -8.2809515 -0.24181104 0
0.56649518 -0.70774072 -0.19269583 0
0.63632482 -0.79498118 -0.19179499 0
0.72482818 -0.90555125 -0.19063333 0
0.85034305 -1.062361 -0.19123532 0
1.0192529 -1.2733855 -0.19062845 0
1.279651 -1.5987095 -0.19113994 0
1.7164644 -2.1444345 -0.19202644 0
3.2498097 -4.060092 -0.24210931 0
6.4953709 -8.1148767 -0.24167167 0
0.57628047 -0.68385774 -0.19009279 0
0.65687037 -0.77949172 -0.19199665 0
0.75275958 -0.89328104 -0.19198869 0
0.88172251 -1.0463182 -0.19229211 0
1.0526944 -1.2492063 -0.19092542 0
1.3293316 -1.5774847 -0.19255234 0
1.7718239 -2.1025794 -0.19222169 0
3.34674 -3.9714932 -0.24178602 0
6.6956496 -7.9455614 -0.24158508 0
0.59578246 -0.67184132 -0.19087161 0
0.67445511 -0.76055747 -0.19146481 0
0.77906257 -0.87851936 -0.1929806 0
0.90697932 -1.0227662 -0.19210951 0
1.0828823 -1.2211252 -0.19075 0
1.3615599 -1.5353795 -0.19154647 0
1.8216298 -2.0541828 -0.19193929 0
3.4400415 -3.8792045 -0.2413764 0
6.900908 -7.7818923 -0.24182741 0
0.61779004 -0.66221857 -0.19250631 0
0.69488221 -0.74485481 -0.19186577 0
0.79607284 -0.85332263 -0.1917982 0
0.9279713 -0.99470657 -0.19117735 0
1.1110507 -1.1909522 -0.19035648 0
1.3994633 -1.5001061 -0.19149144 0
1.856244 -1.9897362 -0.19023448 0
3.5440083 -3.7988763 -0.2418668 0
7.0954857 -7.6057591 -0.24184206 0
0.63755751 -0.64973819 -0.19349439 0
0.72011691 -0.73387498 -0.1936575 0
0.82392973 -0.83967108 -0.19334228 0
0.95639765 -0.97466987 -0.1919046 0
1.1437181 -1.1655691 -0.19085243 0
1.4393922 -1.4668921 -0.19182797 0
1.9089444 -1.9454153 -0.19054276 0
3.6351666 -3.7046175 -0.24162999 0
7.2857599 -7.4249563 -0.24186307 0
0.64986521 -0.6296829 -0.19234516 0
0.73712093 -0.71422881 -0.19332097 0
0.83845705 -0.81241781 -0.19187856 0
0.98512328 -0.95452911 -0.19277309 0
1.1699773 -1.1336423 -0.1903992 0
1.4759338 -1.430097 -0.19182651 0
1.9637322 -1.9027463 -0.19115707 0
3.7296758 -3.6138463 -0.24177229 0
7.4762092 -7.2440267 -0.24203885 0
0.66523498 -0.61279935 -0.19225532 0
0.74761939 -0.68869001 -0.19145474 0
0.86212069 -0.79416597 -0.19264556 0
1.003245 -0.9241665 -0.19169383 0
1.2039828 -1.1090816 -0.19131689 0
1.5139848 -1.3946483 -0.19213592 0
2.5367265 -2.3367748 -0.24111657 0
3.8118811 -3.5114183 -0.24127933 0
7.653614 -7.0503354 -0.24194437 0
0.68106186 -0.59632504 -0.19241837 0
0.75214434 -0.65856355 -0.18829702 0
0.88228983 -0.77251649 -0.19273426 0
1.0269872 -0.89921087 -0.1918328 0
1.2355801 -1.0818509 -0.19193783 0
1.5298975 -1.3395497 -0.18980432 0
2.6016576 -2.2779629 -0.24174654 0
3.9174337 -3.430032 -0.24240364 0
7.8244586 -6.8509498 -0.24180204 0
0.70570952 -0.58712006 -0.19513328 0
0.77306032 -0.64315301 -0.18940918 0
0.90058792 -0.74925053 -0.1925392 0
1.0465295 -0.8706677 -0.19131751 0
1.2521889 -1.0417674 -0.19037281 0
1.5655063 -1.302434 -0.1900833 0
2.6563494 -2.2099686 -0.24156871 0
3.9980943 -3.3262427 -0.2421229 0
8.0004969 -6.6560698 -0.24197361 0
0.705603 -0.55751604 -0.19115219 0
0.80766821 -0.63816059 -0.1938805 0
0.92128342 -0.72793102 -0.19297443 0
1.0685717 -0.84430748 -0.1913905 0
1.2745596 -1.0070642 -0.18984918 0
1.5994703 -1.2637849 -0.19027372 0
2.7130389 -2.1436455 -0.24172691 0
4.0838103 -3.2267292 -0.24230473 0
8.1593742 -6.4469428 -0.24178056 0
0.72007108 -0.54000503 -0.19131853 0
0.81457227 -0.61087459 -0.19177568 0
0.92993051 -0.69738555 -0.19103803 0
1.0865947 -0.8148731 -0.19087413 0
1.3047342 -0.97846323 -0.19060461 0
1.625387 -1.2189312 -0.18963662 0
2.771903 -2.0787413 -0.2422199 0
4.1510167 -3.1129842 -0.24155366 0
8.3311119 -6.2477751 -0.24211979 0
0.73748553 -0.52452332 -0.19236679 0
0.82588112 -0.58739316 -0.19088703 0
0.94977885 -0.67551315 -0.19155204 0
1.1084204 -0.78834414 -0.19115207 0
1.3244634 -0.94200081 -0.18995306 0
1.681173 -1.1957041 -0.19256298 0
2.8223183 -2.0073233 -0.24212116 0
4.2364645 -3.0131094 -0.24202359 0
8.4766769 -6.0288839 -0.24185102 0
0.74848437 -0.50440067 -0.191854 0
0.84600711 -0.57012087 -0.19215177 0
0.97202355 -0.65504283 -0.1926427 0
1.1297938 -0.76136357 -0.19146311 0
1.3470035 -0.90774035 -0.18983948 0
1.7038205 -1.1481979 -0.19177665 0
2.8682749 -1.9329191 -0.24180152 0
4.3053279 -2.9013436 -0.24169731 0
8.6150789 -5.8056679 -0.24154222 0
0.76060098 -0.48511809 -0.19176032 0
0.85987163 -0.54843378 -0.19209573 0
0.98123378 -0.62583965 -0.19127665 0
1.1452892 -0.73047566 -0.19090392 0
1.3710421 -0.87446284 -0.19005632 0
1.7365481 -1.1075858 -0.19225268 0
2.9137814 -1.8584358 -0.24160668 0
4.3752613 -2.7905805 -0.24159241 0
8.7797937 -5.5998306 -0.24212065 0
0.7761665 -0.46792373 -0.19264579 0
0.8685174 -0.52359885 -0.19101411 0
1.0009447 -0.60343468 -0.19208896 0
1.1719799 -0.70654589 -0.19231921 0
1.4013133 -0.84480292 -0.19123597 0
1.7641722 -1.063558 -0.19227791 0
2.9703639 -1.7907288 -0.24247357 0
4.4530578 -2.6845932 -0.24206971 0
8.9162836 -5.3753166 -0.24206622 0
0.78322893 -0.44563287 -0.1915461 0
0.88852495 -0.50554305 -0.19254687 0
1.0097274 -0.57450348 -0.19093098 0
1.1890826 -0.67655104 -0.19226246 0
1.4061052 -0.80003011 -0.18907413 0
1.7835598 -1.0147901 -0.19153848 0
3.0097363 -1.7124463 -0.24208239 0
4.514771 -2.5687642 -0.24182311 0
9.0393896 -5.1431317 -0.2418073 0
0.80487764 -0.43144044 -0.19411564 0
0.90047014 -0.4826811 -0.19243421 0
1.0260619 -0.5500024 -0.1913339 0
1.1994196 -0.64292765 -0.19124921 0
1.4478053 -0.77607048 -0.19198644 0
1.8153237 -0.97307217 -0.19225097 0
3.0564845 -1.6383744 -0.24243928 0
4.5822754 -2.4562478 -0.24204123 0
9.1656084 -4.9130626 -0.24178961 0
0.80778247 -0.40710223 -0.19227695 0
0.90864336 -0.4579336 -0.19164987 0
1.0496963 -0.52902079 -0.19318977 0
1.2193427 -0.61451834 -0.1918918 0
1.4599987 -0.73580295 -0.19107988 0
1.8351343 -0.92486197 -0.19181582 0
3.0893312 -1.5569459 -0.24185073 0
4.6338024 -2.3353209 -0.24157266 0
9.2870922 -4.6804628 -0.24180108 0
0.80967075 -0.38275006 -0.19036637 0
0.92347121 -0.43654618 -0.19239217 0
1.0517346 -0.49717921 -0.19119458 0
1.2285069 -0.58074361 -0.19096652 0
1.4851071 -0.70204443 -0.19198585 0
1.8552438 -0.8770166 -0.19154312 0
3.1330247 -1.4810532 -0.24226782 0
4.7007627 -2.2221591 -0.24206255 0
9.3998957 -4.4435477 -0.24174109 0
0.82632685 -0.36540842 -0.19205296 0
0.93448073 -0.41323495 -0.1924517 0
1.0548559 -0.46646583 -0.18956143 0
1.2410531 -0.54880369 -0.19070292 0
1.4982221 -0.66252589 -0.19145866 0
1.8762127 -0.82967639 -0.19148509 0
3.1648984 -1.3995436 -0.24192405 0
4.7510023 -2.1009316 -0.24184206 0
9.5219851 -4.2106986 -0.24207073 0
0.84073889 -0.34669271 -0.19330731 0
0.9429037 -0.38882208 -0.19210415 0
1.0753764 -0.44344938 -0.19117685 0
1.2570007 -0.51834524 -0.19108231 0
1.5208751 -0.62715822 -0.1922695 0
1.8948225 -0.7813617 -0.19131078 0
3.1938856 -1.317052 -0.24152195 0
4.8061371 -1.9818909 -0.24202532 0
9.6176176 -3.9659853 -0.24188021 0
0.8430593 -0.32300979 -0.19190526 0
0.95971185 -0.36770406 -0.19357617 0
1.0889564 -0.4172228 -0.19165798 0
1.2638584 -0.48423481 -0.19020636 0
1.5191369 -0.58204222 -0.19013207 0
1.9125099 -0.73275918 -0.19116846 0
3.2243512 -1.235378 -0.24139108 0
4.843224 -1.8556331 -0.24145755 0
9.7107973 -3.7205956 -0.24178499 0
0.85809094 -0.30417028 -0.19351777 0
0.96340841 -0.34150252 -0.19252196 0
1.0943117 -0.38790426 -0.19081666 0
1.2748761 -0.45190948 -0.19008742 0
1.546104 -0.54805255 -0.19171494 0
1.9346486 -0.68578124 -0.19159026 0
3.2669635 -1.1580511 -0.24231592 0
4.8879066 -1.7326322 -0.24142815 0
9.8108873 -3.4776974 -0.24201459 0
0.85434633 -0.27878588 -0.19102561 0
0.97407842 -0.31785625 -0.19298957 0
1.0975204 -0.35813719 -0.18973957 0
1.2992202 -0.42395484 -0.19206059 0
1.557857 -0.50835192 -0.19152038 0
1.9551271 -0.63798702 -0.19196253 0
3.2922714 -1.0743171 -0.24210481 0
4.9470592 -1.6142989 -0.24226031 0
9.8867321 -3.2261877 -0.24179991 0
0.85820574 -0.25627437 -0.19038171 0
0.98039919 -0.29276335 -0.19271655 0
1.1115025 -0.33191296 -0.19064786 0
1.3027188 -0.38901329 -0.19106552 0
1.5588994 -0.46551305 -0.19014356 0
1.9538713 -0.58345813 -0.19033276 0
3.3068731 -0.98748684 -0.24126898 0
4.9711699 -1.4844732 -0.24152935 0
9.9543028 -2.9725189 -0.2415407 0
0.86672485 -0.23517062 -0.19089407 0
0.97485369 -0.26450947 -0.1902536 0
1.1297926 -0.30654943 -0.19239667 0
1.3058236 -0.35431236 -0.19014877 0
1.5709549 -0.42625111 -0.19024122 0
1.9605703 -0.53196645 -0.18961704 0
3.3208559 -0.90105611 -0.24055332 0
5.0088019 -1.3590508 -0.24161424 0
10.034721 -2.7227461 -0.24174762 0
0.8760289 -0.21411867 -0.19169196 0
0.98317915 -0.2403083 -0.19063401 0
1.1306524 -0.27635369 -0.1912944 0
1.3173616 -0.32198906 -0.19058482 0
1.5821967 -0.38671997 -0.19035998 0
1.9747554 -0.48266906 -0.18975034 0
3.3558204 -0.82022846 -0.24150956 0
5.0566998 -1.2359569 -0.24234281 0
10.106502 -2.4702277 -0.24189785 0
0.883793 -0.19252266 -0.1922664 0
1.5984364 -0.34819829 -0.19119561 0
1.9909102 -0.43369356 -0.19019027 0
3.3807375 -0.73644918 -0.24188808 0
5.0707994 -1.1046069 -0.24160548 0
10.163462 -2.2139764 -0.24184673 0
0.99816066 -0.19119239 -0.19142236 0
2.5382242 -0.48618343 -0.24122578 0
3.3994758 -0.6511516 -0.24197584 0
5.1028972 -0.97743297 -0.24188238 0
10.217348 -1.9570789 -0.24187657 0
3.4104609 -0.56445032 -0.24166676 0
5.1199541 -0.84738094 -0.2416002 0
10.26821 -1.699446 -0.24198818 0
3.4190238 -0.47757977 -0.24134256 0
5.1344681 -0.71719831 -0.24135406 0
10.298802 -1.4385685 -0.24177648 0
5.1613946 -0.58861583 -0.24184443 0
10.331779 -1.1782569 -0.2417755 0
0.89686388 -0.079415627 -0.19138511 0
10.357056 -0.91709799 -0.24174838 0
1.1343138 -0.0143122 0.026440207 0
1.1344751 -0.014314236 0.052884221 0
1.1238754 -0.014180494 0.07864023 0
1.1378216 -0.01435646 0.10627865 0
1.1338378 -0.014306195 0.13259155 0
1.1292298 -0.014248053 0.15877432 0
1.1317323 -0.014279629 0.18608291 0
1.1301024 -0.014259064 0.21293966 0
1.3478049 0.11934561 -0.19015443 0
0.89966637 0.12566817 -0.1930915 0
1.0048944 0.14036675 -0.19111042 0
0.89112729 0.14748654 -0.19199657 0
1.0004206 0.16557519 -0.19099352 0
1.1339989 0.18768315 -0.18890961 0
2.5598159 0.42366379 -0.24218443 0
3.4123452 0.56476212 -0.24180028 0
5.1192822 0.84726977 -0.24156849 0
10.267269 1.6992903 -0.24196599 0
0.87429827 0.16746721 -0.18922111 0
0.99731052 0.19102955 -0.19125932 0
1.1457063 0.21945399 -0.19172154 0
1.3327253 0.25527647 -0.190699 0
1.3484013 0.25827914 -0.16045704 0
1.3414847 0.25695428 -0.12749097 0
1.3376167 0.2562134 -0.095212013 0
1.3549941 0.25954193 -0.064228065 0
1.3483266 0.25826481 -0.031919103 0
1.3428122 0.25720856 3.9032035e-05 0
0.89034975 0.19395097 -0.19369282 0
0.99591064 0.21694602 -0.19197978 0
1.1316592 0.24651705 -0.19035144 0
1.1941552 0.260131 -0.17175584 0
1.1966676 0.26067826 -0.14313838 0
1.2082943 0.26321098 -0.11542752 0
1.201818 0.2618002 -0.08598876 0
1.210044 0.26359215 -0.05765428 0
1.1992556 0.26124203 -0.028537132 0
1.2096809 0.26351303 3.5344321e-05 0
0.87775975 0.21454175 -0.19207072 0
0.98678458 0.24118955 -0.1913331 0
1.1239164 0.27470726 -0.19015473 0
1.2078929 0.29523277 -0.17474781 0
1.2005823 0.29344591 -0.14444652 0
1.1984562 0.29292625 -0.11515728 0
1.2016691 0.29371154 -0.08648096 0
1.1996623 0.29322106 -0.057493929 0
1.2050081 0.29452768 -0.028841717 0
1.2073531 0.29510084 3.5482626e-05 0
0.86655802 0.23512535 -0.19085732 0
0.97317117 0.26405296 -0.18992524 0
1.1320478 0.30716133 -0.19278072 0
1.2000073 0.32560098 -0.17474024 0
1.201009 0.32587278 -0.1454411 0
1.21289 0.32909647 -0.11730497 0
1.2069533 0.32748565 -0.087428249 0
1.2014385 0.32598931 -0.057954907 0
1.1967992 0.32473049 -0.028832221 0
1.1985509 0.3252058 3.5453868e-05 0
0.85939354 0.25662908 -0.19064522 0
0.97050148 0.28980774 -0.19077097 0
1.1049464 0.32995519 -0.18952332 0
1.2196079 0.36419505 -0.17887594 0
1.2106581 0.36152244 -0.14766753 0
1.1957051 0.35705724 -0.11647739 0
1.2029929 0.3592335 -0.087770186 0
1.2041892 0.35959074 -0.058506753 0
1.1961844 0.35720038 -0.029025361 0
1.2102171 0.36139077 3.6057289e-05 0
0.85072863 0.27760538 -0.19021674 0
0.96426255 0.31465319 -0.19104481 0
1.0952798 0.35740608 -0.18935223 0
1.2041582 0.39293471 -0.17800781 0
1.2060359 0.39354742 -0.14826806 0
1.2117462 0.39541081 -0.11897429 0
1.2040043 0.39288449 -0.08853925 0
1.2079608 0.39417556 -0.059154529 0
1.2091354 0.39455885 -0.029571837 0
1.2041496 0.39293194 3.6160473e-05 0
0.84885293 0.30089566 -0.19143441 0
0.95567381 0.33876079 -0.19097631 0
1.0932072 0.38751274 -0.19062406 0
1.1933088 0.42299607 -0.17792553 0
1.2100173 0.42891881 -0.15004063 0
1.2134967 0.43015215 -0.12017383 0
1.2081337 0.42825109 -0.089609213 0
1.2111754 0.42932934 -0.059823543 0
1.2007588 0.42563689 -0.029620271 0
1.2027673 0.42634884 3.6430498e-05 0
0.84803647 0.32491675 -0.19303821 0
0.94716001 0.36289492 -0.19104442 0
1.0828547 0.41488504 -0.19058409 0
1.2141505 0.46518973 -0.1827255 0
1.2085238 0.46303385 -0.15125637 0
1.2017207 0.46042731 -0.1201202 0
1.2162955 0.46601152 -0.091057971 0
1.2019638 0.46052045 -0.059923563 0
1.2080104 0.46283719 -0.030077735 0
1.2064323 0.46223256 3.6883124e-05 0
0.82907611 0.34188336 -0.19062574 0
0.94136864 0.38818905 -0.1917914 0
1.0730928 0.44250771 -0.19077088 0
1.2082167 0.49822831 -0.18366644 0
1.2026225 0.49592146 -0.15203591 0
1.2016397 0.49551618 -0.12132357 0
1.199757 0.49473983 -0.09072575 0
1.2078397 0.49807283 -0.06082385 0
1.2102083 0.4990496 -0.030436376 0
1.2032311 0.49617243 3.7156275e-05 0
0.82701224 0.36571151 -0.19221225 0
0.92882097 0.41073212 -0.19128609 0
1.0623661 0.46978691 -0.19091104 0
1.2076645 0.53403902 -0.18557236 0
1.2100643 0.53510022 -0.15463482 0
1.2016079 0.53136075 -0.12263536 0
1.1988779 0.53015345 -0.091641925 0
1.1993151 0.53034681 -0.061049186 0
1.2172465 0.53827626 -0.030945202 0
1.2088072 0.53454429 3.7733069e-05 0
0.81083709 0.38330144 -0.1906406 0
0.92190212 0.43580443 -0.19206527 0
1.0599595 0.50106734 -0.19268979 0
1.2354623 0.58403152 -0.1920477 0
1.4831108 0.70110077 -0.19172779 0
1.8577099 0.87818235 -0.19179772 0
3.1189137 1.4743825 -0.24117665 0
4.6859422 2.215153 -0.24129936 0
9.4036608 4.4453278 -0.24183792 0
0.80582386 0.40611514 -0.19181074 0
0.91489565 0.4610846 -0.19296861 0
1.0435953 0.52594602 -0.19206692 0
1.2089005 0.60925573 -0.19024849 0
1.4595689 0.73558635 -0.19102363 0
1.8301339 0.92234188 -0.19129317 0
3.087713 1.5561304 -0.24172406 0
4.648777 2.3428676 -0.24235334 0
9.2905102 4.6821856 -0.24189009 0
0.78879756 0.42282099 -0.19023754 0
0.89263695 0.47848228 -0.19076021 0
1.0321172 0.55324823 -0.19246306 0
1.2002351 0.64336479 -0.19137925 0
1.4361426 0.76981884 -0.19043989 0
1.8104391 0.97045392 -0.19173366 0
3.0475395 1.6335796 -0.24172977 0
4.5820837 2.456145 -0.24203111 0
9.1636038 4.9119878 -0.24173674 0
0.78255457 0.4452492 -0.19138119 0
0.89315802 0.50817913 -0.19355088 0
1.0182722 0.57936519 -0.19254673 0
1.1775602 0.66999507 -0.19039939 0
1.2026615 0.684277 -0.16171776 0
1.2119178 0.68954349 -0.1301492 0
3.0032644 1.7087641 -0.24156183 0
4.5192904 2.5713358 -0.24206521 0
9.0420389 5.1446385 -0.24187815 0
0.77272612 0.46584964 -0.19179189 0
0.87259471 0.52605695 -0.19191083 0
1.005715 0.60631055 -0.19300441 0
1.1622016 0.70065087 -0.19071461 0
1.1384269 0.68631792 -0.1553601 0
1.1945158 0.72013193 -0.1301908 0
2.956692 1.7824867 -0.24135755 0
4.4402189 2.6768534 -0.2413718 0
8.9116364 5.3725152 -0.24194007 0
0.76581877 0.48844603 -0.19307579 0
0.84643066 0.53986096 -0.18909301 0
0.98151606 0.62601966 -0.19133168 0
1.1476141 0.73195845 -0.19129144 0
1.1355346 0.72425413 -0.15740986 0
1.1744857 0.74909741 -0.13002694 0
2.9185572 1.8614817 -0.24200267 0
4.384686 2.7965915 -0.24211282 0
8.7739124 5.5960793 -0.24195844 0
0.76024497 0.51232606 -0.19486851 0
0.84756559 0.5711711 -0.19250575 0
0.96356535 0.64934289 -0.1909664 0
1.1236559 0.7572273 -0.19042295 0
1.1451558 0.771716 -0.16139214 0
1.1694854 0.78811163 -0.13163358 0
2.8653018 1.9309157 -0.24155089 0
4.3072548 2.902642 -0.24180549 0
8.6121912 5.8037219 -0.24146126 0
0.73481113 0.52262121 -0.1916692 0
0.83126926 0.59122533 -0.19213241 0
0.94938803 0.67523515 -0.19147322 0
1.1088039 0.78861684 -0.19121818 0
1.1405063 0.81116462 -0.16357014 0
1.1277347 0.80208099 -0.12917168 0
2.8268745 2.0105636 -0.24251202 0
4.2295012 3.0081568 -0.24162579 0
8.4749269 6.0276399 -0.2418011 0
0.71930766 0.53943253 -0.19111569 0
0.81151265 0.60858005 -0.19105534 0
0.94003898 0.70496619 -0.19311462 0
1.091704 0.81870478 -0.19177164 0
1.0956235 0.82164413 -0.16005626 0
1.0920922 0.81899595 -0.12741622 0
1.1014038 0.82597899 -0.096245036 0
1.096788 0.82251751 -0.063823685 0
1.0921205 0.81901717 -0.031739339 0
1.1026701 0.82692862 3.9348051e-05 0
1.0945392 0.82083094 0.031887788 0
1.0935985 0.82012558 0.0637163 0
1.093007 0.81968194 0.095589675 0
0.70593083 0.55777514 -0.19124101 0
0.79757994 0.63018954 -0.19145881 0
0.91313726 0.72149456 -0.19126812 0
1.0539986 0.83279288 -0.18878032 0
1.1096835 0.87679112 -0.16529043 0
1.0920393 0.86284995 -0.1299095 0
1.1009225 0.86986876 -0.098090224 0
1.0961499 0.86609781 -0.065037869 0
1.0933924 0.86391902 -0.032399669 0
1.1004989 0.86953408 4.0040959e-05 0
1.0995095 0.86875224 0.032660984 0
1.1021661 0.87085128 0.065475203 0
1.0965364 0.86640316 0.097779617 0
0.69019634 0.57421374 -0.19084379 0
0.78355497 0.65188408 -0.1919805 0
0.88963598 0.74013895 -0.19019775 0
1.0279452 0.85520625 -0.18792008 0
1.099786 0.91497481 -0.1672027 0
1.0992106 0.91449606 -0.13346583 0
1.102353 0.91711032 -0.10024811 0
1.101361 0.91628504 -0.066697963 0
1.1057224 0.91991353 -0.033442378 0
1.1010835 0.91605419 4.089042e-05 0
1.1043886 0.91880393 0.033484109 0
1.1022385 0.91701519 0.066833153 0
1.0989622 0.91428936 0.10002177 0
0.67992145 0.59532654 -0.19209617 0
0.76849747 0.67288202 -0.19239096 0
0.87089127 0.76253611 -0.19024427 0
0.99838281 0.87416536 -0.18648973 0
1.1046132 0.96717864 -0.17159313 0
1.0998498 0.96300799 -0.13645113 0
1.0891998 0.95368302 -0.10120866 0
1.100224 0.96333563 -0.068079852 0
1.0921124 0.95623326 -0.033749938 0
1.1013736 0.96434218 4.1791754e-05 0
1.1024255 0.96526313 0.034152355 0
1.1042805 0.96688735 0.068414837 0
1.0933646 0.95732957 0.10167903 0
1.1063786 0.96872443 0.13734581 0
1.0863684 0.95120388 0.27205434 0
0.66162097 0.60947019 -0.19121085 0
0.74550223 0.68673968 -0.19091256 0
0.85353744 0.78625929 -0.19072759 0
0.95984387 0.88418633 -0.183401 0
1.0564938 0.97321808 -0.16788037 0
1.0920942 1.0060123 -0.13859487 0
1.0945693 1.0082924 -0.10403913 0
1.0995328 1.0128646 -0.069596753 0
1.0995361 1.0128676 -0.034758292 0
1.1021209 1.0152487 4.2778789e-05 0
1.1014674 1.0146466 0.034904897 0
1.0915644 1.0055243 0.0691773 0
1.0927253 1.0065937 0.10394909 0
1.0891631 1.0033122 0.13830818 0
1.0355086 0.95388705 0.26526234 0
0.64783728 0.62771791 -0.19174494 0
0.72534883 0.70282227 -0.19023356 0
0.84785444 0.82152331 -0.19402912 0
0.84138119 0.81525111 -0.16464503 0
0.84438074 0.81815755 -0.13741243 0
0.83682466 0.81083608 -0.10876175 0
0.8422963 0.81613785 -0.081992291 0
0.82554287 0.7999047 -0.053514946 0
0.83680004 0.81081223 -0.027091019 0
0.83950406 0.81343228 3.3371576e-05 0
0.84465647 0.81842464 0.027412556 0
0.83797222 0.811948 0.054387428 0
0.83749133 0.81148207 0.081591465 0
1.0918572 1.0579484 0.14199579 0
1.0065572 0.97529745 0.19704898 0
1.0097187 0.97836065 0.23115374 0
0.98373073 0.95317984 0.25807905 0
0.63416642 0.64628232 -0.19246522 0
0.70969009 0.7232489 -0.19085345 0
0.8217442 0.83744389 -0.19282945 0
0.84344107 0.85955524 -0.16923945 0
0.84182262 0.85790586 -0.14047509 0
0.83926368 0.85529798 -0.11184877 0
0.84334862 0.85946101 -0.084179491 0
0.83776015 0.85376579 -0.055686023 0
0.83608598 0.8520596 -0.027755281 0
0.83629173 0.85226929 3.4088098e-05 0
0.84975392 0.86598873 0.028278323 0
0.83964837 0.85569012 0.055880133 0
0.84139293 0.85746795 0.084053203 0
0.83960402 0.85564488 0.11196318 0
1.1027113 1.1237788 0.18410075 0
0.94994247 0.96809137 0.19068831 0
0.94908875 0.96722132 0.2227914 0
0.94961739 0.96776009 0.25545609 0
0.62199384 0.66672468 -0.19381623 0
0.6985774 0.74881572 -0.19288607 0
0.78688186 0.84347063 -0.18958381 0
0.83711964 0.89732134 -0.17246042 0
0.84200788 0.90256107 -0.14426133 0
0.83997238 0.90037918 -0.11493514 0
0.83973515 0.90012485 -0.086059041 0
0.83882052 0.89914447 -0.057246715 0
0.84290624 0.90352404 -0.028729562 0
0.83392638 0.89389837 3.4900186e-05 0
0.83954006 0.89991575 0.028685136 0
0.83649874 0.89665574 0.057158433 0
0.84174162 0.90227568 0.086335473 0
0.83445376 0.89446372 0.11425047 0
1.099025 1.1780617 0.18838936 0
0.93032348 0.99722791 0.19174135 0
0.9272638 0.99394816 0.2234858 0
0.92985195 0.99672246 0.25682449 0
0.60780615 0.68539995 -0.19472365 0
0.67073613 0.75636375 -0.19040906 0
0.77303219 0.87171906 -0.19148681 0
0.85089481 0.95952183 -0.18023011 0
0.83501184 0.94161117 -0.14708756 0
0.83740902 0.94431442 -0.11780807 0
0.84128058 0.94868022 -0.088643037 0
0.84539604 0.95332104 -0.059318658 0
0.83208531 0.93831104 -0.029158633 0
0.83915275 0.94628078 3.6106936e-05 0
0.83471435 0.94127572 0.029322634 0
0.83578217 0.94247985 0.058716163 0
0.83364934 0.94007474 0.087911047 0
0.8420617 0.94956106 0.1185357 0
1.1056582 1.2468088 0.19485843 0
1.0998476 1.2402563 0.23305792 0
0.58035874 0.68869734 -0.19143805 0
0.65815544 0.78101677 -0.19237228 0
0.72765809 0.8634938 -0.18558665 0
0.84122872 0.99826521 -0.18346095 0
0.83674484 0.9929443 -0.151759 0
0.84474719 1.0024405 -0.12236077 0
0.8357321 0.99174249 -0.090666927 0
0.83712041 0.99339002 -0.060477961 0
0.83812475 0.99458182 -0.030240297 0
0.83545607 0.99141496 3.7012745e-05 0
0.84570134 1.0035728 0.03058864 0
0.83761609 0.99397814 0.060588144 0
0.83605331 0.99212372 0.09077622 0
0.84130973 0.99836135 0.12193806 0
0.83672792 0.99292421 0.15183108 0
1.0988063 1.303926 0.23973452 0
0.56199408 0.70211732 -0.19116475 0
0.62945276 0.78639567 -0.18972366 0
0.72622675 0.90729856 -0.19100116 0
0.84820259 1.0596869 -0.19075395 0
0.8528741 1.0655231 -0.15951103 0
0.83995944 1.0493884 -0.12546372 0
0.84463745 1.0552329 -0.094492331 0
0.83716029 1.0458914 -0.062368054 0
0.83626395 1.0447717 -0.031114668 0
0.83619261 1.0446824 3.820132e-05 0
0.83662671 1.0452248 0.031204646 0
0.83637846 1.0449146 0.062386394 0
0.83926797 1.0485246 0.093968689 0
0.8372063 1.0459489 0.12512966 0
0.83697361 1.0456581 0.15661472 0
1.0961578 1.3694654 0.24661922 0
1.0990322 1.3730564 0.28915393 0
0.54677355 0.71959203 -0.19210407 0
0.6172061 0.81228614 -0.1921505 0
0.69891542 0.91982126 -0.18986343 0
0.72637194 0.95595592 -0.16872753 0
0.73057771 0.96149105 -0.14113189 0
0.72459823 0.95362163 -0.11179184 0
0.73234284 0.96381414 -0.084624022 0
0.73239166 0.96387833 -0.056357268 0
0.73254305 0.96407753 -0.028151911 0
0.73069674 0.96164775 3.4479599e-05 0
0.72516823 0.95437181 0.027936969 0
0.72993922 0.9606508 0.056237593 0
0.72953182 0.9601146 0.084368378 0
0.72135973 0.94935954 0.11136087 0
0.732656 0.96422625 0.14160347 0
0.7276969 0.95769972 0.16910534 0
0.72847992 0.95873022 0.19796537 0
0.72351223 0.95219237 0.22531676 0
0.53080463 0.7364344 -0.19296241 0
0.60172373 0.83482701 -0.1938284 0
0.67528057 0.93687922 -0.189806 0
0.72558481 1.006671 -0.17439099 0
0.95098418 1.3193884 -0.19008201 0
0.85106343 1.1807591 -0.13585754 0
0.83397484 1.1570505 -0.099710546 0
0.84092742 1.1666964 -0.066953614 0
0.83340973 1.1562665 -0.033139218 0
0.8423779 1.1687089 4.1128318e-05 0
0.83818811 1.1628959 0.033411115 0
0.83691657 1.1611319 0.066716172 0
0.84055179 1.1661754 0.10057937 0
0.83969355 1.1649846 0.13412523 0
0.84733909 1.1755919 0.16944937 0
0.83713591 1.1614362 0.20128515 0
1.0922811 1.5154226 0.30712488 0
0.50923902 0.74547082 -0.19190136 0
0.57978421 0.84874141 -0.19359986 0
0.6557135 0.95989358 -0.19105488 0
0.76464927 1.1193638 -0.19050944 0
0.9214465 1.3488979 -0.1909221 0
1.1562992 1.692697 -0.19134204 0
0.84735119 1.2404305 -0.1050195 0
0.84168583 1.2321371 -0.069467857 0
0.83483493 1.222108 -0.034411427 0
0.84060168 1.2305499 4.254442e-05 0
0.8381207 1.226918 0.034631748 0
0.84021842 1.2299889 0.069431975 0
0.84212482 1.2327796 0.10445742 0
0.84517056 1.2372383 0.13994339 0
0.8392154 1.2285205 0.17397006 0
0.83985257 1.2294533 0.20933275 0
1.1018157 1.6129389 0.32114998 0
1.095131 1.6031533 0.36579776 0
0.4884747 0.75530928 -0.19119945 0
0.54563862 0.84369963 -0.18924828 0
0.62966847 0.97363174 -0.19056545 0
0.74166083 1.1468011 -0.19193216 0
0.88377637 1.3665488 -0.19020268 0
1.1155654 1.7249551 -0.1917447 0
1.4865053 2.2985249 -0.19136441 0
0.84875345 1.3123941 -0.072761826 0
0.84028625 1.2993016 -0.03597638 0
0.83617979 1.2929521 4.3958229e-05 0
0.83842158 1.2964184 0.035984747 0
0.83622736 1.2930256 0.071776107 0
0.8400681 1.2989644 0.10823444 0
0.83595383 1.2926027 0.14377339 0
0.83926809 1.2977273 0.18071324 0
0.83718342 1.2945039 0.21674192 0
0.84176922 1.3015947 0.25484738 0
1.1040237 1.7071086 0.38303769 0
0.4648492 0.7601772 -0.18940146 0
0.53118473 0.86865699 -0.19177812 0
0.61044675 0.9982757 -0.19231212 0
0.70859271 1.1587758 -0.19088234 0
0.85135746 1.3922418 -0.19072731 0
1.0688926 1.7479813 -0.19124454 0
1.425702 2.3314788 -0.19105135 0
0.8462745 1.3839296 -0.075519651 0
0.85030425 1.3905195 -0.037895817 0
0.83956796 1.3729622 4.594339e-05 0
0.83847165 1.3711694 0.037460286 0
0.8390193 1.3720649 0.07496424 0
0.84606624 1.383589 0.11347025 0
0.83447468 1.3646331 0.149395 0
0.83743876 1.3694804 0.18770204 0
0.84330702 1.3790768 0.22726612 0
0.83853525 1.3712735 0.26426226 0
1.1012553 1.8009049 0.39772037 0
0.4473764 0.77487707 -0.19019015 0
0.50715327 0.8784135 -0.19104534 0
0.58154941 1.0072711 -0.19115657 0
0.68003255 1.1778485 -0.191136 0
0.81613374 1.4135822 -0.1907682 0
1.0272423 1.7792323 -0.19176601 0
1.3703804 2.3735635 -0.19160472 0
1.3730716 2.3782248 -0.12784554 0
0.84891534 1.4703616 -0.039475262 0
0.8376264 1.4508085 4.7825692e-05 0
0.84097439 1.4566073 0.039202087 0
0.8377499 1.4510224 0.078098066 0
0.83915907 1.4534632 0.11742638 0
0.83631021 1.4485289 0.15621907 0
0.83682024 1.4494122 0.19570047 0
0.84307885 1.4602524 0.23706143 0
0.83764464 1.4508401 0.27543387 0
0.84087449 1.4564344 0.31685802 0
0.42735752 0.78531992 -0.19004537 0
0.48659611 0.89417779 -0.19174182 0
0.55543882 1.0206844 -0.19098085 0
0.65276277 1.1995287 -0.19191954 0
0.77531213 1.4247276 -0.18957114 0
0.98034465 1.801499 -0.19143815 0
1.2871039 2.3652055 -0.18824771 0
1.2927986 2.3756702 -0.12591408 0
1.2897353 2.3700409 -0.062735334 0
0.84988695 1.5617676 5.0760169e-05 0
0.83880973 1.5414119 0.040901653 0
0.83636546 1.5369202 0.081559204 0
0.84166169 1.5466527 0.12319978 0
0.83547193 1.5352783 0.16324861 0
0.84083378 1.5451313 0.20569363 0
0.84162527 1.5465858 0.24754973 0
0.83692724 1.5379525 0.2878699 0
0.83699244 1.5380725 0.32991806 0
0.41100666 0.80288416 -0.19172449 0
0.46916279 0.91648966 -0.19392534 0
0.53063059 1.0365645 -0.19138534 0
0.62088406 1.2128707 -0.19148603 0
0.74734938 1.4599154 -0.19168234 0
0.93711835 1.8306211 -0.19195832 0
1.2439514 2.4300065 -0.19084565 0
1.2460998 2.4342034 -0.12730898 0
1.2493706 2.4405928 -0.063747868 0
1.2446009 2.4312754 7.7974895e-05 0
0.84952408 1.6595094 0.043452613 0
0.8370859 1.6352119 0.085626803 0
0.84013349 1.6411654 0.12899815 0
0.83644313 1.6339564 0.17144184 0
0.84109914 1.6430516 0.21583439 0
0.83785623 1.6367167 0.25850919 0
0.84440786 1.649515 0.30466571 0
0.8426193 1.6460212 0.34840047 0
0.39108309 0.8139661 -0.19195265 0
0.43537411 0.90614957 -0.18935201 0
0.50206012 1.0449439 -0.19053222 0
0.58977783 1.227512 -0.19138652 0
0.71342325 1.4848567 -0.1925316 0
0.8898083 1.8519691 -0.19178087 0
1.1831714 2.4625492 -0.19099537 0
1.7819618 3.7088194 -0.19155827 0
4.5018764 9.3698111 -0.24169312 0
0.84951097 1.7680978 0.091433428 0
0.83540344 1.7387356 0.13496704 0
0.8397215 1.7477229 0.18109731 0
0.83990061 1.7480956 0.2267763 0
0.83509058 1.7380844 0.27110428 0
0.83447754 1.7368085 0.31679791 0
0.84052885 1.7494031 0.36567581 0
0.36805993 0.81832397 -0.1907289 0
0.41555589 0.92392385 -0.19081376 0
0.47523668 1.0566148 -0.19041257 0
0.55950326 1.2439684 -0.19168955 0
0.67082709 1.4914796 -0.19113414 0
