# .PCD v0.7 - Point Cloud Data file format
VERSION 0.7
FIELDS x y z intensity
SIZE 4 4 4 4
TYPE F F F F
COUNT 1 1 1 1
WIDTH 1349
HEIGHT 1
VIEWPOINT 0 0 0 1 0 0 0
POINTS 1349
DATA ascii
-0.56435543 -2.6716738 -0.19089675 0
-0.84659714 -4.0078135 -0.19069968 0
-2.1517129 -10.186266 -0.24206148 0
-0.16426218 -0.88784957 -0.19192581 0
-0.18362623 -0.99251378 -0.19011344 0
-0.21173054 -1.1444197 -0.19127886 0
-0.24774179 -1.3390632 -0.1913784 0
-0.29972464 -1.6200345 -0.19255196 0
-0.37244585 -2.013098 -0.19109209 0
-0.49958774 -2.7003098 -0.19198076 0
-0.94326794 -5.0984349 -0.24138394 0
-1.8931237 -10.232477 -0.24194713 0
-0.13977638 -0.87893271 -0.18917541 0
-0.15838446 -0.99594277 -0.18994407 0
-0.18143687 -1.1408994 -0.18986465 0
-0.21262269 -1.337 -0.19025598 0
-0.258122 -1.6231059 -0.19208154 0
-0.32215145 -2.0257318 -0.19145855 0
-0.42925546 -2.6992161 -0.19107193 0
-0.81534541 -5.1270018 -0.24168518 0
-1.6337065 -10.272966 -0.24185252 0
-0.12056947 -0.90479708 -0.19402553 0
-0.13321538 -0.99969661 -0.18995826 0
-0.15418363 -1.1570499 -0.19184366 0
-0.17909025 -1.3439583 -0.19054227 0
-0.21670754 -1.6262522 -0.19174555 0
-0.26951498 -2.0225382 -0.19045317 0
-0.36238635 -2.7194788 -0.19179775 0
-0.68591183 -5.1473317 -0.24175046 0
-1.3740244 -10.311178 -0.24185868 0
-0.097209468 -0.90297443 -0.19304708 0
-0.10962623 -1.0183132 -0.19290853 0
-0.12310115 -1.1434811 -0.18901856 0
-0.1455933 -1.3524098 -0.19115864 0
-0.17548552 -1.6300774 -0.19161332 0
-0.21852912 -2.0299075 -0.19056703 0
-0.29358581 -2.7271056 -0.191752 0
-0.55642062 -5.1685667 -0.24201116 0
-1.1132789 -10.341198 -0.24182673 0
-0.074036956 -0.90077633 -0.19211647 0
-0.083934799 -1.0211991 -0.19299246 0
-0.094602734 -1.1509914 -0.18980488 0
-0.11147504 -1.3562696 -0.19124562 0
-0.13468277 -1.6386284 -0.1921577 0
-0.1674049 -2.0367446 -0.19075151 0
-0.22509894 -2.7386835 -0.19210541 0
-0.42542705 -5.1759906 -0.24177901 0
-0.85295719 -10.377568 -0.24209674 0
-0.0510533 -0.89826471 -0.19124508 0
-0.057607543 -1.0135843 -0.19121769 0
-0.066078648 -1.1626303 -0.19138823 0
-0.077425458 -1.3622735 -0.19175561 0
-0.082371511 -1.4492974 -0.16965753 0
-0.082112588 -1.4447418 -0.13507032 0
-0.082196772 -1.446223 -0.10126779 0
-0.081949495 -1.4418722 -0.067234188 0
-0.082036808 -1.4434085 -0.033614051 0
-0.082042702 -1.4435122 4.1276449e-05 0
-0.028438723 -0.90135139 -0.19168839 0
-0.032247405 -1.0220658 -0.19260287 0
-0.036389533 -1.1533484 -0.1896487 0
-0.041315496 -1.3094743 -0.18411812 0
-0.041800857 -1.3248577 -0.15491755 0
-0.041547693 -1.3168339 -0.12297488 0
-0.041689336 -1.321323 -0.092418909 0
-0.041430395 -1.3131161 -0.061162084 0
-0.041674607 -1.3208562 -0.030725779 0
-0.041960627 -1.3299215 3.7986007e-05 0
-0.0056901178 -0.90216655 -0.19177014 0
-0.0064056246 -1.0156099 -0.19129492 0
-0.0072555947 -1.1503724 -0.18906902 0
-0.0077037276 -1.2214236 -0.17165579 0
-0.0077028847 -1.2212901 -0.14273904 0
-0.0076872776 -1.2188156 -0.11376692 0
-0.0076826136 -1.2180761 -0.085156694 0
-0.007730383 -1.22565 -0.057060845 0
-0.0076588364 -1.2143062 -0.028233722 0
-0.0077425432 -1.2275779 3.5046069e-05 0
0.017113229 -0.90408289 -0.1922081 0
0.019271139 -1.0180842 -0.1917915 0
0.022087568 -1.1668746 -0.19181177 0
0.022989845 -1.2145413 -0.17071573 0
0.022953944 -1.2126447 -0.14175119 0
0.022680182 -1.1981821 -0.11185876 0
0.023051379 -1.2177922 -0.085150406 0
0.022742281 -1.2014627 -0.055943701 0
0.023066277 -1.2185792 -0.028337585 0
0.022973048 -1.213654 3.4654073e-05 0
0.039791372 -0.90048236 -0.19159512 0
0.044760052 -1.0129241 -0.19097142 0
0.051433038 -1.1639344 -0.19148086 0
0.053306766 -1.206337 -0.1696976 0
0.053488687 -1.2104539 -0.14160779 0
0.053318921 -1.2066121 -0.11273549 0
0.053243574 -1.2049069 -0.084316552 0
0.053610858 -1.2132186 -0.05653609 0
0.053216226 -1.2042881 -0.028027561 0
0.053632449 -1.2137072 3.4683195e-05 0
0.062455356 -0.89856738 -0.19146208 0
0.070700042 -1.0171865 -0.19205031 0
0.081071749 -1.1664081 -0.19216323 0
0.083942585 -1.2077117 -0.17013484 0
0.084051818 -1.2092834 -0.14167392 0
0.084314384 -1.213061 -0.11350069 0
0.084818341 -1.2203115 -0.085517101 0
0.083852775 -1.2064196 -0.056299951 0
0.083358698 -1.1993111 -0.027951794 0
0.084740065 -1.2191854 3.4889748e-05 0
0.086023413 -0.90635878 -0.19352323 0
0.096505739 -1.0168025 -0.19237643 0
0.10921856 -1.1507472 -0.1899768 0
0.11506482 -1.2123445 -0.1711421 0
0.11497804 -1.2114302 -0.14222012 0
0.11478245 -1.2093694 -0.11339025 0
0.11552604 -1.2172041 -0.085476451 0
0.11487204 -1.2103133 -0.056598935 0
0.1148622 -1.2102096 -0.028264364 0
0.11519268 -1.2136917 3.4804652e-05 0
0.10833807 -0.89953023 -0.1925877 0
0.12110752 -1.0055548 -0.19076593 0
0.13885893 -1.1529446 -0.19085735 0
0.14697172 -1.2203051 -0.17273448 0
0.14494316 -1.203462 -0.14166902 0
0.14557961 -1.2087463 -0.11364014 0
0.1452053 -1.2056385 -0.084894598 0
0.14604367 -1.2125995 -0.056860108 0
0.14558889 -1.2088234 -0.028308794 0
0.1464536 -1.2160031 3.4965797e-05 0
0.12978731 -0.88821387 -0.19080546 0
0.14813299 -1.0137646 -0.19297126 0
0.16651098 -1.1395364 -0.18927318 0
0.17734936 -1.21371 -0.17237966 0
0.17828237 -1.220095 -0.14411083 0
0.17661627 -1.208693 -0.1140179 0
0.17650509 -1.2079321 -0.085342608 0
0.17630313 -1.20655 -0.056767017 0
0.17627843 -1.206381 -0.028346756 0
0.17633018 -1.2067351 3.4816181e-05 0
0.15265872 -0.8875764 -0.19143525 0
0.17131642 -0.99605453 -0.19036256 0
0.19476721 -1.1324003 -0.18884426 0
0.20880957 -1.2140443 -0.17312051 0
0.20865762 -1.2131609 -0.14386801 0
0.20760265 -1.2070271 -0.11431862 0
0.20737605 -1.2057097 -0.085528135 0
0.20787603 -1.2086166 -0.057092909 0
0.20848835 -1.2121767 -0.028597478 0
0.20877823 -1.2138622 3.516264e-05 0
0.17575662 -0.88723868 -0.19225793 0
0.19867368 -1.0029266 -0.19257292 0
0.22458793 -1.1337446 -0.18995322 0
0.23945345 -1.2087873 -0.17317753 0
0.2396166 -1.2096109 -0.14411832 0
0.24147014 -1.2189678 -0.1159898 0
0.23754047 -1.1991303 -0.085459493 0
0.24013494 -1.2122276 -0.057531465 0
0.2370003 -1.1964035 -0.028357448 0
0.2417416 -1.2203381 3.5515663e-05 0
0.19924797 -0.88769603 -0.19338517 0
0.22390828 -0.99756348 -0.19256692 0
0.25491154 -1.1356902 -0.19129622 0
0.27234823 -1.2133746 -0.17476386 0
0.27159441 -1.2100163 -0.14493716 0
0.27198401 -1.2117519 -0.11591947 0
0.27288345 -1.2157592 -0.087107703 0
0.26988465 -1.2023989 -0.057370007 0
0.27229291 -1.2131282 -0.028907549 0
0.26933062 -1.1999305 3.5108391e-05 0
0.21861841 -0.87058467 -0.19079871 0
0.24872355 -0.99046969 -0.19234811 0
0.28336659 -1.1284256 -0.19121636 0
0.30716434 -1.2231933 -0.17723821 0
0.30470291 -1.2133913 -0.14621605 0
0.30404648 -1.2107773 -0.11652322 0
0.30526206 -1.215618 -0.087621704 0
0.30252132 -1.2047038 -0.057825871 0
0.30422041 -1.21147 -0.029041748 0
0.30526623 -1.2156346 3.5781904e-05 0
0.2422003 -0.87085295 -0.19213603 0
0.27149224 -0.97617477 -0.19084196 0
0.30997691 -1.1145499 -0.19013023 0
0.33685347 -1.2111869 -0.17667416 0
0.3360801 -1.2084062 -0.14659078 0
0.33542129 -1.2060374 -0.11684457 0
0.33770043 -1.2142322 -0.088108115 0
0.33539233 -1.2059332 -0.058272649 0
0.33552894 -1.2064245 -0.029114533 0
0.33579841 -1.2073934 3.5777401e-05 0
0.260804 -0.85369021 -0.18974128 0
0.29558533 -0.96753997 -0.19055165 0
0.33849132 -1.1079842 -0.19040693 0
0.36668864 -1.2002825 -0.17637737 0
0.37063462 -1.2131989 -0.14825974 0
0.3691828 -1.2084466 -0.11794317 0
0.36955377 -1.2096609 -0.088425055 0
0.36952546 -1.2095684 -0.058880221 0
0.37148717 -1.2159896 -0.029562222 0
0.37098235 -1.2143371 3.6249061e-05 0
0.2830244 -0.84913015 -0.19025484 0
0.3216238 -0.9649362 -0.19157654 0
0.36912623 -1.107453 -0.19185558 0
0.42875534 -1.2863524 -0.19055451 0
0.51430792 -1.5430273 -0.1900924 0
0.6491155 -1.9474771 -0.19160974 0
0.8651495 -2.5956228 -0.19127277 0
1.300022 -3.9003279 -0.19139917 0
3.2877951 -9.8640471 -0.24174766 0
0.30616742 -0.84672105 -0.19138549 0
0.34302887 -0.94866323 -0.19000411 0
0.39797753 -1.1006265 -0.1923518 0
0.46288034 -1.2801183 -0.19130072 0
0.5561868 -1.5381619 -0.1911615 0
0.69811517 -1.9306717 -0.19162884 0
0.93059945 -2.5736184 -0.19132113 0
1.4018277 -3.8768232 -0.19192085 0
3.5352633 -9.7769442 -0.24172272 0
0.32722577 -0.83819437 -0.19126405 0
0.3708865 -0.95003206 -0.19209193 0
0.42761534 -1.0953439 -0.19325323 0
0.4968901 -1.2727923 -0.19201891 0
0.59255803 -1.5178474 -0.19043486 0
0.74904293 -1.918686 -0.19225441 0
0.99702883 -2.5539062 -0.19166538 0
1.5001495 -3.8426583 -0.19204272 0
3.7827611 -9.6896067 -0.24184684 0
0.35323825 -0.84150684 -0.1939925 0
0.39698529 -0.94572383 -0.19318521 0
0.45453528 -1.082823 -0.19300672 0
0.52861118 -1.2592914 -0.19193375 0
0.63279706 -1.5074898 -0.19107829 0
0.79597747 -1.8962287 -0.19195603 0
1.0604179 -2.5261955 -0.19153334 0
1.5959942 -3.8020797 -0.19196674 0
4.0290403 -9.5982389 -0.24202739 0
0.36998302 -0.82259965 -0.19172546 0
0.4222365 -0.93877715 -0.19388135 0
0.47442597 -1.0548123 -0.19008774 0
0.56251782 -1.2506708 -0.19272237 0
0.66851467 -1.4863383 -0.19047527 0
0.8419944 -1.8720435 -0.191598 0
1.1230831 -2.4970005 -0.19140796 0
1.6888912 -3.7549865 -0.19168015 0
4.2682314 -9.489749 -0.24193107 0
0.38831416 -0.8082031 -0.19059359 0
0.4465858 -0.92948455 -0.19422817 0
0.50719118 -1.0556234 -0.19247948 0
0.58319426 -1.2138094 -0.1892501 0
0.70984662 -1.4774126 -0.19156638 0
0.89254624 -1.8576677 -0.19237098 0
1.1878475 -2.4722819 -0.19175023 0
1.787243 -3.719811 -0.19212599 0
4.5046344 -9.3755512 -0.24184118 0
0.40777457 -0.79657036 -0.19021679 0
0.46344274 -0.90531582 -0.191561 0
0.53241503 -1.0400503 -0.19202894 0
0.61162496 -1.1947834 -0.18863043 0
0.743994 -1.4533609 -0.19082175 0
0.94050419 -1.8372352 -0.19265188 0
1.2504514 -2.442704 -0.19184288 0
1.8810166 -3.6744866 -0.19217588 0
4.7400107 -9.2594109 -0.24185427 0
0.43211234 -0.79405743 -0.19215985 0
0.48425648 -0.88987845 -0.1908199 0
0.55801225 -1.0254134 -0.19186571 0
0.65282845 -1.1996493 -0.19193885 0
0.78361499 -1.439985 -0.19160128 0
0.98287982 -1.8061577 -0.19193321 0
1.3094468 -2.4062631 -0.19151551 0
1.966327 -3.613358 -0.1915134 0
4.969748 -9.1324987 -0.2417386 0
0.45108581 -0.78130192 -0.1917671 0
0.50863099 -0.88097292 -0.19160201 0
0.58621001 -1.0153434 -0.19268852 0
0.67400748 -1.1674128 -0.18944253 0
0.81556189 -1.4125918 -0.19063453 0
1.0260527 -1.7771719 -0.19154394 0
1.3706301 -2.3739963 -0.19163965 0
2.5945745 -4.4939256 -0.24157867 0
5.1999054 -9.0064821 -0.24179988 0
0.47053185 -0.76947016 -0.19171683 0
0.53102696 -0.86839902 -0.19172117 0
0.60460168 -0.9887172 -0.19047073 0
0.71578968 -1.1705451 -0.19282107 0
0.84323531 -1.3789595 -0.18890773 0
1.0717009 -1.7525741 -0.19174702 0
1.427497 -2.3344145 -0.1912919 0
2.710577 -4.4326606 -0.24188586 0
5.4298463 -8.8795357 -0.24199392 0
0.48954153 -0.7569589 -0.19161703 0
0.55365229 -0.85609084 -0.19202772 0
0.63705999 -0.98506087 -0.19280244 0
0.73672581 -1.1391703 -0.19065504 0
0.88901848 -1.3746544 -0.19133087 0
1.1165788 -1.7265221 -0.19191888 0
1.4881908 -2.301131 -0.19158138 0
2.8163407 -4.3547974 -0.2414389 0
5.6456571 -8.7296581 -0.24171562 0
0.50237823 -0.73542744 -0.18931594 0
0.57648146 -0.84390646 -0.192497 0
0.66889894 -0.97919565 -0.19489671 0
0.76679021 -1.1224979 -0.19104286 0
0.91554731 -1.3402623 -0.1896998 0
1.1565524 -1.6930676 -0.19138393 0
1.5432793 -2.2591939 -0.19127184 0
2.9319551 -4.2920651 -0.24198653 0
5.86514 -8.5859308 -0.24175777 0
0.52857405 -0.73333967 -0.19215153 0
0.59623897 -0.82721746 -0.19206165 0
0.68257421 -0.94699842 -0.19185609 0
0.80094731 -1.1112283 -0.19250403 0
0.95053172 -1.3187606 -0.18999158 0
1.2029589 -1.6689763 -0.19203156 0
1.5986001 -2.217886 -0.19112962 0
3.0375621 -4.2142911 -0.24184698 0
6.079771 -8.435029 -0.24175248 0
0.5431183 -0.71478146 -0.19081983 0
0.62022072 -0.8162536 -0.19308904 0
0.70698673 -0.9304437 -0.19205606 0
0.82421255 -1.084721 -0.19145474 0
0.98859406 -1.3010585 -0.1909751 0
1.2435464 -1.6365935 -0.19185574 0
1.6622354 -2.1876173 -0.19207539 0
3.1385653 -4.1305699 -0.24151145 0
6.2904029 -8.2786074 -0.2417426 0
0.56973886 -0.71179318 -0.19379918 0
0.63119155 -0.78856796 -0.19024774 0
0.7284345 -0.91005677 -0.1915818 0
0.8574605 -1.0712532 -0.19283599 0
1.0164791 -1.2699202 -0.1901097 0
1.2852495 -1.6057037 -0.19197617 0
1.7143365 -2.1417761 -0.19178839 0
3.2471514 -4.0567708 -0.24191128 0
6.4990931 -8.1195269 -0.24181016 0
0.58176047 -0.69036067 -0.1919004 0
0.65202945 -0.77374715 -0.19058171 0
0.75024503 -0.89029711 -0.19134738 0
0.88561755 -1.0509404 -0.19314158 0
1.0539042 -1.2506419 -0.19114482 0
1.320883 -1.5674591 -0.19132859 0
1.7674491 -2.097388 -0.19174708 0
3.346595 -3.9713213 -0.24177554 0
6.7081184 -7.9603572 -0.24203496 0
0.59456646 -0.67047006 -0.19048204 0
0.67490077 -0.76106 -0.19159132 0
0.77021718 -0.8685447 -0.19078951 0
0.90530419 -1.0208772 -0.1917547 0
1.0860645 -1.2247137 -0.19131055 0
1.3603534 -1.5340189 -0.19137673 0
1.8111054 -2.042315 -0.19083036 0
3.4397421 -3.8788667 -0.24135539 0
6.8940086 -7.7741122 -0.24158564 0
0.61428243 -0.65845871 -0.19141333 0
0.69620132 -0.74626881 -0.19223 0
0.80121034 -0.85882956 -0.19303598 0
0.92359364 -0.99001408 -0.19027549 0
1.1117485 -1.1917001 -0.19047602 0
1.4060142 -1.507128 -0.19238779 0
1.8601133 -1.9938837 -0.19063102 0
3.5403082 -3.7949102 -0.24161428 0
7.1008945 -7.611557 -0.24202642 0
0.63327175 -0.6453706 -0.1921937 0
0.71070534 -0.72428352 -0.19112648 0
0.81601655 -0.83160675 -0.19148539 0
0.95340872 -0.97162384 -0.19130485 0
1.1437323 -1.1655836 -0.1908548 0
1.438825 -1.4663141 -0.19175237 0
1.9064202 -1.9428428 -0.19029079 0
3.6417615 -3.7113383 -0.24206835 0
7.2806897 -7.4197893 -0.24169475 0
0.64152962 -0.62160617 -0.189878 0
0.73831618 -0.71538693 -0.19363445 0
0.83380187 -0.80790716 -0.19081323 0
0.98233944 -0.95183176 -0.19222833 0
1.1846858 -1.147894 -0.19279282 0
1.4726096 -1.4268759 -0.19139446 0
1.9594862 -1.8986322 -0.19074374 0
3.7318492 -3.6159523 -0.24191318 0
7.4688573 -7.2369032 -0.24180084 0
0.66219771 -0.6100015 -0.19137754 0
0.75261873 -0.6932953 -0.192735 0
0.85341936 -0.78615052 -0.1907012 0
1.004521 -0.92534196 -0.19193766 0
1.2133992 -1.1177558 -0.19281316 0
1.5088377 -1.389907 -0.19148272 0
2.5478826 -2.3470514 -0.24217695 0
3.8172297 -3.5163453 -0.24161787 0
7.646647 -7.0439177 -0.24172413 0
0.66915286 -0.58589774 -0.18905374 0
0.77495515 -0.6785363 -0.19400764 0
0.87182498 -0.76335365 -0.19044822 0
1.0227323 -0.89548522 -0.191038 0
1.2164105 -1.0650663 -0.18895999 0
1.5334574 -1.3426666 -0.19024597 0
2.5940259 -2.2712805 -0.24103738 0
3.9039555 -3.4182305 -0.24156962 0
7.8285112 -6.8544984 -0.24192727 0
0.70182681 -0.58388978 -0.1940597 0
0.78150654 -0.65017986 -0.19147861 0
0.89682782 -0.74612224 -0.19173531 0
1.0470637 -0.87111205 -0.19141516 0
1.2515764 -1.0412579 -0.19027971 0
1.5698398 -1.3060393 -0.19060947 0
2.6562271 -2.2098668 -0.2415576 0
3.9863536 -3.3164752 -0.24141191 0
7.9946799 -6.6512303 -0.24179767 0
0.70789617 -0.55932802 -0.19177343 0
0.80695546 -0.63759738 -0.19370939 0
0.91225082 -0.72079414 -0.19108245 0
1.0627155 -0.83968037 -0.19034161 0
1.2815199 -1.0125636 -0.19088592 0
1.6054 -1.26847 -0.19097912 0
2.7140133 -2.1444156 -0.24181373 0
4.0763803 -3.2208588 -0.24186391 0
8.1639528 -6.4505606 -0.24191624 0
0.71792835 -0.53839815 -0.19074921 0
0.81269103 -0.60946375 -0.19133277 0
0.93177718 -0.6987704 -0.19141738 0
1.0914621 -0.81852341 -0.19172916 0
1.3007789 -0.97549695 -0.19002679 0
1.6206032 -1.2153437 -0.18907849 0
2.7717242 -2.0786073 -0.24220426 0
4.1462073 -3.1093774 -0.24127379 0
8.3146315 -6.2354159 -0.24164084 0
0.72597837 -0.51633912 -0.18936527 0
0.8291741 -0.58973515 -0.19164814 0
0.95457304 -0.67892295 -0.19251893 0
1.106884 -0.78725135 -0.19088709 0
1.3403817 -0.95332241 -0.19223604 0
1.6653514 -1.1844512 -0.19075076 0
2.8175173 -2.0039084 -0.24170928 0
4.2320056 -3.009938 -0.24176885 0
8.4713802 -6.0251169 -0.2416999 0
0.74825406 -0.50424546 -0.19179496 0
0.85717613 -0.57764763 -0.19468857 0
0.96830827 -0.65253913 -0.19190638 0
1.1357026 -0.76534551 -0.19246447 0
1.3394381 -0.90264207 -0.18877326 0
1.6905794 -1.1392748 -0.19028628 0
2.8669209 -1.9320068 -0.24168739 0
4.3012204 -2.8985753 -0.24146672 0
8.6236305 -5.8114305 -0.24178196 0
0.7657873 -0.48842597 -0.19306786 0
0.85424089 -0.54484242 -0.19083782 0
0.99189687 -0.63264066 -0.19335528 0
1.1606618 -0.74028039 -0.19346632 0
1.3733333 -0.87592417 -0.19037393 0
1.7235682 -1.0993072 -0.19081569 0
2.9224825 -1.8639853 -0.24232815 0
4.379427 -2.7932374 -0.24182244 0
8.7615156 -5.5881724 -0.24161659 0
0.76626033 -0.46195164 -0.19018707 0
0.87266755 -0.52610087 -0.19192685 0
0.99831063 -0.60184669 -0.19158347 0
1.1715873 -0.7063092 -0.1922548 0
1.3967857 -0.84207344 -0.1906181 0
1.7657099 -1.064485 -0.1924455 0
2.9658608 -1.7880143 -0.24210601 0
4.4379334 -2.6754756 -0.24124756 0
8.9102697 -5.3716912 -0.24190296 0
0.77690637 -0.44203553 -0.18999985 0
0.89373809 -0.50850916 -0.19367659 0
1.0175363 -0.57894647 -0.19240756 0
1.1822712 -0.67267555 -0.19116113 0
1.4122767 -0.80354154 -0.189904 0
1.7837949 -1.0149238 -0.19156373 0
3.0050352 -1.7097714 -0.24170424 0
4.5126209 -2.5675409 -0.24170795 0
9.0446634 -5.146132 -0.24194835 0
0.78256071 -0.41947785 -0.18873338 0
0.90150189 -0.48323417 -0.1926547 0
1.0304545 -0.55235696 -0.19215301 0
1.1923287 -0.63912672 -0.19011855 0
1.4489756 -0.77669775 -0.19214162 0
1.8108255 -0.97066098 -0.19177458 0
3.0480492 -1.633853 -0.24177021 0
4.5724263 -2.4509685 -0.24152099 0
9.1672039 -4.9139175 -0.2418317 0
0.7997058 -0.4030318 -0.19035447 0
0.9114157 -0.4593308 -0.19223461 0
1.0409451 -0.52461034 -0.19157916 0
1.2118275 -0.61073089 -0.19070913 0
1.4626004 -0.73711413 -0.19142038 0
1.8315663 -0.92306381 -0.19144289 0
3.0873048 -1.5559247 -0.2416921 0
4.6273975 -2.3320932 -0.24123877 0
9.2936974 -4.6837921 -0.24197306 0
0.81117392 -0.38346064 -0.19071978 0
0.92462039 -0.43708941 -0.19263159 0
1.0508311 -0.49675214 -0.19103035 0
1.2322901 -0.58253205 -0.19155461 0
1.4867977 -0.70284361 -0.1922044 0
1.8606184 -0.87955731 -0.19209801 0
3.1313283 -1.4802513 -0.24213664 0
4.702426 -2.2229455 -0.24214819 0
9.4055662 -4.4462285 -0.24188693 0
0.83217531 -0.36799464 -0.19341223 0
0.93554819 -0.41370696 -0.19267154 0
1.078633 -0.47698021 -0.19383423 0
1.2457249 -0.55086958 -0.19142079 0
1.5023462 -0.66434962 -0.19198568 0
1.8787028 -0.83077753 -0.19173922 0
3.1657805 -1.3999337 -0.24199146 0
4.7511349 -2.1009903 -0.24184883 0
9.5112104 -4.2059345 -0.24179684 0
0.83011317 -0.34231102 -0.19086419 0
0.93072689 -0.38380075 -0.18962328 0
1.0664335 -0.43976167 -0.18958703 0
1.2617755 -0.52031416 -0.19180815 0
1.510488 -0.62287492 -0.19095635 0
1.9040812 -0.78517967 -0.19224559 0
3.1925869 -1.3165165 -0.24142376 0
4.7933426 -1.9766147 -0.24138099 0
9.6186361 -3.9664052 -0.24190581 0
0.84558791 -0.3239786 -0.19248085 0
0.94589269 -0.36240938 -0.19078882 0
1.0825332 -0.41476187 -0.1905275 0
1.2652739 -0.48477712 -0.19041939 0
1.5225562 -0.58335227 -0.19056003 0
1.9170585 -0.7345019 -0.19162312 0
3.2258763 -1.2359624 -0.24150527 0
4.850636 -1.8584729 -0.24182707 0
9.7036896 -3.7178724 -0.24160802 0
0.85040265 -0.30144501 -0.19178391 0
0.95842379 -0.3397356 -0.19152585 0
1.0976646 -0.38909274 -0.19140129 0
1.276628 -0.4525305 -0.19034864 0
1.5526745 -0.5503816 -0.19252968 0
1.9394857 -0.68749583 -0.19206928 0
3.2623708 -1.1564232 -0.24197529 0
4.9010468 -1.7372901 -0.2420772 0
9.8018999 -3.4745114 -0.24179286 0
0.85464811 -0.27888438 -0.1910931 0
0.96832645 -0.3159793 -0.19184996 0
1.1125157 -0.3630304 -0.19233197 0
1.2902846 -0.42103904 -0.19073968 0
1.566745 -0.51125216 -0.19261305 0
1.9467391 -0.63524985 -0.19113895 0
3.2881489 -1.0729718 -0.24180166 0
4.9328222 -1.6096532 -0.24156313 0
9.8796129 -3.2238643 -0.24162577 0
0.86131138 -0.25720179 -0.19107066 0
0.98984802 -0.29558495 -0.19457391 0
1.1182696 -0.33393374 -0.19180857 0
1.2908244 -0.38546145 -0.18932101 0
1.5450475 -0.46137667 -0.188454 0
1.9647971 -0.58672082 -0.19139709 0
3.3164947 -0.99036002 -0.24197097 0
4.9692092 -1.4838878 -0.24143408 0
9.9586334 -2.9738119 -0.24164578 0
0.87204331 -0.23661369 -0.19206545 0
0.99314344 -0.26947209 -0.19382305 0
1.1134177 -0.30210644 -0.18960816 0
1.3174921 -0.35747841 -0.19184791 0
1.5712547 -0.42633247 -0.19027752 0
1.9662471 -0.53350675 -0.19016607 0
3.3421223 -0.90682644 -0.2420938 0
5.0124531 -1.3600414 -0.24179035 0
10.036217 -2.7231517 -0.24178363 0
0.87996495 -0.21508072 -0.19255325 0
0.98849374 -0.24160731 -0.1916645 0
1.1215519 -0.27412933 -0.18975468 0
1.3199166 -0.32261357 -0.19095446 0
1.5827529 -0.38685593 -0.19042692 0
1.9790205 -0.48371151 -0.19016016 0
3.3592613 -0.82106948 -0.24175718 0
5.0352798 -1.2307214 -0.24131624 0
10.090926 -2.4664207 -0.24152505 0
0.87266147 -0.19009781 -0.18984479 0
0.98789126 -0.2151991 -0.1904339 0
1.1377821 -0.24785085 -0.19138135 0
1.3184685 -0.287211 -0.18963586 0
1.6003245 -0.34860963 -0.19142146 0
1.9929833 -0.43414518 -0.19038832 0
3.3889544 -0.73823905 -0.24247597 0
5.0746317 -1.1054417 -0.24178809 0
10.154914 -2.2121143 -0.24164332 0
0.88434184 -0.16939101 -0.19139479 0
1.0042112 -0.19235134 -0.19258271 0
1.1321611 -0.21685947 -0.1894549 0
1.334305 -0.25557908 -0.19092506 0
1.6110722 -0.30859235 -0.19171436 0
2.5529838 -0.48901054 -0.24262848 0
3.3923268 -0.64978224 -0.24146698 0
5.1021442 -0.97728878 -0.24184671 0
10.202827 -1.9542977 -0.24153283 0
0.88016313 -0.1456719 -0.18963431 0
1.0079085 -0.16681448 -0.19242306 0
1.1466161 -0.18977137 -0.19101147 0
1.342827 -0.22224535 -0.19128092 0
1.6198602 -0.26809588 -0.1918938 0
2.5536158 -0.42263767 -0.24159786 0
3.4067411 -0.56383461 -0.24140318 0
5.1258698 -0.84836006 -0.24187934 0
10.264123 -1.6987696 -0.24189185 0
0.88917309 -0.12420243 -0.19083937 0
1.0059172 -0.14050961 -0.19130492 0
1.1507084 -0.1607345 -0.19095658 0
1.3379608 -0.18689048 -0.18985537 0
1.6287991 -0.22751567 -0.19221127 0
2.5637643 -0.35811448 -0.24162592 0
3.4270103 -0.47869533 -0.2419063 0
5.1377969 -0.71766329 -0.24151053 0
10.302665 -1.4391079 -0.24186715 0
0.89020914 -0.10152125 -0.19045115 0
1.003599 -0.11445247 -0.19025412 0
1.160759 -0.1323753 -0.19200885 0
1.3501225 -0.15397069 -0.19096886 0
1.6276313 -0.18561836 -0.19145966 0
2.5737762 -0.29351863 -0.24179432 0
3.4346666 -0.3916963 -0.24167195 0
5.1600356 -0.58846092 -0.24178076 0
10.340975 -1.1793057 -0.24199072 0
0.89865935 -0.079574615 -0.19176824 0
1.0096555 -0.089403108 -0.19091368 0
1.1328905 -0.10031534 -0.1869206 0
1.1250563 -0.099621631 -0.15872803 0
1.6313649 -0.14445433 -0.19140902 0
2.5764759 -0.22814213 -0.2414301 0
3.4507141 -0.3055543 -0.24218136 0
5.16536 -0.45738298 -0.24141245 0
10.354518 -0.91687322 -0.24168913 0
0.89833736 -0.056746136 -0.19133298 0
1.022985 -0.064619869 -0.19306426 0
1.1119694 -0.070240825 -0.18311791 0
1.1322762 -0.07152357 -0.1594412 0
1.6489705 -0.10416209 -0.19310474 0
2.580936 -0.16303244 -0.24138559 0
3.4497409 -0.21791306 -0.24165009 0
5.1760364 -0.32695964 -0.24144886 0
10.388118 -0.65619618 -0.24200977 0
0.89482009 -0.033885557 -0.19034107 0
1.0162225 -0.03848289 -0.1915437 0
1.1445345 -0.043341883 -0.18824062 0
1.12771 -0.042704761 -0.15859593 0
1.6483407 -0.062420301 -0.1927851 0
2.5776391 -0.097611502 -0.24077016 0
3.4579706 -0.13094839 -0.24191801 0
5.1881166 -0.19646655 -0.24170409 0
10.392545 -0.39355081 -0.2418045 0
0.90064973 -0.011363945 -0.19145913 0
1.0228351 -0.012905619 -0.19266734 0
1.1288408 -0.014243145 -0.18554127 0
1.1256148 -0.014202441 -0.15820049 0
1.1276746 -0.014228431 -0.13180554 0
1.1453537 -0.014451496 -0.10691621 0
1.1232932 -0.014173147 -0.078535035 0
1.1298606 -0.014256014 -0.052604459 0
1.1296018 -0.014252747 -0.026265837 0
1.1266996 -0.014216129 3.2168016e-05 0
1.1340886 -0.01430936 0.026434958 0
1.1258569 -0.014205496 0.052482478 0
1.1220109 -0.014156969 0.078509763 0
1.1356388 -0.014328918 0.10607477 0
1.1309222 -0.014269407 0.13225059 0
1.1297538 -0.014254665 0.15884799 0
1.1292484 -0.014248287 0.18567449 0
1.1265259 -0.014213936 0.21226574 0
0.90350431 0.011399963 -0.19206597 0
1.0216866 0.012891127 -0.19245099 0
1.1259302 0.014206421 -0.18506289 0
1.1291637 0.014247219 -0.15869927 0
1.6367638 0.020651862 -0.19130921 0
2.5826585 0.032586686 -0.24108543 0
3.4628031 0.043691907 -0.24210186 0
5.1810904 0.065372393 -0.24122307 0
10.397799 0.1311942 -0.24177271 0
0.89763117 0.033992007 -0.19093904 0
1.0089923 0.038209092 -0.19018091 0
1.132248 0.042876612 -0.18621989 0
1.1254145 0.042617835 -0.15827312 0
1.6371571 0.061996795 -0.19147711 0
2.5769145 0.097584061 -0.24070249 0
3.4652631 0.13122456 -0.24242821 0
5.180913 0.19619375 -0.24136849 0
10.388179 0.39338544 -0.2417029 0
0.90070903 0.056895945 -0.1918381 0
1.0101365 0.063808255 -0.19063941 0
1.1289337 0.071312428 -0.18591158 0
1.1215279 0.07084462 -0.15792769 0
1.6396379 0.10357257 -0.19201183 0
2.5919085 0.16372555 -0.24241182 0
3.4497342 0.21791264 -0.24164963 0
5.1827674 0.3273848 -0.24176285 0
10.374915 0.65536213 -0.24170218 0
0.89143395 0.078934819 -0.19022639 0
1.0102402 0.089454889 -0.19102426 0
1.1631081 0.10299106 -0.19190635 0
1.3484132 0.11939948 -0.19024026 0
1.6451498 0.14567496 -0.19302641 0
2.5816445 0.22859982 -0.24191444 0
3.448127 0.30532521 -0.24199978 0
5.1761231 0.45833606 -0.24191548 0
10.361229 0.91746753 -0.24184579 0
0.89140362 0.10165747 -0.19070669 0
1.007948 0.11494842 -0.19107854 0
1.1581407 0.1320767 -0.19157574 0
1.3424361 0.15309411 -0.18988165 0
1.6237094 0.1851711 -0.19099833 0
2.5736096 0.29349962 -0.24177867 0
3.4326437 0.3914656 -0.24152961 0
5.1590896 0.58835298 -0.24173643 0
10.336151 1.1787555 -0.24187782 0
0.890567 0.12439714 -0.19113854 0
1.0018089 0.13993575 -0.19052361 0
1.148919 0.16048454 -0.19065961 0
1.3494194 0.18849106 -0.19148134 0
1.6127542 0.22527447 -0.19031785 0
2.5626221 0.35795492 -0.24151826 0
3.4197049 0.4776749 -0.24139063 0
5.1318173 0.71682805 -0.24122944 0
10.305594 1.4395171 -0.24193592 0
0.88363779 0.14624698 -0.19038293 0
1.0115039 0.16740954 -0.19310947 0
1.1417967 0.18897371 -0.1902086 0
1.3371441 0.22130482 -0.19047141 0
1.6246575 0.26888987 -0.1924621 0
2.5577316 0.42331883 -0.24198724 0
3.4150064 0.56520259 -0.24198887 0
5.126893 0.84852934 -0.24192762 0
10.261459 1.6983287 -0.24182908 0
0.88508713 0.16953376 -0.1915561 0
0.99613422 0.19080424 -0.19103374 0
1.1377791 0.21793558 -0.19039501 0
1.3222955 0.2532787 -0.18920662 0
1.3433783 0.25731701 -0.15985933 0
1.3459274 0.25780526 -0.12791319 0
1.3345242 0.25562105 -0.094991885 0
1.3413668 0.25693172 -0.063582115 0
1.3474761 0.25810191 -0.031898972 0
1.3428131 0.25720876 3.9032064e-05 0
0.86884326 0.18926607 -0.18901415 0
0.99009871 0.21567997 -0.19085944 0
1.1300688 0.2461706 -0.19008394 0
1.2092351 0.26341593 -0.17392477 0
1.2079892 0.26314455 -0.14449261 0
1.2067386 0.26287213 -0.11527891 0
1.2063982 0.26279795 -0.086316474 0
1.2062465 0.2627649 -0.057473335 0
1.2010751 0.26163837 -0.028580425 0
1.2014081 0.26171094 3.510261e-05 0
0.874686 0.21379046 -0.19139811 0
0.99223506 0.24252175 -0.19238992 0
1.1137556 0.27222374 -0.18843563 0
1.2006552 0.29346374 -0.17370073 0
1.1971183 0.29259923 -0.14402975 0
1.2051697 0.29456714 -0.11580237 0
1.2035167 0.29416314 -0.086613931 0
1.1916796 0.29126993 -0.057111356 0
1.2037351 0.29421654 -0.02881125 0
1.2010375 0.29355717 3.5297016e-05 0
0.86966997 0.23596974 -0.19154273 0
0.98180288 0.26639503 -0.19160981 0
1.1270874 0.30581543 -0.191936 0
1.2108974 0.32855582 -0.17632601 0
1.2080268 0.32777691 -0.14629094 0
1.1990161 0.32533205 -0.11596314 0
1.2035049 0.32654998 -0.087178454 0
1.2077514 0.32770222 -0.058259431 0
1.2058804 0.32719451 -0.029051 0
1.206861 0.32746062 3.5699686e-05 0
0.86505812 0.25832063 -0.19190183 0
0.9726764 0.29045722 -0.1911985 0
1.1100116 0.33146778 -0.19039214 0
1.2004415 0.35847163 -0.17606485 0
1.2143567 0.36262694 -0.14811866 0
1.2155154 0.36297292 -0.11840718 0
1.2007523 0.35856441 -0.087606706 0
1.211202 0.36168489 -0.058847483 0
1.2098722 0.3612878 -0.029357495 0
1.2162776 0.36320055 3.6237856e-05 0
0.83937454 0.27390039 -0.18767805 0
0.96999431 0.31652355 -0.19218041 0
1.1029706 0.3599157 -0.19068182 0
1.2054013 0.39334035 -0.17819157 0
1.209826 0.39478418 -0.148734 0
1.2057357 0.39344946 -0.11838415 0
1.1960047 0.39027414 -0.08795099 0
1.2071379 0.39390704 -0.059114233 0
1.2121118 0.3955301 -0.029644631 0
1.1992925 0.39134699 3.6014615e-05 0
0.83730042 0.29680061 -0.18882908 0
0.95943516 0.34009412 -0.19172797 0
1.1092229 0.39318988 -0.19341673 0
1.204851 0.42708749 -0.17964649 0
1.2080159 0.42820933 -0.14979245 0
1.2083919 0.42834264 -0.1196683 0
1.1981692 0.42471898 -0.088870138 0
1.2049448 0.42712072 -0.059515789 0
1.2032847 0.42653227 -0.02968258 0
1.2002355 0.4254514 3.6353813e-05 0
0.85212272 0.32648236 -0.19396837 0
0.94868255 0.36347827 -0.19135153 0
1.0846475 0.4155719 -0.19089961 0
1.2130553 0.46477008 -0.18256065 0
1.2022372 0.46062526 -0.15046956 0
1.2007229 0.46004507 -0.12002048 0
1.2136971 0.46501595 -0.090863444 0
1.1978885 0.45895907 -0.05972039 0
1.2057222 0.46196046 -0.03002076 0
1.215082 0.46554664 3.7147565e-05 0
0.84465325 0.34830686 -0.19420733 0
0.93837899 0.38695624 -0.1911823 0
1.0731627 0.44253653 -0.19078331 0
1.2041291 0.49654272 -0.18304507 0
1.2069781 0.49771753 -0.15258653 0
1.2091762 0.49862397 -0.12208449 0
1.2072324 0.49782237 -0.091291033 0
1.1988827 0.49437931 -0.060372803 0
1.2007942 0.49516755 -0.030199615 0
1.2108185 0.49930125 3.7390579e-05 0
0.82470399 0.36469078 -0.19167578 0
0.92745674 0.41012886 -0.19100514 0
1.0692219 0.47281855 -0.19214302 0
1.2194935 0.53926992 -0.18739003 0
1.2086182 0.53446072 -0.15445001 0
1.2022262 0.53163415 -0.12269846 0
1.2000736 0.53068227 -0.091733329 0
1.2045076 0.53264296 -0.061313502 0
1.21464 0.53712362 -0.030878941 0
1.2138743 0.53678507 3.7891241e-05 0
0.81432468 0.3849501 -0.19146058 0
0.91547996 0.43276852 -0.19072731 0
1.0542418 0.49836445 -0.19165038 0
1.216433 0.57503599 -0.18908969 0
1.4686269 0.69425386 -0.1898554 0
1.8521724 0.87556463 -0.19122601 0
3.1196418 1.4747268 -0.24123296 0
4.7066574 2.2249458 -0.24236609 0
9.4052248 4.4460673 -0.24187815 0
0.80834812 0.40738729 -0.19241159 0
0.90444237 0.45581639 -0.1907638 0
1.035638 0.5219357 -0.19060244 0
1.2050779 0.60732919 -0.18964691 0
1.4483598 0.72993731 -0.18955664 0
1.83438 0.92448181 -0.19173698 0
3.085834 1.5551834 -0.24157695 0
4.6389117 2.3378961 -0.24183905 0
9.2849226 4.6793699 -0.24174461 0
0.79939348 0.42850074 -0.192793 0
0.90591758 0.48560113 -0.19359834 0
1.0313067 0.55281371 -0.19231191 0
1.1927962 0.63937736 -0.1901931 0
1.4305485 0.76682025 -0.1896981 0
1.8093374 0.96986336 -0.191617 0
3.0433321 1.6313243 -0.24139604 0
4.5814805 2.4558218 -0.24199925 0
9.1730747 4.9170642 -0.24198657 0
0.7781173 0.44272453 -0.19029601 0
0.88120955 0.5013808 -0.19096161 0
1.0148323 0.57740796 -0.19189626 0
1.1778921 0.67018396 -0.19045305 0
1.2118244 0.68949038 -0.16294986 0
1.2109565 0.68899655 -0.13004597 0
3.0063899 1.7105423 -0.24181323 0
4.5164299 2.5697081 -0.24191198 0
9.0453796 5.1465397 -0.24196751 0
0.77122551 0.46494499 -0.19141944 0
0.87459415 0.52726233 -0.19235058 0
0.99579442 0.60032976 -0.19110058 0
1.1678578 0.70406073 -0.19164278 0
1.143573 0.68942034 -0.15606239 0
1.2005094 0.72374529 -0.13084406 0
2.9596767 1.784286 -0.2416012 0
4.4542661 2.685322 -0.24213542 0
8.9038057 5.3677945 -0.24172747 0
0.76034659 0.48495582 -0.19169617 0
0.85234958 0.54363614 -0.19041529 0
0.9785803 0.62414724 -0.19075941 0
1.1503134 0.73368013 -0.19174138 0
1.1408855 0.72766691 -0.1581516 0
1.1803107 0.75281268 -0.13067183 0
2.9136992 1.8583832 -0.24159984 0
4.3727593 2.7889848 -0.24145427 0
8.769187 5.5930653 -0.24182813 0
0.75098866 0.50608832 -0.19249591 0
0.84127152 0.56692958 -0.19107619 0
0.96510446 0.65038007 -0.19127142 0
1.1198229 0.75464427 -0.18977338 0
1.142223 0.76973963 -0.16097882 0
1.1648593 0.78499407 -0.13111287 0
2.8564849 1.924974 -0.24080759 0
4.3105721 2.9048774 -0.24199171 0
8.626193 5.8131576 -0.24185383 0
0.73154008 0.52029473 -0.19081599 0
0.83649552 0.59494239 -0.19334036 0
0.94629145 0.67303276 -0.19084869 0
1.1070497 0.78736925 -0.19091569 0
1.1410453 0.81154805 -0.16364744 0
1.134545 0.80692476 -0.12995175 0
2.8234935 2.0081589 -0.24222197 0
4.234179 3.0114839 -0.24189302 0
8.4747028 6.0274801 -0.24179471 0
0.72315186 0.54231542 -0.19213708 0
0.81844419 0.61377823 -0.19268726 0
0.93438536 0.70072639 -0.1919532 0
1.090755 0.8179931 -0.19160494 0
1.0958019 0.821778 -0.16008234 0
1.0974547 0.82301742 -0.12804188 0
1.0979731 0.82340622 -0.095945254 0
1.0995605 0.82459664 -0.063985012 0
1.1060407 0.82945633 -0.032143891 0
1.0976777 0.82318473 3.91699e-05 0
1.101238 0.82585466 0.032082949 0
1.1012347 0.8258521 0.064161196 0
1.1023046 0.82665455 0.096402809 0
0.71073568 0.56157154 -0.19254266 0
0.80559003 0.63651854 -0.19338162 0
0.92201298 0.72850746 -0.19312724 0
1.0479752 0.82803357 -0.18770148 0
1.1129105 0.87934083 -0.1657711 0
1.0979782 0.86754245 -0.13061599 0
1.0914453 0.86238056 -0.09724582 0
1.1086724 0.87599212 -0.065780863 0
1.0920565 0.86286354 -0.032360084 0
1.0995512 0.86878526 4.0006475e-05 0
1.0926883 0.86336273 0.032458365 0
1.0912764 0.86224711 0.064828292 0
1.1015822 0.87038994 0.09822955 0
0.68980467 0.57388788 -0.19073549 0
0.78356767 0.65189469 -0.19198361 0
0.8933416 0.74322188 -0.19098999 0
1.0319926 0.8585735 -0.18865998 0
1.0931499 0.90945375 -0.16619378 0
1.0904065 0.90717143 -0.13239683 0
1.1000776 0.91521734 -0.10004118 0
1.1028577 0.9175303 -0.066788606 0
1.0971811 0.91280752 -0.033184048 0
1.1023341 0.91709465 4.0936866e-05 0
1.1043671 0.91878605 0.033483457 0
1.0969915 0.91264987 0.066515006 0
1.105343 0.91959786 0.10060252 0
0.67137951 0.58784735 -0.18968284 0
0.77167773 0.67566663 -0.19318713 0
0.88198727 0.77225155 -0.19266815 0
0.99836653 0.87415111 -0.18648669 0
1.0954067 0.95911759 -0.17016296 0
1.0973301 0.96080178 -0.13613853 0
1.0989418 0.96221292 -0.10211389 0
1.0905362 0.95485318 -0.067480385 0
1.1062453 0.96860772 -0.034186691 0
1.1004739 0.96355438 4.1757612e-05 0
1.0919574 0.95609754 0.033828065 0
1.1044214 0.96701068 0.068423569 0
1.1021776 0.96504617 0.10249861 0
1.1000676 0.96319872 0.13656236 0
1.0906138 0.95492107 0.27311751 0
0.66548902 0.61303335 -0.19232874 0
0.74593544 0.6871388 -0.1910235 0
0.8514604 0.78434598 -0.19026347 0
0.96066916 0.88494658 -0.1835587 0
1.0605067 0.97691464 -0.16851804 0
1.0963877 1.0099674 -0.13913976 0
1.1029506 1.0160129 -0.10483576 0
1.0958327 1.0094562 -0.069362544 0
1.0956382 1.009277 -0.034635071 0
1.097403 1.0109028 4.2595664e-05 0
1.1024898 1.0155885 0.0349373 0
1.0994986 1.0128332 0.069680132 0
1.0958054 1.009431 0.10424209 0
1.0983188 1.0117464 0.13947083 0
1.0373907 0.95562071 0.26574445 0
0.64713812 0.62704051 -0.19153801 0
0.73118603 0.70847821 -0.19176446 0
0.84083599 0.81472284 -0.19242297 0
0.83184314 0.80600929 -0.16277859 0
0.83305377 0.80718231 -0.1355691 0
0.84499764 0.81875521 -0.10982399 0
0.83928251 0.81321764 -0.081698909 0
0.83422554 0.80831766 -0.054077789 0
0.83874816 0.81269985 -0.027154088 0
0.8390221 0.81296527 3.3352419e-05 0
0.8326807 0.80682087 0.027023893 0
0.84820902 0.82186693 0.055051837 0
0.84460521 0.81837505 0.082284525 0
1.1009346 1.0667439 0.14317632 0
1.0107021 0.97931367 0.19786042 0
0.99475652 0.96386325 0.22772849 0
0.99150091 0.96070868 0.26011753 0
0.6340546 0.64616835 -0.19243127 0
0.71069384 0.72427177 -0.19112338 0
0.82281208 0.83853215 -0.19308004 0
0.83936948 0.85540587 -0.16842248 0
0.84392804 0.86005145 -0.14082642 0
0.84136444 0.85743892 -0.11212874 0
0.84155202 0.85763007 -0.084000163 0
0.84062809 0.8566885 -0.055876654 0
0.84408522 0.86021167 -0.028020831 0
0.83408248 0.85001785 3.3998051e-05 0
0.83790106 0.85390937 0.02788388 0
0.83411652 0.85005254 0.055511978 0
0.84449643 0.86063075 0.084363244 0
0.83446264 0.85040528 0.11127756 0
1.0994749 1.1204807 0.18356042 0
0.94758815 0.9656921 0.19021571 0
0.94434315 0.96238506 0.22167741 0
0.94828683 0.96640408 0.25509813 0
0.62068087 0.66531724 -0.19340709 0
0.69126135 0.74097359 -0.19086601 0
0.7969951 0.85431117 -0.1920204 0
0.84332907 0.90397727 -0.17373967 0
0.83268452 0.89256722 -0.14266396 0
0.83160055 0.89140528 -0.11378961 0
0.83551991 0.89560652 -0.085627057 0
0.83913672 0.89948344 -0.057268295 0
0.83255792 0.8924315 -0.028376849 0
0.83784562 0.89809942 3.5064204e-05 0
0.84103978 0.90152329 0.028736379 0
0.84696442 0.90787405 0.057873555 0
0.83461374 0.8946352 0.085604385 0
0.83691472 0.89710164 0.11458742 0
1.1005783 1.1797267 0.18865561 0
0.93136644 0.99834591 0.19195631 0
0.93611467 1.0034355 0.225619 0
0.92939955 0.99623758 0.25669953 0
0.59991491 0.67650133 -0.19219553 0
0.68229574 0.76939905 -0.1936906 0
0.76897615 0.8671453 -0.19048211 0
0.84551042 0.95345008 -0.17908964 0
0.83023906 0.93622911 -0.14624684 0
0.83784544 0.94480652 -0.11786946 0
0.82689875 0.93246239 -0.087127671 0
0.82904351 0.93488091 -0.058171254 0
0.84030849 0.94758403 -0.029446797 0
0.84204847 0.94954616 3.623153e-05 0
0.83711749 0.94398564 0.029407052 0
0.83636993 0.94314265 0.058757458 0
0.83439565 0.94091636 0.087989748 0
0.83860761 0.94566602 0.11804948 0
1.0989172 1.2392073 0.19367042 0
1.0969419 1.2369798 0.23244223 0
0.58699799 0.69657594 -0.19362807 0
0.65162873 0.77327162 -0.19046457 0
0.73300916 0.86984378 -0.18695143 0
0.84220856 0.99942797 -0.18367465 0
0.84335387 1.000787 -0.15295766 0
0.83755928 0.99391085 -0.12131962 0
0.84335488 1.0007883 -0.091493912 0
0.83992255 0.99671525 -0.060680401 0
0.83157748 0.98681235 -0.030004065 0
0.84399462 1.0015475 3.7391022e-05 0
0.840873 0.99784309 0.030414 0
0.8358928 0.99193323 0.060463496 0
0.83606166 0.99213356 0.090777129 0
0.84699923 1.0051129 0.12276269 0
0.84469211 1.0023751 0.15327625 0
1.1005505 1.3059959 0.24011508 0
0.57199961 0.71461761 -0.19456819 0
0.6315676 0.78903776 -0.1903611 0
0.71333259 0.89118946 -0.18760994 0
0.84151053 1.0513263 -0.18924896 0
0.85296476 1.0656364 -0.15952799 0
0.84704435 1.0582398 -0.12652199 0
0.84669507 1.0578035 -0.094722517 0
0.84020132 1.0496906 -0.062594607 0
0.83534205 1.0436199 -0.031080365 0
0.83187741 1.0392914 3.8004182e-05 0
0.83847421 1.0475329 0.031273555 0
0.84094322 1.0506175 0.062726885 0
0.84732646 1.0585923 0.094870955 0
0.83872759 1.0478494 0.12535703 0
0.83810061 1.0470662 0.1568256 0
1.1031977 1.3782605 0.24820308 0
1.1006322 1.3750553 0.28957489 0
0.54252267 0.71399754 -0.19061056 0
0.61855996 0.8140679 -0.192572 0
0.69705182 0.91736865 -0.18935719 0
0.72949469 0.96006578 -0.16945292 0
0.73207903 0.96346694 -0.14142193 0
0.72848243 0.9587335 -0.11239109 0
0.72915727 0.95962161 -0.084255911 0
0.72434646 0.95329028 -0.055738196 0
0.73058778 0.96150428 -0.02807677 0
0.73390424 0.96586901 3.463095e-05 0
0.72933012 0.95984918 0.028097305 0
0.72823119 0.95840287 0.056105997 0
0.72996956 0.96069068 0.084419005 0
0.72398418 0.95281351 0.11176602 0
0.72856992 0.95884866 0.14081372 0
0.72912145 0.95957452 0.1694364 0
0.72318214 0.95175797 0.19652569 0
0.72701377 0.95680064 0.22640721 0
0.51977235 0.72112828 -0.18895186 0
0.59289181 0.82257366 -0.19098346 0
0.6753121 0.93692297 -0.18981487 0
0.72750759 1.0093386 -0.17485313 0
0.95325476 1.3225385 -0.19053584 0
0.84323913 1.1699036 -0.13460852 0
0.84023422 1.1657348 -0.10045893 0
0.83828354 1.1630284 -0.066743113 0
0.84160233 1.1676328 -0.033464983 0
0.83798146 1.1626092 4.0913666e-05 0
0.83871061 1.1636208 0.033431944 0
0.8421849 1.1684411 0.067136146 0
0.84339494 1.1701199 0.10091958 0
0.83822936 1.1629531 0.13389136 0
0.83438116 1.1576142 0.16685808 0
0.83735728 1.1617433 0.20133837 0
1.1005061 1.526834 0.30943757 0
0.50852859 0.7444309 -0.19163366 0
0.57164609 0.83682805 -0.1908824 0
0.66137493 0.96818137 -0.19270447 0
0.76653874 1.1221298 -0.19098018 0
0.9184764 1.3445501 -0.19030669 0
1.1509542 1.6848725 -0.19045755 0
0.84959364 1.2437131 -0.10529743 0
0.84537959 1.2375443 -0.069772713 0
0.84559685 1.2378623 -0.034855027 0
0.83856744 1.227572 4.2441461e-05 0
0.83713198 1.2254707 0.034590892 0
0.84228086 1.233008 0.069602408 0
0.84055519 1.2304819 0.10426272 0
0.84004956 1.2297417 0.13909546 0
0.8394348 1.2288417 0.17401555 0
0.84244436 1.2332474 0.20997874 0
1.1010123 1.611763 0.32091585 0
1.0999224 1.6101674 0.36739817 0
0.48898032 0.75609112 -0.19139735 0
0.54500675 0.84272259 -0.18902911 0
0.62559009 0.96732545 -0.18933116 0
0.73754841 1.1404421 -0.1908679 0
0.8907758 1.3773717 -0.19170907 0
1.1059593 1.7101015 -0.19009359 0
1.4812298 2.2903676 -0.19068526 0
0.85458428 1.3214102 -0.073261686 0
0.83785856 1.2955478 -0.035872441 0
0.83413738 1.289794 4.3850858e-05 0
0.83652955 1.2934929 0.035903543 0
0.83701205 1.2942389 0.071843453 0
0.84021801 1.2991962 0.10825375 0
0.83893919 1.2972188 0.14428684 0
0.83736616 1.2947865 0.18030371 0
0.83103043 1.2849898 0.21514894 0
0.8478294 1.3109654 0.25668213 0
1.0985904 1.6987073 0.38115263 0
0.46920934 0.76730746 -0.19117799 0
0.5321914 0.87030321 -0.19214158 0
0.60530704 0.98987067 -0.19069295 0
0.70287287 1.149422 -0.18934152 0
0.85095102 1.3915772 -0.19063625 0
1.0687668 1.7477758 -0.19122206 0
1.4232088 2.3274019 -0.19071725 0
0.84443015 1.3809135 -0.07535506 0
0.85315377 1.3951794 -0.038022812 0
0.83562315 1.3665112 4.572752e-05 0
0.84120595 1.3756409 0.037582446 0
0.83845544 1.371143 0.074913859 0
0.84425342 1.3806245 0.11322713 0
0.83908385 1.3721706 0.15022017 0
0.84000099 1.3736705 0.18827635 0
0.83588815 1.3669447 0.22526678 0
0.8422721 1.3773844 0.26543993 0
1.1033313 1.8042997 0.3984701 0
0.44933799 0.77827466 -0.19102407 0
0.51203352 0.88686627 -0.19288374 0
0.58005178 1.0046771 -0.19066429 0
0.67864025 1.175437 -0.19074467 0
0.81624347 1.4137722 -0.19079384 0
1.0326647 1.788624 -0.19277826 0
1.3641497 2.3627717 -0.19073355 0
1.3694823 2.3720081 -0.12751135 0
0.84519929 1.4639251 -0.039302461 0
0.83399534 1.4445194 4.761837e-05 0
0.8413896 1.4573265 0.03922144 0
0.83724147 1.4501418 0.078050673 0
0.84024632 1.4553463 0.11757851 0
0.84302688 1.4601624 0.1574737 0
0.8345359 1.4454557 0.19516625 0
0.84371477 1.4613538 0.23724023 0
0.83935106 1.4537957 0.27599496 0
0.84313357 1.4603472 0.3177093 0
0.4378247 0.80455458 -0.19470012 0
0.48954597 0.89959848 -0.1929042 0
0.55516315 1.0201778 -0.19088608 0
0.64393318 1.1833032 -0.18932353 0
0.78166801 1.4364073 -0.19112523 0
0.98529446 1.8105949 -0.19240475 0
1.2927011 2.3754909 -0.18906634 0
1.2942164 2.3782754 -0.12605217 0
1.2948339 2.37941 -0.062983342 0
0.84882158 1.5598098 5.0696541e-05 0
0.84204543 1.5473579 0.041059434 0
0.83769339 1.5393604 0.081688702 0
0.84272009 1.5485977 0.12335471 0
0.83660203 1.5373551 0.16346943 0
0.83983576 1.5432974 0.20544948 0
0.84016323 1.5438991 0.24711969 0
0.84042507 1.5443803 0.28907302 0
0.83973181 1.5431063 0.33099782 0
0.41260687 0.80601013 -0.19247095 0
0.46404615 0.90649456 -0.19181041 0
0.52798915 1.0314045 -0.19043264 0
0.61965632 1.2104725 -0.19110738 0
0.74635869 1.4579802 -0.19142826 0
0.94163674 1.8394476 -0.19288388 0
1.2436304 2.4293795 -0.19079641 0
1.246186 2.4343719 -0.1273178 0
1.2414978 2.4252136 -0.06334617 0
1.2468646 2.4356973 7.8116718e-05 0
0.84972942 1.6599106 0.043463115 0
0.83830869 1.6376005 0.085751876 0
0.84624034 1.6530948 0.12993582 0
0.8440786 1.6488719 0.17300685 0
0.83976203 1.6404396 0.21549128 0
0.836667 1.6343937 0.25814226 0
0.83804703 1.6370895 0.3023707 0
0.83590472 1.6329045 0.34562415 0
0.38859063 0.80877852 -0.19072928 0
0.44159782 0.91910303 -0.19205882 0
0.50125098 1.04326 -0.19022515 0
0.58416027 1.21582 -0.18956357 0
0.7123602 1.4826441 -0.19224471 0
0.89371061 1.860091 -0.19262193 0
1.1833875 2.4629991 -0.19103025 0
1.7881382 3.7216742 -0.19222222 0
4.498405 9.362586 -0.24150676 0
0.85349357 1.7763869 0.091862075 0
0.83884674 1.7459021 0.13552333 0
0.83847827 1.7451352 0.18082918 0
0.84350395 1.7555952 0.22774921 0
0.84296852 1.7544808 0.27366179 0
0.83830976 1.7447846 0.31825277 0
0.84213614 1.7527485 0.36637509 0
0.37417424 0.83191812 -0.19389734 0
0.41951901 0.9327352 -0.19263352 0
0.47325832 1.0522162 -0.1896199 0
0.55861121 1.2419851 -0.19138394 0
0.66924179 1.487955 -0.19068246 0
0.84167677 1.8713372 -0.19152571 0
1.1219112 2.494395 -0.19120824 0
1.6873075 3.7514656 -0.19150041 0
4.2632418 9.4786549 -0.24164824 0
1.068662 2.3760037 0.12143653 0
0.84834015 1.8861523 0.14470196 0
0.84048676 1.8686914 0.19137295 0
0.84192663 1.8718928 0.24000315 0
0.83993512 1.867465 0.28788662 0
0.83715665 1.8612875 0.33554232 0
0.83834785 1.8639359 0.38507101 0
0.34645748 0.82535321 -0.19026859 0
0.39406025 0.93875563 -0.19176181 0
0.45000055 1.0720202 -0.19108117 0
0.52405745 1.2484432 -0.19028035 0
0.63250107 1.5067847 -0.19098891 0
0.79488498 1.893626 -0.19169256 0
1.0578717 2.5201299 -0.19107345 0
1.5960815 3.8022878 -0.19197723 0
4.0194249 9.5753317 -0.24144976 0
0.99627423 2.3733885 0.1199795 0
0.84869581 2.0218177 0.15341778 0
0.83593363 1.9914147 0.20171614 0
0.83838218 1.9972477 0.25328177 0
0.83755493 1.995277 0.30423433 0
0.84072143 2.0028205 0.35711813 0
0.84408426 2.0108318 0.41088623 0
0.32659116 0.83656877 -0.19089311 0
0.36904678 0.94531953 -0.19113909 0
0.42088589 1.0781063 -0.19021198 0
0.49349985 1.2641082 -0.19070879 0
0.59840679 1.5328292 -0.19231451 0
0.75020355 1.9216591 -0.1925523 0
0.99542201 2.5497901 -0.19135648 0
1.4965947 3.8335524 -0.19158764 0
3.7803812 9.6835098 -0.24169469 0
0.92638421 2.3729489 0.1187375 0
0.85185802 2.1820488 0.16389264 0
0.84211957 2.1571035 0.21627747 0
0.83990729 2.1514368 0.27006102 0
0.84162146 2.1558275 0.32537213 0
0.83744073 2.1451185 0.37860164 0
0.83825451 2.147203 0.43429047 0
0.30765277 0.85082889 -0.19231398 0
0.34546432 0.9553985 -0.1913531 0
0.39689383 1.0976294 -0.19182803 0
0.43585503 1.2053784 -0.18013161 0
0.4339501 1.2001103 -0.14914872 0
0.43517423 1.2034956 -0.11945298 0
0.9278661 2.5660591 -0.19075918 0
1.4016485 3.8763278 -0.19189632 0
3.5319035 9.7676525 -0.24149299 0
0.85732251 2.3709676 0.11751822 0
0.85030502 2.3515604 0.17495695 0
0.83984321 2.3226278 0.23067468 0
0.8384943 2.318897 0.28833333 0
0.83834451 2.3184829 0.34661737 0
0.83998078 2.3230081 0.4061271 0
0.84078741 2.3252389 0.46585932 0
0.28374791 0.8513009 -0.19074121 0
0.32260802 0.96788901 -0.19216278 0
0.3697373 1.1092863 -0.19217318 0
0.40472853 1.214267 -0.17987612 0
0.40202647 1.2061604 -0.14859226 0
0.40258092 1.2078238 -0.11883621 0
0.86778057 2.6035166 -0.19185446 0
1.3027312 3.9084556 -0.19179802 0
3.2867489 9.8609085 -0.24167073 0
0.79078686 2.3725197 0.11656877 0
0.84870148 2.5462754 0.18779033 0
0.83983016 2.5196595 0.24805899 0
0.84396791 2.5320737 0.31209192 0
0.84184051 2.525691 0.37429965 0
0.83923614 2.5178773 0.43635365 0
0.83854514 2.5158043 0.49963963 0
0.2617096 0.85665447 -0.19040012 0
0.29634878 0.97003895 -0.19104382 0
0.34082288 1.1156161 -0.19171847 0
0.38047868 1.2454215 -0.18301038 0
0.3822729 1.2512945 -0.15291524 0
0.38022703 1.2445978 -0.12147148 0
0.72216707 2.3638706 -0.17279667 0
0.72636479 2.3776109 -0.11573903 0
0.72386086 2.3694148 -0.057603426 0
0.72806847 2.3831878 7.1140312e-05 0
0.72435802 2.3710423 0.057784624 0
0.72448611 2.3714616 0.11558156 0
0.84468704 2.7649155 0.20227854 0
0.83656615 2.7383335 0.26742348 0
0.83572513 2.7355804 0.3344689 0
0.8360244 2.7365601 0.40229464 0
0.83538651 2.734472 0.47008634 0
0.24091893 0.86624575 -0.19111955 0
0.27004528 0.97097212 -0.18982483 0
0.31015694 1.1151972 -0.19024067 0
0.36240315 1.3030531 -0.19007455 0
0.4421328 1.5897282 -0.19284865 0
0.54856569 1.9724172 -0.19109379 0
0.66092116 2.3764017 -0.1724384 0
0.66273135 2.38291 -0.11514608 0
0.65626037 2.3596432 -0.056945056 0
0.66122758 2.3775034 7.045002e-05 0
0.65849698 2.3676851 0.057279523 0
0.66069812 2.3755996 0.11493391 0
0.80987179 2.9119668 0.21147394 0
0.80779487 2.9044991 0.28157035 0
0.81160343 2.9181931 0.35417894 0
0.8113429 2.9172564 0.42571244 0
0.81203383 2.9197407 0.49825412 0
0.21975972 0.87512958 -0.19179478 0
0.24676785 0.98268169 -0.19083567 0
0.28063011 1.1175283 -0.18936977 0
0.32810584 1.3065867 -0.18932174 0
0.3987121 1.5877558 -0.19132769 0
0.49746993 1.9810303 -0.19065112 0
0.59534496 2.3707895 -0.17088643 0
0.59632212 2.3746808 -0.11398485 0
0.59410703 2.3658597 -0.056715153 0
0.59623313 2.3743265 6.9887712e-05 0
0.59511244 2.3698635 0.056950718 0
0.59521389 2.3702674 0.11391285 0
0.76832265 3.0596232 0.22071853 0
