# .PCD v0.7 - Point Cloud Data file format
VERSION 0.7
FIELDS x y z intensity
SIZE 4 4 4 4
TYPE F F F F
COUNT 1 1 1 1
WIDTH 1342
HEIGHT 1
VIEWPOINT 0 0 0 1 0 0 0
POINTS 1342
DATA ascii
-4.8516197 -9.1897717 -0.24161467 0
-0.40197292 -0.81028599 -0.1922653 0
-0.4536784 -0.91451252 -0.19228017 0
-0.51458925 -1.037295 -0.19030602 0
-0.60538954 -1.2203277 -0.19144186 0
-0.72318119 -1.4577688 -0.19018705 0
-0.90983236 -1.8340151 -0.19109498 0
-1.2167032 -2.4525971 -0.19139868 0
-1.8306555 -3.6901851 -0.19177334 0
-4.6189027 -9.3106575 -0.241651 0
-0.38419807 -0.82618588 -0.1936755 0
-0.42906356 -0.92266536 -0.19165644 0
-0.48905197 -1.0516654 -0.19061725 0
-0.57603133 -1.2387073 -0.19198331 0
-0.68789566 -1.4792621 -0.19066535 0
-0.86680615 -1.8639941 -0.19187804 0
-1.1545531 -2.4827697 -0.19141833 0
-1.7338825 -3.7285695 -0.19143294 0
-4.3821797 -9.4235106 -0.24163251 0
-0.36328486 -0.83574212 -0.19370461 0
-0.40735251 -0.93712032 -0.19246213 0
-0.46302757 -1.0652016 -0.19089174 0
-0.54398173 -1.2514379 -0.19176741 0
-0.65115708 -1.4979963 -0.19090097 0
-0.81631333 -1.8779407 -0.19113196 0
-1.0890541 -2.5053849 -0.19098191 0
-1.6392448 -3.7711065 -0.19143173 0
-4.1478925 -9.5422869 -0.24191667 0
-0.3344188 -0.82571918 -0.18936495 0
-0.37906131 -0.93594682 -0.19019569 0
-0.43719551 -1.079487 -0.19141337 0
-0.50842977 -1.2553728 -0.19034338 0
-0.61637443 -1.5219007 -0.19190367 0
-0.77831662 -1.9217548 -0.19353031 0
-1.0295539 -2.5420892 -0.19173798 0
-1.5460923 -3.8174829 -0.19174401 0
-3.8988643 -9.6267529 -0.24148643 0
-0.3173303 -0.84413999 -0.19169167 0
-0.35859451 -0.95390815 -0.19194534 0
-0.4076781 -1.0844768 -0.19041304 0
-0.475007 -1.2635806 -0.18970969 0
-0.57396686 -1.5268267 -0.19063744 0
-0.71834636 -1.9108949 -0.19055016 0
-0.96607137 -2.5698757 -0.19193359 0
-1.4440857 -3.8414564 -0.19105664 0
-3.6584146 -9.7318592 -0.24172983 0
-0.29531375 -0.85010153 -0.19129196 0
-0.3356528 -0.96622306 -0.19265735 0
-0.38105577 -1.0969218 -0.19084872 0
-0.4459604 -1.2837588 -0.19098848 0
-0.53855848 -1.550315 -0.19181192 0
-0.67389625 -1.9399036 -0.19168575 0
-0.89710212 -2.5824327 -0.19111952 0
-1.3503848 -3.8872697 -0.19157907 0
-3.4149978 -9.8305435 -0.2419631 0
-0.27316064 -0.85537112 -0.19086558 0
-0.3083699 -0.96562493 -0.19092543 0
-0.35259068 -1.1040972 -0.19048817 0
-0.41223416 -1.2908639 -0.190437 0
-0.49944618 -1.5639584 -0.19187921 0
-0.62482578 -1.95657 -0.19171329 0
-0.83029532 -2.5999744 -0.19080609 0
-1.2539321 -3.9265444 -0.19189383 0
-3.1592519 -9.8928347 -0.24145681 0
-0.25368124 -0.86949515 -0.1925272 0
-0.28791609 -0.98683548 -0.19362077 0
-0.32430598 -1.1115623 -0.19030333 0
-0.38058099 -1.3044455 -0.19096278 0
-0.46254495 -1.5853778 -0.19301337 0
-0.57493937 -1.970611 -0.19160621 0
-0.76934206 -2.6369281 -0.19203189 0
-1.1530231 -3.9519992 -0.19165461 0
-2.9095299 -9.9724455 -0.24153066 0
-0.22878806 -0.86475527 -0.19013853 0
-0.26072976 -0.98548609 -0.19200374 0
-0.29585156 -1.1182367 -0.19010709 0
-0.3472771 -1.312611 -0.19081424 0
-0.41893271 -1.5834492 -0.19143033 0
-0.5254631 -1.9861046 -0.1917621 0
-0.70069247 -2.648423 -0.19152011 0
-1.0548675 -3.9871063 -0.19200486 0
-2.6605422 -10.05611 -0.24185364 0
-0.21010001 -0.88372678 -0.19308248 0
-0.23519413 -0.98927814 -0.19152503 0
-0.26628622 -1.1200583 -0.18921395 0
-0.31434083 -1.3221866 -0.19099212 0
-0.37710384 -1.5861816 -0.19054934 0
-0.47435436 -1.9952385 -0.19142711 0
-0.63699764 -2.6793518 -0.19253281 0
-0.9483133 -3.9888139 -0.19087371 0
-2.406322 -10.121518 -0.24188904 0
-0.18623549 -0.88164377 -0.19153941 0
-0.21149424 -1.0012194 -0.19274206 0
-0.23920031 -1.1323807 -0.19021514 0
-0.28008178 -1.3259146 -0.19044887 0
-0.33795613 -1.5998933 -0.19111101 0
-0.42347673 -2.00475 -0.19125333 0
-0.56723517 -2.6853065 -0.19187084 0
-0.84562254 -4.0032001 -0.19048016 0
-2.1476543 -10.167052 -0.24160489 0
-0.16356732 -0.88409376 -0.19111392 0
-0.18627341 -1.006822 -0.19285414 0
-0.21113853 -1.1412197 -0.19074403 0
-0.24828747 -1.3420126 -0.19179994 0
-0.29726833 -1.6067579 -0.19097397 0
-0.37194216 -2.0103757 -0.19083366 0
-0.5002932 -2.7041225 -0.19225185 0
-0.94604146 -5.1134262 -0.2420937 0
-1.8896178 -10.213528 -0.24149907 0
-0.14195575 -0.8926369 -0.19212501 0
-0.16005766 -1.0064641 -0.19195066 0
-0.18294387 -1.1503756 -0.19144164 0
-0.21176226 -1.3315897 -0.18948609 0
-0.25749454 -1.6191603 -0.19161461 0
-0.32077327 -2.0170655 -0.19063948 0
-0.43065378 -2.708009 -0.19169435 0
-0.81520355 -5.1261096 -0.24164312 0
-1.6324923 -10.265331 -0.24167277 0
-0.11994218 -0.90008974 -0.19301608 0
-0.13519207 -1.0145303 -0.1927769 0
-0.15269877 -1.145907 -0.18999614 0
-0.17974587 -1.3488783 -0.1912398 0
-0.21667561 -1.6260124 -0.19171728 0
-0.26878166 -2.0170352 -0.18993498 0
-0.36306158 -2.724546 -0.19215512 0
-0.68522197 -5.1421547 -0.24150734 0
-1.3705485 -10.285093 -0.24124683 0
-0.096749716 -0.89870381 -0.19213407 0
-0.10750931 -0.99864918 -0.18918338 0
-0.12476755 -1.1589602 -0.19157727 0
-0.14505874 -1.3474442 -0.19045678 0
-0.17542709 -1.6295345 -0.19154951 0
-0.21869352 -2.0314345 -0.1907104 0
-0.29275247 -2.7193646 -0.19120769 0
-0.55668032 -5.170979 -0.24212411 0
-1.1135049 -10.343298 -0.24187583 0
-0.074056447 -0.90101337 -0.19216704 0
-0.084334292 -1.0260596 -0.19391102 0
-0.094963036 -1.155375 -0.19052777 0
-0.1109339 -1.3496858 -0.19031726 0
-0.1345419 -1.6369144 -0.19195671 0
-0.16700307 -2.0318556 -0.19029364 0
-0.22492835 -2.736608 -0.19195983 0
-0.42516774 -5.1728358 -0.24163166 0
-0.85121655 -10.356391 -0.24160269 0
-0.0508742 -0.89511347 -0.19057417 0
-0.058615454 -1.0313181 -0.19456325 0
-0.066317484 -1.1668326 -0.19208001 0
-0.076907039 -1.353152 -0.19047165 0
-0.081822522 -1.4396381 -0.1685268 0
-0.082201347 -1.4463035 -0.13521633 0
-0.082048371 -1.443612 -0.10108496 0
-0.081903063 -1.4410553 -0.067196101 0
-0.082646467 -1.4541352 -0.033863854 0
-0.081418023 -1.4325212 4.0962168e-05 0
-0.028310901 -0.89730018 -0.19082682 0
-0.032363769 -1.0257539 -0.19329789 0
-0.036397725 -1.1536081 -0.18969139 0
-0.042011 -1.3315181 -0.18721756 0
-0.041753482 -1.3233562 -0.15474197 0
-0.041598335 -1.3184389 -0.12312477 0
-0.04153619 -1.3164692 -0.092079401 0
-0.041938975 -1.3292353 -0.061912883 0
-0.041680783 -1.3210521 -0.030730333 0
-0.041734338 -1.3227494 3.7781152e-05 0
-0.0056521613 -0.8961485 -0.1904909 0
-0.0064540468 -1.0232872 -0.19274099 0
-0.0073230136 -1.1610616 -0.19082585 0
-0.0076984391 -1.2205852 -0.17153794 0
-0.0077149621 -1.223205 -0.14296284 0
-0.0077195587 -1.2239337 -0.11424466 0
-0.007690819 -1.219377 -0.085247643 0
-0.0076987301 -1.2206314 -0.056827199 0
-0.0076443432 -1.2120084 -0.028180296 0
-0.0076758368 -1.2170017 3.4744124e-05 0
0.017185559 -0.90790403 -0.19302046 0
0.019368112 -1.0232072 -0.19275659 0
0.02208258 -1.1666111 -0.19176845 0
0.02295406 -1.2126509 -0.17045002 0
0.022844115 -1.2068425 -0.14107294 0
0.022946117 -1.2122313 -0.11317036 0
0.022897249 -1.2096496 -0.084581062 0
0.022746166 -1.2016679 -0.055953257 0
0.023158126 -1.2234316 -0.028450424 0
0.023052461 -1.2178494 3.4773864e-05 0
0.039799627 -0.90066922 -0.19163488 0
0.044355787 -1.0037755 -0.18924659 0
0.051173784 -1.1580675 -0.19051568 0
0.053659298 -1.2143148 -0.17081986 0
0.053700071 -1.2152375 -0.14216742 0
0.053791527 -1.2173072 -0.11373474 0
0.053822353 -1.2180048 -0.085233115 0
0.053151641 -1.2028265 -0.056051817 0
0.053601943 -1.2130169 -0.028230706 0
0.053393163 -1.2082922 3.4528457e-05 0
0.062638417 -0.90120113 -0.19202326 0
0.070435382 -1.0133787 -0.19133139 0
0.08075089 -1.1617917 -0.1914027 0
0.083674982 -1.2038616 -0.16959246 0
0.083391592 -1.1997844 -0.14056106 0
0.084482312 -1.2154769 -0.11372675 0
0.08360707 -1.2028846 -0.084295854 0
0.083858177 -1.2064973 -0.056303576 0
0.084278673 -1.2125472 -0.028260279 0
0.08381287 -1.2058455 3.4507997e-05 0
0.084972933 -0.89529073 -0.19116001 0
0.09652774 -1.0170344 -0.19242029 0
0.11037443 -1.1629257 -0.19198734 0
0.11458597 -1.2072992 -0.17042987 0
0.11613523 -1.2236226 -0.14365149 0
0.11436544 -1.2049757 -0.11297829 0
0.11569016 -1.2189332 -0.085597873 0
0.11543214 -1.2162148 -0.056874905 0
0.11372618 -1.1982403 -0.027984822 0
0.11488383 -1.2104375 3.4711335e-05 0
0.10815165 -0.89798236 -0.19225632 0
0.12249224 -1.0170522 -0.19294712 0
0.1394396 -1.1577659 -0.19165546 0
0.14531802 -1.2065743 -0.1707909 0
0.14600006 -1.2122372 -0.14270203 0
0.14540575 -1.2073028 -0.11350443 0
0.14633684 -1.2150337 -0.085556149 0
0.14602262 -1.2124246 -0.056851909 0
0.14593177 -1.2116703 -0.028375462 0
0.14660971 -1.2172993 3.5003071e-05 0
0.1291156 -0.88361686 -0.18981794 0
0.14650947 -1.0026537 -0.19085629 0
0.16885278 -1.1555626 -0.19193511 0
0.17578533 -1.2030064 -0.17085946 0
0.17765687 -1.2158145 -0.14360523 0
0.17662171 -1.2087302 -0.11402141 0
0.17704234 -1.2116089 -0.085602373 0
0.17593566 -1.2040352 -0.056648694 0
0.17748636 -1.2146475 -0.028541001 0
0.17853189 -1.2218027 3.5250905e-05 0
0.15202764 -0.8839072 -0.19064386 0
0.17311992 -1.0065403 -0.19236657 0
0.19590096 -1.1389921 -0.18994354 0
0.20749487 -1.2064005 -0.17203052 0
0.20906037 -1.2155025 -0.1441457 0
0.20801444 -1.2094213 -0.11454537 0
0.20947403 -1.2179075 -0.086393401 0
0.20977762 -1.2196727 -0.05761518 0
0.20619893 -1.1988658 -0.028283449 0
0.20709403 -1.2040699 3.4878984e-05 0
0.17480682 -0.88244402 -0.19121896 0
0.19726458 -0.99581325 -0.19120708 0
0.22567047 -1.1392093 -0.19086882 0
0.23970683 -1.2100664 -0.17336078 0
0.24103917 -1.2167922 -0.14497393 0
0.2400621 -1.2118598 -0.11531345 0
0.23839654 -1.2034519 -0.085767485 0
0.24006581 -1.2118785 -0.057514902 0
0.23982711 -1.2106736 -0.028695682 0
0.23864073 -1.2046845 3.5060097e-05 0
0.1949704 -0.86863846 -0.18923345 0
0.22022475 -0.98115253 -0.18939899 0
0.25369507 -1.1302706 -0.19038334 0
0.27044019 -1.204874 -0.1735395 0
0.27226764 -1.2130157 -0.14529645 0
0.26902121 -1.1985521 -0.11465674 0
0.27261186 -1.2145493 -0.087021016 0
0.27203551 -1.2119815 -0.057827223 0
0.27151299 -1.2096535 -0.028824747 0
0.27018675 -1.2037449 3.5219993e-05 0
0.21985339 -0.87550265 -0.19187655 0
0.24723111 -0.98452652 -0.19119394 0
0.28311637 -1.1274291 -0.1910475 0
0.30128875 -1.1997954 -0.17384791 0
0.30348951 -1.2085594 -0.14563377 0
0.30340618 -1.2082275 -0.11627784 0
0.304957 -1.2144032 -0.087534137 0
0.30212006 -1.2031059 -0.057749175 0
0.30240157 -1.204227 -0.028868116 0
0.30418324 -1.2113219 3.5654964e-05 0
0.24203691 -0.87026548 -0.19200642 0
0.27419361 -0.98588777 -0.19274084 0
0.31029767 -1.1157032 -0.19032697 0
0.33757985 -1.2137988 -0.17705514 0
0.33772346 -1.2143152 -0.14730759 0
0.33894765 -1.2187169 -0.11807299 0
0.33524889 -1.2054175 -0.08746849 0
0.33834848 -1.2165624 -0.058786269 0
0.33593515 -1.207885 -0.02914978 0
0.33656657 -1.2101554 3.5859241e-05 0
0.26098809 -0.85429269 -0.1898752 0
0.29647037 -0.97043693 -0.19112219 0
0.34118626 -1.1168056 -0.19192289 0
0.37029657 -1.2120924 -0.17811279 0
0.37052333 -1.2128346 -0.14821523 0
0.37087834 -1.2139968 -0.11848485 0
0.36897656 -1.2077717 -0.088286944 0
0.36706284 -1.2015074 -0.058487825 0
0.37002218 -1.2111942 -0.029445639 0
0.37161189 -1.2163979 3.6310576e-05 0
0.2871286 -0.86144358 -0.19301377 0
0.31755337 -0.95272404 -0.18915196 0
0.36805782 -1.1042476 -0.19130026 0
0.42911473 -1.2874306 -0.19071424 0
0.51826096 -1.5548872 -0.19155347 0
0.64802265 -1.9441984 -0.19128716 0
0.86361027 -2.5910046 -0.19093247 0
1.3017223 -3.9054289 -0.1916495 0
3.2872863 -9.8625202 -0.24171023 0
0.30980858 -0.85679084 -0.19366159 0
0.34561533 -0.95581615 -0.19143675 0
0.3944515 -1.0908749 -0.19064757 0
0.46138802 -1.2759912 -0.19068398 0
0.55844986 -1.5444205 -0.19193931 0
0.69499964 -1.9220555 -0.19077364 0
0.93290865 -2.5800047 -0.19179589 0
1.4040411 -3.8829443 -0.19222386 0
3.5344021 -9.7745628 -0.24166383 0
0.32791236 -0.83995306 -0.19166535 0
0.37091497 -0.95010495 -0.19210668 0
0.42210558 -1.0812305 -0.19076319 0
0.4910292 -1.2577796 -0.18975402 0
0.59600157 -1.5266681 -0.19154152 0
0.74747801 -1.9146776 -0.19185275 0
0.99870932 -2.5582108 -0.19198844 0
1.4956727 -3.8311908 -0.19146962 0
3.7798936 -9.6822615 -0.24166352 0
0.34325051 -0.81771338 -0.18850739 0
0.3963834 -0.94428998 -0.19289231 0
0.45112377 -1.0746959 -0.19155812 0
0.52429992 -1.2490209 -0.19036838 0
0.63113254 -1.5035244 -0.19057567 0
0.79207045 -1.8869209 -0.19101381 0
1.0612696 -2.5282245 -0.19168717 0
1.5942055 -3.7978184 -0.19175158 0
4.0227304 -9.5832062 -0.24164833 0
0.36997667 -0.82258552 -0.19172217 0
0.41658482 -0.92621154 -0.19128622 0
0.47925973 -1.0655594 -0.19202447 0
0.5564428 -1.2371639 -0.19064102 0
0.67707884 -1.5053794 -0.19291542 0
0.83933049 -1.8661208 -0.19099182 0
1.1222923 -2.4952421 -0.19127318 0
1.6902238 -3.7579496 -0.1918314 0
4.2646313 -9.4817448 -0.24172701 0
0.39059332 -0.81294674 -0.19171225 0
0.43827808 -0.9121936 -0.190615 0
0.5083738 -1.0580847 -0.19292827 0
0.58787495 -1.2235515 -0.19076902 0
0.70772612 -1.4729992 -0.19099411 0
0.8893652 -1.8510469 -0.19168536 0
1.1876382 -2.4718461 -0.19171642 0
1.7861831 -3.7176051 -0.19201207 0
4.5010018 -9.3679914 -0.24164617 0
0.41221422 -0.80524307 -0.19228779 0
0.4677209 -0.91367304 -0.19332935 0
0.52710277 -1.0296731 -0.19011295 0
0.61726844 -1.2058079 -0.19037095 0
0.74353963 -1.4524733 -0.19070521 0
0.94056922 -1.8373623 -0.1926652 0
1.2488908 -2.4396553 -0.19160345 0
1.8785864 -3.6697392 -0.19192758 0
4.7380471 -9.2555752 -0.24175406 0
0.4316259 -0.7931636 -0.19194353 0
0.48593515 -0.89296323 -0.19148138 0
0.55858368 -1.0264634 -0.19206218 0
0.65373021 -1.2013065 -0.19220398 0
0.78017116 -1.4336566 -0.19075921 0
0.98752648 -1.8146966 -0.19284061 0
1.3182235 -2.4223912 -0.19279915 0
1.9743178 -3.628042 -0.19229168 0
4.9698777 -9.1327372 -0.24174492 0
0.45298588 -0.78459299 -0.19257487 0
0.5099771 -0.88330442 -0.19210908 0
0.58100933 -1.0063356 -0.19097905 0
0.6831007 -1.1831627 -0.19199836 0
0.81855941 -1.4177836 -0.19133519 0
1.0190411 -1.7650273 -0.19023499 0
1.3757463 -2.3828576 -0.19235498 0
2.5949585 -4.4945908 -0.24161442 0
5.1954465 -8.9987593 -0.24159254 0
0.46804109 -0.76539695 -0.19070199 0
0.53058165 -0.86767071 -0.19156039 0
0.61132568 -0.99971312 -0.19258903 0
0.70683509 -1.1559016 -0.19040887 0
0.85334355 -1.3954897 -0.19117224 0
1.0701884 -1.7501005 -0.19147639 0
1.4318794 -2.3415811 -0.19187915 0
2.7087944 -4.4297457 -0.24172677 0
5.4227953 -8.8680058 -0.24167967 0
0.48550156 -0.75071204 -0.19003569 0
0.55142736 -0.85265052 -0.19125603 0
0.63371378 -0.97988677 -0.19178975 0
0.74288952 -1.148701 -0.19225013 0
0.88812929 -1.3732796 -0.1911395 0
1.1186359 -1.7297028 -0.19227245 0
1.4864092 -2.2983763 -0.19135202 0
2.8233206 -4.3655901 -0.24203727 0
5.649117 -8.7350082 -0.24186374 0
0.50767744 -0.7431848 -0.19131289 0
0.57471466 -0.84132004 -0.19190703 0
0.66183746 -0.96885848 -0.19283924 0
0.76410902 -1.118573 -0.19037484 0
0.92056936 -1.3476139 -0.19074035 0
1.1627747 -1.7021765 -0.19241358 0
1.5485761 -2.266948 -0.19192833 0
2.9294846 -4.2884483 -0.24178262 0
5.8644047 -8.5848541 -0.24172746 0
0.52395838 -0.72693598 -0.19047362 0
0.59480065 -0.82522196 -0.19159833 0
0.68027878 -0.94381374 -0.19121088 0
0.80223948 -1.1130211 -0.19281459 0
0.95119363 -1.3196789 -0.19012387 0
1.2019807 -1.6676191 -0.1918754 0
1.6057658 -2.2278275 -0.19198637 0
3.0420418 -4.2205062 -0.24220364 0
6.0778174 -8.4323187 -0.24167478 0
0.54757047 -0.72064078 -0.19238406 0
0.61700439 -0.81202066 -0.19208771 0
0.70808667 -0.93189126 -0.19235484 0
0.82663536 -1.0879096 -0.19201753 0
0.98421609 -1.2952968 -0.19012938 0
1.2456471 -1.6393582 -0.19217986 0
1.6575806 -2.1814914 -0.19153751 0
3.1439004 -4.1375914 -0.24192198 0
6.2893739 -8.2772532 -0.24170305 0
0.56715232 -0.70856172 -0.19291936 0
0.64297169 -0.8032853 -0.19379841 0
0.73221546 -0.91478044 -0.19257623 0
0.85275167 -1.0653702 -0.19177701 0
1.0218345 -1.2766109 -0.19111128 0
1.2774693 -1.5959837 -0.19081405 0
1.7167572 -2.1448002 -0.19205919 0
3.2486701 -4.0586686 -0.24202442 0
6.4973502 -8.1173496 -0.24174529 0
0.58143175 -0.68997061 -0.19179198 0
0.6525538 -0.77436942 -0.19073495 0
0.75181526 -0.89216048 -0.19174784 0
0.8822307 -1.0469213 -0.19240294 0
1.0501373 -1.2461717 -0.19046162 0
1.3244268 -1.5716643 -0.19184187 0
1.7647809 -2.0942216 -0.19145761 0
3.3480659 -3.9730666 -0.24188179 0
6.6947794 -7.9445281 -0.24155368 0
0.59877795 -0.67521918 -0.19183128 0
0.67733365 -0.76380348 -0.19228198 0
0.78066289 -0.88032395 -0.193377 0
0.91062146 -1.0268734 -0.19288097 0
1.0881361 -1.2270498 -0.19167547 0
1.3753241 -1.5509008 -0.19348285 0
1.8231158 -2.0558586 -0.19209586 0
3.4445183 -3.8842528 -0.24169052 0
6.9023094 -7.783473 -0.24187653 0
0.61980873 -0.66438246 -0.19313534 0
0.69212896 -0.74190354 -0.19110556 0
0.79351085 -0.85057634 -0.19118094 0
0.93269926 -0.99977452 -0.19215138 0
1.1208524 -1.2014587 -0.19203579 0
1.3970232 -1.4974904 -0.19115753 0
1.8661302 -2.0003333 -0.19124766 0
3.5424488 -3.797205 -0.24176037 0
7.0934424 -7.603569 -0.24177243 0
0.63283634 -0.64492685 -0.19206156 0
0.71382791 -0.72746575 -0.19196622 0
0.82636482 -0.84215271 -0.1939137 0
0.95411903 -0.97234768 -0.19144738 0
1.1443224 -1.166185 -0.19095328 0
1.4295155 -1.4568267 -0.1905117 0
1.9085106 -1.9449731 -0.19049945 0
3.6317933 -3.7011795 -0.24140576 0
7.2823749 -7.4215064 -0.24175069 0
0.65129197 -0.63106537 -0.19276744 0
0.72221851 -0.69978917 -0.18941259 0
0.84181809 -0.81567448 -0.19264773 0
0.9765203 -0.94619334 -0.19108962 0
1.1797462 -1.1431078 -0.19198895 0
1.47688 -1.4310138 -0.19194949 0
1.9672021 -1.9061083 -0.19149484 0
3.7327142 -3.6167905 -0.24196926 0
7.460978 -7.2292686 -0.24154575 0
0.65598321 -0.60427684 -0.18958151 0
0.7538842 -0.69446099 -0.19305906 0
0.86201251 -0.79406631 -0.19262138 0
1.0053569 -0.92611194 -0.19209737 0
1.2087759 -1.1134969 -0.1920785 0
1.5091985 -1.3902394 -0.19152851 0
2.5466745 -2.3459387 -0.24206214 0
3.8205066 -3.5193636 -0.24182528 0
7.6522789 -7.0491056 -0.24190216 0
0.67830938 -0.59391505 -0.19164072 0
0.76691902 -0.67149997 -0.19199581 0
0.87409025 -0.76533711 -0.19094308 0
1.0233699 -0.8960436 -0.19115712 0
1.2236185 -1.0713775 -0.19007969 0
1.5324301 -1.3417672 -0.19011852 0
2.6110919 -2.2862234 -0.24262317 0
3.9069757 -3.4208751 -0.24175651 0
7.8303542 -6.856112 -0.24198423 0
0.69105011 -0.57492399 -0.19107985 0
0.79068208 -0.65781355 -0.19372673 0
0.90154225 -0.75004447 -0.19274323 0
1.0471901 -0.87121719 -0.19143826 0
1.2471092 -1.0375413 -0.18960053 0
1.5550766 -1.293757 -0.18881693 0
2.6615412 -2.214288 -0.24204087 0
3.99209 -3.3212476 -0.2417593 0
7.9860601 -6.6440592 -0.24153697 0
0.7069087 -0.55854774 -0.19150592 0
0.79070139 -0.62475461 -0.18980761 0
0.92194605 -0.72845459 -0.19311324 0
1.0656627 -0.84200907 -0.19086948 0
1.282689 -1.0134873 -0.19106007 0
1.599444 -1.2637641 -0.19027059 0
2.7212021 -2.1500957 -0.24245425 0
4.0743208 -3.2192316 -0.2417417 0
8.1488819 -6.438653 -0.24146967 0
0.72764593 -0.54568565 -0.19333112 0
0.81601906 -0.61195958 -0.19211631 0
0.94002128 -0.7049529 -0.19311099 0
1.0956566 -0.82166904 -0.19246599 0
1.3043013 -0.97813851 -0.19054137 0
1.6164423 -1.2122233 -0.18859303 0
2.7748435 -2.0809467 -0.24247685 0
4.1502657 -3.1124208 -0.24150994 0
8.3119173 -6.2333808 -0.24156196 0
0.74201041 -0.52774161 -0.19354708 0
0.81993014 -0.58316058 -0.18951157 0
0.9529767 -0.67778754 -0.19219698 0
1.1143253 -0.79254383 -0.19217038 0
1.3210888 -0.93960065 -0.18946907 0
1.6801744 -1.1949939 -0.19244859 0
2.8095374 -1.998233 -0.2410247 0
4.2328162 -3.0105145 -0.24181515 0
8.4710608 -6.0248899 -0.2416908 0
0.746032 -0.50274801 -0.19122539 0
0.8527171 -0.57464272 -0.1936758 0
0.96714061 -0.65175223 -0.19167496 0
1.1367971 -0.76608306 -0.19264996 0
1.3412453 -0.90385991 -0.18902795 0
1.6912693 -1.1397396 -0.19036391 0
2.8688998 -1.9333403 -0.24185419 0
4.3061538 -2.9019003 -0.2417437 0
8.6193924 -5.8085747 -0.24166316 0
0.76597357 -0.48854476 -0.19311482 0
0.86077237 -0.54900825 -0.19229695 0
0.98174965 -0.62616867 -0.19137722 0
1.1500223 -0.7334944 -0.19169284 0
1.3708695 -0.87435281 -0.19003241 0
1.7307367 -1.1038793 -0.19160931 0
2.9210038 -1.8630421 -0.24220555 0
4.367557 -2.7856667 -0.24116701 0
8.7750816 -5.5968251 -0.2419907 0
0.76964748 -0.46399364 -0.19102776 0
0.88117462 -0.5312295 -0.19379783 0
0.9918558 -0.59795529 -0.19034472 0
1.164984 -0.70232826 -0.1911712 0
1.402395 -0.84545511 -0.1913836 0
1.7551444 -1.0581154 -0.19129395 0
2.9568751 -1.7825969 -0.24137248 0
4.4529533 -2.6845303 -0.24206403 0
8.9035664 -5.3676496 -0.24172096 0
0.77729768 -0.44225818 -0.19009556 0
0.8924039 -0.50775003 -0.19338746 0
1.0089736 -0.57407457 -0.19078845 0
1.1871063 -0.67542654 -0.1919429 0
1.4164734 -0.8059293 -0.19046831 0
1.782519 -1.0141978 -0.19142671 0
3.017766 -1.7170149 -0.24272823 0
4.5160003 -2.5694637 -0.24188896 0
9.0263615 -5.1357183 -0.24145876 0
0.79654485 -0.42697379 -0.19210598 0
0.89886749 -0.48182204 -0.1920917 0
1.018169 -0.54577148 -0.18986207 0
1.2053293 -0.64609545 -0.19219153 0
1.4544983 -0.77965808 -0.19287395 0
1.8190472 -0.97506815 -0.19264531 0
3.0480988 -1.6338795 -0.24177414 0
4.5828562 -2.4565592 -0.24207191 0
9.1711998 -4.9160595 -0.24193712 0
0.80835098 -0.40738875 -0.19241227 0
0.91244346 -0.45984876 -0.19245139 0
1.0504047 -0.52937776 -0.19332014 0
1.2212409 -0.615475 -0.19219053 0
1.4655811 -0.73861629 -0.19181049 0
1.8320206 -0.9232927 -0.19149037 0
3.0922921 -1.5584381 -0.24208252 0
4.6382408 -2.3375578 -0.24180406 0
9.2846718 -4.6792431 -0.24173805 0
0.81947184 -0.38738328 -0.19267076 0
0.92773402 -0.43856129 -0.19328026 0
1.0436823 -0.49337274 -0.18973076 0
1.2294202 -0.58117533 -0.19110848 0
1.4810849 -0.7001431 -0.1914659 0
1.8607761 -0.87963188 -0.19211428 0
3.1282094 -1.4787768 -0.24189545 0
4.6985402 -2.2211087 -0.2419481 0
9.3931704 -4.4403687 -0.24156812 0
0.82884264 -0.36652091 -0.19263767 0
0.92518383 -0.40912378 -0.19053705 0
1.0649943 -0.47094908 -0.19138332 0
1.2448257 -0.55047202 -0.19128263 0
1.51201 -0.66862303 -0.19322063 0
1.8737121 -0.8285706 -0.19122988 0
3.171535 -1.4024785 -0.24243134 0
4.7421427 -2.097014 -0.24139109 0
9.4974422 -4.1998458 -0.24144681 0
0.85093713 -0.35089812 -0.19565214 0
0.93842244 -0.38697416 -0.19119115 0
1.0772297 -0.44421369 -0.19150634 0
1.2525518 -0.51651067 -0.19040602 0
1.5244046 -0.62861371 -0.1927157 0
1.896383 -0.78200519 -0.19146834 0
3.2028718 -1.3207576 -0.24220149 0
4.8053236 -1.9815555 -0.24198435 0
9.6166725 -3.9655955 -0.24185644 0
0.83934057 -0.321585 -0.19105877 0
0.95319206 -0.36520606 -0.19226111 0
1.0752896 -0.41198653 -0.18925261 0
1.2574139 -0.48176563 -0.18923648 0
1.5187573 -0.58189678 -0.19008456 0
1.9123371 -0.73269296 -0.19115117 0
3.2294221 -1.237321 -0.24177073 0
4.8462424 -1.8567896 -0.24160804 0
9.7135515 -3.7216506 -0.24185355 0
0.84451419 -0.29935768 -0.19045593 0
0.96418577 -0.34177807 -0.19267729 0
1.0871034 -0.38534907 -0.18955971 0
1.2782993 -0.45312294 -0.19059785 0
1.5496558 -0.54931152 -0.19215536 0
1.9397389 -0.68758559 -0.19209436 0
3.258579 -1.1550791 -0.24169403 0
4.8990636 -1.7365869 -0.24197924 0
9.8061562 -3.4760201 -0.24189785 0
0.85757256 -0.27983865 -0.19174698 0
0.9698894 -0.31648934 -0.19215964 0
1.102459 -0.35974875 -0.19059336 0
1.2911407 -0.42131838 -0.19086623 0
1.5518074 -0.50637782 -0.19077663 0
1.9646592 -0.64109749 -0.19289842 0
3.2834628 -1.0714427 -0.24145706 0
4.9425015 -1.6128117 -0.24203712 0
9.8881826 -3.226661 -0.24183537 0
0.87077212 -0.2600269 -0.1931694 0
0.9805091 -0.29279616 -0.19273816 0
1.1143885 -0.33277479 -0.19114287 0
1.3017038 -0.3887102 -0.19091666 0
1.5582488 -0.46531874 -0.19006419 0
1.9558499 -0.58404899 -0.19052549 0
3.3081338 -0.9878633 -0.24136096 0
4.9790425 -1.4868242 -0.24191184 0
9.9591627 -2.9739702 -0.24165864 0
0.86385983 -0.23439324 -0.19026305 0
0.97503066 -0.26455751 -0.19028814 0
1.1098747 -0.30114508 -0.18900478 0
1.3075668 -0.35478535 -0.19040261 0
1.5779632 -0.42815268 -0.19108991 0
1.9613496 -0.53217787 -0.18969241 0
3.3360152 -0.90516937 -0.24165142 0
5.0076108 -1.3587275 -0.24155678 0
10.027418 -2.7207644 -0.24157166 0
0.87377083 -0.21356677 -0.19119786 0
0.99779093 -0.24387972 -0.19346718 0
1.1300091 -0.27619642 -0.19118555 0
1.3230515 -0.32337978 -0.19140799 0
1.5733882 -0.38456699 -0.18930019 0
1.9623721 -0.4796423 -0.18856046 0
3.3574915 -0.82063687 -0.24162981 0
5.0328121 -1.2301183 -0.241198 0
10.100797 -2.4688332 -0.2417613 0
0.88035005 -0.19177267 -0.19151741 0
0.99689978 -0.21716149 -0.19217046 0
1.1314062 -0.24646194 -0.1903089 0
1.3280194 -0.28929153 -0.19100957 0
1.5870038 -0.34570786 -0.18982811 0
1.9811144 -0.43155968 -0.18925449 0
3.3865535 -0.73771608 -0.24230419 0
5.0653996 -1.1034306 -0.24134821 0
10.150546 -2.2111628 -0.24153939 0
0.88649601 -0.16980362 -0.191861 0
0.99947512 -0.19144417 -0.19167444 0
1.1411633 -0.21858381 -0.19096133 0
1.3357321 -0.25585243 -0.19112925 0
1.6105273 -0.30848798 -0.19164951 0
2.5466964 -0.4878062 -0.24203093 0
3.3949451 -0.65028381 -0.24165337 0
5.1084881 -0.97850388 -0.24214742 0
10.206049 -1.9549146 -0.24160908 0
0.88521606 -0.1465082 -0.19072299 0
1.0003759 -0.1655678 -0.19098499 0
1.1448174 -0.18947366 -0.19071181 0
1.3543911 -0.22415927 -0.19292817 0
1.6232607 -0.2686587 -0.19229664 0
2.5488229 -0.42184442 -0.24114439 0
3.4158001 -0.56533396 -0.24204512 0
5.1150699 -0.84657258 -0.24136971 0
10.247809 -1.6960696 -0.24150741 0
0.90113169 -0.12587285 -0.19340599 0
1.0078599 -0.14078099 -0.19167441 0
1.1489365 -0.16048698 -0.19066252 0
1.3339902 -0.18633586 -0.18929195 0
1.6248797 -0.22696821 -0.19174877 0
2.5607424 -0.35769239 -0.24134111 0
3.4290087 -0.47897452 -0.24204738 0
5.1389027 -0.71781772 -0.2415625 0
10.295502 -1.4381075 -0.24169901 0
0.89473069 -0.10203689 -0.19141848 0
1.0146258 -0.11570997 -0.19234446 0
1.1567005 -0.13191245 -0.19133751 0
1.3452202 -0.15341163 -0.19027545 0
1.631518 -0.18606161 -0.19191685 0
2.5810122 -0.29434386 -0.24247412 0
3.4341166 -0.3916336 -0.24163325 0
5.1499009 -0.58730507 -0.24130587 0
10.328057 -1.1778325 -0.24168842 0
0.8959024 -0.079330489 -0.19117992 0
1.0066056 -0.089133054 -0.190337 0
1.1300493 -0.10006377 -0.18645184 0
1.1282933 -0.09990827 -0.15918474 0
1.630676 -0.14439332 -0.1913282 0
2.5682774 -0.22741619 -0.24066187 0
3.4511988 -0.30559725 -0.24221538 0
5.1798749 -0.45866829 -0.24209084 0
10.376335 -0.91880512 -0.24219838 0
0.90081519 -0.056902651 -0.19186071 0
1.0194268 -0.064395107 -0.19239274 0
1.1286393 -0.071293838 -0.18586312 0
1.1297047 -0.071361132 -0.1590791 0
1.6391041 -0.10353886 -0.19194934 0
2.5827644 -0.16314794 -0.2415566 0
3.4468603 -0.2177311 -0.24144831 0
5.1933088 -0.32805067 -0.24225457 0
10.378422 -0.65558368 -0.24178389 0
0.90069544 -0.034108046 -0.19159085 0
1.0139482 -0.038396768 -0.19111502 0
1.1396446 -0.043156713 -0.18743639 0
1.1150604 -0.042225741 -0.15681696 0
1.6415808 -0.062164314 -0.19199449 0
2.5916948 -0.098143771 -0.24208307 0
3.4617152 -0.13109019 -0.24217999 0
5.1901784 -0.19654463 -0.24180016 0
10.368909 -0.3926557 -0.24125455 0
0.9097181 -0.011478365 -0.19338688 0
1.0062349 -0.012696165 -0.1895404 0
1.1446606 -0.014442752 -0.18814149 0
1.1301771 -0.014260007 -0.15884171 0
1.1342953 -0.014311967 -0.1325794 0
1.1260316 -0.014207701 -0.10511255 0
1.121004 -0.014144265 -0.078374989 0
1.1387012 -0.014367559 -0.053016059 0
1.1162128 -0.014083812 -0.025954513 0
1.1438483 -0.014432502 3.2657623e-05 0
1.1323687 -0.014287658 0.026394868 0
1.1361645 -0.014335552 0.052962974 0
1.1258843 -0.01420584 0.078780793 0
1.1308737 -0.014268795 0.10562968 0
1.1260167 -0.014207512 0.13167694 0
1.127048 -0.014220525 0.15846755 0
1.1320422 -0.014283539 0.18613386 0
1.1201707 -0.01413375 0.21106829 0
0.90643722 0.011436969 -0.19268945 0
1.0139837 0.012793936 -0.19100003 0
1.1389014 0.014370085 -0.18719488 0
1.1268582 0.014218131 -0.15837526 0
1.6487759 0.020803424 -0.19271322 0
2.5836964 0.032599781 -0.2411823 0
3.4514596 0.043548781 -0.24130878 0
5.1873398 0.065451242 -0.24151403 0
10.39626 0.13117477 -0.24173692 0
0.90726161 0.034356698 -0.19298756 0
1.0246259 0.038801115 -0.19312762 0
1.1259807 0.042639278 -0.18518908 0
1.1405531 0.043191113 -0.16040213 0
1.6377542 0.062019404 -0.19154693 0
2.5918431 0.098149382 -0.24209692 0
3.4528518 0.13075456 -0.24155991 0
5.1914353 0.19659223 -0.24185871 0
10.39338 0.39358243 -0.24182394 0
0.89964926 0.056829002 -0.19161239 0
1.0168556 0.064232692 -0.1919075 0
1.1343745 0.071656115 -0.18680757 0
1.1296614 0.071358398 -0.15907301 0
1.6414871 0.10368939 -0.19222839 0
2.5903625 0.16362789 -0.24226722 0
3.452585 0.21809272 -0.2418493 0
5.1978569 0.328338 -0.24246673 0
10.367477 0.65489239 -0.24152893 0
0.90085781 0.079769284 -0.19223738 0
1.0122706 0.089634679 -0.19140817 0
1.1564136 0.10239826 -0.19080177 0
1.3429966 0.11891984 -0.18947604 0
1.6355915 0.14482857 -0.19190493 0
2.5791516 0.22837906 -0.24168083 0
3.4375463 0.30438831 -0.24125719 0
5.1720433 0.45797482 -0.24172482 0
10.359729 0.91733468 -0.24181077 0
0.89554697 0.10212999 -0.19159313 0
1.0116478 0.11537036 -0.19177993 0
1.1595105 0.13223292 -0.19180232 0
1.3449084 0.15337606 -0.19023134 0
1.6305374 0.18594977 -0.1918015 0
2.5696788 0.29305136 -0.24140939 0
3.4333296 0.39154384 -0.24157788 0
5.1662912 0.58917427 -0.24207386 0
10.331623 1.1782392 -0.24177188 0
0.89483416 0.12499319 -0.19205438 0
1.0116396 0.14130893 -0.19239321 0
1.1471765 0.16024116 -0.19037046 0
1.3432782 0.18763323 -0.1906099 0
1.6242392 0.22687873 -0.19167317 0
2.5626895 0.35796437 -0.24152464 0
3.4296923 0.47906998 -0.24209562 0
5.1488128 0.71920204 -0.24202836 0
10.306603 1.439658 -0.24195962 0
0.87751126 0.14523301 -0.18906295 0
1.001129 0.16569243 -0.19112876 0
1.1432829 0.1892197 -0.1904562 0
1.3339521 0.22077651 -0.19001672 0
1.6234292 0.26868659 -0.19231661 0
2.5532684 0.42258015 -0.24156497 0
3.4120762 0.56471765 -0.24178122 0
5.1267376 0.84850371 -0.24192031 0
10.262013 1.6984204 -0.24184214 0
0.88396925 0.16931963 -0.19131415 0
1.0030112 0.19212149 -0.19235258 0
1.1411394 0.21857922 -0.19095732 0
1.3263173 0.25404906 -0.1897821 0
1.3556823 0.25967374 -0.16132347 0
1.3392591 0.25652799 -0.12727946 0
1.3334767 0.25542039 -0.094917327 0
1.33815 0.25631556 -0.063429639 0
1.3502944 0.25864175 -0.031965692 0
1.3355726 0.25582185 3.8821596e-05 0
0.87714791 0.19107512 -0.1908208 0
1.001298 0.21811956 -0.19301829 0
1.1388171 0.2480763 -0.19155546 0
1.2074366 0.26302415 -0.1736661 0
1.1947789 0.26026687 -0.14291248 0
1.1947997 0.26027137 -0.11413839 0
1.2079087 0.263127 -0.086424544 0
1.2049716 0.26248717 -0.057412591 0
1.2070279 0.26293513 -0.028722078 0
1.2096854 0.26351404 3.5344452e-05 0
0.88414091 0.21610142 -0.19346704 0
0.98847288 0.2416022 -0.19166045 0
1.1323916 0.27677876 -0.19158864 0
1.2053826 0.2946192 -0.17438464 0
1.2045612 0.29441845 -0.14492525 0
1.2007768 0.29349345 -0.11538026 0
1.214442 0.29683352 -0.087400198 0
1.2030613 0.29405186 -0.057656828 0
1.2159147 0.29719344 -0.029102765 0
1.2072384 0.29507282 3.5479257e-05 0
0.8754437 0.23753633 -0.19281438 0
0.98736 0.26790285 -0.19269435 0
1.1170217 0.30308428 -0.19022188 0
1.2017637 0.32607755 -0.174996 0
1.211387 0.32868868 -0.14669786 0
1.207309 0.32758218 -0.11676519 0
1.193821 0.32392243 -0.086476974 0
1.1965947 0.32467502 -0.057721253 0
1.2046897 0.32687148 -0.029022316 0
1.2055979 0.32711789 3.566232e-05 0
0.85701567 0.25591901 -0.19011772 0
0.97073483 0.28987741 -0.19081685 0
1.1173198 0.33365011 -0.19164567 0
1.2032925 0.35932299 -0.17648301 0
1.2163048 0.36320862 -0.14835627 0
1.2075386 0.36059093 -0.11763015 0
1.193749 0.35647312 -0.087095752 0
1.2078339 0.36067909 -0.058683835 0
1.2181431 0.36375761 -0.029558187 0
1.2008207 0.35858485 3.5777332e-05 0
0.84819347 0.27677813 -0.18964989 0
0.96967947 0.31642082 -0.19211805 0
1.0994902 0.35877997 -0.19008012 0
1.2082978 0.39428556 -0.17861977 0
1.2038567 0.3928363 -0.14800015 0
1.2011272 0.39194566 -0.11793167 0
1.2154226 0.39661047 -0.089378923 0
1.2139678 0.39613575 -0.059448697 0
1.2047065 0.39311367 -0.02946352 0
1.2068338 0.3938078 3.6241079e-05 0
0.83756781 0.29689538 -0.18888937 0
0.95209813 0.33749333 -0.19026177 0
1.1118263 0.39411271 -0.19387069 0
1.2147003 0.4305788 -0.18111506 0
1.208392 0.42834267 -0.14983907 0
1.2080662 0.42822719 -0.11963605 0
1.2156367 0.43091071 -0.090165727 0
1.211146 0.42931888 -0.059822083 0
1.2066458 0.42772368 -0.02976549 0
1.2063451 0.42761707 3.6538866e-05 0
0.84162396 0.32245988 -0.19157854 0
0.95408624 0.36554867 -0.19244146 0
1.0837677 0.4152348 -0.19074476 0
1.194283 0.45757768 -0.17973551 0
1.2036489 0.46116614 -0.15064624 0
1.2080563 0.46285477 -0.1207535 0
1.2010572 0.4601731 -0.089917161 0
1.2098728 0.46355078 -0.06031787 0
1.2058285 0.4620012 -0.030023407 0
1.201273 0.4602558 3.6725389e-05 0
0.83760905 0.34540206 -0.19258767 0
0.9394089 0.38738093 -0.19139212 0
1.0789819 0.44493616 -0.19181782 0
1.1995831 0.4946681 -0.182354 0
1.1986582 0.49428672 -0.15153474 0
1.1997303 0.49472877 -0.12113078 0
1.2085261 0.49835595 -0.091388874 0
1.2087679 0.49845564 -0.060870595 0
1.2004393 0.49502122 -0.030190691 0
1.2004447 0.4950234 3.7070226e-05 0
0.82965511 0.36688021 -0.19282649 0
0.92918843 0.41089463 -0.19136177 0
1.0693631 0.47288099 -0.1921684 0
1.1986775 0.53006488 -0.18419139 0
1.2036366 0.53225785 -0.15381341 0
1.1965785 0.52913672 -0.12212206 0
1.2122412 0.53606284 -0.092663415 0
1.1944422 0.52819198 -0.060801141 0
1.1976413 0.52960664 -0.030446792 0
1.2051301 0.53291827 3.7618287e-05 0
0.80791444 0.38191983 -0.18995343 0
0.92998576 0.43962574 -0.19374938 0
1.0499358 0.49632895 -0.1908676 0
1.2316781 0.58224273 -0.19145946 0
1.4692023 0.69452584 -0.18992977 0
1.8483398 0.87375289 -0.19083031 0
3.1279626 1.4786602 -0.24187638 0
4.6928458 2.2184167 -0.24165486 0
9.4018955 4.4444928 -0.24179251 0
0.80954617 0.40799108 -0.19269677 0
0.90834039 0.45778093 -0.19158597 0
1.038172 0.52321279 -0.1910688 0
1.2102667 0.60994428 -0.1904635 0
1.4538509 0.73270464 -0.19027528 0
1.8339124 0.92424613 -0.19168811 0
3.0966291 1.560624 -0.24242206 0
4.6298351 2.3333216 -0.24136585 0
9.2848768 4.6793466 -0.24174342 0
0.80931234 0.4338176 -0.19518518 0
0.8972441 0.48095185 -0.19174477 0
1.0246906 0.54926729 -0.19107817 0
1.1945314 0.64030743 -0.19046979 0
1.4288718 0.76592147 -0.18947574 0
1.8118061 0.97118664 -0.19187844 0
3.0513725 1.6356343 -0.24203381 0
4.57513 2.4524176 -0.24166381 0
9.1698503 4.9153361 -0.24190152 0
0.78372908 0.44591746 -0.19166842 0
0.8800655 0.50072986 -0.19071369 0
1.011438 0.57547677 -0.19125445 0
1.172393 0.66705513 -0.18956392 0
1.2036769 0.68485475 -0.1618543 0
1.2183026 0.69317627 -0.13083488 0
3.0094342 1.7122744 -0.24205808 0
4.522356 2.5730801 -0.2422294 0
9.0293617 5.1374259 -0.24153905 0
0.77913427 0.46971288 -0.1933824 0
0.87011987 0.52456492 -0.19136654 0
1.0039537 0.60524875 -0.19266641 0
1.1675928 0.70390099 -0.19159928 0
1.1410483 0.68789828 -0.15571785 0
1.1952165 0.72055441 -0.13026719 0
2.956301 1.7822509 -0.24132563 0
4.4585438 2.6879008 -0.24236795 0
8.8985605 5.3646321 -0.24158508 0
0.7530098 0.48027635 -0.18984644 0
0.85216689 0.54351962 -0.19037449 0
0.98521894 0.62838143 -0.19205351 0
1.1402712 0.72727507 -0.19006748 0
1.1404487 0.72738832 -0.15809104 0
1.1854297 0.75607759 -0.13123854 0
2.9099195 1.8559725 -0.24128646 0
4.3809505 2.7942092 -0.24190657 0
8.7754374 5.5970521 -0.24200051 0
0.74775016 0.50390589 -0.1916658 0
0.85194445 0.57412201 -0.19350031 0
0.9693768 0.65325922 -0.19211815 0
1.1187195 0.75390065 -0.18958639 0
1.136139 0.7656396 -0.16012137 0
1.1557194 0.7788347 -0.13008411 0
2.8677714 1.9325799 -0.24175908 0
4.3076658 2.9029191 -0.24182856 0
8.6308231 5.8162775 -0.24198364 0
0.7398144 0.52617967 -0.19297427 0
0.82681674 0.58805859 -0.19110329 0
0.95464289 0.6789726 -0.19253302 0
1.1119285 0.79083914 -0.19175704 0
1.147539 0.81616652 -0.16457875 0
1.1260799 0.8009041 -0.12898214 0
2.8273346 2.010891 -0.24255151 0
4.2214832 3.002454 -0.24116771 0
8.4757872 6.0282512 -0.24182563 0
0.71910506 0.53928059 -0.19106187 0
0.81615484 0.61206138 -0.19214827 0
0.93636996 0.70221472 -0.19236089 0
1.081617 0.81114018 -0.18999973 0
1.09462 0.82089162 -0.15990968 0
1.1052463 0.82886064 -0.12895094 0
1.1052887 0.82889241 -0.096584521 0
1.1008102 0.82553381 -0.064057738 0
1.0914665 0.81852674 -0.031720337 0
1.0956484 0.82166284 3.9097486e-05 0
1.096818 0.82253993 0.031954177 0
1.0952326 0.82135105 0.063811503 0
1.0984153 0.8237378 0.09606266 0
0.71321321 0.56352907 -0.19321384 0
0.793975 0.62734121 -0.19059344 0
0.91322601 0.72156465 -0.19128671 0
1.0544975 0.8331871 -0.18886968 0
1.0925081 0.86322027 -0.16273209 0
1.0953969 0.86550277 -0.13030891 0
1.1082952 0.8756941 -0.098747119 0
1.092519 0.86322898 -0.064822443 0
1.0960093 0.8659867 -0.032477215 0
1.0959572 0.86594546 3.9875707e-05 0
1.0944897 0.86478597 0.032511871 0
1.101805 0.87056601 0.065453753 0
1.0902749 0.8614558 0.09722127 0
0.69137216 0.57519197 -0.19116892 0
0.78172851 0.65036458 -0.191533 0
0.89496273 0.74457055 -0.19133657 0
1.0186805 0.84749842 -0.18622638 0
1.101946 0.91677171 -0.16753107 0
1.0951186 0.91109169 -0.13296898 0
1.0969863 0.91264552 -0.099760063 0
1.0974735 0.91305089 -0.066462539 0
1.0989504 0.91427952 -0.033237562 0
1.1024437 0.91718584 4.0940933e-05 0
1.0932033 0.90949827 0.033144981 0
1.0952166 0.91117322 0.066407382 0
1.1090242 0.92266053 0.10093757 0
0.68133599 0.59656507 -0.19249582 0
0.76811796 0.67254978 -0.19229597 0
0.87884635 0.76950145 -0.19198205 0
0.9948805 0.87109876 -0.18583553 0
1.0973994 0.96086246 -0.17047253 0
1.0988393 0.96212322 -0.13632576 0
1.0972816 0.96075922 -0.10195962 0
1.1019888 0.96488082 -0.068189047 0
1.100521 0.96359557 -0.034009792 0
1.0946664 0.95846945 4.1537249e-05 0
1.1016339 0.96457011 0.034127835 0
1.1003172 0.96341723 0.068169303 0
1.0917712 0.95593452 0.10153086 0
1.1035187 0.96622038 0.13699079 0
1.0891613 0.95364934 0.27275378 0
0.67445952 0.62129682 -0.19492126 0
0.74745244 0.68853623 -0.19141199 0
0.84697813 0.78021699 -0.18926188 0
0.97250086 0.89584565 -0.18581943 0
1.0575215 0.97416466 -0.16804367 0
1.0983216 1.0117488 -0.13938516 0
1.1002718 1.0135454 -0.10458115 0
1.0996122 1.0129378 -0.069601774 0
1.1059135 1.0187424 -0.034959897 0
1.1013792 1.0145655 4.2749998e-05 0
1.1019028 1.0150478 0.034918696 0
1.1048163 1.0177317 0.070017129 0
1.0912151 1.0052025 0.10380543 0
1.0952302 1.0089011 0.13907862 0
1.0326298 0.95123512 0.26452488 0
0.64212036 0.62217855 -0.19005287 0
0.7367245 0.71384466 -0.19321701 0
0.83690554 0.81091452 -0.19152351 0
0.8428539 0.81667811 -0.16493322 0
0.84166038 0.8155216 -0.13696972 0
0.84414029 0.81792456 -0.10971256 0
0.84727991 0.82096666 -0.082477413 0
0.84511888 0.81887269 -0.054783937 0
0.83480203 0.80887628 -0.027026333 0
0.83769119 0.81167567 3.3299511e-05 0
0.83450627 0.8085897 0.02708314 0
0.84460896 0.81837863 0.054818176 0
0.83690155 0.81091064 0.081534006 0
1.1011739 1.0669756 0.14320742 0
1.0083916 0.97707486 0.19740808 0
1.0095896 0.9782356 0.23112419 0
0.98531389 0.95471388 0.25849441 0
0.62602091 0.63798118 -0.18999311 0
0.71654934 0.73023921 -0.19269809 0
0.82092166 0.83660555 -0.19263642 0
0.8424015 0.85849583 -0.16903086 0
0.8459838 0.8621465 -0.14116946 0
0.83168352 0.84757304 -0.11083856 0
0.83915216 0.85518438 -0.083760619 0
0.84145045 0.8575266 -0.055931319 0
0.83899486 0.8550241 -0.027851848 0
0.84355414 0.85967046 3.438412e-05 0
0.83664036 0.8526246 0.027841927 0
0.83433986 0.85028017 0.055526841 0
0.84239358 0.85848773 0.084153175 0
0.83876824 0.85479313 0.11185172 0
1.0945164 1.1154274 0.18273258 0
0.93884867 0.95678562 0.18846138 0
0.9439705 0.96200532 0.22158994 0
0.95035076 0.96850747 0.25565338 0
0.61941528 0.6639607 -0.19301274 0
0.69193804 0.74169892 -0.19105285 0
0.795241 0.85243088 -0.19159777 0
0.83950615 0.8998794 -0.17295207 0
0.83834183 0.89863139 -0.14363322 0
0.83600628 0.89612782 -0.11439245 0
0.84028721 0.9007166 -0.086115621 0
0.84375453 0.90443331 -0.057583448 0
0.83662641 0.89679259 -0.028515521 0
0.83797473 0.89823788 3.506961e-05 0
0.83595133 0.89606899 0.028562518 0
0.84932059 0.91039968 0.058034554 0
0.83688641 0.8970713 0.085837491 0
0.83990502 0.900307 0.11499684 0
1.1088408 1.1885834 0.19007194 0
0.92525476 0.99179471 0.19069669 0
0.93157458 0.99856895 0.22452478 0
0.93126488 0.99823701 0.25721473 0
0.59992158 0.67650884 -0.19219767 0
0.67338932 0.7593556 -0.19116224 0
0.77216595 0.87074226 -0.19127223 0
0.85204262 0.96081614 -0.18047322 0
0.83516753 0.94178677 -0.14711499 0
0.83791554 0.94488561 -0.11787933 0
0.83369583 0.94012719 -0.087843858 0
0.84161597 0.94905847 -0.059053425 0
0.83594877 0.94266772 -0.02929402 0
0.84038568 0.94767112 3.6159985e-05 0
0.83149731 0.937648 0.029209621 0
0.8420015 0.94949317 0.059153091 0
0.84464759 0.95247704 0.089070849 0
0.83968067 0.94687611 0.11820054 0
1.1041558 1.2451146 0.19459367 0
1.1041002 1.245052 0.23395906 0
0.5863682 0.69582862 -0.19342034 0
0.66016442 0.78340071 -0.19295947 0
0.72453254 0.85978478 -0.18478949 0
0.85161513 1.0105906 -0.18572609 0
0.83411121 0.98981905 -0.15128134 0
0.83575296 0.99176729 -0.12105797 0
0.84463328 1.0023054 -0.091632605 0
0.83606738 0.99214035 -0.060401883 0
0.84202933 0.9992153 -0.030381178 0
0.83744419 0.99377424 3.7100821e-05 0
0.84172726 0.99885678 0.0304449 0
0.83998764 0.99679244 0.06075969 0
0.83754694 0.99389613 0.090938397 0
0.84841835 1.006797 0.12296838 0
0.84493566 1.0026642 0.15332045 0
1.0977831 1.3027118 0.23951128 0
0.56306481 0.70345509 -0.19152898 0
0.63455832 0.7927742 -0.19126253 0
0.72570717 0.90664941 -0.19086452 0
0.85118657 1.0634149 -0.19142503 0
0.84563661 1.0564811 -0.15815742 0
0.84266251 1.0527655 -0.12586749 0
0.83833122 1.0473542 -0.093786828 0
0.84539688 1.0561817 -0.062981673 0
0.83697206 1.0456562 -0.031141013 0
0.83717239 1.0459065 3.8246082e-05 0
0.83328187 1.041046 0.031079892 0
0.84063107 1.0502275 0.062703602 0
0.84210944 1.0520746 0.094286837 0
0.83532399 1.0435973 0.12484833 0
0.84149832 1.051311 0.15746137 0
1.0983638 1.3722214 0.24711552 0
1.1029837 1.3779931 0.29019356 0
0.54234302 0.71376115 -0.19054745 0
0.61841744 0.81388032 -0.19252762 0
0.70164776 0.92341721 -0.19060569 0
0.72864413 0.95894635 -0.16925535 0
0.72665614 0.95633 -0.14037433 0
0.72889769 0.95928001 -0.11245517 0
0.72936589 0.95989621 -0.084280021 0
0.72342938 0.95208335 -0.055667624 0
0.72210634 0.95034218 -0.027750826 0
0.72781241 0.95785171 3.4343495e-05 0
0.73081732 0.96180636 0.028154599 0
0.73215628 0.96356857 0.056408402 0
0.731754 0.9630391 0.084625371 0
0.73403591 0.96604228 0.11331777 0
0.72993565 0.96064603 0.14107768 0
0.72735846 0.95725429 0.1690267 0
0.73134655 0.9625029 0.19874439 0
0.732095 0.96348792 0.22798961 0
0.52809137 0.73267001 -0.19197606 0
0.59004003 0.81861717 -0.19006483 0
0.67814386 0.94085175 -0.19061081 0
0.73122656 1.0144982 -0.17574696 0
0.9492929 1.3170419 -0.18974395 0
0.84938312 1.1784278 -0.1355893 0
0.83289391 1.1555508 -0.099581309 0
0.84277654 1.1692619 -0.067100838 0
0.84245872 1.168821 -0.033499036 0
0.8426187 1.1690429 4.1140076e-05 0
0.83878237 1.1637205 0.033434805 0
0.84044981 1.1660339 0.066997834 0
0.84695423 1.175058 0.10134548 0
0.83724266 1.1615843 0.13373375 0
0.83471459 1.1580769 0.16692476 0
0.84330559 1.1699959 0.20276862 0
1.099905 1.526 0.30926859 0
0.50605083 0.74080366 -0.19069992 0
0.5788399 0.847359 -0.19328454 0
0.65652812 0.96108615 -0.19129224 0
0.76353902 1.1177385 -0.19023281 0
0.91889244 1.3451591 -0.1903929 0
1.1544971 1.6900589 -0.19104384 0
0.84722334 1.2402433 -0.10500365 0
0.83814633 1.2269555 -0.069175728 0
0.84522575 1.237319 -0.034839727 0
0.84778017 1.2410585 4.2907734e-05 0
0.8455137 1.2377406 0.034937233 0
0.84609145 1.2385863 0.069917299 0
0.84107322 1.2312402 0.10432697 0
0.84452266 1.2362897 0.13983612 0
0.83371878 1.2204741 0.17283061 0
0.83755738 1.2260934 0.20876066 0
1.1009988 1.6117431 0.32091188 0
1.1002316 1.6106201 0.36750147 0
0.49137059 0.75978708 -0.19233297 0
0.55265379 0.8545469 -0.1916814 0
0.63331032 0.97926295 -0.19166763 0
0.73389351 1.1347908 -0.18992208 0
0.88822967 1.3734348 -0.19116111 0
1.1027708 1.7051712 -0.18954554 0
1.487013 2.2993097 -0.19142975 0
0.84957933 1.3136712 -0.072832622 0
0.83472574 1.2907037 -0.035738312 0
0.83690095 1.2940671 4.399614e-05 0
0.83743024 1.2948855 0.035942197 0
0.84177315 1.3016008 0.072252117 0
0.83707827 1.2943413 0.10784923 0
0.84013152 1.2990625 0.1444919 0
0.84386581 1.3048366 0.18170324 0
0.84164983 1.3014102 0.21789825 0
0.83875239 1.29693 0.25393403 0
1.0983585 1.6983486 0.38107216 0
0.46838844 0.76596498 -0.19084352 0
0.53686464 0.87794548 -0.19382881 0
0.60708427 0.99277699 -0.19125283 0
0.71030539 1.1615766 -0.19134371 0
0.85255665 1.3942029 -0.19099596 0
1.0599827 1.733411 -0.18965042 0
1.4240277 2.3287408 -0.19082698 0
0.844607 1.3812027 -0.075370848 0
0.85025918 1.3904458 -0.037893809 0
0.8367191 1.3683034 4.5787496e-05 0
0.84170169 1.3764516 0.037604593 0
0.83392489 1.363734 0.074509069 0
0.84000528 1.3736774 0.11265738 0
0.83731675 1.3692808 0.14990382 0
0.84154558 1.3761963 0.18862253 0
0.8380487 1.3704778 0.22584903 0
0.84193701 1.3768364 0.26533431 0
1.1020451 1.8021963 0.39800557 0
0.45583487 0.78952754 -0.19378604 0
0.49861646 0.86362731 -0.18782951 0
0.5845226 1.0124208 -0.19213386 0
0.67946035 1.1768575 -0.19097517 0
0.81962645 1.4196317 -0.1915846 0
1.0295144 1.7831677 -0.19219017 0
1.3644226 2.3632445 -0.19077171 0
1.3725587 2.3773367 -0.1277978 0
0.845222 1.4639645 -0.039303519 0
0.83781546 1.451136 4.7836485e-05 0
0.8433286 1.460685 0.039311826 0
0.83992422 1.4547884 0.078300767 0
0.83974683 1.4544812 0.11750863 0
0.83372122 1.4440446 0.15573545 0
0.83448321 1.4453644 0.19515391 0
0.83557022 1.4472471 0.23495011 0
0.83512032 1.4464679 0.27460384 0
0.83886915 1.4529611 0.31610239 0
0.434019 0.79756117 -0.19300774 0
0.48872361 0.89808732 -0.19258016 0
0.5495702 1.0099001 -0.18896301 0
0.65060419 1.195562 -0.19128489 0
0.78217125 1.437332 -0.19124827 0
0.98686552 1.8134819 -0.19271153 0
1.2904023 2.3712664 -0.18873012 0
1.2919147 2.3740458 -0.125828 0
1.2915356 2.3733492 -0.062822908 0
0.84936464 1.5608077 5.0728973e-05 0
0.83794355 1.5398202 0.040859416 0
0.84421766 1.5513496 0.08232493 0
0.83430791 1.5331393 0.12212336 0
0.8359772 1.5362067 0.16334733 0
0.83351481 1.5316819 0.20390318 0
0.83863699 1.5410944 0.24667078 0
0.84035844 1.5442579 0.2890501 0
0.83673763 1.5376041 0.32981759 0
0.4064678 0.79401767 -0.18960722 0
0.46603385 0.91037744 -0.192632 0
0.52849448 1.0323915 -0.19061489 0
0.42396486 0.82819742 -0.13075444 0
0.44398859 0.86731297 -0.11387549 0
0.93662614 1.8296596 -0.1918575 0
1.2410281 2.4242959 -0.19039716 0
1.23738 2.4171698 -0.12641813 0
1.2468034 2.4355779 -0.063616887 0
1.2438393 2.4297876 7.792718e-05 0
0.85089922 1.6621957 0.04352295 0
0.84104508 1.642946 0.086031787 0
0.84026986 1.6414317 0.12901908 0
0.84137559 1.6435916 0.17245282 0
0.83778387 1.6365755 0.21498366 0
0.84061271 1.6421014 0.25935966 0
0.83961648 1.6401553 0.30293697 0
0.83708996 1.6352199 0.34611422 0
0.39039484 0.81253362 -0.19161482 0
0.39188549 0.81563616 -0.17043804 0
0.391206 0.81422192 -0.148463 0
0.39601457 0.82423007 -0.12850915 0
0.47007176 0.9783662 -0.12685831 0
0.3979111 0.82817733 -0.085761994 0
1.1829066 2.4619982 -0.19095263 0
1.7819934 3.708885 -0.19156167 0
4.5026402 9.3714008 -0.24173412 0
0.84654605 1.7619269 0.091114312 0
0.84159935 1.7516311 0.13596804 0
0.84144604 1.7513121 0.18146923 0
0.8419686 1.7523997 0.22733465 0
0.83838969 1.744951 0.27217531 0
0.83486199 1.7376087 0.31694385 0
0.84005147 1.7484096 0.36546814 0
0.3672637 0.81655371 -0.1903163 0
0.36939847 0.82130003 -0.16961934 0
0.43868887 0.9753564 -0.175769 0
0.37214547 0.82740754 -0.12749952 0
0.44030896 0.97895843 -0.1254542 0
0.37302926 0.82937247 -0.084883772 0
0.40069658 0.89088643 -0.068291038 0
1.6860192 3.7486012 -0.1913542 0
4.2644453 9.4813299 -0.24171644 0
1.07277 2.3851373 0.12190333 0
0.84681237 1.8827554 0.14444137 0
0.83957833 1.8666717 0.1911661 0
0.83771801 1.8625356 0.23880343 0
0.83974737 1.8670475 0.28782225 0
0.84123862 1.8703631 0.33717841 0
0.83880842 1.86496 0.38528255 0
0.34669295 0.82591414 -0.19039792 0
0.34886479 0.83108813 -0.1697683 0
0.34758097 0.82802963 -0.14759132 0
0.35040408 0.83475512 -0.12722844 0
0.34910226 0.83165377 -0.1054143 0
0.35439798 0.84426963 -0.085465766 0
0.36745122 0.87536585 -0.066369265 0
