# .PCD v0.7 - Point Cloud Data file format
VERSION 0.7
FIELDS x y z intensity
SIZE 4 4 4 4
TYPE F F F F
COUNT 1 1 1 1
WIDTH 1362
HEIGHT 1
VIEWPOINT 0 0 0 1 0 0 0
POINTS 1362
DATA ascii
6.3395801 -4.5089126 -0.36217177 0
12.68415 -9.0213737 -0.36189589 0
0.70925117 -0.47796154 -0.31131914 0
0.77335411 -0.5211603 -0.31507745 0
0.82930279 -0.55886388 -0.31213704 0
0.9058159 -0.61042577 -0.3132318 0
0.98339814 -0.6627081 -0.31038225 0
1.0874021 -0.73279595 -0.31078947 0
1.2020538 -0.81005931 -0.30811441 0
1.3621507 -0.91794801 -0.30938235 0
1.5722678 -1.059545 -0.31160349 0
1.8183243 -1.2253616 -0.30814654 0
2.5653925 -1.7288079 -0.36155272 0
3.2284813 -2.1756608 -0.36338767 0
4.2905216 -2.8913658 -0.36169988 0
6.4366064 -4.3376036 -0.36134541 0
12.905361 -8.6968718 -0.36182949 0
0.71333408 -0.45497084 -0.30797288 0
0.77790093 -0.49615213 -0.31172878 0
0.8409524 -0.53636688 -0.31132737 0
0.91718119 -0.58498633 -0.311957 0
1.0050645 -0.64103907 -0.31201479 0
1.1037819 -0.70400196 -0.31029385 0
1.2291961 -0.78399223 -0.30990103 0
1.3948786 -0.88966596 -0.31161654 0
1.6027995 -1.0222799 -0.3124415 0
1.8783165 -1.198007 -0.31308946 0
2.6020744 -1.6596261 -0.36070421 0
3.2616887 -2.0803342 -0.36110052 0
4.3586202 -2.7799666 -0.36141068 0
6.5516853 -4.1787233 -0.36176983 0
13.105376 -8.3587255 -0.36140737 0
0.72804213 -0.43891123 -0.30944172 0
0.78951329 -0.47597006 -0.31146902 0
0.84544486 -0.50968927 -0.30813003 0
0.92389631 -0.5569849 -0.30936107 0
1.0235653 -0.61707187 -0.31282365 0
1.1226553 -0.67680979 -0.31069848 0
1.2495159 -0.75328958 -0.31013188 0
1.406186 -0.84774053 -0.30926421 0
1.6178916 -0.97537047 -0.31048581 0
1.8929905 -1.1412179 -0.31063539 0
2.6498504 -1.5975025 -0.36162272 0
3.3207803 -2.0019827 -0.36193332 0
4.4418445 -2.6778333 -0.36259192 0
6.6579647 -4.013855 -0.36192921 0
13.328255 -8.03514 -0.36184585 0
0.74053276 -0.42134011 -0.310132 0
0.79620767 -0.45301738 -0.30950075 0
0.86762756 -0.49365306 -0.31157458 0
0.94415522 -0.53719497 -0.31150556 0
1.0369824 -0.5900107 -0.31227368 0
1.1423012 -0.64993382 -0.31149656 0
1.2617366 -0.71788889 -0.30856973 0
1.4464447 -0.82298201 -0.31345031 0
1.6485357 -0.93796557 -0.31172428 0
1.9252132 -1.0953864 -0.31128719 0
2.6870313 -1.5288372 -0.36131588 0
3.3674095 -1.9159513 -0.36162987 0
4.4970121 -2.55866 -0.36170858 0
6.7481713 -3.8394995 -0.36144996 0
13.517817 -7.6912174 -0.36160702 0
0.74686784 -0.4003453 -0.3084552 0
0.80653638 -0.43232957 -0.30917576 0
0.87968868 -0.47154158 -0.3115328 0
0.96267617 -0.51602554 -0.3132194 0
1.048735 -0.56215584 -0.31144103 0
1.1619403 -0.6228376 -0.31246585 0
1.2898623 -0.69140792 -0.31108138 0
1.4558123 -0.78036249 -0.31111312 0
1.676832 -0.89883614 -0.31268558 0
1.9641043 -1.0528234 -0.31317931 0
2.7362747 -1.4667318 -0.36284411 0
3.4163811 -1.8312907 -0.36181015 0
4.5643725 -2.4466512 -0.36204445 0
6.8491664 -3.6713746 -0.36178109 0
13.71526 -7.3518229 -0.36180985 0
0.75532597 -0.38066545 -0.30788243 0
0.82928479 -0.41793886 -0.31375256 0
0.87576616 -0.44136432 -0.3061012 0
0.97412008 -0.49093226 -0.31281176 0
1.0550764 -0.53173214 -0.30924028 0
1.1734293 -0.59137911 -0.3114424 0
1.3154607 -0.6629594 -0.31311989 0
1.4683945 -0.74003422 -0.30971184 0
1.6899166 -0.85167587 -0.31101817 0
1.9838307 -0.99980122 -0.31220171 0
2.757036 -1.3894774 -0.36083192 0
3.4750032 -1.751315 -0.3632217 0
4.618062 -2.327388 -0.36152864 0
6.9382625 -3.4967113 -0.3617104 0
13.896623 -7.003551 -0.36181596 0
0.82657039 -0.3907389 -0.30889606 0
0.89664084 -0.42386284 -0.30955964 0
0.98261058 -0.46450272 -0.3116743 0
1.0673569 -0.50456429 -0.30900878 0
1.1894171 -0.56226492 -0.31182 0
1.3104496 -0.61947978 -0.30810738 0
1.4992347 -0.70872289 -0.31234434 0
1.706897 -0.80688965 -0.31029642 0
2.3192873 -1.0963807 -0.36052397 0
2.8012047 -1.3241942 -0.36212319 0
3.5052199 -1.6569985 -0.36189353 0
4.6776638 -2.2112398 -0.36171034 0
7.0259409 -3.3213246 -0.36179599 0
14.044708 -6.6392584 -0.36119372 0
0.78536361 -0.34729415 -0.3125774 0
0.84340233 -0.37295932 -0.31156933 0
0.90651089 -0.40086642 -0.3093757 0
0.99061 -0.43805575 -0.31060582 0
1.0857493 -0.4801271 -0.31072634 0
1.1973405 -0.52947366 -0.31029505 0
1.3244962 -0.58570296 -0.30783632 0
1.5241882 -0.67400831 -0.31389904 0
1.7326568 -0.76619482 -0.31136468 0
2.3584833 -1.0429404 -0.36240968 0
2.8271401 -1.2501842 -0.36128187 0
3.5407367 -1.5657424 -0.36136535 0
4.7400308 -2.0960801 -0.36232677 0
7.1115198 -3.1447716 -0.36200038 0
14.224218 -6.2900643 -0.36161232 0
0.78345633 -0.32307127 -0.30847472 0
0.8463732 -0.34901613 -0.30931419 0
0.92577118 -0.3817572 -0.31256104 0
1.001551 -0.41300628 -0.31066906 0
1.1026932 -0.45471397 -0.31219164 0
1.2109064 -0.49933746 -0.31044579 0
1.3556148 -0.55901039 -0.31169039 0
1.5291383 -0.6305657 -0.31154171 0
1.7422593 -0.71844965 -0.30973306 0
2.3988309 -0.98919791 -0.36465704 0
2.8627317 -1.1804951 -0.36190742 0
3.5779588 -1.475431 -0.36124867 0
4.784143 -1.9728212 -0.3617774 0
7.1928153 -2.9660776 -0.3622126 0
14.383729 -5.9313707 -0.36174649 0
0.80599886 -0.30881044 -0.31418169 0
0.86628407 -0.33190814 -0.3134295 0
0.92957222 -0.35615635 -0.31071052 0
1.0120931 -0.38777339 -0.31080428 0
1.1145405 -0.42702508 -0.31239495 0
1.2200608 -0.46745417 -0.30966938 0
1.3702343 -0.52499163 -0.31190589 0
1.5378824 -0.5892244 -0.31019455 0
1.7725866 -0.67914891 -0.31197792 0
2.4214592 -0.92775804 -0.36442131 0
2.886853 -1.106069 -0.3613126 0
3.6127701 -1.384197 -0.36112109 0
4.8341866 -1.8521705 -0.36191142 0
7.2570424 -2.7804637 -0.36179778 0
14.536073 -5.5693517 -0.36192745 0
0.86763477 -0.30755332 -0.31101066 0
0.94475156 -0.33488917 -0.31285942 0
1.0243863 -0.36311755 -0.31166577 0
1.1149069 -0.39520466 -0.30960327 0
1.2405314 -0.43973526 -0.31194884 0
1.384302 -0.49069804 -0.31218958 0
1.5625198 -0.55387151 -0.31224489 0
1.7902079 -0.63458085 -0.31216103 0
2.4095685 -0.85412765 -0.35927311 0
2.9269783 -1.0375355 -0.36294159 0
3.6631873 -1.298502 -0.36276925 0
4.8803778 -1.7299634 -0.36198545 0
7.340106 -2.6018715 -0.36254957 0
14.677555 -5.2028008 -0.36206535 0
0.87145668 -0.28436926 -0.30970931 0
0.94821155 -0.30941552 -0.31131998 0
1.0309643 -0.33641893 -0.3109847 0
1.1425931 -0.37284511 -0.31457824 0
1.23079 -0.40162507 -0.30685249 0
1.3888108 -0.45318961 -0.31052801 0
1.5605028 -0.50921524 -0.30917507 0
1.8042678 -0.58875936 -0.31192222 0
2.455617 -0.80130428 -0.36300796 0
2.9397447 -0.95928234 -0.36140734 0
3.6860545 -1.2028143 -0.36191219 0
4.9214478 -1.6059414 -0.36191007 0
7.3795366 -2.4080524 -0.36138013 0
14.783015 -4.8239174 -0.36154833 0
0.81679398 -0.24390815 -0.31028733 0
0.8759715 -0.26157954 -0.30886918 0
0.96645415 -0.28859913 -0.3148177 0
1.0347841 -0.30900359 -0.30968583 0
1.1330973 -0.33836153 -0.30951408 0
1.2488134 -0.37291625 -0.30890104 0
1.3927596 -0.41590095 -0.30896547 0
1.5819 -0.47238141 -0.31095326 0
1.8147163 -0.54190421 -0.31126496 0
2.4719796 -0.73817384 -0.3625572 0
2.9719572 -0.88747537 -0.36249837 0
3.7163098 -1.1097513 -0.36201745 0
4.9545569 -1.4795123 -0.36148372 0
7.4456391 -2.2233906 -0.36175397 0
14.906576 -4.4513493 -0.36170739 0
0.82317525 -0.22335419 -0.31047109 0
0.90101027 -0.24447337 -0.31542179 0
0.9589045 -0.26018196 -0.31012058 0
1.045676 -0.28372589 -0.31070349 0
1.1262381 -0.305585 -0.3054364 0
1.2539691 -0.34024253 -0.30795413 0
1.4064008 -0.38160223 -0.3097564 0
1.5923427 -0.43205434 -0.31076351 0
1.8115292 -0.49152672 -0.30849218 0
2.4871531 -0.67484546 -0.36216921 0
2.9946363 -0.81254214 -0.36264771 0
3.7168069 -1.0084904 -0.35947189 0
4.9857979 -1.352809 -0.36115694 0
7.4943604 -2.0334635 -0.36151245 0
15.013009 -4.0735168 -0.36168009 0
0.83122075 -0.20316669 -0.31147236 0
0.88239306 -0.21567421 -0.30690104 0
0.97327745 -0.23788813 -0.3127276 0
1.0438631 -0.25514063 -0.30815327 0
1.1616861 -0.28393891 -0.3130067 0
1.2661306 -0.3094672 -0.30892426 0
1.4283746 -0.34912282 -0.31255582 0
1.6004374 -0.39117837 -0.31031764 0
1.8301615 -0.44732744 -0.30964389 0
2.5015535 -0.61142886 -0.36190379 0
3.0072026 -0.73501945 -0.36180776 0
3.7754915 -0.92280436 -0.36277953 0
5.0203118 -1.2270628 -0.36129862 0
7.5399842 -1.8429203 -0.36135444 0
15.112948 -3.6939018 -0.36172652 0
0.83542621 -0.1819866 -0.31122798 0
0.90698016 -0.19757368 -0.31361833 0
0.9804365 -0.21357518 -0.31319615 0
1.0830103 -0.23591952 -0.31785074 0
1.1592827 -0.25253445 -0.31054288 0
1.2690414 -0.27644396 -0.30783406 0
1.4220599 -0.30977702 -0.30936471 0
1.6098832 -0.35069185 -0.31033412 0
1.8439443 -0.40167898 -0.3101618 0
2.5121338 -0.54723525 -0.36132124 0
3.028872 -0.65979987 -0.36229599 0
3.7838223 -0.82425582 -0.36146593 0
5.0518737 -1.1004841 -0.36145601 0
7.587851 -1.6529135 -0.361534 0
15.204932 -3.3121943 -0.36181206 0
0.84400696 -0.16166507 -0.31280497 0
0.91687042 -0.17562167 -0.3154051 0
0.98472691 -0.18861923 -0.31294629 0
1.068208 -0.20460959 -0.3118915 0
1.1538558 -0.22101498 -0.30749699 0
1.286608 -0.24644294 -0.31048757 0
1.4493456 -0.27761447 -0.31367645 0
1.628938 -0.31201443 -0.31238973 0
1.8459892 -0.35358948 -0.30890632 0
2.5402071 -0.48656324 -0.36347699 0
3.0245166 -0.57933015 -0.35991141 0
3.8071887 -0.72924685 -0.36182463 0
5.0766239 -0.97240049 -0.36135584 0
7.6289454 -1.4612842 -0.36161956 0
15.282115 -2.9272084 -0.36177546 0
0.84233576 -0.13941127 -0.31078258 0
0.91416574 -0.15129954 -0.31306136 0
0.98701519 -0.16335651 -0.31226379 0
1.0726032 -0.17752181 -0.31176734 0
1.1769835 -0.19479732 -0.31225073 0
1.3011347 -0.21534504 -0.31258202 0
1.4325807 -0.23710009 -0.30865467 0
1.6320729 -0.27011719 -0.31158429 0
1.879022 -0.31098861 -0.31302083 0
2.5382891 -0.42010102 -0.36157024 0
3.0635631 -0.50703675 -0.36291945 0
3.8242433 -0.63293356 -0.36181203 0
5.1081061 -0.84542006 -0.36196268 0
7.6693225 -1.2693157 -0.3618997 0
15.358815 -2.5419695 -0.36195713 0
0.851192 -0.11889712 -0.31284329 0
0.91797274 -0.12822525 -0.31315705 0
0.98291653 -0.13729681 -0.30977213 0
1.0664542 -0.14896561 -0.30878887 0
1.1770822 -0.16441846 -0.31107694 0
1.2924932 -0.18053943 -0.30931282 0
1.4528129 -0.20293337 -0.31181094 0
1.6379522 -0.22879422 -0.31150511 0
1.8710141 -0.26134902 -0.31048912 0
2.5429132 -0.35520196 -0.36083698 0
3.0690842 -0.42869914 -0.36217642 0
3.8416743 -0.53661692 -0.36206454 0
5.109642 -0.71373051 -0.36068016 0
7.6994567 -1.0754838 -0.36192554 0
15.408419 -2.1522954 -0.36173072 0
0.84931952 -0.096858114 -0.31115752 0
0.90009117 -0.10264821 -0.30607566 0
0.98852116 -0.11273295 -0.31054288 0
1.0812988 -0.1233135 -0.31208655 0
1.1917233 -0.13590653 -0.31393978 0
1.3048502 -0.14880775 -0.31127211 0
1.4446691 -0.16475298 -0.3090722 0
1.6205348 -0.18480906 -0.30720776 0
1.8679696 -0.21302703 -0.30899328 0
2.557116 -0.29161867 -0.36169276 0
3.0766733 -0.35087004 -0.36191171 0
3.8443556 -0.43841806 -0.36115935 0
5.1418538 -0.58638734 -0.36179402 0
7.7161837 -0.87996912 -0.36155266 0
15.454644 -1.7624788 -0.36165646 0
0.85224783 -0.075464956 -0.31143337 0
0.92745364 -0.082124293 -0.31457525 0
1.0013291 -0.088665828 -0.31376356 0
1.0823743 -0.095842227 -0.31159955 0
1.1060537 -0.097938992 -0.29062784 0
1.1480799 -0.10166034 -0.27317548 0
1.4650619 -0.1297285 -0.31263497 0
1.6397486 -0.14519668 -0.31005669 0
1.8803145 -0.16649833 -0.31024137 0
2.5613008 -0.22679842 -0.36135995 0
3.0849569 -0.27316716 -0.36195982 0
3.8725457 -0.34290671 -0.36287907 0
5.1593895 -0.45685434 -0.36210126 0
7.7472658 -0.68600595 -0.36208248 0
15.486656 -1.3713145 -0.36148053 0
0.86320376 -0.054526817 -0.31483379 0
0.90730751 -0.057312757 -0.30715361 0
0.99358469 -0.062762715 -0.31074154 0
1.0792742 -0.068175539 -0.31011298 0
1.1278795 -0.071245842 -0.2957961 0
1.1430951 -0.072206981 -0.27146932 0
1.4507041 -0.091638006 -0.30897915 0
1.645916 -0.10396914 -0.31062776 0
1.8882892 -0.11927936 -0.31096143 0
2.5659173 -0.16208375 -0.36131907 0
3.0849779 -0.19487174 -0.36127016 0
3.8769288 -0.24489766 -0.36259511 0
5.1591053 -0.32589012 -0.36138895 0
7.7587047 -0.49010149 -0.36192372 0
15.531184 -0.98107308 -0.36182669 0
0.86133313 -0.032617453 -0.31375137 0
0.92118549 -0.034883976 -0.31145453 0
1.0019829 -0.037943661 -0.31296891 0
1.0977155 -0.041568913 -0.31501001 0
1.1385868 -0.043116651 -0.29822382 0
1.1301001 -0.042795274 -0.26804131 0
1.4424865 -0.0546249 -0.30683759 0
1.6594418 -0.062840685 -0.31278151 0
1.8825639 -0.071290001 -0.30962369 0
2.5649369 -0.097130485 -0.3607209 0
3.0832002 -0.11675637 -0.36060208 0
3.8734994 -0.14668387 -0.36181289 0
5.1644635 -0.19557083 -0.36130345 0
7.7606993 -0.29388657 -0.36155564 0
15.553937 -0.58900529 -0.36189517 0
0.86256796 -0.010883449 -0.31400111 0
0.92342436 -0.011651304 -0.3120127 0
1.0031071 -0.0126567 -0.31312051 0
1.090101 -0.013754345 -0.31262571 0
1.1257344 -0.014203951 -0.29466975 0
1.1338094 -0.014305837 -0.26874989 0
1.1349264 -0.01431993 -0.24126142 0
1.1229914 -0.014169341 -0.21153338 0
1.1114753 -0.014024037 -0.18268703 0
1.1167995 -0.014091213 -0.15696153 0
1.1050075 -0.01394243 -0.12915617 0
1.1330711 -0.014296521 -0.10576966 0
1.1202369 -0.014134585 -0.078321353 0
1.1282794 -0.014236063 -0.05253084 0
1.1310179 -0.014270616 -0.026298765 0
1.131393 -0.014275347 3.2302014e-05 0
1.1336659 -0.014304027 0.026425106 0
1.1287451 -0.014241938 0.05261711 0
1.1470691 -0.01447314 0.080263145 0
1.1349699 -0.014320479 0.10601228 0
1.1201968 -0.014134079 0.13099636 0
1.1446085 -0.014442095 0.16093664 0
0.97998857 -0.012365003 0.16113274 0
0.84980279 0.010722384 -0.30935419 0
0.9265579 0.011690841 -0.31307149 0
1.0010587 0.012630856 -0.31248114 0
1.093491 0.013797118 -0.31359792 0
1.1307431 0.014267148 -0.29598081 0
1.1514742 0.014528723 -0.27293703 0
1.4714313 0.01856578 -0.31279525 0
1.6529548 0.020856151 -0.31136045 0
1.8900423 0.023847602 -0.31065574 0
2.5780632 0.032528706 -0.3623361 0
3.0815034 0.038880859 -0.36017415 0
3.8710012 0.048842348 -0.36134934 0
5.1649122 0.065168262 -0.36110482 0
7.7744613 0.09809424 -0.36196616 0
15.549769 0.19619916 -0.36156785 0
0.84732205 0.032086872 -0.30864763 0
0.91966695 0.034826469 -0.3109411 0
1.0025764 0.037966132 -0.31315425 0
1.092464 0.041370045 -0.313503 0
1.1359673 0.043017451 -0.29753768 0
1.1494706 0.043528806 -0.27263567 0
1.4738609 0.055813 -0.31351134 0
1.6565442 0.062730961 -0.31223536 0
1.9024019 0.072041236 -0.31288642 0
2.5774903 0.097605869 -0.36248639 0
3.1048758 0.1175772 -0.36313719 0
3.8651371 0.14636721 -0.3610318 0
5.174747 0.19596025 -0.36202288 0
7.7669039 0.29412153 -0.36184469 0
15.533543 0.58823299 -0.36142066 0
0.92304546 0.058306895 -0.31248143 0
0.99986202 0.063159235 -0.31270474 0
1.0990638 0.069425613 -0.31579921 0
1.1288471 0.071306959 -0.29604986 0
1.1270388 0.071192741 -0.26765618 0
1.4524751 0.091749884 -0.30935636 0
1.6447202 0.10389361 -0.3104021 0
1.9022348 0.12016027 -0.31325796 0
2.5677845 0.16220169 -0.36158198 0
3.0925963 0.19535299 -0.36216235 0
3.8588049 0.24375282 -0.36090007 0
5.1736083 0.32680625 -0.36240485 0
7.7567024 0.48997504 -0.36183035 0
15.52837 0.98089534 -0.36176112 0
0.85767919 0.075945891 -0.31341812 0
0.91583353 0.081095353 -0.31063393 0
0.98985302 0.087649643 -0.31016755 0
1.0841086 0.095995791 -0.31209883 0
1.1795131 0.10444368 -0.30993009 0
1.3089844 0.11590813 -0.3114613 0
1.4527838 0.12864131 -0.3100149 0
1.6400462 0.14522305 -0.31011298 0
1.9050837 0.16869162 -0.31432816 0
2.570493 0.22761236 -0.36265683 0
3.0762067 0.27239239 -0.36093318 0
3.8570292 0.34153274 -0.36142507 0
5.1517873 0.45618117 -0.36156771 0
7.7492838 0.68618464 -0.36217681 0
15.501583 1.3726363 -0.36182892 0
0.85476524 0.097479157 -0.31315264 0
0.92952949 0.10600542 -0.31608614 0
0.98425698 0.11224665 -0.3092033 0
1.0872175 0.12398848 -0.31379482 0
1.1731335 0.13378651 -0.3090426 0
1.2944766 0.14762473 -0.30879751 0
1.4528383 0.16568461 -0.31081989 0
1.6580741 0.18909012 -0.31432414 0
1.8821373 0.21464273 -0.31133682 0
2.5686257 0.29293126 -0.36332077 0
3.0640662 0.34943229 -0.36042869 0
3.8594303 0.44013721 -0.36257553 0
5.1421247 0.58641827 -0.36181307 0
7.7113338 0.87941605 -0.36132541 0
15.474234 1.7647128 -0.36211488 0
0.84220678 0.11764204 -0.30954093 0
0.92310071 0.12894155 -0.31490642 0
0.98233378 0.13721541 -0.30958849 0
1.0880704 0.15198503 -0.3150478 0
1.1832365 0.16527812 -0.3127034 0
1.3083172 0.18274978 -0.31309974 0
1.4556429 0.20332868 -0.31241834 0
1.6425333 0.2294341 -0.31237632 0
1.8953992 0.26475519 -0.31453574 0
2.557574 0.35724983 -0.36291733 0
3.0623229 0.42775467 -0.36137849 0
3.8310418 0.53513175 -0.36106244 0
5.1135049 0.71427011 -0.36095285 0
7.6955528 1.0749385 -0.36174202 0
15.413212 2.1529648 -0.36184326 0
0.83759481 0.13862661 -0.30903336 0
0.91368407 0.15121982 -0.3128964 0
0.97565186 0.16147582 -0.30866876 0
1.0689539 0.17691782 -0.31070659 0
1.1791786 0.19516064 -0.31283313 0
1.3001719 0.2151857 -0.31235072 0
1.4371473 0.2378559 -0.30963853 0
1.6325078 0.27018914 -0.31166729 0
1.8870664 0.31231999 -0.31436092 0
2.5439236 0.42103353 -0.36237285 0
3.044476 0.50387776 -0.36065835 0
3.8265676 0.63331831 -0.36203194 0
5.1063542 0.84513015 -0.36183855 0
7.6661663 1.2687932 -0.36175075 0
15.35313 2.5410287 -0.36182314 0
0.84191757 0.16126485 -0.31203061 0
0.91162246 0.17461646 -0.31359977 0
0.99594575 0.19076814 -0.31651166 0
1.0589956 0.20284501 -0.30920172 0
1.1711743 0.22433223 -0.31211227 0
1.2794441 0.24507074 -0.30875877 0
1.3445134 0.25753444 -0.290988 0
1.3508453 0.25874728 -0.25905851 0
1.3473376 0.25807539 -0.22546236 0
1.3463583 0.25788781 -0.19264974 0
1.3435347 0.25734696 -0.15987793 0
1.3384829 0.25637931 -0.12720568 0
5.0661578 0.97039574 -0.36061084 0
7.6248116 1.4604923 -0.36142364 0
15.292754 2.9292462 -0.36202732 0
0.84464723 0.18399528 -0.31466317 0
0.89611429 0.1952067 -0.30986109 0
0.97710639 0.21284975 -0.31213236 0
1.0538472 0.22956672 -0.30929172 0
1.1606539 0.25283319 -0.31091025 0
1.2085376 0.263264 -0.29315752 0
1.2008251 0.26158395 -0.26123577 0
1.2010025 0.26162258 -0.23151496 0
1.2086856 0.26329625 -0.20330773 0
1.1977652 0.2609174 -0.17227507 0
1.1860229 0.25835946 -0.14186512 0
1.2017623 0.2617881 -0.11480353 0
5.052897 1.1007071 -0.36152926 0
7.5817757 1.65159 -0.36124453 0
15.187246 3.3083415 -0.36139119 0
0.82641137 0.20199119 -0.30967021 0
0.88839626 0.21714151 -0.30898896 0
0.96875423 0.23678258 -0.31127423 0
1.0506341 0.25679564 -0.31015211 0
1.1516379 0.28148296 -0.31029934 0
1.2025265 0.29392111 -0.29340544 0
1.1993724 0.29315019 -0.26244575 0
1.2012922 0.29361942 -0.23292516 0
1.2086284 0.29541254 -0.20448712 0
1.1997833 0.29325065 -0.1735746 0
1.2081918 0.29530579 -0.14536205 0
1.2094886 0.2956228 -0.11621737 0
5.0288796 1.2291571 -0.36191523 0
7.5523639 1.8459462 -0.36194775 0
15.126938 3.6973209 -0.36206138 0
0.82063299 0.22266439 -0.30951223 0
0.89264315 0.24220309 -0.31249267 0
0.94829679 0.25730374 -0.30668995 0
1.0491518 0.28466895 -0.31173623 0
1.1445663 0.31055802 -0.31040701 0
1.193813 0.32392025 -0.29318079 0
1.2032003 0.32646737 -0.26500201 0
1.188867 0.32257825 -0.23202069 0
1.2063711 0.3273277 -0.20543753 0
1.2090963 0.32806712 -0.17606375 0
1.2129084 0.32910144 -0.1468821 0
1.2163109 0.33002466 -0.11763581 0
4.9956083 1.3554708 -0.36186758 0
7.5029659 2.0357985 -0.36192754 0
15.026449 4.0771637 -0.36200386 0
0.8392238 0.25060606 -0.31880805 0
0.87967807 0.26268637 -0.3101761 0
0.95589566 0.2854462 -0.31137833 0
1.0516653 0.31404456 -0.31473795 0
1.1420554 0.34103656 -0.31196105 0
1.1971408 0.35748598 -0.29611954 0
1.2019788 0.35893068 -0.26664329 0
1.2101843 0.36138096 -0.2378853 0
1.2173506 0.36352095 -0.20880321 0
1.2036546 0.35943112 -0.17653611 0
1.2162536 0.36319336 -0.14835003 0
1.204372 0.35964537 -0.11732168 0
4.9595633 1.4810073 -0.36184901 0
7.4475117 2.2239497 -0.36184493 0
14.908078 4.451798 -0.36174384 0
0.81394231 0.26560146 -0.31165132 0
0.86821193 0.28331047 -0.30855617 0
0.94639456 0.3088226 -0.31072342 0
1.0425496 0.34019941 -0.31447938 0
1.1338784 0.37000135 -0.31217888 0
1.2096907 0.39474005 -0.30159217 0
1.215126 0.39651367 -0.27169335 0
1.1933674 0.38941351 -0.23643626 0
1.2072682 0.39394954 -0.2087128 0
1.2006624 0.391794 -0.17749104 0
1.2087433 0.39443091 -0.14860091 0
1.2049087 0.3931796 -0.11830296 0
4.9144297 1.6036514 -0.36139399 0
7.3871255 2.4105287 -0.36175174 0
14.801626 4.8299909 -0.36200351 0
0.80115491 0.283988 -0.30940101 0
0.86906958 0.30806193 -0.31152499 0
0.94111502 0.3336001 -0.31165516 0
1.0248291 0.36327451 -0.31180048 0
1.129032 0.40021166 -0.31352574 0
1.1935459 0.42308012 -0.30013368 0
1.2015766 0.42592677 -0.2709811 0
1.2119308 0.42959708 -0.24218524 0
1.1875901 0.42096892 -0.20708174 0
1.209567 0.42875916 -0.18034966 0
1.2178713 0.43170282 -0.15101451 0
1.2035164 0.42661437 -0.11918548 0
1.4919388 0.5288524 -0.11065949 0
7.3202353 2.5948277 -0.36156809 0
14.656374 5.1952925 -0.36154282 0
0.79566538 0.30485126 -0.31015363 0
0.86393285 0.33100727 -0.3125788 0
0.93101144 0.35670778 -0.31119159 0
1.00773 0.38610175 -0.30946442 0
1.1094975 0.42509297 -0.31098145 0
1.2145779 0.46535346 -0.30827776 0
1.2019836 0.46052808 -0.27360708 0
1.2125882 0.46459112 -0.24458192 0
1.1952196 0.45793653 -0.21036048 0
1.199298 0.45949915 -0.18049026 0
1.206478 0.46225005 -0.15100032 0
1.2063665 0.46220735 -0.12058459 0
4.8224378 1.847669 -0.36103186 0
7.2538848 2.779254 -0.36164036 0
14.523087 5.5643764 -0.36160412 0
0.80717218 0.3328509 -0.3178125 0
0.85420489 0.35224566 -0.31217635 0
0.91102314 0.37567559 -0.30758178 0
1.0002309 0.41246191 -0.31025958 0
1.0952904 0.45166129 -0.31009576 0
1.2017083 0.49554446 -0.30808759 0
1.2103469 0.49910676 -0.27828965 0
1.2119988 0.49978796 -0.24692872 0
1.2077135 0.4980208 -0.21470329 0
1.1996464 0.4946942 -0.18236363 0
1.213113 0.50024736 -0.15336211 0
1.2073586 0.49787444 -0.12190098 0
4.786377 1.9737424 -0.36194631 0
7.1888943 2.9644606 -0.36201513 0
14.395682 5.9362998 -0.36204708 0
0.77525884 0.34282571 -0.30855566 0
0.8443473 0.37337717 -0.31191841 0
0.91893983 0.40636262 -0.3136175 0
0.99971551 0.44208229 -0.31346089 0
1.0847943 0.4797048 -0.31045303 0
1.2002811 0.530774 -0.31105712 0
1.209528 0.53486305 -0.28111568 0
1.1897776 0.52612925 -0.24502882 0
1.2207108 0.53980815 -0.21936613 0
1.2026535 0.5318231 -0.18480235 0
1.2123654 0.53611779 -0.15492888 0
1.2124755 0.53616649 -0.1237445 0
4.7375507 2.0949831 -0.36213717 0
7.1121349 3.1450436 -0.3620317 0
14.233341 6.2940984 -0.36184424 0
0.77283621 0.36533755 -0.31116226 0
0.84018117 0.39717305 -0.31398255 0
0.90895748 0.42968521 -0.3138119 0
0.98424423 0.46527499 -0.31219247 0
1.0798836 0.51048589 -0.31263536 0
1.1849123 0.56013542 -0.31063902 0
1.3113102 0.61988664 -0.3083097 0
1.4963859 0.70737618 -0.31175086 0
1.7038543 0.80545133 -0.30974329 0
2.3165329 1.0950786 -0.3600958 0
2.8095334 1.3281313 -0.36319986 0
3.5027719 1.6558412 -0.36164078 0
4.6803188 2.2124949 -0.36191562 0
7.0214653 3.3192089 -0.36156553 0
14.063587 6.6481824 -0.3616792 0
0.76457703 0.38532779 -0.31165332 0
0.82084113 0.41368347 -0.31055799 0
0.88794965 0.44750449 -0.31035963 0
0.9678936 0.48779425 -0.31081229 0
1.0698715 0.53918856 -0.31357673 0
1.1658577 0.58756322 -0.3094328 0
1.3003364 0.6553371 -0.30951986 0
1.4572444 0.73441488 -0.30736008 0
1.697093 0.85529256 -0.31233892 0
1.9981631 1.0070244 -0.31445724 0
2.7687447 1.3953782 -0.36236429 0
3.4604001 1.7439554 -0.36169532 0
4.6230335 2.3298936 -0.36191782 0
6.9296117 3.4923518 -0.36125943 0
13.903799 7.0071683 -0.36200282 0
0.75391859 0.40412474 -0.31136715 0
0.80886114 0.43357572 -0.31006691 0
0.87775898 0.4705072 -0.3108494 0
0.95976508 0.51446509 -0.31227225 0
1.0331323 0.5537923 -0.30680752 0
1.139342 0.61072415 -0.30638874 0
1.2869773 0.68986142 -0.31038558 0
1.4647847 0.78517199 -0.31303057 0
1.6897066 0.90573734 -0.31508636 0
1.9716834 1.056886 -0.3143878 0
2.7286124 1.4626244 -0.36182803 0
3.4263148 1.8366154 -0.36286217 0
4.5779614 2.4539351 -0.36312228 0
6.8501549 3.6719046 -0.3618333 0
13.705761 7.3467307 -0.36155927 0
0.75075185 0.42715445 -0.3144117 0
0.8039422 0.45741808 -0.31250733 0
0.86494422 0.49212635 -0.31061095 0
0.94536036 0.5378806 -0.31190315 0
1.041208 0.59241498 -0.31354618 0
1.1351415 0.64586014 -0.30954415 0
1.2095312 0.68818557 -0.29580238 0
1.2157121 0.69170237 -0.26344964 0
1.6444932 0.93566549 -0.31095988 0
1.9280283 1.0969881 -0.3117424 0
2.689214 1.5300791 -0.36160937 0
3.3840506 1.9254194 -0.36341697 0
4.5065575 2.564091 -0.36247635 0
6.7523699 3.8418884 -0.36167488 0
13.527496 7.6967239 -0.36186591 0
0.73029011 0.44026649 -0.31039718 0
0.781519 0.47115058 -0.30831522 0
0.85856539 0.51759917 -0.3129119 0
0.92989582 0.56060177 -0.31136999 0
1.0216669 0.61592734 -0.31224346 0
1.1231558 0.67711151 -0.31083697 0
1.1443344 0.68987936 -0.28402567 0
1.1462271 0.69102037 -0.25209114 0
1.6210272 0.97726083 -0.31108755 0
1.8982201 1.1443708 -0.31149355 0
2.6490967 1.5970482 -0.36151987 0
3.3258688 2.0050504 -0.36248794 0
4.4403353 2.6769233 -0.36246872 0
6.6472516 4.0073962 -0.36134684 0
13.325592 8.033535 -0.36177358 0
0.72780627 0.46420133 -0.31422108 0
0.78338867 0.49965227 -0.31392789 0
0.84463245 0.53871411 -0.31268975 0
0.90438098 0.57682222 -0.30760333 0
1.017929 0.64924413 -0.31600845 0
1.0991098 0.70102203 -0.30898041 0
1.1524788 0.73506123 -0.29055929 0
1.142557 0.728733 -0.25524777 0
1.6112233 1.0276526 -0.31408358 0
1.8781519 1.197902 -0.31306204 0
2.6007659 1.6587917 -0.36052287 0
3.2733216 2.0877538 -0.3623884 0
4.370544 2.7875717 -0.36239937 0
6.5497942 4.1775169 -0.3616654 0
13.118201 8.3669052 -0.36176103 0
0.71565759 0.48227882 -0.3141312 0
0.76241374 0.51378763 -0.31062013 0
0.8314895 0.56033748 -0.31296009 0
0.9146567 0.61638355 -0.31628895 0
0.98940134 0.66675365 -0.31227699 0
1.0919998 0.73589432 -0.31210354 0
1.1422362 0.76974851 -0.29278177 0
1.1408215 0.76879507 -0.25911233 0
1.5812246 1.065581 -0.3133786 0
1.83259 1.2349751 -0.3105641 0
2.5737557 1.7344439 -0.3627314 0
3.2163916 2.1675136 -0.36202687 0
4.290524 2.8913672 -0.36170006 0
6.4440603 4.342627 -0.36176386 0
12.89966 8.6930304 -0.36166966 0
0.69733322 0.49596575 -0.31148323 0
0.74621242 0.53073019 -0.30937833 0
0.81470609 0.57944506 -0.31204817 0
0.886998 0.6308614 -0.31213108 0
0.96614361 0.68715227 -0.31031138 0
1.072378 0.76270962 -0.31189799 0
1.1924794 0.84812951 -0.31104806 0
1.1352651 0.80743694 -0.26239538 0
1.5372577 1.0933468 -0.31003517 0
1.8111844 1.2881724 -0.31234685 0
2.5252526 1.7960405 -0.36216891 0
3.1602604 2.2476785 -0.36197892 0
4.2142358 2.9972994 -0.36153105 0
6.3439021 4.5119863 -0.36241868 0
12.682473 9.0201817 -0.36184809 0
0.68794799 0.51591486 -0.31300765 0
0.73099744 0.54819906 -0.30870828 0
0.80032831 0.60019255 -0.31224385 0
0.87210786 0.6540224 -0.31260046 0
0.95901859 0.7191996 -0.31375313 0
1.0459061 0.78435946 -0.30985776 0
1.1029738 0.82715642 -0.29305348 0
1.0947231 0.82096893 -0.25773191 0
1.0964094 0.82223356 -0.22523822 0
1.086989 0.81516886 -0.19094341 0
1.1061715 0.82955444 -0.16159719 0
1.0985053 0.82380527 -0.12816444 0
1.0950742 0.82123214 -0.095691927 0
1.102934 0.82712656 -0.06418132 0
1.1077298 0.83072311 -0.032192979 0
0.670178 0.52952582 -0.31090426 0
0.72796851 0.57518768 -0.31346008 0
0.7846151 0.6199457 -0.31211856 0
0.85147971 0.67277724 -0.31119382 0
0.93838954 0.74144703 -0.31302673 0
1.031863 0.81530291 -0.31169432 0
1.0938151 0.86425298 -0.29632124 0
1.1072944 0.87490338 -0.26580569 0
1.1029221 0.8714487 -0.23102096 0
1.0959569 0.86594528 -0.19629543 0
1.1015711 0.87038124 -0.16408205 0
1.0933304 0.86387002 -0.13006309 0
1.1025891 0.8711856 -0.098238721 0
1.1001887 0.86928892 -0.065277502 0
1.0981905 0.86771017 -0.032541849 0
0.66028529 0.54932898 -0.31264728 0
0.70797384 0.58900386 -0.31115255 0
0.76638383 0.6375984 -0.31116861 0
0.84092873 0.69961661 -0.3136912 0
0.91789353 0.76364803 -0.31251946 0
1.0062474 0.83715469 -0.3102403 0
1.1115396 0.92475319 -0.30734792 0
1.0914993 0.90808052 -0.2674306 0
1.0975896 0.91314745 -0.23465674 0
1.0939312 0.91010374 -0.19998306 0
1.0973411 0.91294068 -0.16683099 0
1.0982658 0.91370994 -0.1333511 0
1.1014407 0.91635138 -0.10016514 0
1.0925982 0.90899479 -0.066167288 0
1.0906475 0.90737182 -0.03298644 0
1.095733 0.91160285 4.0691724e-05 0
1.1512266 0.95777112 0.13986784 0
0.64613295 0.56574196 -0.31260759 0
0.70469123 0.61701453 -0.31645331 0
0.74143195 0.64918399 -0.30759221 0
0.81577098 0.71427387 -0.31093243 0
0.90273666 0.79041934 -0.31405118 0
0.9770568 0.85549271 -0.30779943 0
1.057795 0.92618561 -0.29885566 0
1.1068344 0.96912354 -0.27709258 0
1.0986209 0.96193194 -0.23999129 0
1.0952418 0.95897323 -0.20458218 0
1.1053432 0.9678179 -0.17170654 0
1.1024379 0.96527404 -0.13677222 0
1.1004065 0.96349537 -0.10224998 0
1.0925763 0.95663941 -0.06760662 0
1.1023202 0.96517104 -0.034065396 0
1.0961745 0.95978993 4.1594474e-05 0
0.62731063 0.57786435 -0.31045854 0
0.68155879 0.62783647 -0.31308147 0
0.73424476 0.67636955 -0.31159335 0
0.79272741 0.73024249 -0.30907574 0
0.87283838 0.80403888 -0.31061077 0
0.95859444 0.88303536 -0.3089059 0
1.0076529 0.92822689 -0.29121533 0
1.0956552 1.0092926 -0.28058177 0
1.1009897 1.0142066 -0.24602214 0
1.0956173 1.0092578 -0.20934376 0
1.0887169 1.0029013 -0.17300074 0
1.1030864 1.0161381 -0.13998985 0
1.1035241 1.0165412 -0.10489028 0
1.0905368 1.0045776 -0.069027334 0
1.0958511 1.0094731 -0.034641806 0
1.0898072 1.0039057 4.2300831e-05 0
1.1003004 1.0135717 0.03486792 0
0.62134457 0.60204798 -0.31492573 0
0.66340017 0.64279747 -0.3120932 0
0.71847141 0.69615847 -0.31225654 0
0.77369428 0.74966633 -0.30893359 0
0.82893288 0.8031894 -0.30210418 0
0.85441929 0.82788432 -0.28197917 0
0.84230477 0.81614602 -0.24930283 0
0.84949923 0.82311702 -0.22279386 0
0.83126229 0.80544645 -0.19023205 0
0.8323229 0.80647415 -0.16287246 0
0.84403116 0.81781876 -0.13735552 0
0.83195227 0.80611503 -0.1081285 0
0.83857673 0.81253374 -0.081630208 0
0.84013647 0.81404507 -0.054460958 0
0.84159857 0.81546175 -0.027246369 0
1.0962216 1.0621772 4.3576492e-05 0
1.0914317 1.057536 0.035421424 0
0.99687713 0.96591794 0.064700939 0
1.0003392 0.96927249 0.097456694 0
1.0055665 0.9743374 0.13077369 0
1.0063493 0.97509593 0.16385187 0
1.0099338 0.97856915 0.19770999 0
1.0169959 0.98541188 0.23281972 0
0.60599601 0.61757368 -0.31494626 0
0.65212679 0.66458583 -0.31458053 0
0.69280416 0.70604038 -0.30874759 0
0.77270317 0.78746587 -0.31637308 0
0.8260408 0.8418225 -0.30869523 0
0.84526765 0.8614167 -0.28604299 0
0.8461194 0.86228472 -0.2567915 0
0.84543431 0.86158651 -0.22735848 0
0.837138 0.85313177 -0.19644172 0
0.83219689 0.84809625 -0.16698328 0
0.84376884 0.85988927 -0.14079985 0
0.82721019 0.84301424 -0.1102424 0
0.84295046 0.85905528 -0.084139749 0
0.83241552 0.84831899 -0.055330765 0
0.83974099 0.85578448 -0.027876617 0
1.1025916 1.123657 4.4942753e-05 0
1.0950105 1.1159309 0.036440033 0
0.94080037 0.95877457 0.062611982 0
0.94416142 0.96219987 0.094319545 0
0.96401149 0.98242921 0.12855321 0
0.93261492 0.95043278 0.15570268 0
0.96651036 0.98497581 0.1940141 0
0.95964158 0.97797579 0.2252686 0
0.58587068 0.62800372 -0.31262487 0
0.6274277 0.67254931 -0.31075528 0
0.67650396 0.72515494 -0.3095412 0
0.73697639 0.78997618 -0.30980998 0
0.81528503 0.87391639 -0.31281886 0
0.83632571 0.89647025 -0.2905812 0
0.84239012 0.90297079 -0.26249275 0
0.84119433 0.90168899 -0.2322644 0
0.84080458 0.90127122 -0.20257543 0
0.83674389 0.89691854 -0.17238301 0
0.84428352 0.90500039 -0.1446512 0
0.84471375 0.90546155 -0.11558391 0
0.84090197 0.90137565 -0.086178623 0
0.83541137 0.89549017 -0.057014056 0
0.83364183 0.89359337 -0.028413795 0
0.82906836 0.88869101 3.4696874e-05 0
1.104654 1.1840955 0.037743468 0
0.93154562 0.9985379 0.063653037 0
0.9259885 0.99258119 0.094976477 0
0.92767256 0.99438637 0.12701367 0
0.88659906 0.95035905 0.15197636 0
0.92402309 0.99047446 0.19044283 0
0.92314863 0.98953706 0.22249398 0
0.56171513 0.63342488 -0.30816793 0
0.61492628 0.69342905 -0.31313202 0
0.67332619 0.75928444 -0.31675482 0
0.71173924 0.8026014 -0.30761841 0
0.78293031 0.88288087 -0.30885607 0
0.85475683 0.9638769 -0.30534038 0
0.84040219 0.94768971 -0.26924077 0
0.84526253 0.95317054 -0.23995374 0
0.8435235 0.95120949 -0.20894814 0
0.83247149 0.93874657 -0.17632782 0
0.83959055 0.94677448 -0.14789411 0
0.8374657 0.94437832 -0.11781605 0
0.8353104 0.94194788 -0.088013977 0
0.84987199 0.95836842 -0.059632722 0
0.83540297 0.94205225 -0.029274892 0
0.84529722 0.95320964 3.6371315e-05 0
1.1001841 1.240636 0.038648307 0
1.1024051 1.2431405 0.077447213 0
1.0953122 1.2351421 0.11550426 0
0.85471857 0.96383375 0.15063347 0
0.55501866 0.65862685 -0.31351402 0
0.59435004 0.70530039 -0.31161961 0
0.64646304 0.76714164 -0.31312627 0
0.70067859 0.83147788 -0.31180876 0
0.7306729 0.86707133 -0.29677963 0
0.84853184 1.0069317 -0.31209576 0
0.83673364 0.99293101 -0.27600625 0
0.83414173 0.98985529 -0.24381131 0
0.83675319 0.99295419 -0.21341097 0
0.83347285 0.98906153 -0.18176949 0
0.84542555 1.0032455 -0.1533334 0
0.8361153 0.99219728 -0.12111046 0
0.84004551 0.99686116 -0.091134883 0
0.83414412 0.98985815 -0.060262937 0
0.84179813 0.99894094 -0.030372836 0
0.84736294 1.0055445 3.7540249e-05 0
0.84882545 1.0072801 0.030701637 0
1.1027545 1.3086114 0.079766676 0
1.0887482 1.2919905 0.11821309 0
0.81319743 0.96500123 0.14756128 0
0.53796935 0.67210251 -0.31336558 0
0.57406825 0.71720201 -0.31037763 0
0.61768192 0.77168995 -0.30852124 0
0.68203866 0.85209292 -0.31298453 0
0.72144741 0.90132755 -0.30217615 0
0.81726432 1.0210347 -0.309975 0
0.85641342 1.069945 -0.29131278 0
0.8425709 1.052651 -0.25395972 0
0.84140539 1.051195 -0.2212937 0
0.84610665 1.0570683 -0.19028258 0
0.83216381 1.0396491 -0.15563764 0
0.83766925 1.0465273 -0.12512164 0
0.83840489 1.0474464 -0.093795076 0
0.83367729 1.0415399 -0.062108573 0
0.83871514 1.0478339 -0.031205868 0
0.84448999 1.0550486 3.8580387e-05 0
0.83588344 1.0442961 0.031176925 0
1.1019573 1.3767109 0.082196221 0
1.0992011 1.3732674 0.12307211 0
1.0999814 1.3742423 0.16440427 0
0.76543492 0.95628256 0.14322838 0
0.52257454 0.68774438 -0.31440902 0
0.55731028 0.73345912 -0.31122676 0
0.6063596 0.79801136 -0.3128264 0
0.66007793 0.86870849 -0.31286865 0
0.71865755 0.94580328 -0.31090698 0
0.72784966 0.9579007 -0.2851404 0
0.73153937 0.96275669 -0.25701991 0
0.72832203 0.95852244 -0.22674347 0
0.72992152 0.96062744 -0.19828638 0
0.72861278 0.9589051 -0.16924806 0
0.72530609 0.95455325 -0.14011353 0
0.7317009 0.96296924 -0.11288765 0
0.72744745 0.95737141 -0.084058344 0
0.73020673 0.96100283 -0.056189142 0
0.7394467 0.97316331 -0.028417222 0
0.73155373 0.96277559 3.4520039e-05 0
0.72524679 0.95447516 0.027939996 0
0.72612691 0.95563346 0.055943873 0
0.72977161 0.96043015 0.084396109 0
0.73147023 0.96266568 0.1129217 0
0.74079299 0.97493505 0.14317614 0
0.50104743 0.69514948 -0.31191376 0
0.53410006 0.74100649 -0.30861104 0
0.58671731 0.81400722 -0.31319225 0
0.64424634 0.89382261 -0.31595686 0
0.69557917 0.9650414 -0.31136084 0
0.72380692 1.0042043 -0.29339233 0
0.86539918 1.2006484 -0.31459695 0
0.8455894 1.1731645 -0.27238289 0
0.85202956 1.1820995 -0.23948611 0
0.83472985 1.158098 -0.2006235 0
0.83909982 1.1641608 -0.16771865 0
0.84533012 1.1728047 -0.13494231 0
0.83565861 1.1593865 -0.099911861 0
0.83868468 1.1635848 -0.066775046 0
0.83738095 1.1617761 -0.033297129 0
0.83321851 1.1560011 4.0681116e-05 0
0.83324307 1.1560353 0.033213999 0
0.83759552 1.1620739 0.0667703 0
1.1048341 1.5328386 0.13220306 0
1.1009054 1.527388 0.17584892 0
1.1095408 1.5393687 0.22188403 0
0.48604202 0.71151292 -0.31365186 0
0.51241511 0.75012028 -0.30692273 0
0.56241184 0.82331008 -0.31121096 0
0.62082708 0.90882373 -0.31562021 0
0.67039996 0.98139304 -0.31107831 0
0.74616492 1.0923047 -0.31353009 0
0.83482277 1.2220902 -0.31459418 0
0.93020236 1.3617156 -0.31061044 0
0.84554124 1.2377809 -0.24636491 0
0.84389919 1.2353772 -0.21025425 0
0.84016657 1.2299129 -0.17408104 0
0.84687889 1.2397391 -0.14013979 0
0.83709723 1.2254198 -0.10374863 0
0.83920097 1.2284994 -0.069262765 0
0.84427536 1.2359278 -0.034800556 0
0.84030849 1.2301208 4.252958e-05 0
0.84742188 1.2405339 0.035016079 0
0.83807081 1.226845 0.06925451 0
0.84065735 1.2306315 0.10427539 0
1.1012599 1.6121255 0.18234669 0
1.099942 1.610196 0.22801891 0
0.47192255 0.72971535 -0.31632459 0
0.501674 0.77571887 -0.31211665 0
0.54280293 0.83931488 -0.3119829 0
0.59305745 0.91702151 -0.31316924 0
0.64702749 1.0004733 -0.31185067 0
0.71867466 1.1112585 -0.31366417 0
0.79319102 1.2264801 -0.31047192 0
0.90396237 1.3977616 -0.3135286 0
1.0222867 1.5807219 -0.30938902 0
0.8493979 1.3133906 -0.21981309 0
0.85078007 1.3155278 -0.18310136 0
0.82792652 1.2801903 -0.14230499 0
0.83922398 1.2976592 -0.10803701 0
0.83194256 1.2864002 -0.07132066 0
0.84289163 1.3033303 -0.03608793 0
0.83519632 1.2914313 4.3906526e-05 0
0.83125973 1.2853444 0.035677362 0
0.8445124 1.3058364 0.072487235 0
0.83654726 1.2935202 0.10778081 0
0.83868659 1.2968282 0.14424339 0
1.0996314 1.700317 0.23677531 0
1.0964656 1.6954217 0.28386855 0
0.44363773 0.72548962 -0.30954042 0
0.48221737 0.7885797 -0.31229487 0
0.51660335 0.84481174 -0.30908114 0
0.56942081 0.93118525 -0.31299859 0
0.62095451 1.0154593 -0.31153756 0
0.68055898 1.1129317 -0.30918974 0
0.75513923 1.2348943 -0.3076793 0
0.85392708 1.3964441 -0.30830055 0
0.9871316 1.6142761 -0.31098107 0
1.1627004 1.9013871 -0.3132109 0
0.84272271 1.3781213 -0.1887929 0
0.84073418 1.3748695 -0.15042283 0
0.84721398 1.385466 -0.11353101 0
0.84026539 1.3741027 -0.074983411 0
0.84455419 1.3811164 -0.037639551 0
0.84301937 1.3786064 4.6132263e-05 0
0.84179133 1.3765981 0.037608597 0
0.84244448 1.3776664 0.075270273 0
0.83581948 1.3668323 0.112096 0
0.82269382 1.3453677 0.14728589 0
1.0934912 1.7882079 0.24509318 0
1.0917926 1.7854303 0.29423147 0
0.46167615 0.79964489 -0.31196305 0
0.50621539 0.87678897 -0.31600529 0
0.54044491 0.9360761 -0.30995893 0
0.58955908 1.0211442 -0.30861831 0
0.65132201 1.1281205 -0.30874416 0
0.73229027 1.2683613 -0.31131369 0
0.83064461 1.4387157 -0.31290495 0
0.95043832 1.6462041 -0.31241116 0
1.1079377 1.9190005 -0.31140685 0
1.3278596 2.2999156 -0.31038219 0
0.84803021 1.4688284 -0.15831062 0
0.84761328 1.4681063 -0.11851214 0
0.8331179 1.4429996 -0.077570915 0
0.83671278 1.449226 -0.03890783 0
0.83713472 1.4499569 4.7797617e-05 0
0.83797467 1.4514117 0.039062254 0
0.84299254 1.4601029 0.078586802 0
0.84142077 1.4573805 0.11774287 0
0.84479469 1.4632243 0.15780392 0
0.84171498 1.4578902 0.19684516 0
1.1019821 1.9086851 0.30986121 0
0.41717574 0.76660967 -0.31768936 0
0.4378854 0.8046661 -0.30951178 0
0.48020232 0.88242847 -0.31356984 0
0.51528168 0.94689089 -0.3091352 0
0.56907141 1.045736 -0.31161055 0
0.62068319 1.1405786 -0.30776834 0
0.69166487 1.2710159 -0.30758256 0
0.78688401 1.4459922 -0.31006941 0
0.90598595 1.6648562 -0.31151223 0
1.0584183 1.9449686 -0.31118679 0
1.2761232 2.345027 -0.31202418 0
1.2969968 2.3833849 -0.25327286 0
0.84711874 1.5566807 -0.12389688 0
0.83570677 1.5357099 -0.081394933 0
0.83684266 1.5377972 -0.040705722 0
0.83443624 1.533375 4.9837367e-05 0
0.83508515 1.5345675 0.040720038 0
0.8383621 1.5405893 0.08175391 0
0.84370583 1.5504091 0.123499 0
0.84042758 1.5443848 0.16421692 0
0.84225756 1.5477477 0.20604192 0
1.0960525 2.0141258 0.32238519 0
0.38964078 0.76114678 -0.31125104 0
0.41922206 0.81893259 -0.3108305 0
0.45482498 0.88848144 -0.31154236 0
0.49345845 0.96395022 -0.31053966 0
0.5442031 1.0630777 -0.31258571 0
0.59291923 1.1582427 -0.30839854 0
0.66278261 1.2947179 -0.3091718 0
0.75646973 1.4777316 -0.31268176 0
0.86393869 1.6876677 -0.31160134 0
1.0122908 1.9774674 -0.31219929 0
1.2120988 2.3677838 -0.31088263 0
1.2452542 2.4325514 -0.25507653 0
1.2499408 2.4417064 -0.19176453 0
0.84161001 1.6440496 -0.085983895 0
0.83202469 1.6253251 -0.042453218 0
0.83904845 1.6390457 5.2566826e-05 0
0.83770567 1.6364226 0.042848106 0
0.84078676 1.6424415 0.086005367 0
0.84293604 1.6466399 0.12942846 0
0.8454721 1.651594 0.17329246 0
0.83791494 1.6368314 0.21501729 0
0.83463055 1.6304156 0.25751394 0
0.36959186 0.76923615 -0.31064555 0
0.39723909 0.82677865 -0.30990446 0
0.43617174 0.90780967 -0.31435955 0
0.46790612 0.97385883 -0.30982864 0
0.51404786 1.0698942 -0.31067622 0
0.56420159 1.1742798 -0.30877876 0
0.6306904 1.3126638 -0.30955744 0
0.70948678 1.4766636 -0.30856851 0
0.82601273 1.7191905 -0.31347248 0
0.96748674 2.0136421 -0.31395537 0
1.1517204 2.39709 -0.31081489 0
1.443282 3.0039208 -0.31107137 0
2.2481139 4.6790276 -0.36290547 0
3.3678334 7.0095134 -0.36203715 0
0.84879434 1.7666062 -0.04556939 0
0.83861196 1.7454134 5.5281784e-05 0
0.84168881 1.7518175 0.045298941 0
0.84526283 1.759256 0.090976194 0
0.83826423 1.7446897 0.13542922 0
0.8352682 1.7384541 0.18013689 0
0.84288424 1.7543055 0.22758189 0
0.83915693 1.7465477 0.27242437 0
0.35404783 0.78717029 -0.31417933 0
0.38195196 0.84921074 -0.31459913 0
0.40902448 0.90940225 -0.3112371 0
0.44475904 0.9888525 -0.31092852 0
0.48463261 1.0775051 -0.30923596 0
0.53518951 1.1899105 -0.30923852 0
0.60300624 1.3406905 -0.31247824 0
0.68027848 1.5124933 -0.3123683 0
0.77725011 1.7280947 -0.31141996 0
0.91059315 2.0245621 -0.3119753 0
1.0986447 2.4426656 -0.31302926 0
1.3643776 3.0334814 -0.31046766 0
2.1204312 4.7144485 -0.36138681 0
3.1880062 7.0880356 -0.36182171 0
6.3873577 14.201295 -0.36204696 0
0.85236198 1.8950942 5.9322305e-05 0
0.83864278 1.8645916 0.047652584 0
0.83782887 1.8627821 0.095205992 0
0.83334672 1.8528167 0.14214452 0
0.83131701 1.848304 0.18928505 0
0.83956498 1.866642 0.23932992 0
0.84228194 1.8726828 0.28869098 0
0.84433717 1.8772522 0.33842036 0
0.36156046 0.86133254 -0.31560865 0
0.38390118 0.914554 -0.30958554 0
0.42097908 1.0028833 -0.31190008 0
0.4613927 1.0991594 -0.31200913 0
0.50916487 1.2129653 -0.31179106 0
0.56615168 1.3487228 -0.31092095 0
0.63353473 1.5092471 -0.30829743 0
0.73582572 1.7529312 -0.31244949 0
0.85430884 2.0351894 -0.31019154 0
1.031643 2.4576464 -0.31151313 0
1.2838216 3.0584023 -0.30960333 0
2.0014169 4.7679038 -0.36149713 0
3.0093336 7.1690273 -0.36196369 0
6.0277739 14.35975 -0.36209276 0
0.9916243 2.3623111 7.3140902e-05 0
0.84733146 2.0185673 0.051024877 0
0.84258008 2.0072484 0.1014704 0
0.83919352 1.9991807 0.15170005 0
0.84170181 2.005156 0.20310804 0
0.83668375 1.9932017 0.25276867 0
0.83562815 1.990687 0.30353445 0
0.83610833 1.9918308 0.3551586 0
0.31125495 0.79728478 -0.31154427 0
0.33704802 0.86335421 -0.31313267 0
0.36396033 0.93229055 -0.31238052 0
0.39825964 1.0201489 -0.31404358 0
0.42931208 1.0996902 -0.30898568 0
0.47774288 1.2237465 -0.31136379 0
0.53446901 1.3690513 -0.31239808 0
0.59785283 1.5314101 -0.30964381 0
0.6913799 1.7709814 -0.312457 0
0.80566889 2.0637345 -0.31134385 0
0.97218847 2.4902771 -0.31243953 0
1.2113152 3.1028044 -0.31090432 0
1.8856919 4.8302317 -0.36249891 0
2.8227952 7.2306376 -0.36136216 0
5.6624155 14.504374 -0.36202058 0
0.9244386 2.367965 7.2570459e-05 0
0.85277337 2.1843934 0.054655127 0
0.84120482 2.1547604 0.1078198 0
0.83956462 2.1505589 0.16152745 0
0.83604974 2.1415555 0.21471857 0
0.83893812 2.1489542 0.26974937 0
0.84219307 2.1572919 0.32559314 0
0.83970207 2.1509111 0.37962401 0
0.2934581 0.81157279 -0.3141332 0
0.31117326 0.86056495 -0.30917409 0
0.33920273 0.9380818 -0.3113533 0
0.37062141 1.0249717 -0.31254914 0
0.39747202 1.0992284 -0.30593979 0
0.43090576 1.191691 -0.30034497 0
0.4354935 1.2043786 -0.27222732 0
0.43500841 1.203037 -0.24095167 0
0.64308715 1.778489 -0.31081897 0
0.75570518 2.0899398 -0.31232035 0
0.69230187 1.9145948 -0.23794426 0
1.1366069 3.1433423 -0.31199247 0
1.7587788 4.8639894 -0.36158583 0
2.6420832 7.3068109 -0.36172125 0
5.2908731 14.632169 -0.36176208 0
0.85630733 2.36816 7.1891191e-05 0
0.85280418 2.3584716 0.058453538 0
0.83849531 2.3188999 0.11493747 0
0.83858961 2.3191607 0.17254642 0
0.83791906 2.3173063 0.23014617 0
0.83888698 2.3199832 0.28846836 0
0.83871728 2.3195138 0.34677148 0
0.26790243 0.80376124 -0.30839419 0
0.28891733 0.8668102 -0.30869973 0
0.3120203 0.93612367 -0.3079915 0
0.34422195 1.0327352 -0.31216788 0
0.37629563 1.1289626 -0.31147301 0
0.402311 1.207014 -0.3015517 0
0.40123612 1.2037891 -0.26971921 0
0.4041304 1.2124726 -0.24072191 0
0.59795696 1.7939912 -0.3107917 0
0.67731071 2.0320685 -0.30102158 0
0.67274559 2.0183721 -0.24865225 0
0.64651257 1.9396678 -0.19084139 0
1.6342763 4.9031577 -0.3613162 0
2.4543791 7.3636312 -0.36135241 0
4.9197388 14.760206 -0.36174253 0
0.79558402 2.3869123 7.1828013e-05 0
0.84760422 2.5429833 0.06247646 0
0.83932555 2.5181456 0.1237238 0
0.83957183 2.5188844 0.18577023 0
0.8407613 2.5224531 0.24833402 0
0.83900428 2.5171816 0.31025639 0
0.83702493 2.5112433 0.37215853 0
0.24824905 0.81259406 -0.30928072 0
0.26826686 0.8781184 -0.31021684 0
0.29440022 0.96366066 -0.31450659 0
0.31792393 1.040661 -0.31203878 0
0.34918976 1.1430035 -0.31281564 0
0.3830885 1.2539643 -0.31076688 0
0.38066772 1.2460403 -0.27694505 0
0.37988725 1.2434856 -0.24489762 0
0.55204499 1.8070097 -0.31053439 0
0.57532942 1.8832269 -0.27673367 0
0.57974929 1.8976942 -0.23190893 0
0.58475089 1.914066 -0.1868109 0
0.59816021 1.9579587 -0.14312491 0
0.72462869 2.3719285 -0.1154624 0
0.72558641 2.3750632 -0.057740748 0
0.72028744 2.3577182 7.0380018e-05 0
0.84132934 2.7539246 0.067115843 0
0.83457977 2.7318313 0.13314547 0
0.83496535 2.7330935 0.19995049 0
0.8321954 2.7240267 0.26602629 0
0.83424705 2.7307422 0.33387735 0
0.22870924 0.82234466 -0.31069592 0
0.24551474 0.8827703 -0.30957261 0
0.26788881 0.96321833 -0.31205618 0
0.29104427 1.0464759 -0.31148061 0
0.31753018 1.1417084 -0.31016913 0
0.34810016 1.2516254 -0.30791184 0
0.39536014 1.4215529 -0.31363681 0
0.44034675 1.5833064 -0.30953604 0
0.50505888 1.8159846 -0.30978745 0
0.5358572 1.9267228 -0.28104839 0
0.53694314 1.9306272 -0.23420283 0
0.53995395 1.9414531 -0.18809389 0
0.54285449 1.9518822 -0.14163408 0
0.65938526 2.3708792 -0.11456472 0
0.66079539 2.3759494 -0.057338569 0
0.65879285 2.3687489 7.019061e-05 0
0.81560957 2.9325976 0.070946008 0
0.81178665 2.9188521 0.14121702 0
0.81353807 2.9251494 0.21243128 0
0.81622791 2.9348209 0.28450984 0
0.81252974 2.9215238 0.3545832 0
0.21005571 0.83648622 -0.31393582 0
0.22953525 0.91405785 -0.31841162 0
0.24273549 0.96662402 -0.31107569 0
0.26175299 1.0423558 -0.30818972 0
0.2912918 1.1599855 -0.31303751 0
0.3202208 1.2751869 -0.31162068 0
0.35845935 1.4274608 -0.31284457 0
0.40104505 1.5970461 -0.31014457 0
0.46086344 1.8352555 -0.31099159 0
0.48435888 1.9288194 -0.27948201 0
0.52121997 2.075608 -0.25011483 0
0.48886994 1.9467833 -0.18735524 0
0.49334413 1.9646006 -0.14160834 0
0.59359139 2.3638062 -0.11346288 0
0.59678292 2.3765156 -0.0569706 0
0.59652901 2.3755045 6.9922389e-05 0
0.77181709 3.0735388 0.073860899 0
0.76878697 3.0614719 0.1471315 0
0.76607227 3.0506618 0.22007206 0
0.771034 3.0704203 0.29567453 0
0.76993942 3.0660615 0.36964938 0
0.18725957 0.83428496 -0.3112368 0
0.20455123 0.91132337 -0.31556016 0
0.21918476 0.97651905 -0.31238031 0
0.24135658 1.0752997 -0.31602845 0
0.25838557 1.1511679 -0.30879971 0
0.28767496 1.281659 -0.31132886 0
0.32117864 1.4309256 -0.31172806 0
0.35906714 1.5997276 -0.30880705 0
0.41615322 1.8540593 -0.31229869 0
0.43322822 1.9301325 -0.27799937 0
0.46974593 2.0928273 -0.25068131 0
0.43900263 1.9558588 -0.18710274 0
0.4437387 1.9769592 -0.14164677 0
0.45209441 2.0141857 -0.096102759 0
0.54986018 2.449755 -0.058375038 0
0.54981828 2.4495685 7.1671151e-05 0
0.71728653 3.1956785 0.076336704 0
0.71293503 3.1762915 0.15173653 0
0.71305484 3.176825 0.22780256 0
0.71399778 3.1810262 0.30449331 0
0.71047807 3.165345 0.37933651 0
0.17959662 0.90662342 -0.3122637 0
0.19335097 0.97605693 -0.3105725 0
0.21101023 1.0652028 -0.3113966 0
0.23084733 1.1653427 -0.31094018 0
0.25522572 1.2884074 -0.31130427 0
0.28300735 1.4286522 -0.30957815 0
0.31930274 1.6118752 -0.30949774 0
0.36969337 1.8662527 -0.31268129 0
0.41458827 2.0928869 -0.29983851 0
0.4129428 2.0845807 -0.24836603 0
0.41534212 2.0966926 -0.19950892 0
0.41228887 2.0812795 -0.14832841 0
0.41485527 2.0942349 -0.099390917 0
0.41380277 2.0889218 -0.049512133 0
0.41319388 2.0858481 6.0704715e-05 0
0.41324422 2.086102 0.04956679 0
0.41229382 2.0813043 0.098898649 0
0.41318181 2.0857871 0.14877166 0
0.2704455 1.3652385 0.12998822 0
0.14515789 0.84396565 -0.31171563 0
0.15694565 0.9125011 -0.31282419 0
