# .PCD v0.7 - Point Cloud Data file format
VERSION 0.7
FIELDS x y z intensity
SIZE 4 4 4 4
TYPE F F F F
COUNT 1 1 1 1
WIDTH 1330
HEIGHT 1
VIEWPOINT 0 0 0 1 0 0 0
POINTS 1330
DATA ascii
-1.0729328 -0.45836774 -0.19175555 0
-1.2483133 -0.53329206 -0.19076961 0
-1.5110838 -0.64555025 -0.19204633 0
-1.8876369 -0.80641758 -0.19159757 0
-3.1805806 -1.3587762 -0.24179332 0
-4.7761073 -2.0404012 -0.24179055 0
-9.5615387 -4.0847859 -0.24174708 0
-0.82220691 -0.37606162 -0.19218315 0
-0.93071926 -0.42569306 -0.19276808 0
-1.0611062 -0.48532957 -0.19177002 0
-1.2266581 -0.56104982 -0.18956387 0
-1.4921672 -0.68248856 -0.19177032 0
-1.8636438 -0.85239476 -0.19128497 0
-3.1374946 -1.4350296 -0.24119443 0
-4.7249408 -2.1610968 -0.24188448 0
-9.4396591 -4.3175182 -0.24134381 0
-0.81541741 -0.39813253 -0.19288348 0
-0.9105078 -0.444561 -0.19084509 0
-1.0403132 -0.50793928 -0.19026847 0
-1.2214013 -0.59635669 -0.19101667 0
-1.4753525 -0.72034991 -0.19188479 0
-1.8499343 -0.90324175 -0.19215652 0
-3.1066499 -1.5168407 -0.24168932 0
-4.6614828 -2.2759974 -0.24149971 0
-9.3441191 -4.5623236 -0.24176817 0
-0.80571675 -0.41889369 -0.19302823 0
-0.89924407 -0.46751872 -0.19089663 0
-1.0377728 -0.53954005 -0.19223319 0
-1.1958263 -0.62171239 -0.18941064 0
-1.4511417 -0.75445133 -0.1911516 0
-1.8166934 -0.94450241 -0.19111899 0
-3.0715241 -1.5968913 -0.24201511 0
-4.6031556 -2.3931894 -0.24153027 0
-9.2265453 -4.7968988 -0.24178159 0
-0.78747648 -0.43499357 -0.19122767 0
-0.89092875 -0.49213949 -0.19170719 0
-1.0115703 -0.55878061 -0.18993147 0
-1.1848199 -0.65448183 -0.19022314 0
-1.4329801 -0.79156286 -0.19132997 0
-1.8061906 -0.9977203 -0.19260187 0
-3.0258684 -1.6714573 -0.24166477 0
-4.5460305 -2.5111787 -0.24178147 0
-9.0977087 -5.0254769 -0.24165227 0
-0.76935744 -0.45068601 -0.1895296 0
-0.87457699 -0.51232308 -0.19091022 0
-1.0060658 -0.58934867 -0.19162977 0
-1.171417 -0.68621057 -0.19079114 0
-1.4098896 -0.82590675 -0.19096936 0
-1.7763954 -1.0406041 -0.19216412 0
-2.9768035 -1.7437975 -0.24118437 0
-4.4766746 -2.6224151 -0.24153602 0
-8.9689159 -5.2539487 -0.24167654 0
-0.76634669 -0.47529125 -0.19168203 0
-0.86679494 -0.53758967 -0.1921121 0
-0.99302632 -0.61587888 -0.19204567 0
-1.1534811 -0.71539354 -0.19074994 0
-1.3898104 -0.86196595 -0.1911355 0
-1.7512828 -1.0861526 -0.19235174 0
-2.930855 -1.8177279 -0.24110186 0
-4.4187479 -2.740525 -0.24206544 0
-8.8364134 -5.4803786 -0.24175629 0
-0.7549631 -0.49503458 -0.19189869 0
-0.85039896 -0.55761254 -0.19153638 0
-0.97672909 -0.64044809 -0.19195883 0
-1.1331828 -0.74303585 -0.19043383 0
-1.3659884 -0.89568812 -0.19090751 0
-1.7153649 -1.1247767 -0.19146377 0
-2.8900154 -1.8950033 -0.24159981 0
-4.3393536 -2.8453445 -0.24157324 0
-8.6945724 -5.7010918 -0.24173535 0
-0.74182898 -0.51364601 -0.19179435 0
-0.83499271 -0.57815301 -0.19129208 0
-0.96285927 -0.6666885 -0.19247863 0
-1.1210352 -0.77621025 -0.19162366 0
-1.3467127 -0.9324705 -0.19144177 0
-1.6778765 -1.1617699 -0.19049157 0
-2.8494492 -1.9729725 -0.24229424 0
-4.2715011 -2.9576085 -0.24187449 0
-8.5486221 -5.9191079 -0.24175408 0
-0.72525811 -0.52973449 -0.19090599 0
-0.82415545 -0.60196996 -0.19222876 0
-0.93431169 -0.68242896 -0.19015442 0
-1.1023542 -0.80516857 -0.191843 0
-1.3325212 -0.97328442 -0.19285496 0
-1.6604285 -1.2127906 -0.19192472 0
-2.7915645 -2.0389817 -0.24167113 0
-4.1982121 -3.0664086 -0.2420298 0
-8.3955126 -6.1321516 -0.24172404 0
-0.71490645 -0.55036294 -0.19177647 0
-0.80275524 -0.61799234 -0.19081455 0
-0.91713542 -0.7060467 -0.19022484 0
-1.0780097 -0.82989401 -0.19119065 0
-1.3067539 -1.0059901 -0.19273899 0
-1.6344408 -1.2582563 -0.19253027 0
-2.7478874 -2.1154308 -0.24243489 0
-4.1171784 -3.1695647 -0.24189298 0
-8.2349873 -6.3396149 -0.24163213 0
-0.70884305 -0.57475305 -0.19397952 0
-0.79144168 -0.64172667 -0.19191413 0
-0.91361898 -0.74079198 -0.19331187 0
-1.0480839 -0.84982049 -0.18962677 0
-1.2665789 -1.0269834 -0.19057579 0
-1.5992228 -1.2967018 -0.1921757 0
-2.6840765 -2.1763368 -0.24157435 0
-4.0346155 -3.2713974 -0.24181619 0
-8.079277 -6.5509405 -0.24183767 0
-0.68118173 -0.58141506 -0.1903649 0
-0.77875495 -0.66469765 -0.19284439 0
-0.88649356 -0.75665671 -0.19155221 0
-1.0382003 -0.88614428 -0.19182397 0
-1.245639 -1.0632013 -0.19140171 0
-1.5668366 -1.337356 -0.19227879 0
-2.634243 -2.2484288 -0.24211957 0
-3.9496653 -3.3711927 -0.24174732 0
-7.9131856 -6.7542119 -0.24189168 0
-0.67433095 -0.60563397 -0.19266076 0
-0.75960577 -0.68222147 -0.19230507 0
-0.86661398 -0.77832836 -0.19144039 0
-1.0147473 -0.91137069 -0.19167963 0
-1.2240853 -1.0993826 -0.19229218 0
-1.5264838 -1.3709744 -0.19151208 0
-2.5735478 -2.3113697 -0.24182577 0
-3.8626075 -3.4691074 -0.2417009 0
-7.727365 -6.9401455 -0.24148898 0
-0.66622698 -0.62943852 -0.19482222 0
-0.74243712 -0.70144039 -0.19237925 0
-0.84712595 -0.8003484 -0.19153666 0
-0.99491525 -0.93997687 -0.19235355 0
-1.1932572 -1.1273665 -0.19185805 0
-1.4935377 -1.4110658 -0.19178571 0
-1.9819789 -1.8725357 -0.19061866 0
-3.7733281 -3.5649681 -0.24166755 0
-7.5504131 -7.1334858 -0.24150865 0
-0.63959903 -0.63557941 -0.19166541 0
-0.71143848 -0.70696735 -0.18891026 0
-0.82243872 -0.81726998 -0.19055799 0
-0.97045028 -0.96435136 -0.19226803 0
-1.1630509 -1.1557416 -0.19163038 0
-1.4637947 -1.4545953 -0.19261934 0
-1.9305127 -1.91838 -0.19026491 0
-3.6826181 -3.6594744 -0.24169636 0
-7.3740873 -7.3277435 -0.24170735 0
-0.63121426 -0.65972465 -0.19408064 0
-0.70433229 -0.73614532 -0.19189572 0
-0.80024797 -0.83639324 -0.19024692 0
-0.94009113 -0.98255277 -0.19110551 0
-1.1329118 -1.1840827 -0.19152753 0
-1.4223659 -1.4866107 -0.19204389 0
-1.886978 -1.9722083 -0.19081934 0
-3.5947013 -3.7570653 -0.24207264 0
-7.185091 -7.5096245 -0.24164809 0
-0.60350686 -0.66350019 -0.19064964 0
-0.6817742 -0.7495479 -0.19084315 0
-0.78986496 -0.86838371 -0.19292755 0
-0.91763198 -1.0088518 -0.191655 0
-1.0995998 -1.2089087 -0.19099329 0
-1.3783634 -1.5153835 -0.19120587 0
-1.8415391 -2.0246027 -0.19133078 0
-3.4989107 -3.84673 -0.24208289 0
-7.0009809 -7.6969333 -0.2419125 0
-0.593642 -0.68669194 -0.1929469 0
-0.6622479 -0.76605135 -0.19072869 0
-0.76755172 -0.88786095 -0.19288945 0
-0.89240181 -1.0322806 -0.19176593 0
-1.0769622 -1.2457699 -0.19246128 0
-1.3460252 -1.5570068 -0.19211008 0
-1.7955985 -2.0770481 -0.19194312 0
-3.3903041 -3.9217145 -0.24134001 0
-6.7943301 -7.8593016 -0.24154913 0
-0.57754743 -0.70318079 -0.19342257 0
-0.64534914 -0.78573138 -0.19151223 0
-0.73900145 -0.89975578 -0.19136056 0
-0.87385052 -1.0639384 -0.1934882 0
-1.0402018 -1.2664759 -0.19154322 0
-1.2993946 -1.5820508 -0.1910928 0
-1.7392089 -2.1175375 -0.1915673 0
-3.3002815 -4.0181885 -0.24207389 0
-6.5931315 -8.0273294 -0.2415221 0
-0.56126058 -0.71963042 -0.19398905 0
-0.62702948 -0.80395722 -0.19203611 0
-0.72579366 -0.9305895 -0.19396059 0
-0.83955395 -1.0764493 -0.1918488 0
-1.0085481 -1.2931283 -0.19166331 0
-1.2592582 -1.6145806 -0.19112223 0
-1.686478 -2.1623483 -0.19170943 0
-3.1900134 -4.0901337 -0.24148083 0
-6.3984075 -8.2038336 -0.24189685 0
-0.53562593 -0.72370058 -0.19138108 0
-0.61230928 -0.82730985 -0.19386104 0
-0.69440526 -0.93823218 -0.19183953 0
-0.80605 -1.0890788 -0.19041328 0
-0.9742018 -1.3162738 -0.19138859 0
-1.2256924 -1.6560705 -0.19231036 0
-1.6267147 -2.1979041 -0.19116084 0
-3.090409 -4.1755462 -0.24184152 0
-6.1872296 -8.3597546 -0.24181281 0
-0.52049398 -0.74168438 -0.19260155 0
-0.58678907 -0.83615243 -0.19240145 0
-0.67404467 -0.96048838 -0.19285034 0
-0.78834206 -1.1233579 -0.19286641 0
-0.94270039 -1.3433127 -0.19179949 0
-1.1788481 -1.6798146 -0.19155158 0
-1.5734215 -2.2420666 -0.191487 0
-2.9843316 -4.2525606 -0.24186255 0
-5.9742117 -8.5130281 -0.24180783 0
-0.49538153 -0.74520409 -0.1902082 0
-0.5682025 -0.85474885 -0.19331911 0
-0.64969629 -0.97734022 -0.19288011 0
-0.75118184 -1.1300054 -0.19069193 0
-0.91170615 -1.3714825 -0.19247484 0
-1.1359426 -1.7088021 -0.19152679 0
-1.5176283 -2.2829733 -0.19164829 0
-2.8745117 -4.3241372 -0.24173021 0
-5.7572608 -8.6606665 -0.24179703 0
-0.47976345 -0.762779 -0.1915424 0
-0.54382461 -0.86463022 -0.19238839 0
-0.61998188 -0.98571318 -0.19138347 0
-0.72180152 -1.1475968 -0.19052562 0
-0.8787266 -1.3970931 -0.19289511 0
-1.0897776 -1.7326446 -0.19105545 0
-1.460861 -2.3226323 -0.19182128 0
-2.7692592 -4.4028635 -0.24214688 0
-5.5287504 -8.7901964 -0.24144067 0
-0.46188915 -0.77720565 -0.19217652 0
-0.51851475 -0.87248766 -0.19116393 0
-0.60067111 -1.0107294 -0.19323552 0
-0.69578946 -1.170782 -0.19139838 0
-0.83450305 -1.4041907 -0.19090627 0
-1.0440265 -1.7567489 -0.19074707 0
-1.4005603 -2.3566766 -0.19165251 0
-2.6560669 -4.469276 -0.24203549 0
-5.3144836 -8.9425058 -0.24186294 0
-0.43928191 -0.78352773 -0.1909375 0
-0.50344825 -0.89797837 -0.19390322 0
-0.56627488 -1.0100394 -0.19031055 0
-0.66478956 -1.1857557 -0.19104248 0
-0.8014012 -1.4294239 -0.19152595 0
-1.0018069 -1.7868787 -0.19121225 0
-1.3433416 -2.396059 -0.19203682 0
-2.539506 -4.5296044 -0.24175455 0
-5.0847874 -9.0695105 -0.24174996 0
-0.4212285 -0.79787666 -0.19178236 0
-0.47546917 -0.90061748 -0.19182073 0
-0.53646559 -1.0161548 -0.18885149 0
-0.63695115 -1.2064911 -0.19173212 0
-0.76276368 -1.4448009 -0.19094601 0
-0.95605183 -1.8109207 -0.19114199 0
-1.2818662 -2.4280672 -0.19194807 0
-1.9245726 -3.6454597 -0.19191225 0
-4.8538604 -9.1940165 -0.24172626 0
-0.39706534 -0.80039346 -0.189918 0
-0.45349562 -0.91414404 -0.1922027 0
-0.51427174 -1.0366549 -0.19018859 0
-0.60645425 -1.2224739 -0.19177854 0
-0.72575444 -1.462956 -0.19086379 0
-0.9094516 -1.8332477 -0.19101501 0
-1.2186388 -2.4564986 -0.19170314 0
-1.829504 -3.6878641 -0.19165272 0
-4.6177797 -9.3083935 -0.24159226 0
-0.38190302 -0.8212505 -0.19251855 0
-0.43156236 -0.92803884 -0.19277261 0
-0.48924336 -1.0520771 -0.19069184 0
-0.56901515 -1.2236196 -0.1896449 0
-0.68925834 -1.4821925 -0.19104305 0
-0.86342347 -1.8567201 -0.19112924 0
-1.157644 -2.4894168 -0.1919308 0
-1.7391776 -3.7399559 -0.19201754 0
-4.3817005 -9.4224806 -0.24160609 0
-0.3622911 -0.83345592 -0.19317472 0
-0.40487969 -0.93143159 -0.19129381 0
-0.46294135 -1.0650033 -0.1908562 0
-0.54103774 -1.2446651 -0.19072957 0
-0.64895219 -1.492924 -0.19025454 0
-0.81834316 -1.8826103 -0.19160722 0
-1.093881 -2.5164893 -0.19182838 0
-1.6394199 -3.7715092 -0.19145219 0
-4.148912 -9.544632 -0.24197614 0
-0.33567184 -0.82881308 -0.19007449 0
-0.38424248 -0.94873965 -0.19279535 0
-0.43673596 -1.0783522 -0.19121218 0
-0.51204616 -1.2643019 -0.19169725 0
-0.6154902 -1.5197175 -0.19162837 0
-0.77009588 -1.901457 -0.19148621 0
-1.0271211 -2.5360823 -0.19128491 0
-1.546285 -3.8179588 -0.19176793 0
-3.9041097 -9.6397038 -0.24181132 0
-0.31589156 -0.84031272 -0.19082256 0
-0.35990909 -0.95740503 -0.19264899 0
-0.40983602 -1.0902172 -0.19142096 0
-0.47628549 -1.2669815 -0.1902203 0
-0.57741725 -1.5360051 -0.19178344 0
-0.72347128 -1.9245279 -0.19190961 0
-0.96446681 -2.5656075 -0.19161482 0
-1.4472952 -3.8499939 -0.19148126 0
-3.6575837 -9.7296495 -0.24167493 0
-0.2970202 -0.85501379 -0.19239733 0
-0.33227286 -0.95649344 -0.19071734 0
-0.38129961 -1.0976237 -0.19097085 0
-0.44876552 -1.2918336 -0.19218981 0
-0.53955501 -1.5531839 -0.19216686 0
-0.67430615 -1.9410837 -0.19180237 0
-0.89986074 -2.5903738 -0.19170722 0
-1.3528868 -3.8944721 -0.19193403 0
-3.4103694 -9.8172207 -0.24163516 0
-0.27412221 -0.85838223 -0.19153747 0
-0.31006479 -0.97093225 -0.1919748 0
-0.35288289 -1.1050123 -0.19064604 0
-0.41527098 -1.3003733 -0.1918399 0
-0.49986696 -1.5652759 -0.19204086 0
-0.62317002 -1.9513854 -0.19120526 0
-0.83025694 -2.5998542 -0.19079727 0
-1.2520304 -3.9205892 -0.19160281 0
-3.1616979 -9.9004936 -0.24164374 0
-0.25343663 -0.86865681 -0.19234157 0
-0.28330073 -0.97101629 -0.19051698 0
-0.32536179 -1.115181 -0.19092287 0
-0.37939256 -1.3003721 -0.19036645 0
-0.45953229 -1.5750519 -0.19175623 0
-0.5735603 -1.9658841 -0.19114661 0
-0.76635951 -2.6267054 -0.19128743 0
-1.1477175 -3.9338143 -0.19077271 0
-2.911943 -9.9807158 -0.24173097 0
-0.23184061 -0.87629312 -0.19267543 0
-0.25948119 -0.98076677 -0.19108427 0
-0.29988497 -1.1334819 -0.19269888 0
-0.34585863 -1.3072495 -0.19003485 0
-0.42274889 -1.5978733 -0.19317414 0
-0.52562326 -1.9867098 -0.19182055 0
-0.70268816 -2.655966 -0.1920656 0
-1.0557996 -3.990629 -0.19217451 0
-2.6614728 -10.059628 -0.24193823 0
-0.21158214 -0.88996089 -0.19444455 0
-0.23428568 -0.98545706 -0.19078526 0
-0.26891953 -1.1311346 -0.1910851 0
-0.31312189 -1.3170594 -0.19025148 0
-0.38052598 -1.6005758 -0.19227853 0
-0.47320139 -1.990389 -0.19096184 0
-0.63665736 -2.6779206 -0.19242996 0
-0.94586635 -3.9785216 -0.1903812 0
-2.4034812 -10.109571 -0.24160351 0
-0.18780397 -0.88906902 -0.19315256 0
-0.20955646 -0.99204588 -0.1909761 0
-0.2398895 -1.1356434 -0.19076321 0
-0.27999058 -1.325483 -0.19038686 0
-0.33818093 -1.6009576 -0.19123815 0
-0.42615098 -2.01741 -0.19246109 0
-0.56691265 -2.6837797 -0.19176175 0
-0.8464213 -4.0069814 -0.19066007 0
-2.1495597 -10.176074 -0.24181928 0
-0.16424266 -0.88774401 -0.191903 0
-0.1850486 -1.0002017 -0.19158605 0
-0.21175002 -1.1445249 -0.19129646 0
-0.24783799 -1.3395832 -0.19145271 0
-0.29895109 -1.6158534 -0.19205502 0
-0.37099543 -2.0052586 -0.19034792 0
-0.50017899 -2.7035055 -0.19220798 0
-0.94454932 -5.105361 -0.24171185 0
-1.8906395 -10.21905 -0.24162965 0
-0.14343959 -0.90196747 -0.19413327 0
-0.15927337 -1.0015324 -0.1910101 0
-0.18272765 -1.149016 -0.19121538 0
-0.2123308 -1.3351647 -0.18999481 0
-0.25726891 -1.6177416 -0.19144671 0
-0.32138884 -2.0209363 -0.19100532 0
-0.43096718 -2.7099795 -0.19183384 0
-0.8163799 -5.1335068 -0.24199183 0
-1.631873 -10.261437 -0.2415811 0
-0.11934035 -0.89557332 -0.19204758 0
-0.13428991 -1.0077603 -0.19149049 0
-0.15446383 -1.1591526 -0.1921923 0
-0.17948799 -1.346943 -0.19096544 0
-0.21667472 -1.6260058 -0.19171649 0
-0.26957911 -2.0230198 -0.1904985 0
-0.36391518 -2.7309515 -0.1926069 0
-0.68590832 -5.147305 -0.24174923 0
-1.3726656 -10.300982 -0.2416195 0
-0.096922234 -0.90030634 -0.19247666 0
-0.10861432 -1.0089135 -0.19112787 0
-0.1240069 -1.1518946 -0.19040932 0
-0.14501761 -1.3470621 -0.19040276 0
-0.17573331 -1.6323791 -0.19188388 0
-0.21815348 -2.026418 -0.19023946 0
-0.29292285 -2.7209475 -0.19131899 0
-0.55639988 -5.1683736 -0.24200213 0
-1.1137395 -10.345477 -0.2419268 0
-0.072908349 -0.88704497 -0.18918787 0
-0.08350803 -1.0160068 -0.19201119 0
-0.094875544 -1.1543106 -0.19035223 0
-0.11114998 -1.3523148 -0.19068797 0
-0.13449597 -1.6363555 -0.19189118 0
-0.166336 -2.0237396 -0.18953353 0
-0.22435823 -2.7296715 -0.19147328 0
-0.4249039 -5.1696258 -0.24148171 0
-0.85227525 -10.369272 -0.24190319 0
-0.051843256 -0.91216367 -0.19420424 0
-0.05803984 -1.0211904 -0.19265261 0
-0.065599076 -1.1541924 -0.18999924 0
-0.076868825 -1.3524797 -0.19037703 0
-0.082180835 -1.4459426 -0.16926481 0
-0.082269035 -1.4474945 -0.13532767 0
-0.082267433 -1.4474663 -0.10135484 0
-0.081891641 -1.4408543 -0.067186728 0
-0.081016004 -1.4254477 -0.033195782 0
-0.082423605 -1.450214 4.1468087e-05 0
-0.028491978 -0.90303928 -0.19204736 0
-0.03222768 -1.0214405 -0.19248506 0
-0.03672152 -1.1638706 -0.19137889 0
-0.041793037 -1.3246099 -0.18624625 0
-0.041910272 -1.3283255 -0.15532304 0
-0.041567571 -1.3174639 -0.12303372 0
-0.041773099 -1.3239779 -0.0926046 0
-0.041857179 -1.3266429 -0.061792132 0
-0.041742183 -1.3229982 -0.030775603 0
-0.041861698 -1.326786 3.7896451e-05 0
-0.005642876 -0.89467633 -0.19017796 0
-0.0064071747 -1.0158557 -0.19134122 0
-0.0073112873 -1.1592025 -0.19052027 0
-0.0077048056 -1.2215946 -0.17167981 0
-0.0076730656 -1.2165623 -0.14218648 0
-0.0076700971 -1.2160916 -0.11351267 0
-0.0077193598 -1.2239022 -0.085564002 0
-0.0076776305 -1.217286 -0.056671456 0
-0.0077426196 -1.2275901 -0.028542584 0
-0.0076581892 -1.2142036 3.4664245e-05 0
0.017004311 -0.89832878 -0.19098477 0
0.019440453 -1.0270289 -0.19347654 0
0.022082085 -1.1665848 -0.19176415 0
0.02297242 -1.2136208 -0.17058635 0
0.022974163 -1.2137129 -0.14187606 0
0.02285211 -1.2072649 -0.1127067 0
0.022794688 -1.2042313 -0.0842022 0
0.022600841 -1.1939905 -0.05559577 0
0.022951612 -1.2125216 -0.028196719 0
0.022920405 -1.2108729 3.4574659e-05 0
0.039962813 -0.90436214 -0.19242062 0
0.044721115 -1.0120429 -0.19080529 0
0.05143331 -1.1639404 -0.19148187 0
0.053540643 -1.2116296 -0.17044213 0
0.053641979 -1.2139229 -0.14201362 0
0.053292695 -1.2060186 -0.11268004 0
0.053426933 -1.2090564 -0.084606923 0
0.053138055 -1.2025191 -0.056037489 0
0.053262293 -1.2053306 -0.028051823 0
0.053854629 -1.2187352 3.4826877e-05 0
0.063210197 -0.90942746 -0.1937761 0
0.070126854 -1.0089399 -0.19049329 0
0.080114394 -1.1526341 -0.18989402 0
0.084026314 -1.2089163 -0.17030454 0
0.083880782 -1.2068225 -0.14138563 0
0.083924353 -1.2074494 -0.11297565 0
0.084242769 -1.2120306 -0.08493679 0
0.084233761 -1.2119009 -0.056555748 0
0.083971031 -1.2081211 -0.028157121 0
0.084200092 -1.2114166 3.4667428e-05 0
0.084852427 -0.89402109 -0.19088891 0
0.095436305 -1.0055349 -0.1902446 0
0.10989487 -1.157873 -0.19115318 0
0.11483233 -1.209895 -0.1707963 0
0.11502562 -1.2119316 -0.14227898 0
0.11431822 -1.2044783 -0.11293165 0
0.11568379 -1.2188661 -0.085593164 0
0.11655845 -1.2280817 -0.05742985 0
0.1154236 -1.2161247 -0.028402511 0
0.1147561 -1.2090918 3.4672743e-05 0
0.10816679 -0.89810801 -0.19228321 0
0.12243393 -1.0165681 -0.19285527 0
0.13867635 -1.1514286 -0.1906064 0
0.14479698 -1.2022482 -0.17017855 0
0.14582658 -1.210797 -0.14253248 0
0.14598764 -1.2121342 -0.11395865 0
0.14618006 -1.213732 -0.085464492 0
0.14538309 -1.2071147 -0.056602918 0
0.14539789 -1.2072375 -0.028271655 0
0.14646451 -1.2160937 3.4968401e-05 0
0.13073957 -0.89473075 -0.19220541 0
0.14804299 -1.0131487 -0.192854 0
0.16768806 -1.1475918 -0.19061117 0
0.17514794 -1.1986443 -0.17023993 0
0.17559861 -1.2017285 -0.14194147 0
0.17721289 -1.2127761 -0.11440305 0
0.1756418 -1.2020242 -0.084925197 0
0.17723495 -1.212927 -0.057067048 0
0.17721115 -1.2127641 -0.028496748 0
0.17586827 -1.2035741 3.4724981e-05 0
0.15333906 -0.89153194 -0.1922884 0
0.17352621 -1.0089025 -0.19281803 0
0.19636208 -1.1416731 -0.19039063 0
0.20826127 -1.2108563 -0.17266592 0
0.20848899 -1.2121804 -0.14375174 0
0.20950609 -1.218094 -0.11536676 0
0.20764606 -1.2072796 -0.085639499 0
0.20830372 -1.2111032 -0.057210375 0
0.20888999 -1.2145119 -0.028652571 0
0.20925254 -1.2166197 3.5242523e-05 0
0.17499378 -0.8833878 -0.19142348 0
0.19792943 -0.99916947 -0.19185151 0
0.22624697 -1.1421195 -0.19135641 0
0.23909195 -1.2069623 -0.17291608 0
0.24128345 -1.2180253 -0.14512086 0
0.23940775 -1.2085565 -0.11499913 0
0.23950981 -1.2090718 -0.086167999 0
0.23875782 -1.2052757 -0.057201535 0
0.24002807 -1.211688 -0.028719725 0
0.2402074 -1.2125933 3.5290264e-05 0
0.19985195 -0.89038688 -0.19397137 0
0.22408275 -0.99834079 -0.19271696 0
0.25330797 -1.128546 -0.19009285 0
0.27204967 -1.2120446 -0.17457229 0
0.27217579 -1.2126064 -0.14524741 0
0.2720767 -1.2121649 -0.11595897 0
0.27119187 -1.2082229 -0.086567737 0
0.27173433 -1.2106397 -0.0577632 0
0.27366766 -1.2192531 -0.029053496 0
0.27144334 -1.2093432 3.5383793e-05 0
0.21900855 -0.87213832 -0.19113922 0
0.24889594 -0.99115622 -0.19248141 0
0.28136215 -1.1204435 -0.18986374 0
0.30487475 -1.2140756 -0.17591707 0
0.302499 -1.2046149 -0.14515847 0
0.3039661 -1.2104572 -0.11649241 0
0.30317137 -1.2072924 -0.087021597 0
0.30420366 -1.2114033 -0.058147445 0
0.30193976 -1.2023879 -0.028824029 0
0.30439407 -1.2121615 3.5679674e-05 0
0.24019262 -0.86363417 -0.19054335 0
0.274499 -0.98698586 -0.19295552 0
0.31000111 -1.1146369 -0.19014508 0
0.33748639 -1.2134627 -0.17700613 0
0.33798486 -1.215255 -0.1474216 0
0.33517081 -1.2051368 -0.11675732 0
0.33741233 -1.2131964 -0.088032946 0
0.33797517 -1.2152202 -0.058721408 0
0.3392455 -1.2197877 -0.029437026 0
0.33765149 -1.2140563 3.5974834e-05 0
0.26150599 -0.85598803 -0.19025201 0
0.2980653 -0.9756577 -0.1921504 0
0.33944187 -1.1110957 -0.19094165 0
0.369021 -1.207917 -0.17749923 0
0.36834717 -1.2057114 -0.14734472 0
0.36874589 -1.2070165 -0.11780359 0
0.36903381 -1.2079589 -0.088300638 0
0.36805212 -1.2047457 -0.058645457 0
0.37013751 -1.2115718 -0.029454818 0
0.37023449 -1.2118891 3.6175988e-05 0
0.28284913 -0.84860432 -0.19013703 0
0.32360464 -0.97087908 -0.19275643 0
0.37152171 -1.1146399 -0.19310063 0
0.42483512 -1.2745908 -0.18881223 0
0.51808774 -1.5543677 -0.19148947 0
0.64918017 -1.9476712 -0.19162883 0
0.86503595 -2.5952821 -0.19124766 0
1.2998042 -3.8996742 -0.19136709 0
3.2841973 -9.8532534 -0.24148312 0
0.30663866 -0.84802425 -0.19168006 0
0.34425446 -0.95205259 -0.19068296 0
0.40244007 -1.1129677 -0.19450864 0
0.46093345 -1.2747341 -0.19049612 0
0.5602808 -1.549484 -0.19256859 0
0.69640899 -1.9259531 -0.1911605 0
0.93031716 -2.5728378 -0.19126311 0
1.4002628 -3.8724957 -0.19170661 0
3.536325 -9.7798805 -0.24179532 0
0.32717165 -0.83805573 -0.19123241 0
0.36848691 -0.94388545 -0.19084913 0
0.42612493 -1.0915262 -0.19257966 0
0.49250627 -1.2615632 -0.19032483 0
0.59715879 -1.5296323 -0.19191343 0
0.75171441 -1.9255291 -0.19294009 0
1.0001568 -2.5619185 -0.19226669 0
1.4962958 -3.832787 -0.19154939 0
3.778168 -9.6778412 -0.24155319 0
0.3486205 -0.83050615 -0.1914565 0
0.39887536 -0.95022643 -0.19410497 0
0.44811854 -1.0675367 -0.19028203 0
0.52407694 -1.2484897 -0.19028743 0
0.63053316 -1.5020964 -0.19039467 0
0.80045736 -1.9069009 -0.19303638 0
1.0609457 -2.5274532 -0.19162868 0
1.5906743 -3.7894063 -0.19132686 0
4.0282621 -9.596384 -0.24198061 0
0.37213698 -0.82738864 -0.19284165 0
0.41486579 -0.92238951 -0.19049689 0
0.47679996 -1.0600904 -0.19103892 0
0.55855423 -1.2418584 -0.19136441 0
0.67191863 -1.4939065 -0.19144514 0
0.84291649 -1.8740935 -0.19180781 0
1.1222503 -2.4951489 -0.19126603 0
1.6842748 -3.7447228 -0.19115621 0
4.2639556 -9.4802418 -0.2416887 0
0.3908343 -0.81344831 -0.19183053 0
0.44103882 -0.9179396 -0.19181569 0
0.50483245 -1.0507141 -0.19158433 0
0.58655441 -1.220803 -0.1903405 0
0.70943063 -1.4765468 -0.1914541 0
0.88470089 -1.841339 -0.19068006 0
1.1861439 -2.4687359 -0.19147521 0
1.7804741 -3.7057228 -0.19139835 0
4.5058656 -9.3781137 -0.24190728 0
0.41085368 -0.8025853 -0.19165313 0
0.46025264 -0.89908415 -0.19024239 0
0.53464592 -1.0444082 -0.19283357 0
0.61972243 -1.2106016 -0.19112776 0
0.74342626 -1.4522518 -0.19067612 0
0.93937755 -1.8350344 -0.19242109 0
1.2479452 -2.4378083 -0.19145839 0
1.8784802 -3.6695318 -0.19191673 0
4.7423081 -9.2638988 -0.24197148 0
0.43230608 -0.79441345 -0.192246 0
0.48635274 -0.89373058 -0.19164594 0
0.56243312 -1.0335373 -0.19338576 0
0.64966941 -1.1938442 -0.19101006 0
0.78059816 -1.4344412 -0.19086362 0
0.98067492 -1.802106 -0.19150266 0
1.3106611 -2.4084945 -0.1916931 0
1.9656011 -3.6120241 -0.19144271 0
4.9658937 -9.1254158 -0.24155112 0
0.44980705 -0.77908707 -0.19122347 0
0.50475097 -0.87425256 -0.19014038 0
0.58056688 -1.0055693 -0.19083361 0
0.68030322 -1.1783173 -0.19121207 0
0.81606972 -1.4134713 -0.19075324 0
1.0314338 -1.7864922 -0.19254848 0
1.3714249 -2.3753729 -0.19175078 0
2.5948322 -4.4943719 -0.24160266 0
5.2009234 -9.0082455 -0.2418472 0
0.46883565 -0.76669633 -0.19102573 0
0.53462511 -0.87428313 -0.19302024 0
0.61005902 -0.99764168 -0.19218998 0
0.71094322 -1.1626197 -0.19151554 0
0.84927821 -1.3888416 -0.1902615 0
1.0710151 -1.7514524 -0.19162431 0
1.4263412 -2.3325241 -0.191137 0
2.7133825 -4.4372487 -0.24213621 0
5.4231191 -8.868535 -0.24169411 0
0.48985595 -0.75744504 -0.1917401 0
0.55133921 -0.85251427 -0.19122545 0
0.63393015 -0.98022127 -0.19185521 0
0.73891288 -1.142552 -0.19122103 0
0.88332278 -1.3658475 -0.19010507 0
1.1202451 -1.7321911 -0.19254905 0
1.4892082 -2.3027043 -0.19171235 0
2.8165998 -4.3551979 -0.24146111 0
5.6479087 -8.73314 -0.24181204 0
0.50917661 -0.74537951 -0.19187786 0
0.57406867 -0.84037441 -0.19169134 0
0.65685391 -0.96156311 -0.19138718 0
0.76863778 -1.1252025 -0.19150317 0
0.91833335 -1.3443407 -0.19027707 0
1.1498009 -1.6831841 -0.19026671 0
1.5443988 -2.2608328 -0.19141059 0
2.9305632 -4.2900276 -0.24187165 0
5.8667059 -8.5882235 -0.24182232 0
0.52635086 -0.73025531 -0.19134335 0
0.5973596 -0.82877225 -0.19242261 0
0.68956429 -0.95669639 -0.19382083 0
0.79638225 -1.1048949 -0.19140685 0
0.95513737 -1.3251505 -0.19091214 0
1.1990595 -1.6635662 -0.19140908 0
1.6112096 -2.2353804 -0.19263722 0
3.0385787 -4.2157016 -0.24192794 0
6.0760169 -8.429821 -0.2416032 0
0.54966027 -0.72339118 -0.1931183 0
0.62051404 -0.8166396 -0.19318035 0
0.70300579 -0.92520452 -0.19097461 0
0.82831234 -1.0901166 -0.19240709 0
0.98048466 -1.290386 -0.18940854 0
1.2399859 -1.6319076 -0.19130643 0
1.6550708 -2.1781881 -0.19124749 0
3.1505561 -4.1463509 -0.24243413 0
6.2945862 -8.2841129 -0.24190336 0
0.56512433 -0.7060281 -0.19222954 0
0.63353091 -0.79149061 -0.19095287 0
0.72806549 -0.90959579 -0.19148476 0
0.84562314 -1.0564643 -0.19017385 0
1.0183764 -1.2722905 -0.19046451 0
1.2889953 -1.6103834 -0.19253567 0
1.7079325 -2.1337752 -0.19107194 0
3.2396362 -4.0473824 -0.2413514 0
6.4957905 -8.1154013 -0.24168728 0
0.58387548 -0.69287056 -0.19259809 0
0.6578939 -0.78070635 -0.19229582 0
0.74909323 -0.88893038 -0.19105361 0
0.88256586 -1.0473189 -0.19247603 0
1.051234 -1.2474732 -0.19066054 0
1.3242887 -1.5715007 -0.1918219 0
1.765185 -2.0947011 -0.19150144 0
3.3509178 -3.9764509 -0.24208784 0
6.6956897 -7.9456086 -0.24158652 0
0.59540278 -0.67141312 -0.19074997 0
0.66755629 -0.75277793 -0.18950637 0
0.77067554 -0.86906159 -0.19090305 0
0.90386671 -1.0192562 -0.19145022 0
1.0809439 -1.2189395 -0.19040859 0
1.3619398 -1.5358078 -0.19159992 0
1.8260192 -2.0591326 -0.19240178 0
3.4480627 -3.8882496 -0.24193922 0
6.8968658 -7.7773342 -0.24168576 0
0.61310124 -0.65719253 -0.19104525 0
0.68665445 -0.73603535 -0.18959399 0
0.80258906 -0.8603074 -0.19336815 0
0.93018275 -0.99707711 -0.19163296 0
1.1176301 -1.1980047 -0.19148371 0
1.402982 -1.5038778 -0.1919729 0
1.8626711 -1.9966255 -0.19089316 0
3.5409393 -3.7955866 -0.24165735 0
7.0918894 -7.6019044 -0.2417195 0
0.6276623 -0.63965398 -0.19049127 0
0.71641105 -0.73009825 -0.19266088 0
0.81520164 -0.83077627 -0.19129416 0
0.95861852 -0.97693318 -0.19235022 0
1.1476722 -1.1695987 -0.19151226 0
1.439169 -1.4666648 -0.19179824 0
1.9044981 -1.940884 -0.19009894 0
3.6325006 -3.7019005 -0.24145277 0
7.2719264 -7.4108586 -0.24140383 0
0.64821601 -0.6280849 -0.19185703 0
0.73549509 -0.7126534 -0.19289456 0
0.84030771 -0.81421101 -0.19230208 0
0.97646213 -0.94613695 -0.19107823 0
1.1780491 -1.1414634 -0.19171278 0
1.4822218 -1.4361897 -0.19264376 0
1.9599055 -1.8990384 -0.19078457 0
3.7287464 -3.6129458 -0.24171205 0
7.4652672 -7.2334247 -0.2416846 0
0.65666461 -0.60490453 -0.18977845 0
0.75076628 -0.69158888 -0.19226061 0
0.8525514 -0.78535098 -0.19050725 0
1.0017059 -0.92274874 -0.19139975 0
1.2161055 -1.1202488 -0.19324321 0
1.5188496 -1.3991297 -0.1927533 0
2.5398347 -2.339638 -0.24141201 0
3.8203588 -3.5192277 -0.24181594 0
7.6429219 -7.0404859 -0.24160637 0
0.68046814 -0.59580517 -0.19225062 0
0.76855361 -0.67293119 -0.19240503 0
0.87632221 -0.76729137 -0.19143064 0
1.0335704 -0.90497494 -0.19306248 0
1.2227132 -1.0705849 -0.18993907 0
1.5292236 -1.3389597 -0.18972071 0
2.6033232 -2.2794213 -0.24190131 0
3.9008157 -3.4154813 -0.24137534 0
7.8202229 -6.8472409 -0.24167113 0
0.6917038 -0.57546788 -0.19126061 0
0.78919578 -0.65657699 -0.19336256 0
0.89216739 -0.74224496 -0.19073895 0
1.0592813 -0.88127661 -0.19364868 0
1.250962 -1.0407467 -0.19018628 0
1.5662229 -1.3030303 -0.19017032 0
2.656368 -2.2099841 -0.24157041 0
3.9916675 -3.3208959 -0.2417337 0
7.9935818 -6.6503167 -0.24176446 0
0.71337068 -0.56365353 -0.19325651 0
0.79800618 -0.63052636 -0.19156113 0
0.91383845 -0.72204858 -0.191415 0
1.0708123 -0.84607792 -0.19179182 0
1.2709993 -1.004251 -0.18931885 0
1.58977 -1.2561204 -0.18911977 0
2.7211463 -2.1500516 -0.24244928 0
4.0727 -3.2179508 -0.24164553 0
8.157156 -6.4451904 -0.24171484 0
0.72337878 -0.54248559 -0.19219737 0
0.81271869 -0.60948449 -0.1913393 0
0.93542355 -0.70150495 -0.19216646 0
1.0878572 -0.81582004 -0.19109593 0
1.3111825 -0.9832989 -0.19154662 0
1.6191301 -1.214239 -0.18890662 0
2.7648096 -2.073422 -0.24160005 0
4.1513329 -3.1132212 -0.24157205 0
8.3172379 -6.237371 -0.24171659 0
0.72504115 -0.5156725 -0.1891208 0
0.8291865 -0.58974397 -0.191651 0
0.93913633 -0.66794384 -0.18940565 0
1.1104175 -0.78976452 -0.19149646 0
1.325133 -0.94247699 -0.19004908 0
1.6715484 -1.1888587 -0.19146056 0
2.8189807 -2.0049493 -0.24183483 0
4.2321944 -3.0100722 -0.24177963 0
8.4689598 -6.023396 -0.24163085 0
0.74890858 -0.50468653 -0.19196272 0
0.84153402 -0.56710643 -0.19113581 0
0.96963131 -0.65343076 -0.19216859 0
1.1207867 -0.75529373 -0.18993671 0
1.3483551 -0.90865117 -0.19002996 0
1.6929207 -1.1408526 -0.19054979 0
2.8729439 -1.9360656 -0.24219513 0
4.3044534 -2.9007542 -0.24164823 0
8.6237888 -5.8115373 -0.24178642 0
0.76842332 -0.49010724 -0.19373246 0
0.84896743 -0.54147899 -0.18965973 0
0.99382794 -0.63387233 -0.19373171 0
1.137637 -0.725595 -0.18962841 0
1.3650088 -0.87061477 -0.18921998 0
1.734442 -1.1062425 -0.19201952 0
2.9177334 -1.8609563 -0.24193436 0
4.3739738 -2.7897596 -0.24152134 0
8.7637262 -5.5895824 -0.24167754 0
0.77045631 -0.46448129 -0.19122852 0
0.8754285 -0.52776533 -0.19253407 0
0.99363363 -0.5990271 -0.19068591 0
1.1710223 -0.70596856 -0.19216208 0
1.4070764 -0.84827733 -0.19202246 0
1.7649504 -1.0640271 -0.19236273 0
2.9490452 -1.7778765 -0.24073331 0
4.4482203 -2.6816771 -0.24180676 0
8.913352 -5.3735495 -0.24198663 0
0.78971189 -0.44932151 -0.19313158 0
0.88484305 -0.50344813 -0.19174899 0
1.0191526 -0.57986617 -0.19271322 0
1.1844736 -0.67392862 -0.19151723 0
1.4048616 -0.79932249 -0.18890689 0
1.7857296 -1.0160246 -0.19177151 0
3.0063801 -1.7105367 -0.24181242 0
4.507277 -2.5645003 -0.24142171 0
9.0388279 -5.1428118 -0.24179226 0
0.79511297 -0.42620623 -0.19176064 0
0.89295739 -0.47865403 -0.1908287 0
1.0319662 -0.55316722 -0.19243488 0
1.1968111 -0.64152944 -0.19083329 0
1.4421182 -0.77302194 -0.19123228 0
1.8153387 -0.97308022 -0.19225255 0
3.0441229 -1.6317483 -0.24145877 0
4.5811024 -2.4556189 -0.24197926 0
9.1622972 -4.9112873 -0.24170227 0
0.80099779 -0.40368292 -0.19066198 0
0.90404451 -0.45561588 -0.19067988 0
1.0430714 -0.52568197 -0.1919705 0
1.2108446 -0.61023551 -0.19055444 0
1.4567374 -0.73415935 -0.19065306 0
1.8364818 -0.92554104 -0.19195667 0
3.0897098 -1.5571368 -0.24188037 0
4.648066 -2.3425095 -0.24231629 0
9.2768068 -4.6752796 -0.24153329 0
0.81708288 -0.38625395 -0.19210908 0
0.93210399 -0.4406271 -0.1941907 0
1.0507625 -0.49671969 -0.19101787 0
1.2284095 -0.5806976 -0.19095139 0
1.4914153 -0.70502645 -0.19280136 0
1.8516173 -0.87530226 -0.1911687 0
3.1279464 -1.4786525 -0.24187513 0
4.7012725 -2.2224002 -0.24208878 0
9.3985844 -4.4429283 -0.24170738 0
0.81463867 -0.3602398 -0.18933642 0
0.94317442 -0.41707933 -0.19424212 0
1.069088 -0.47275934 -0.19211896 0
1.2384746 -0.54766345 -0.19030669 0
1.5055524 -0.66576743 -0.1923954 0
1.8837248 -0.83299834 -0.19225177 0
3.1618457 -1.3981937 -0.2416907 0
4.7454562 -2.098479 -0.24155974 0
9.513505 -4.2069488 -0.24185516 0
0.82572508 -0.34050152 -0.18985525 0
0.93785185 -0.38673887 -0.19107491 0
1.0734137 -0.44264007 -0.19082794 0
1.2583822 -0.51891494 -0.19129233 0
1.5161994 -0.62523013 -0.19167839 0
1.8825668 -0.77630788 -0.19007339 0
3.2106934 -1.323983 -0.24279296 0
4.8096948 -1.9833579 -0.24220446 0
9.6154747 -3.9651017 -0.24182633 0
0.84345382 -0.32316095 -0.19199507 0
0.94747567 -0.36301589 -0.19110811 0
1.0845348 -0.41552871 -0.19087978 0
1.2618657 -0.4834713 -0.18990646 0
1.5250077 -0.58429152 -0.19086684 0
1.9080478 -0.73104954 -0.19072244 0
3.223973 -1.2352332 -0.24136278 0
4.8566403 -1.8607734 -0.24212642 0
9.7079163 -3.7194917 -0.24171326 0
0.85167748 -0.3018969 -0.19207141 0
0.95688218 -0.33918914 -0.1912178 0
1.0979043 -0.38917771 -0.19144309 0
1.2675407 -0.44930929 -0.18899369 0
1.5478159 -0.54865932 -0.19192721 0
1.9413002 -0.68813896 -0.19224896 0
3.2551045 -1.1538475 -0.24143633 0
4.8969483 -1.7358372 -0.24187475 0
9.8017111 -3.4744444 -0.24178821 0
0.86079735 -0.28089097 -0.19246802 0
0.97002983 -0.31653515 -0.19218744 0
1.1034714 -0.36007911 -0.19076839 0
1.2931309 -0.42196783 -0.19116044 0
1.5658042 -0.5109452 -0.19249739 0
1.952058 -0.63698554 -0.19166118 0
3.2835367 -1.0714668 -0.24146248 0
4.9319592 -1.6093715 -0.24152085 0
9.8855362 -3.2257974 -0.24177065 0
0.86353266 -0.25786507 -0.19156341 0
0.97553468 -0.29131073 -0.19176035 0
1.1049801 -0.32996526 -0.18952912 0
1.3043501 -0.38950044 -0.19130479 0
1.5643212 -0.46713209 -0.19080487 0
1.9556955 -0.58400291 -0.19051045 0
3.3151538 -0.9899596 -0.24187315 0
4.9834533 -1.4881412 -0.24212614 0
9.9644318 -2.9755435 -0.24178649 0
0.87340426 -0.23698296 -0.19236518 0
0.9904986 -0.26875445 -0.19330689 0
1.1164109 -0.30291855 -0.19011785 0
1.313974 -0.35652384 -0.1913356 0
1.5685248 -0.42559174 -0.18994692 0
1.9682971 -0.53406298 -0.19036435 0
3.3343079 -0.90470606 -0.24152774 0
5.0154157 -1.3608452 -0.24193327 0
10.035697 -2.7230108 -0.2417711 0
0.87922347 -0.2148995 -0.19239099 0
0.99020195 -0.24202482 -0.19199571 0
1.1183571 -0.27334845 -0.18921416 0
1.3232797 -0.3234356 -0.19144103 0
1.5724078 -0.38432738 -0.18918225 0
1.9840963 -0.48495212 -0.19064789 0
3.3559711 -0.82026535 -0.2415204 0
5.0545917 -1.2354416 -0.24224178 0
10.095402 -2.4675145 -0.24163216 0
0.89048451 -0.19398032 -0.19372213 0
0.9970699 -0.21719855 -0.19220325 0
1.1241896 -0.24488989 -0.18909502 0
1.3179542 -0.28709894 -0.18956187 0
1.6017261 -0.34891492 -0.1915891 0
1.9880894 -0.43307909 -0.18992081 0
3.3749969 -0.73519862 -0.24147734 0
5.0772872 -1.1060202 -0.24191462 0
10.151723 -2.2114191 -0.24156739 0
0.88330919 -0.16919319 -0.19117129 0
0.99782223 -0.19112757 -0.19135746 0
1.1434335 -0.21901862 -0.19134121 0
1.3256792 -0.25392684 -0.18969078 0
1.6075559 -0.30791882 -0.19129594 0
2.5404165 -0.48660332 -0.2414341 0
3.3960836 -0.65050185 -0.2417344 0
5.101932 -0.97724813 -0.24183665 0
10.209641 -1.9556025 -0.24169411 0
0.89004099 -0.14730676 -0.19176254 0
1.0190934 -0.16866563 -0.1945584 0
1.1450703 -0.18951553 -0.19075395 0
1.3295982 -0.22005591 -0.18939652 0
1.6086894 -0.26624706 -0.19057049 0
2.5559263 -0.42302006 -0.24181645 0
3.4035351 -0.56330401 -0.24117599 0
5.1291895 -0.84890944 -0.24203598 0
10.255505 -1.6973432 -0.24168876 0
0.90196663 -0.12598947 -0.19358519 0
1.011386 -0.14127353 -0.19234499 0
1.1510916 -0.16078803 -0.19102016 0
1.339835 -0.18715228 -0.19012132 0
1.622555 -0.22664347 -0.19147442 0
2.5664022 -0.35848296 -0.24187453 0
3.4193027 -0.47761872 -0.24136223 0
5.1551313 -0.72008461 -0.24232537 0
10.302254 -1.4390506 -0.24185751 0
0.90015328 -0.1026553 -0.1925786 0
1.0166197 -0.11593736 -0.19272245 0
1.1518205 -0.13135594 -0.19053029 0
1.3546314 -0.1544849 -0.19160663 0
1.6289444 -0.1857681 -0.19161411 0
2.5706246 -0.29315922 -0.24149825 0
3.4497032 -0.3934111 -0.24272996 0
5.1633186 -0.5888353 -0.24193458 0
10.330769 -1.1781417 -0.24175188 0
0.90914112 -0.080502756 -0.19400498 0
1.0162266 -0.089984976 -0.19215621 0
1.1327382 -0.10030185 -0.18689547 0
1.1289248 -0.099964194 -0.15927385 0
1.6385957 -0.14509459 -0.1922574 0
2.5797007 -0.22842768 -0.24173228 0
3.4425011 -0.30482703 -0.24160492 0
5.1628623 -0.45716184 -0.24129573 0
10.361231 -0.91746771 -0.24184583 0
0.89747906 -0.056691915 -0.19115017 0
1.0110283 -0.063864589 -0.19080772 0
1.1217992 -0.070861764 -0.1847367 0
1.1279608 -0.071250975 -0.15883355 0
1.6315157 -0.10305951 -0.19106068 0
2.5749793 -0.16265617 -0.24082848 0
3.4498913 -0.21792257 -0.24166062 0
5.1799517 -0.32720694 -0.24163149 0
10.375471 -0.65539724 -0.24171513 0
0.90821171 -0.034392677 -0.19318967 0
1.018324 -0.038562469 -0.1919398 0
1.1303819 -0.042805947 -0.18591297 0
1.1326936 -0.042893488 -0.15929683 0
1.6314961 -0.06178242 -0.19081502 0
2.594342 -0.098244011 -0.24233034 0
3.4635952 -0.13116139 -0.24231151 0
5.1961079 -0.19676916 -0.24207638 0
10.393648 -0.3935926 -0.24183019 0
0.89684522 -0.011315942 -0.19065039 0
1.021667 -0.012890881 -0.1924473 0
1.1273991 -0.014224954 -0.1853043 0
1.126711 -0.014216273 -0.15835457 0
1.1290159 -0.014245356 -0.13196233 0
1.1395297 -0.014378013 -0.10637257 0
1.1331022 -0.014296913 -0.079220831 0
1.1177461 -0.014103158 -0.052040424 0
1.1337621 -0.01430524 -0.026362574 0
1.136062 -0.014334259 3.243532e-05 0
1.1293712 -0.014249837 0.026324997 0
1.1356939 -0.014329614 0.052941035 0
1.1363991 -0.014338512 0.079516545 0
1.1430446 -0.014422362 0.10676651 0
1.1202966 -0.014135338 0.13100803 0
1.1299615 -0.014257286 0.15887719 0
1.1432357 -0.014424773 0.18797433 0
1.1327659 -0.01429267 0.21344154 0
0.89719987 0.011320417 -0.19072577 0
1.0148966 0.012805455 -0.191172 0
1.131897 0.014281707 -0.18604361 0
1.121489 0.014150384 -0.15762062 0
1.6363916 0.020647166 -0.19126572 0
2.5767748 0.032512449 -0.2405362 0
3.4506452 0.043538507 -0.24125184 0
5.196569 0.065567695 -0.24194373 0
10.388958 0.13108265 -0.24156715 0
0.89769256 0.033994332 -0.19095209 0
1.0189663 0.038586795 -0.19206087 0
1.1257179 0.042629324 -0.18514587 0
1.1275342 0.042698104 -0.15857121 0
1.6450716 0.062296506 -0.19240275 0
2.5903046 0.098091118 -0.24195321 0
3.4542003 0.13080561 -0.24165425 0
5.187007 0.19642453 -0.2416524 0
10.388755 0.39340729 -0.24171633 0
0.91050184 0.057514537 -0.19392383 0
1.0258398 0.064800195 -0.19360304 0
1.129688 0.071360081 -0.18603581 0
1.131605 0.071481176 -0.1593467 0
1.6402301 0.10360997 -0.19208118 0
2.5857487 0.16333644 -0.2418357 0
3.4578004 0.21842217 -0.24221464 0
5.189744 0.32782552 -0.24208829 0
10.377742 0.6555407 -0.24176803 0
0.90479702 0.08011809 -0.19307798 0
1.0146192 0.08984264 -0.19185227 0
1.1544853 0.10222752 -0.19048363 0
1.3514992 0.11967274 -0.19067565 0
1.6342314 0.14470816 -0.19174536 0
2.5663095 0.22724193 -0.24047747 0
3.4442184 0.30497912 -0.24172546 0
5.1680579 0.4576219 -0.24153855 0
10.368709 0.91812986 -0.24202038 0
0.89483452 0.10204873 -0.19144069 0
1.0076474 0.11491415 -0.19102158 0
1.1518489 0.13135917 -0.19053499 0
1.3426472 0.15311819 -0.18991151 0
1.6325226 0.18617617 -0.19203502 0
2.5820534 0.29446259 -0.24257192 0
3.4439991 0.3927606 -0.24232861 0
5.1738043 0.59003109 -0.24242589 0
10.337059 1.1788591 -0.24189909 0
0.88810676 0.12405349 -0.19061051 0
1.0030271 0.14010592 -0.19075528 0
1.1461403 0.16009641 -0.19019851 0
1.342568 0.18753403 -0.19050913 0
1.624192 0.22687213 -0.1916676 0
2.5709262 0.35911489 -0.2423009 0
3.4265404 0.47862971 -0.24187315 0
5.1394496 0.71789414 -0.24158822 0
10.295462 1.4381018 -0.24169806 0
0.90047932 0.14903435 -0.19401149 0
1.0152328 0.16802669 -0.19382136 0
1.1435988 0.18927197 -0.19050881 0
1.3427932 0.22223976 -0.1912761 0
1.626572 0.26920673 -0.19268891 0
2.5563846 0.42309588 -0.24185979 0
3.4084122 0.56411123 -0.24152161 0
5.1154294 0.84663206 -0.24138668 0
10.254221 1.6971307 -0.24165849 0
0.89385396 0.171213 -0.19345348 0
1.0050639 0.19251467 -0.19274624 0
1.1404411 0.21844544 -0.19084045 0
1.3241519 0.25363427 -0.18947224 0
1.3471034 0.25803053 -0.16030261 0
1.3451052 0.25764775 -0.12783505 0
1.3504411 0.25866985 -0.096124858 0
1.3450335 0.25763404 -0.063755922 0
1.3446413 0.25755891 -0.031831864 0
1.3441859 0.25747171 3.9071965e-05 0
0.88067752 0.19184399 -0.19158864 0
0.9899534 0.21564831 -0.19083142 0
1.1222806 0.24447405 -0.18877393 0
1.1931003 0.2599012 -0.17160411 0
1.2068383 0.26289383 -0.14435494 0
1.2122734 0.26407778 -0.11580764 0
1.198921 0.26116914 -0.085781485 0
1.2148037 0.26462898 -0.057881054 0
1.1978924 0.26094508 -0.028504692 0
1.2010217 0.26162675 3.5091318e-05 0
0.87179923 0.21308488 -0.19076644 0
0.9830972 0.24028827 -0.19061813 0
1.1320388 0.27669254 -0.19152896 0
1.1974248 0.29267415 -0.17323337 0
1.210305 0.29582232 -0.14561629 0
1.2103895 0.29584301 -0.11630394 0
1.202685 0.29395986 -0.086554073 0
1.2014474 0.29365736 -0.05757948 0
1.2136465 0.29663906 -0.029048476 0
1.2058729 0.29473904 3.5439123e-05 0
0.87711275 0.23798919 -0.19318198 0
0.98283571 0.26667526 -0.19181138 0
1.1168219 0.30303004 -0.19018784 0
1.2069106 0.32747406 -0.17574546 0
1.2078512 0.32772925 -0.14626968 0
1.2027441 0.32634354 -0.11632369 0
1.2000309 0.32560739 -0.08692681 0
1.2051972 0.32700917 -0.058136217 0
1.2120128 0.32885846 -0.029198736 0
1.2068557 0.32745916 3.5699526e-05 0
0.87466294 0.26118878 -0.19403252 0
0.96675485 0.28868893 -0.19003449 0
1.1166127 0.33343893 -0.19152437 0
1.2160407 0.36312982 -0.17835274 0
1.2081392 0.36077029 -0.1473603 0
1.2062399 0.36020312 -0.11750363 0
1.2067448 0.36035389 -0.088043921 0
1.2153189 0.36291426 -0.059047509 0
1.2016546 0.35883385 -0.029158093 0
1.2082571 0.36080545 3.5998888e-05 0
0.86145824 0.28110662 -0.19261579 0
0.96292233 0.31421587 -0.19077928 0
1.0976821 0.35819 -0.18976754 0
1.2208842 0.39839265 -0.18048038 0
1.2121595 0.39554566 -0.1490209 0
1.2000226 0.39158517 -0.11782321 0
1.1947057 0.38985023 -0.087855458 0
1.2071211 0.39390156 -0.059113409 0
1.2040225 0.39289042 -0.029446788 0
1.2041732 0.3929396 3.6161178e-05 0
0.84128791 0.29821408 -0.18972833 0
0.95120382 0.33717632 -0.19008307 0
1.0976609 0.38909143 -0.19140065 0
1.2021679 0.42613637 -0.17924644 0
1.2097789 0.42883426 -0.15001105 0
1.2126869 0.42986509 -0.12009364 0
1.2077073 0.42809993 -0.089577585 0
1.1975199 0.42448878 -0.059149049 0
1.2010174 0.42572853 -0.029626647 0
1.2097543 0.42882559 3.664213e-05 0
0.8391549 0.32151386 -0.19101651 0
0.94687253 0.3627848 -0.19098645 0
1.0905317 0.41782638 -0.19193524 0
1.194767 0.45776308 -0.17980833 0
1.2097557 0.46350586 -0.15141055 0
1.2025568 0.46074769 -0.12020379 0
1.2122704 0.46446934 -0.09075664 0
1.2049223 0.46165401 -0.060071059 0
1.2003914 0.45991802 -0.02988803 0
1.20708 0.46248069 3.6902922e-05 0
0.8301422 0.34232298 -0.19087087 0
0.94078779 0.38794953 -0.19167306 0
1.074419 0.44305459 -0.19100665 0
1.2054213 0.49707559 -0.1832415 0
1.20094 0.49522763 -0.15182321 0
1.2119644 0.49977374 -0.122366 0
1.2146828 0.50089473 -0.091854446 0
1.2035761 0.49631467 -0.060609143 0
1.2019851 0.49565864 -0.030229567 0
1.2080913 0.49817657 3.7306356e-05 0
0.81684554 0.36121571 -0.18984933 0
0.93129104 0.41182443 -0.1917948 0
1.0690206 0.47272956 -0.19210686 0
1.2050141 0.53286695 -0.18516508 0
1.2084658 0.53439337 -0.15443054 0
1.2017374 0.53141797 -0.12264856 0
1.2066759 0.53360182 -0.092238002 0
1.2036315 0.53225559 -0.061268914 0
1.2168763 0.53811252 -0.03093579 0
1.2074168 0.53392947 3.7689664e-05 0
0.81991285 0.38759175 -0.19277444 0
0.92179847 0.43575543 -0.19204368 0
1.0559782 0.49918526 -0.19196603 0
1.2270048 0.58003354 -0.19073302 0
1.4787685 0.69904804 -0.19116645 0
1.8629011 0.88063639 -0.19233368 0
3.130327 1.4797779 -0.2420592 0
4.6972671 2.2205067 -0.24188253 0
9.4058447 4.4463601 -0.2418941 0
0.81007773 0.40825897 -0.19282329 0
0.9074707 0.45734262 -0.19140254 0
1.0401403 0.52420479 -0.19143106 0
1.2024746 0.60601723 -0.18923722 0
1.4591093 0.73535472 -0.19096349 0
1.8296343 0.92209005 -0.19124094 0
3.1023135 1.5634887 -0.24286707 0
4.6411543 2.3390262 -0.24195595 0
9.2869749 4.6804042 -0.24179804 0
0.79619813 0.42678794 -0.19202237 0
0.89655 0.48057979 -0.19159645 0
1.0253097 0.54959917 -0.19119363 0
1.1988854 0.64264137 -0.19116405 0
1.4357512 0.76960909 -0.19038799 0
1.795174 0.96227133 -0.19011702 0
3.0384169 1.6286896 -0.24100617 0
4.5849247 2.4576678 -0.24218117 0
9.1651039 4.9127922 -0.24177632 0
0.79200447 0.4506259 -0.19369225 0
0.8829478 0.50236982 -0.19133829 0
1.0084836 0.5737958 -0.19069579 0
1.1781254 0.6703167 -0.19049078 0
1.214296 0.69089663 -0.1632822 0
1.2061925 0.68628597 -0.12953436 0
3.0131609 1.7143947 -0.24235782 0
4.5176382 2.5703955 -0.24197669 0
9.0377607 5.1422043 -0.24176371 0
0.7700572 0.46424067 -0.19112946 0
0.87690514 0.52865553 -0.19285883 0
0.99498653 0.59984273 -0.19094554 0
1.1642375 0.70187819 -0.1910487 0
1.1510861 0.6939497 -0.1570877 0
1.2023107 0.72483116 -0.13104036 0
2.9668438 1.7886069 -0.24218625 0
4.4480972 2.6816027 -0.24180005 0
8.9027596 5.3671637 -0.24169907 0
0.76755315 0.48955223 -0.19351307 0
0.85850286 0.54756075 -0.19178994 0
0.98396993 0.62758476 -0.19181003 0
1.1480426 0.7322318 -0.19136287 0
1.1444968 0.72997022 -0.1586522 0
1.1746203 0.74918324 -0.13004184 0
2.9231975 1.8644414 -0.24238746 0
4.3787484 2.7928047 -0.24178497 0
8.7624121 5.5887446 -0.24164131 0
0.74332047 0.50092071 -0.19053036 0
0.84224242 0.56758386 -0.19129671 0
0.96832269 0.65254885 -0.19190924 0
1.1317105 0.76265526 -0.19178794 0
1.1398745 0.76815689 -0.16064782 0
1.1583726 0.78062278 -0.13038276 0
2.8678281 1.932618 -0.24176385 0
4.3069224 2.9024179 -0.24178682 0
8.6162472 5.8064551 -0.24157497 0
0.74589974 0.5305078 -0.19456157 0
0.83308649 0.59251779 -0.19255242 0
0.95259488 0.67751598 -0.19211997 0
1.1056536 0.7863763 -0.19067492 0
1.1402514 0.8109833 -0.16353357 0
1.1532476 0.82022661 -0.13209395 0
2.8143847 2.0016806 -0.24144055 0
4.2294164 3.0080965 -0.24162093 0
8.4759989 6.0284019 -0.24183168 0
0.72364402 0.5426845 -0.19226782 0
0.81933475 0.6144461 -0.19289692 0
0.93677378 0.70251751 -0.19244386 0
1.0879167 0.81586462 -0.19110638 0
1.0980312 0.82344973 -0.16040799 0
1.0987253 0.82397032 -0.12819012 0
1.1021503 0.8265388 -0.096310273 0
1.0946016 0.82087779 -0.063696451 0
1.0972899 0.82289386 -0.031889573 0
1.0927981 0.8195253 3.8995775e-05 0
1.0977533 0.82324135 0.031981427 0
1.1001407 0.82503176 0.064097464 0
1.103719 0.82771522 0.096526511 0
0.71587008 0.56562841 -0.19393361 0
0.80041927 0.632433 -0.19214039 0
0.91074228 0.71960217 -0.19076645 0
1.0528278 0.83186787 -0.18857065 0
1.1015345 0.87035227 -0.1640766 0
1.0954483 0.86554343 -0.13031504 0
1.1005783 0.86959678 -0.098059557 0
1.0981692 0.86769331 -0.065157682 0
1.0974252 0.86710542 -0.032519169 0
1.095724 0.86576128 3.9867224e-05 0
1.093016 0.86362165 0.032468099 0
1.0911925 0.86218077 0.064823307 0
1.1079566 0.87542659 0.09879797 0
0.69679278 0.57970166 -0.19266774 0
0.78521454 0.65326476 -0.1923871 0
0.90487289 0.75281537 -0.19345529 0
1.035519 0.86150736 -0.18930465 0
1.0975388 0.91310519 -0.16686104 0
1.0949978 0.91099107 -0.13295428 0
1.0973362 0.91293657 -0.099791877 0
1.0957139 0.91158694 -0.066355973 0
1.1004907 0.91556102 -0.033284146 0
1.0975578 0.91312093 4.0759485e-05 0
1.0994797 0.91471988 0.033335276 0
1.092384 0.90881664 0.066235632 0
1.0998745 0.9150483 0.1001048 0
0.67200232 0.58839273 -0.18985881 0
0.76258826 0.6677081 -0.19091162 0
0.87444049 0.76564378 -0.19101958 0
0.99648178 0.87250084 -0.18613462 0
1.0969447 0.9604643 -0.17040189 0
1.0918496 0.95600313 -0.13545859 0
1.1019002 0.96480328 -0.10238878 0
1.0983186 0.96166718 -0.067961939 0
1.1000558 0.96318829 -0.033995416 0
1.1012864 0.96426582 4.1788448e-05 0
1.0944149 0.95824927 0.033904195 0
1.0973574 0.96082562 0.06798593 0
1.1043184 0.96692061 0.1026977 0
1.0885795 0.9531399 0.13513623 0
1.087338 0.95205283 0.27229714 0
0.66716725 0.61457932 -0.19281375 0
0.74762225 0.68869263 -0.19145547 0
0.85371166 0.78641981 -0.19076653 0
0.96803987 0.89173627 -0.18496704 0
1.0628086 0.97903514 -0.16888383 0
1.098719 1.012115 -0.1394356 0
1.0992056 1.0125632 -0.1044798 0
1.0966643 1.0102223 -0.069415189 0
1.0944284 1.0081626 -0.034596834 0
1.0989381 1.0123168 4.2655251e-05 0
1.0994642 1.0128014 0.034841418 0
1.1014872 1.0146649 0.069806144 0
1.1070046 1.0197475 0.10530746 0
1.1058486 1.0186826 0.14042699 0
1.0382198 0.95638454 0.26595685 0
0.64639443 0.62631994 -0.19131789 0
0.72930652 0.70665705 -0.19127153 0
0.8390885 0.81302959 -0.19202305 0
0.83711088 0.81111342 -0.16380939 0
0.84649324 0.82020444 -0.13775621 0
0.83582759 0.80987 -0.10863217 0
0.84119874 0.81507438 -0.08188545 0
0.83849639 0.81245589 -0.054354642 0
0.8350535 0.80911994 -0.027034475 0
0.84549576 0.81923789 3.3609755e-05 0
0.84261256 0.81644428 0.027346224 0
0.83555752 0.80960834 0.054230709 0
0.83911049 0.81305093 0.081749201 0
1.1027952 1.0685467 0.14341828 0
1.0069712 0.97569859 0.19713002 0
1.0042088 0.97302186 0.22989237 0
0.98608142 0.95545757 0.25869578 0
0.6328786 0.64496988 -0.19207437 0
0.71145469 0.72504723 -0.191328 0
0.82192272 0.83762574 -0.19287132 0
0.84367567 0.85979432 -0.16928653 0
0.83643389 0.85241419 -0.13957587 0
0.82846969 0.84429783 -0.11041026 0
