# .PCD v0.7 - Point Cloud Data file format
VERSION 0.7
FIELDS x y z intensity
SIZE 4 4 4 4
TYPE F F F F
COUNT 1 1 1 1
WIDTH 1361
HEIGHT 1
VIEWPOINT 0 0 0 1 0 0 0
POINTS 1361
DATA ascii
1.4461596 -1.2031426 -0.30917847 0
1.7083962 -1.4213122 -0.31231424 0
2.3754251 -1.9762516 -0.36114067 0
2.9797921 -2.479059 -0.36180544 0
3.9649615 -3.2986777 -0.36057407 0
5.9577947 -4.9566293 -0.36080155 0
11.958117 -9.9486399 -0.36167112 0
0.67480177 -0.53317922 -0.31304932 0
0.73756832 -0.58277273 -0.31759372 0
0.77984059 -0.61617321 -0.31021926 0
0.86353928 -0.68230581 -0.31560126 0
0.92819357 -0.73339093 -0.30962557 0
1.0375782 -0.81981868 -0.31342074 0
1.1520643 -0.91027731 -0.3121013 0
1.3067058 -1.0324637 -0.3136743 0
1.4754263 -1.1657743 -0.30904666 0
1.7403519 -1.3750993 -0.31171221 0
2.4345059 -1.9235692 -0.36262637 0
3.0355277 -2.3984528 -0.36110777 0
4.0505834 -3.2004759 -0.36089975 0
6.0982919 -4.8184257 -0.36182997 0
12.208599 -9.6463451 -0.36176819 0
0.67711091 -0.50778776 -0.30807692 0
0.73118639 -0.5483408 -0.30878809 0
0.79992241 -0.59988815 -0.31208548 0
0.85721731 -0.64285553 -0.30726308 0
0.94780403 -0.71078944 -0.31008416 0
1.0522829 -0.78914165 -0.31174695 0
1.1789101 -0.88410354 -0.31322929 0
1.3147177 -0.98595011 -0.30952549 0
1.5328248 -1.1495159 -0.31489214 0
1.7567248 -1.3174257 -0.30859098 0
2.4757965 -1.8566812 -0.36168149 0
3.1003559 -2.3250592 -0.36172372 0
4.1309943 -3.0979686 -0.36098269 0
6.2221313 -4.6661811 -0.36207479 0
12.446088 -9.3337317 -0.36170974 0
0.6902349 -0.49091721 -0.30831257 0
0.7525323 -0.53522509 -0.31199855 0
0.81418461 -0.5790742 -0.31184843 0
0.9032312 -0.642407 -0.3178435 0
0.97236574 -0.69157767 -0.31230983 0
1.0695419 -0.76069254 -0.31107312 0
1.1949779 -0.8499065 -0.31169975 0
1.3430834 -0.95524395 -0.31042871 0
1.5448213 -1.0987264 -0.3115606 0
1.797799 -1.2786523 -0.31003848 0
2.5227981 -1.7942948 -0.36181688 0
3.1594827 -2.2471254 -0.36188981 0
4.2352829 -3.0122688 -0.36333662 0
6.3272862 -4.5001688 -0.36146945 0
12.68098 -9.0191193 -0.36180544 0
0.7108171 -0.47901684 -0.3120065 0
0.77018845 -0.51902694 -0.31378767 0
0.82800317 -0.55798805 -0.31164786 0
0.91097075 -0.61389959 -0.31501433 0
0.99436569 -0.67009914 -0.31384388 0
1.0918741 -0.73580968 -0.31206763 0
1.2113664 -0.81633508 -0.31050146 0
1.3605417 -0.91686374 -0.30901691 0
1.5717263 -1.0591801 -0.31149617 0
1.8282505 -1.2320509 -0.30982873 0
2.5670309 -1.7299119 -0.36178362 0
3.2072003 -2.1613197 -0.36099234 0
4.2760615 -2.8816211 -0.36048087 0
6.4362698 -4.3373771 -0.36132655 0
12.89443 -8.6895056 -0.361523 0
0.71746838 -0.45760769 -0.3097578 0
0.77216226 -0.49249196 -0.30942911 0
0.83684975 -0.53375024 -0.30980855 0
0.91680902 -0.58474892 -0.31183043 0
0.99855244 -0.63688564 -0.30999315 0
1.1117302 -0.7090714 -0.31252822 0
1.2247188 -0.78113657 -0.30877224 0
1.3915453 -0.88753998 -0.3108719 0
1.6023228 -1.0219758 -0.31234857 0
1.8738467 -1.1951561 -0.3123444 0
2.6054192 -1.6617595 -0.36116788 0
3.2621348 -2.0806186 -0.36114988 0
4.3629551 -2.7827315 -0.36177012 0
6.5474629 -4.1760302 -0.36153668 0
13.125697 -8.3716869 -0.36196777 0
0.72906774 -0.43952954 -0.30987763 0
0.78270048 -0.47186285 -0.30878133 0
0.85585451 -0.51596487 -0.31192392 0
0.9426561 -0.56829453 -0.31564265 0
1.024543 -0.61766136 -0.31312251 0
1.1191553 -0.67469972 -0.30972981 0
1.2540647 -0.75603187 -0.31126091 0
1.4113197 -0.8508355 -0.3103933 0
1.6313689 -0.98349547 -0.3130722 0
1.8907506 -1.1398677 -0.31026784 0
2.647279 -1.5959524 -0.36127183 0
3.3236558 -2.0037165 -0.36224675 0
4.4323449 -2.6721065 -0.3618165 0
6.6534953 -4.0111609 -0.36168626 0
13.33354 -8.0383263 -0.36198935 0
0.7420848 -0.42222315 -0.31078196 0
0.80535889 -0.45822412 -0.31305802 0
0.86529046 -0.49232334 -0.31073529 0
0.96092004 -0.54673362 -0.31703678 0
1.0315278 -0.58690721 -0.31063107 0
1.1456369 -0.65183175 -0.31240618 0
1.2605798 -0.71723068 -0.30828682 0
1.4392318 -0.81887805 -0.31188723 0
1.6531056 -0.94056565 -0.31258839 0
1.9293786 -1.0977564 -0.31196073 0
2.7013834 -1.537003 -0.36324573 0
3.3731394 -1.9192114 -0.36224523 0
4.4902539 -2.5548146 -0.36116496 0
6.7557011 -3.8437839 -0.3618533 0
13.533535 -7.7001605 -0.3620275 0
0.75701612 -0.40578511 -0.31264645 0
0.8047955 -0.43139642 -0.3085084 0
0.88489634 -0.47433305 -0.31337702 0
0.95400542 -0.51137775 -0.31039828 0
1.0555631 -0.56581593 -0.31346875 0
1.1682678 -0.62622935 -0.31416741 0
1.2797774 -0.68600208 -0.30864918 0
1.4531946 -0.77895927 -0.3105537 0
1.6714799 -0.8959673 -0.31168759 0
1.9567494 -1.0488809 -0.31200656 0
2.7237041 -1.4599935 -0.36117721 0
3.4146318 -1.830353 -0.3616249 0
4.5683804 -2.4487996 -0.36236235 0
6.8495932 -3.6716032 -0.36180362 0
13.702057 -7.3447456 -0.36146158 0
0.77253264 -0.38933718 -0.31489611 0
0.81744647 -0.41197264 -0.30927363 0
0.89991552 -0.45353499 -0.314542 0
0.96877104 -0.48823646 -0.31109408 0
1.0711849 -0.53985047 -0.31396165 0
1.1635751 -0.58641285 -0.30882698 0
1.2941837 -0.65223634 -0.30805534 0
1.4805291 -0.74614972 -0.31227127 0
1.690794 -0.85211802 -0.31117964 0
1.9955716 -1.0057184 -0.31404939 0
2.7545795 -1.3882394 -0.36051041 0
3.4710867 -1.7493411 -0.36281234 0
4.6195793 -2.3281527 -0.3616474 0
6.9413691 -3.4982769 -0.36187238 0
13.901417 -7.0059676 -0.3619408 0
0.78239179 -0.36985466 -0.31500956 0
0.84731084 -0.40054342 -0.31664696 0
0.89604986 -0.42358345 -0.30935562 0
0.98393738 -0.46512991 -0.31209514 0
1.0712993 -0.50642794 -0.31015015 0
1.1751035 -0.5554986 -0.30806753 0
1.318802 -0.62342823 -0.31007117 0
1.4976616 -0.70797926 -0.31201664 0
1.7218217 -0.81394488 -0.31300956 0
2.334177 -1.1034194 -0.36283854 0
2.7942274 -1.3208959 -0.36122119 0
3.5063834 -1.6575484 -0.36201367 0
4.6747308 -2.2098534 -0.36148354 0
7.0220609 -3.3194904 -0.3615962 0
14.063538 -6.648159 -0.36167794 0
0.78808689 -0.3484984 -0.31366128 0
0.83801037 -0.37057498 -0.30957744 0
0.91742843 -0.40569425 -0.31310168 0
0.99419504 -0.43964106 -0.31172991 0
1.0943152 -0.48391503 -0.31317779 0
1.1843616 -0.52373427 -0.3069315 0
1.3488533 -0.59647387 -0.31349733 0
1.5162307 -0.67048949 -0.31226024 0
1.7314537 -0.76566279 -0.31114846 0
2.3750868 -1.0502826 -0.364961 0
2.8333418 -1.2529267 -0.3620744 0
3.5361044 -1.563694 -0.36089259 0
4.7331133 -2.0930209 -0.36179799 0
7.1135659 -3.1456764 -0.36210454 0
14.235345 -6.2949848 -0.36189517 0
0.7856313 -0.32396817 -0.30933112 0
0.85859376 -0.35405546 -0.31378028 0
0.90859038 -0.37467241 -0.30676043 0
1.0161835 -0.41904023 -0.31520787 0
1.0838557 -0.44694602 -0.30685842 0
1.212595 -0.5000338 -0.31087866 0
1.3517929 -0.55743438 -0.31081167 0
1.5174193 -0.6257332 -0.30915412 0
1.7629614 -0.72698653 -0.31341341 0
2.364675 -0.97511321 -0.35946485 0
2.8715196 -1.184119 -0.36301836 0
3.5729747 -1.4733757 -0.36074543 0
4.782331 -1.972074 -0.36164036 0
7.1772323 -2.9596515 -0.36142784 0
14.397328 -5.9369788 -0.3620885 0
0.86827046 -0.3326692 -0.31414819 0
0.92911571 -0.35598144 -0.31055793 0
1.0199797 -0.39079508 -0.31322619 0
1.1070422 -0.42415223 -0.31029326 0
1.2226418 -0.46844304 -0.31032446 0
1.3653525 -0.52312124 -0.31079465 0
1.5472075 -0.59279716 -0.31207544 0
1.7665859 -0.67684984 -0.31092182 0
2.4108598 -0.92369699 -0.36282614 0
2.8909054 -1.1076217 -0.3618198 0
3.6233382 -1.3882459 -0.36217743 0
4.8362527 -1.852962 -0.36206609 0
7.2493019 -2.777498 -0.3614119 0
14.524632 -5.5649681 -0.36164257 0
0.81473839 -0.28880298 -0.31464687 0
0.87514877 -0.31021684 -0.3137041 0
0.94414628 -0.33467463 -0.312659 0
1.0233135 -0.3627373 -0.31133938 0
1.1211172 -0.39740607 -0.31132784 0
1.2453666 -0.44144914 -0.31316468 0
1.3766725 -0.48799357 -0.31046897 0
1.5703232 -0.55663759 -0.3138043 0
1.7971318 -0.63703519 -0.31336838 0
2.4161437 -0.85645831 -0.36025345 0
2.9201627 -1.0351195 -0.36209646 0
3.6481659 -1.2931772 -0.36128166 0
4.8692503 -1.726019 -0.3611601 0
7.3217092 -2.59535 -0.36164087 0
14.666888 -5.1990199 -0.36180222 0
0.8118639 -0.26492327 -0.31085554 0
0.87102664 -0.28422892 -0.30955645 0
0.93223262 -0.30420133 -0.3060737 0
1.0189261 -0.33249074 -0.3073535 0
1.1297209 -0.36864471 -0.31103426 0
1.242775 -0.40553591 -0.3098405 0
1.3864844 -0.45243043 -0.31000781 0
1.5652822 -0.51077485 -0.31012201 0
1.7963431 -0.58617347 -0.31055221 0
2.4490316 -0.79915535 -0.36203444 0
2.942306 -0.96011817 -0.36172226 0
3.6924877 -1.2049136 -0.36254382 0
4.9143395 -1.603622 -0.36138734 0
7.3846626 -2.4097252 -0.36163113 0
14.772803 -4.8205853 -0.36129859 0
0.82080328 -0.24510539 -0.31181037 0
0.88400251 -0.26397771 -0.31170091 0
0.9566015 -0.28565696 -0.31160825 0
1.0408728 -0.31082177 -0.31150803 0
1.1497432 -0.34333226 -0.31406102 0
1.2652988 -0.37783909 -0.3129788 0
1.4023794 -0.41877359 -0.3110995 0
1.5695838 -0.4687036 -0.30853227 0
1.8245378 -0.54483706 -0.31294954 0
2.4671812 -0.73674095 -0.36185345 0
2.9877222 -0.89218307 -0.36442128 0
3.7190232 -1.1105616 -0.36228177 0
4.9630561 -1.4820504 -0.36210385 0
7.4469485 -2.2237816 -0.36181757 0
14.906266 -4.4512568 -0.36169988 0
0.82105982 -0.22278021 -0.30967322 0
0.88633198 -0.24049067 -0.3102833 0
0.96579647 -0.26205197 -0.31234953 0
1.0356089 -0.28099433 -0.3077122 0
1.1441619 -0.31044829 -0.31029734 0
1.2592062 -0.34166357 -0.30924028 0
1.4164246 -0.38432202 -0.31196412 0
1.6046422 -0.43539155 -0.31316388 0
1.8252492 -0.49524942 -0.31082863 0
2.484194 -0.67404258 -0.36173835 0
2.9900777 -0.81130522 -0.36209568 0
3.7366202 -1.0138664 -0.36138815 0
4.9795113 -1.3511032 -0.36070159 0
7.4912834 -2.0326285 -0.36136401 0
15.01855 -4.0750203 -0.36181358 0
0.82535797 -0.20173372 -0.30927551 0
0.89230746 -0.21809749 -0.31034932 0
0.96740866 -0.23645368 -0.31084186 0
1.0610098 -0.25933164 -0.31321508 0
1.1409158 -0.27886224 -0.30741033 0
1.2788129 -0.312567 -0.3120186 0
1.4168345 -0.34630218 -0.31003061 0
1.5976282 -0.39049175 -0.30977294 0
1.8301787 -0.44733167 -0.30964684 0
2.4900584 -0.60861921 -0.36024076 0
3.0116091 -0.73609644 -0.36233792 0
3.7658989 -0.92045969 -0.36185777 0
5.0300989 -1.2294551 -0.36200297 0
7.5440292 -1.843909 -0.3615483 0
15.104519 -3.6918414 -0.36152476 0
0.83730918 -0.18239678 -0.31192946 0
0.89960587 -0.19596729 -0.31106842 0
0.97491378 -0.21237212 -0.31143194 0
1.0672598 -0.23248848 -0.31322816 0
1.1565725 -0.25194407 -0.3098169 0
1.2827221 -0.27942413 -0.31115264 0
1.4171888 -0.30871591 -0.308305 0
1.6155421 -0.35192457 -0.31142494 0
1.8441272 -0.40171883 -0.31019258 0
2.5113442 -0.54706329 -0.36120766 0
3.018218 -0.65747905 -0.36102161 0
3.7941809 -0.82651234 -0.36245549 0
5.0495982 -1.0999885 -0.36129323 0
7.5911703 -1.6536366 -0.36169216 0
15.202671 -3.3117015 -0.36175823 0
0.83540589 -0.16001758 -0.30961725 0
0.90892601 -0.17409997 -0.3126722 0
0.98560196 -0.18878685 -0.31322441 0
1.0741358 -0.20574503 -0.31362227 0
1.1756722 -0.22519377 -0.31331095 0
1.3013459 -0.24926594 -0.31404418 0
1.4339886 -0.27467293 -0.31035277 0
1.6277683 -0.31179041 -0.31216541 0
1.8499837 -0.35435456 -0.30957472 0
2.5275805 -0.48414466 -0.36167026 0
3.0320356 -0.58077037 -0.36080614 0
3.8062129 -0.72905993 -0.36173189 0
5.0834575 -0.97370934 -0.36184224 0
7.6233392 -1.4602103 -0.36135384 0
15.289738 -2.9286683 -0.36195588 0
0.83654034 -0.13845208 -0.30864432 0
0.92016608 -0.15229262 -0.3151162 0
0.99680191 -0.16497627 -0.31536004 0
1.0697172 -0.17704415 -0.31092846 0
1.169842 -0.19361538 -0.31035614 0
1.295638 -0.21443531 -0.3112615 0
1.4408609 -0.23847051 -0.31043866 0
1.6418364 -0.27173308 -0.31344825 0
1.8744537 -0.31023252 -0.31225982 0
2.5447545 -0.42117107 -0.36249119 0
3.0637021 -0.50705975 -0.36293593 0
3.8364966 -0.63496155 -0.36297134 0
5.1013937 -0.84430915 -0.36148703 0
7.6693392 -1.2693183 -0.36190048 0
15.353692 -2.5411217 -0.3618364 0
0.84397817 -0.11788947 -0.31019196 0
0.9281798 -0.12965101 -0.3166391 0
0.98546135 -0.13765228 -0.31057417 0
1.0898573 -0.15223463 -0.3155652 0
1.1923178 -0.16654663 -0.31510338 0
1.3081354 -0.18272439 -0.31305626 0
1.4473766 -0.20217402 -0.31064415 0
1.6398461 -0.22905876 -0.31186527 0
1.8734723 -0.2616924 -0.31089705 0
2.5434635 -0.35527882 -0.36091506 0
3.07444 -0.42944726 -0.36280844 0
3.837465 -0.53602892 -0.36166781 0
5.1434536 -0.71845341 -0.36306685 0
7.6962972 -1.0750425 -0.36177701 0
15.406939 -2.1520886 -0.36169598 0
0.92635083 -0.10564291 -0.31500527 0
0.99283719 -0.11322515 -0.31189874 0
1.0738132 -0.12245983 -0.30992603 0
1.1740869 -0.13389523 -0.30929378 0
1.3095659 -0.14934555 -0.31239706 0
1.4601157 -0.16651455 -0.31237683 0
1.648838 -0.18803681 -0.31257325 0
1.8778279 -0.21415129 -0.310624 0
2.5519104 -0.29102501 -0.36095643 0
3.0759439 -0.35078686 -0.36182591 0
3.8426988 -0.43822911 -0.3610037 0
5.137989 -0.58594668 -0.36152211 0
7.7168746 -0.88004792 -0.36158505 0
15.45701 -1.7627486 -0.36171183 0
0.85353315 -0.075578772 -0.31190306 0
0.91909963 -0.081384562 -0.31174174 0
0.99253172 -0.087886833 -0.3110069 0
1.0743173 -0.095128804 -0.3092801 0
1.1425624 -0.10117177 -0.30022088 0
1.1322867 -0.10026187 -0.26941761 0
1.4419115 -0.12767857 -0.30769479 0
1.6523567 -0.14631312 -0.31244075 0
1.8889551 -0.16726346 -0.31166705 0
2.5535948 -0.22611606 -0.36027274 0
3.0818446 -0.27289161 -0.36159468 0
3.8652806 -0.3422634 -0.36219829 0
5.1476479 -0.45581466 -0.36127719 0
7.7441082 -0.68572634 -0.3619349 0
15.495019 -1.3720551 -0.36167574 0
0.8460722 -0.05344465 -0.30858546 0
0.9113363 -0.057567246 -0.30851749 0
1.006881 -0.063602611 -0.31489992 0
1.0860058 -0.068600766 -0.31204718 0
1.1329919 -0.07156878 -0.29713687 0
1.1381187 -0.071892627 -0.27028748 0
1.468043 -0.092733271 -0.31267211 0
1.6629821 -0.10504717 -0.31384861 0
1.8969691 -0.11982766 -0.31239083 0
2.5752597 -0.16267388 -0.3626346 0
3.1003256 -0.19584122 -0.36306748 0
3.8769267 -0.24489753 -0.36259493 0
5.1743312 -0.3268519 -0.36245552 0
7.7621813 -0.4903211 -0.36208591 0
15.529415 -0.98096138 -0.36178547 0
0.85817617 -0.032497901 -0.31260139 0
0.91703105 -0.034726653 -0.31004989 0
1.0123693 -0.038336974 -0.31621307 0
1.0940971 -0.041431893 -0.31397167 0
1.1337634 -0.042934 -0.29696047 0
1.1417881 -0.043237884 -0.27081352 0
1.4612817 -0.055336643 -0.31083557 0
1.6590339 -0.06282524 -0.31270462 0
1.8887091 -0.071522705 -0.31063437 0
2.571646 -0.097384557 -0.36166447 0
3.0957067 -0.11722998 -0.36206478 0
3.8733423 -0.14667793 -0.36179823 0
5.1885562 -0.19648319 -0.36298898 0
7.7537751 -0.29362437 -0.36123306 0
15.546038 -0.5887062 -0.36171138 0
0.85746455 -0.010819056 -0.31214333 0
0.91312718 -0.011521379 -0.30853346 0
0.99191535 -0.012515489 -0.30962703 0
1.0926411 -0.013786396 -0.31335419 0
1.1229831 -0.014169236 -0.29394957 0
1.130651 -0.014265985 -0.26800123 0
1.1451688 -0.014449162 -0.24343872 0
1.1392907 -0.014374997 -0.2146036 0
1.1325725 -0.01429023 -0.18615465 0
1.1296953 -0.014253926 -0.15877397 0
1.1240032 -0.014182107 -0.13137642 0
1.1283658 -0.014237151 -0.10533043 0
1.1381752 -0.014360922 -0.079575516 0
1.1422383 -0.014412187 -0.053180736 0
1.1336789 -0.01430419 -0.026360638 0
1.1300936 -0.014258953 3.2264918e-05 0
1.1409731 -0.014396224 0.02659543 0
1.1351918 -0.014323278 0.052917629 0
1.1255289 -0.014201357 0.07875593 0
1.1399925 -0.014383852 0.10648142 0
1.129482 -0.014251235 0.13208218 0
1.1518903 -0.014533972 0.16196047 0
0.99334025 -0.012533467 0.16332805 0
0.85623819 0.010803582 -0.31169689 0
0.91716689 0.011572351 -0.30989841 0
0.99704558 0.01258022 -0.31122845 0
1.0877831 0.0137251 -0.311961 0
1.1236373 0.01417749 -0.29412079 0
1.1482252 0.014487728 -0.27216691 0
1.4610301 0.018434543 -0.31058422 0
1.664979 0.021007868 -0.3136254 0
1.8881603 0.023823857 -0.31034639 0
2.5685089 0.032408152 -0.36099327 0
3.1017435 0.039136238 -0.36253986 0
3.86847 0.048810408 -0.36111307 0
5.1544032 0.065035664 -0.36037007 0
7.7645493 0.097969174 -0.36150467 0
15.569104 0.19644313 -0.36201742 0
0.85152698 0.032246109 -0.31017935 0
0.93284565 0.035325531 -0.31539688 0
1.0040139 0.038020566 -0.31360325 0
1.0786022 0.040845122 -0.3095251 0
1.1338667 0.042937908 -0.2969875 0
1.1257865 0.04263192 -0.2670182 0
1.4466556 0.054782778 -0.30772442 0
1.6515371 0.062541343 -0.31129158 0
1.8917754 0.071638823 -0.31113869 0
2.5756035 0.097534411 -0.362221 0
3.0897596 0.11700477 -0.36136922 0
3.8696835 0.14653938 -0.36145648 0
5.1725912 0.19587862 -0.36187211 0
7.7607641 0.29388902 -0.36155865 0
15.552217 0.5889402 -0.36185518 0
0.84676701 0.053488538 -0.30883887 0
0.92163414 0.058217742 -0.31200367 0
0.99803364 0.063043743 -0.31213295 0
1.0871408 0.068672463 -0.31237331 0
1.1257386 0.071110606 -0.29523465 0
1.1504039 0.072668657 -0.27320504 0
1.4448526 0.091268376 -0.30773288 0
1.6612946 0.10494058 -0.31353012 0
1.8959574 0.11976375 -0.31222421 0
2.5620344 0.16183846 -0.36077225 0
3.1072152 0.19627643 -0.36387432 0
3.8688548 0.24438763 -0.36183998 0
5.1681023 0.32645845 -0.36201918 0
7.760787 0.49023303 -0.36202088 0
15.536777 0.98142642 -0.36195698 0
0.86173666 0.076305173 -0.31490085 0
0.92186731 0.081629634 -0.31268048 0
0.99474162 0.088082515 -0.31169939 0
1.0622923 0.094064005 -0.30581826 0
1.1879818 0.10519358 -0.31215534 0
1.3061674 0.11565869 -0.31079099 0
1.4558839 0.1289158 -0.31067643 0
1.6510623 0.1461985 -0.31219599 0
1.902826 0.16849169 -0.31395566 0
2.5536616 0.22612198 -0.36028218 0
3.075629 0.27234122 -0.36086538 0
3.8528402 0.34116182 -0.36103255 0
5.1599336 0.4569025 -0.36213943 0
7.7504015 0.68628359 -0.36222905 0
15.499086 1.3724152 -0.36177069 0
0.84786022 0.09669169 -0.3106229 0
0.9141677 0.10425353 -0.31086239 0
0.97539896 0.11123647 -0.30642056 0
1.0870231 0.12396631 -0.3137387 0
1.1960514 0.1364001 -0.31507993 0
1.3034371 0.14864659 -0.31093502 0
1.4501055 0.16537297 -0.31023526 0
1.6540158 0.1886273 -0.31355482 0
1.8837769 0.21482971 -0.31160805 0
2.5568628 0.2915898 -0.36165693 0
3.0626936 0.34927577 -0.36026725 0
3.8505719 0.439127 -0.36174333 0
5.1561861 0.58802187 -0.36280248 0
7.7124047 0.87953824 -0.3613756 0
15.457602 1.7628161 -0.36172566 0
0.84973854 0.1186941 -0.31230912 0
0.91839182 0.1282838 -0.31330004 0
0.99702775 0.13926791 -0.31421939 0
1.0763197 0.15034364 -0.31164539 0
1.1756051 0.16421214 -0.31068656 0
1.3016078 0.1818126 -0.31149411 0
1.4457164 0.20194212 -0.31028783 0
1.6313062 0.22786586 -0.31024113 0
1.8715217 0.26141992 -0.31057334 0
2.5337687 0.3539246 -0.35953936 0
3.0610213 0.42757291 -0.36122495 0
3.8183572 0.53335989 -0.35986698 0
5.1327672 0.71696073 -0.36231253 0
7.6922302 1.0744745 -0.36158583 0
15.402702 2.1514969 -0.36159652 0
0.85750854 0.14192244 -0.31638059 0
0.92152709 0.15251787 -0.31558228 0
0.97025114 0.16058198 -0.30696014 0
1.0727013 0.17753805 -0.31179586 0
1.1687562 0.19343567 -0.31006807 0
1.3027819 0.21561767 -0.31297776 0
1.4348927 0.23748274 -0.30915278 0
1.6407585 0.27155468 -0.3132425 0
1.8752263 0.3103604 -0.31238854 0
2.5490551 0.42188284 -0.36310381 0
3.057091 0.50596559 -0.36215276 0
3.8146603 0.63134754 -0.36090541 0
5.0980134 0.8437497 -0.36124751 0
7.6695704 1.2693566 -0.36191139 0
15.335126 2.5380487 -0.36139885 0
0.83737522 0.1603948 -0.31034714 0
0.91513413 0.17528911 -0.3148078 0
0.97172898 0.18612954 -0.30881554 0
1.0754309 0.20599309 -0.3140004 0
1.1585133 0.22190711 -0.3087382 0
1.2901728 0.24712576 -0.31134781 0
1.339844 0.25664002 -0.28997743 0
1.3534142 0.25923932 -0.25955114 0
1.3525604 0.25907579 -0.22633633 0
1.3582839 0.2601721 -0.19435617 0
1.3508887 0.25875559 -0.16075304 0
1.3301218 0.25477779 -0.12641107 0
5.0841427 0.97384059 -0.361891 0
7.6331539 1.4620903 -0.36181906 0
15.283044 2.9273863 -0.36179745 0
0.83130807 0.18108952 -0.30969381 0
0.90779632 0.19775146 -0.31390053 0
0.97731274 0.21289471 -0.31219828 0
1.0682696 0.23270847 -0.31352454 0
1.163415 0.2534346 -0.31164983 0
1.2039096 0.26225585 -0.29203492 0
1.2059376 0.26269764 -0.26234797 0
1.2125127 0.26412991 -0.23373376 0
1.1957085 0.26046935 -0.20112491 0
1.1965078 0.26064348 -0.17209421 0
1.197612 0.26088402 -0.14325134 0
1.1990906 0.26120609 -0.1145483 0
5.0575852 1.1017283 -0.36186469 0
7.5995026 1.6554515 -0.36208916 0
15.201315 3.3114064 -0.36172599 0
0.83108282 0.20313297 -0.31142068 0
0.8942647 0.21857588 -0.31103006 0
0.9649601 0.23585521 -0.31005511 0
1.0432391 0.25498813 -0.30796906 0
1.1600009 0.28352702 -0.31255266 0
1.2099332 0.29573143 -0.2952126 0
1.2008414 0.29350924 -0.2627672 0
1.2148875 0.29694238 -0.23556122 0
1.2064246 0.29487389 -0.20411426 0
1.2147452 0.2969076 -0.17573914 0
1.2163107 0.29729027 -0.14633888 0
1.2084844 0.29537734 -0.11612087 0
5.0242181 1.2280176 -0.36157975 0
7.5558772 1.846805 -0.36211613 0
15.101521 3.6911085 -0.361453 0
0.83222657 0.22581011 -0.31388491 0
0.8822208 0.23937517 -0.30884406 0
0.97148061 0.26359427 -0.31418785 0
1.0509028 0.28514409 -0.31225654 0
1.1381314 0.30881202 -0.30866188 0
1.2081757 0.32781732 -0.29670802 0
1.2058456 0.32718509 -0.26558462 0
1.2136134 0.32929274 -0.23685023 0
1.2063555 0.32732344 -0.20543486 0
1.2085885 0.32792932 -0.17598979 0
1.215608 0.32983395 -0.14720902 0
1.1947286 0.32416868 -0.11554847 0
4.9953465 1.3553998 -0.36184862 0
7.4966817 2.0340934 -0.36162442 0
15.018972 4.0751352 -0.36182377 0
0.81830311 0.24435879 -0.3108606 0
0.87771177 0.26209921 -0.30948281 0
0.96106964 0.28699124 -0.31306371 0
1.0310304 0.3078827 -0.30856246 0
1.1403596 0.34053016 -0.31149784 0
1.2036864 0.35944059 -0.29773864 0
1.2018239 0.35888442 -0.26660889 0
1.1956686 0.35704637 -0.23503196 0
1.2143687 0.36263052 -0.20829174 0
1.2065769 0.36030376 -0.17696472 0
1.2154974 0.36296755 -0.14825779 0
1.1980363 0.3577534 -0.11670449 0
4.9581342 1.4805806 -0.36174473 0
7.4334178 2.2197411 -0.36116016 0
14.913143 4.4533105 -0.36186674 0
0.82066101 0.26779386 -0.31422386 0
0.87815642 0.2865555 -0.31209037 0
0.96152318 0.3137593 -0.31569049 0
1.026854 0.33507773 -0.30974489 0
1.1271706 0.36781251 -0.31033209 0
1.1960708 0.39029568 -0.29819652 0
1.2054996 0.39337245 -0.26954094 0
1.2057172 0.39344344 -0.23888309 0
1.1994115 0.39138579 -0.20735453 0
1.1980672 0.39094713 -0.17710739 0
1.199 0.3912515 -0.14740308 0
1.2182975 0.39754856 -0.11961752 0
4.919086 1.6051708 -0.36173642 0
7.3995605 2.4145865 -0.36236069 0
14.804481 4.8309221 -0.36207333 0
0.79920524 0.28329688 -0.30864805 0
0.86814547 0.30773437 -0.31119373 0
0.94558007 0.33518285 -0.31313378 0
1.0352536 0.36696976 -0.31497213 0
1.1212877 0.39746648 -0.31137517 0
1.213918 0.43030149 -0.30525652 0
1.2091312 0.42860469 -0.27268484 0
1.2082942 0.42830798 -0.24145849 0
1.214445 0.43048826 -0.21176445 0
1.2044063 0.42692983 -0.17958018 0
1.2002453 0.42545485 -0.14882889 0
1.1979117 0.42462769 -0.11863045 0
1.5036638 0.53300864 -0.11152916 0
7.3179421 2.5940149 -0.36145481 0
14.647546 5.1921635 -0.36132509 0
0.80374843 0.3079482 -0.31330445 0
0.85408133 0.32723278 -0.30901444 0
0.92761832 0.35540774 -0.31005743 0
1.0175185 0.38985211 -0.31247038 0
1.1029572 0.4225871 -0.30914825 0
1.2123961 0.46451753 -0.30772397 0
1.2106394 0.46384445 -0.27557737 0
1.2180662 0.46668994 -0.24568686 0
1.196653 0.45848572 -0.21061276 0
1.2067801 0.46236578 -0.18161626 0
1.1952859 0.45796192 -0.14959954 0
1.191662 0.4565734 -0.11911476 0
4.8185968 1.8461974 -0.3607443 0
7.2498956 2.7777252 -0.36144146 0
14.524182 5.564796 -0.36163139 0
0.79723525 0.32875326 -0.31389999 0
0.84891039 0.35006237 -0.3102414 0
0.91811544 0.37860021 -0.30997631 0
1.0047681 0.4143329 -0.31166694 0
1.0905088 0.44968951 -0.30874202 0
1.2076862 0.49800956 -0.30962017 0
1.19883 0.49435756 -0.27564159 0
1.2091303 0.49860504 -0.2463443 0
1.2091573 0.49861622 -0.21495999 0
1.2010773 0.49528429 -0.18258116 0
1.2112471 0.49947795 -0.15312624 0
1.2005059 0.49504861 -0.12120908 0
4.7786655 1.9705626 -0.3613632 0
7.1958556 2.9673312 -0.36236569 0
14.382679 5.9309378 -0.36172006 0
0.78788555 0.34840935 -0.31358114 0
0.83472061 0.36912018 -0.30836213 0
0.90310997 0.39936253 -0.30821505 0
0.99169284 0.43853459 -0.31094536 0
1.0911611 0.48252028 -0.31227514 0
1.1972276 0.52942371 -0.31026575 0
1.1866307 0.52473772 -0.27579394 0
1.2051352 0.53292054 -0.24819165 0
1.2034812 0.53218913 -0.21626991 0
1.2120878 0.53599495 -0.18625203 0
1.2112463 0.53562284 -0.15478586 0
1.2009436 0.53106695 -0.12256756 0
4.7325706 2.0927808 -0.3617565 0
7.1103654 3.1442609 -0.36194161 0
14.23278 6.2938499 -0.36182997 0
0.78037143 0.36889961 -0.31419611 0
0.83194697 0.39328057 -0.31090537 0
0.90604889 0.42831025 -0.31280774 0
0.98435241 0.46532613 -0.3122268 0
1.0725638 0.50702566 -0.31051621 0
1.1765827 0.55619782 -0.30845532 0
1.3324443 0.62987721 -0.31327868 0
1.4878384 0.70333558 -0.30997011 0
1.7147443 0.81059927 -0.31172296 0
2.3204653 1.0969377 -0.36070713 0
2.7860074 1.3170102 -0.36015856 0
3.5123529 1.6603705 -0.36262998 0
4.6706114 2.2079058 -0.36116496 0
7.0379682 3.3270102 -0.36241531 0
14.055813 6.6445074 -0.36147928 0
0.76177382 0.38391504 -0.31051067 0
0.82117522 0.41385186 -0.31068438 0
0.88985908 0.44846678 -0.31102702 0
0.97281319 0.49027359 -0.31239209 0
1.0670385 0.53776085 -0.31274641 0
1.165797 0.58753264 -0.30941671 0
1.3084632 0.65943283 -0.3114543 0
1.4671504 0.73940724 -0.30944946 0
1.7008592 0.85719061 -0.31303206 0
1.9743983 0.99504751 -0.31071728 0
2.7663605 1.3941767 -0.36205229 0
3.4796727 1.7536683 -0.36370978 0
4.6242995 2.3305318 -0.36201695 0
6.9502621 3.5027587 -0.36233598 0
13.88552 6.9979558 -0.36152691 0
0.76214004 0.4085317 -0.31476262 0
0.81114858 0.43480188 -0.31094378 0
0.88188535 0.47271907 -0.31231073 0
0.95411938 0.51143885 -0.31043535 0
1.0579019 0.56706959 -0.3141633 0
1.149496 0.61616701 -0.30911934 0
1.292406 0.69277138 -0.31169486 0
1.4631637 0.78430301 -0.31268415 0
1.6656958 0.89286685 -0.31060901 0
1.9649631 1.0532837 -0.31331623 0
2.7125812 1.4540312 -0.35970223 0
3.4179654 1.83214 -0.36197793 0
4.5582972 2.4433947 -0.36156255 0
6.855197 3.6746073 -0.36209965 0
13.706175 7.3469529 -0.36157021 0
0.74588555 0.42438567 -0.31237373 0
0.80228013 0.45647243 -0.31186125 0
0.87399715 0.4972772 -0.31386197 0
0.94414258 0.53718776 -0.31150135 0
1.0423087 0.59304124 -0.31387764 0
1.1397908 0.64850545 -0.310812 0
1.2174895 0.69271362 -0.29774866 0
1.2141824 0.69083196 -0.26311815 0
1.6508495 0.93928194 -0.31216177 0
1.9371462 1.102176 -0.31321666 0
2.6754768 1.5222629 -0.35976216 0
3.3759863 1.9208312 -0.36255097 0
4.5039902 2.5626304 -0.36226985 0
6.7575755 3.8448503 -0.36195368 0
13.519467 7.6921563 -0.36165115 0
0.7249698 0.43705904 -0.30813587 0
0.78916538 0.47576031 -0.31133178 0
0.86123109 0.51920623 -0.31388345 0
0.93390614 0.56301945 -0.31271282 0
1.0128618 0.61061913 -0.30955246 0
1.1364387 0.68511933 -0.31451309 0
1.1377276 0.68589634 -0.28238586 0
1.1632892 0.70130658 -0.25584364 0
1.6327953 0.98435545 -0.31334594 0
1.9134039 1.1535245 -0.3139852 0
2.6521618 1.598896 -0.36193815 0
3.309979 1.995471 -0.36075607 0
4.4447327 2.6795745 -0.36282769 0
6.660851 4.015595 -0.36208612 0
13.319383 8.0297918 -0.36160502 0
0.72930813 0.46515921 -0.31486946 0
0.78039277 0.49774143 -0.31272733 0
0.84547549 0.5392518 -0.31300184 0
0.90994221 0.58036923 -0.30949485 0
0.99287832 0.63326663 -0.30823165 0
1.099306 0.70114714 -0.30903557 0
1.1428639 0.72892874 -0.28813523 0
1.1398197 0.72698712 -0.25463626 0
1.5963993 1.0181977 -0.31119385 0
1.876718 1.1969875 -0.31282303 0
2.6008024 1.6588149 -0.3605279 0
3.2573948 2.0775952 -0.36062512 0
4.3641663 2.783504 -0.36187056 0
6.5458169 4.1749802 -0.36144578 0
13.101133 8.356019 -0.36129034 0
0.7713775 0.51982826 -0.31427214 0
0.81923842 0.55208153 -0.30834895 0
0.88984627 0.59966391 -0.30770949 0
0.98686206 0.66504246 -0.31147555 0
1.0912831 0.73541141 -0.31189871 0
1.1366144 0.76595998 -0.29134077 0
1.1412493 0.76908338 -0.25920948 0
1.5749067 1.0613234 -0.31212649 0
1.8384984 1.2389568 -0.3115654 0
2.5684159 1.7308453 -0.36197883 0
3.2135346 2.1655881 -0.36170527 0
4.2897477 2.8908441 -0.36163464 0
6.4414787 4.3408871 -0.36161897 0
12.912877 8.7019367 -0.36204022 0
0.69787967 0.4963544 -0.31172732 0
0.74617374 0.53070265 -0.30936226 0
0.80989712 0.57602477 -0.31020626 0
0.88371998 0.62852997 -0.31097758 0
0.97389817 0.69266754 -0.31280202 0
1.0790203 0.76743382 -0.31382987 0
1.1973354 0.85158324 -0.31231469 0
1.1340603 0.80658001 -0.26211691 0
1.5448493 1.0987463 -0.31156623 0
1.7986174 1.2792343 -0.31017959 0
2.5289185 1.7986479 -0.36269465 0
3.1558065 2.2445109 -0.36146876 0
4.214067 2.9971795 -0.36151654 0
6.3206582 4.4954548 -0.36109081 0
12.679775 9.0182619 -0.36177108 0
0.68712431 0.51529717 -0.31263289 0
0.74566787 0.55920088 -0.31490377 0
0.79785949 0.59834111 -0.31128067 0
0.87458372 0.65587914 -0.31348795 0
0.95298064 0.71467161 -0.31177777 0
1.0398916 0.77984899 -0.30807593 0
1.0946555 0.82091826 -0.29084334 0
1.1031991 0.82732534 -0.25972742 0
1.0951505 0.82128942 -0.22497958 0
1.097459 0.82302064 -0.19278258 0
1.1025798 0.8268609 -0.16107249 0
1.0921677 0.81905252 -0.12742503 0
1.1080952 0.83099711 -0.096829765 0
1.0915451 0.81858557 -0.063518584 0
1.0932043 0.81982988 -0.031770837 0
0.67161596 0.530662 -0.31157139 0
0.72891068 0.57593215 -0.31386578 0
0.77375573 0.61136538 -0.30779871 0
0.85418022 0.67491096 -0.31218076 0
0.93407065 0.73803455 -0.31158602 0
1.0244907 0.80947787 -0.30946738 0
1.0904164 0.86156762 -0.2954005 0
1.1082045 0.87562245 -0.26602414 0
1.1040635 0.87235057 -0.23126003 0
1.1102549 0.87724251 -0.19885632 0
1.1074522 0.87502801 -0.16495806 0
1.0982375 0.86774725 -0.13064684 0
1.0963964 0.8662926 -0.097686961 0
1.1039158 0.87223387 -0.065498643 0
1.096541 0.86640686 -0.032492973 0
0.65560549 0.54543561 -0.31043139 0
0.71512443 0.59495282 -0.3142952 0
0.77214837 0.6423943 -0.31350914 0
0.83962804 0.69853449 -0.31320602 0
0.91991627 0.76533085 -0.31320816 0
1.000415 0.83230233 -0.30844206 0
1.0990448 0.91435808 -0.30389306 0
1.0961641 0.91196144 -0.26857352 0
1.0866501 0.90404624 -0.23231795 0
1.1013663 0.91628945 -0.20134228 0
1.1055956 0.91980803 -0.16808593 0
1.0971684 0.91279703 -0.13321786 0
1.1008785 0.91588366 -0.10011402 0
1.092839 0.90919518 -0.066181876 0
1.0974345 0.91301841 -0.033191714 0
1.1015437 0.91643703 4.0907511e-05 0
1.1432284 0.95111698 0.13889609 0
0.65479439 0.57332575 -0.31679815 0
0.69271618 0.60652936 -0.31107569 0
0.76275539 0.66785437 -0.3164385 0
0.82300651 0.72060913 -0.31369025 0
0.90019709 0.78819579 -0.31316772 0
0.97508293 0.85376441 -0.3071776 0
1.0642846 0.93186772 -0.30068913 0
1.093407 0.95736682 -0.27373108 0
1.1071602 0.96940887 -0.24185669 0
1.0933459 0.95731324 -0.20422806 0
1.0900698 0.95444477 -0.16933393 0
1.1030661 0.96582407 -0.13685015 0
1.1010194 0.96403199 -0.10230693 0
1.0968107 0.960347 -0.067868635 0
1.0989192 0.96219307 -0.03396029 0
1.0876012 0.95228326 4.1269155e-05 0
0.62706965 0.57764232 -0.31033927 0
0.68698716 0.63283694 -0.31557506 0
0.73879433 0.68056053 -0.31352407 0
0.80032563 0.73724174 -0.31203821 0
0.87600589 0.80695671 -0.31173795 0
0.95022154 0.87532246 -0.30620775 0
1.0228109 0.94219017 -0.29559606 0
1.0871202 1.0014304 -0.27839607 0
1.1028154 1.0158885 -0.2464301 0
1.1068392 1.0195951 -0.21148798 0
1.0904021 1.0044537 -0.17326853 0
1.1005582 1.0138092 -0.13966902 0
1.1019635 1.0151037 -0.10474194 0
1.1011833 1.0143851 -0.069701225 0
1.1047927 1.01771 -0.034924466 0
1.0946654 1.0083809 4.2489402e-05 0
1.0914098 1.0053819 0.03458618 0
0.61731881 0.59814727 -0.31288531 0
0.66679466 0.64608657 -0.31369013 0
0.71350986 0.691351 -0.31010017 0
0.77565533 0.75156641 -0.30971661 0
0.82864577 0.80291122 -0.30199954 0
0.83268958 0.80682945 -0.27480784 0
0.84897405 0.82260817 -0.25127679 0
0.83169043 0.80586135 -0.21812324 0
0.83646733 0.81048983 -0.19142322 0
0.83757174 0.81155998 -0.16389957 0
0.83600581 0.81004268 -0.13604951 0
0.83593524 0.80997425 -0.10864615 0
0.8451454 0.81889844 -0.082269631 0
0.84301215 0.81683141 -0.054647371 0
0.84406805 0.81785452 -0.027326318 0
1.0932626 1.05931 4.3458866e-05 0
1.099978 1.0658169 0.035698783 0
1.0018904 0.97077549 0.065026313 0
1.0162905 0.9847284 0.099010728 0
1.0010464 0.96995777 0.13018587 0
1.0002571 0.96919304 0.16285998 0
1.0145895 0.98308033 0.19862142 0
1.0196246 0.98795897 0.2334215 0
0.6498068 0.66222155 -0.31346139 0
0.69365704 0.70690954 -0.30912766 0
0.75771248 0.77218872 -0.31023532 0
0.8340407 0.84997529 -0.31168482 0
0.83782017 0.85382694 -0.28352273 0
0.84527063 0.86141974 -0.25653392 0
0.83788711 0.85389513 -0.22532885 0
0.84084368 0.8569082 -0.1973113 0
0.83960545 0.85564631 -0.16846982 0
0.83647126 0.85245222 -0.1395821 0
0.82999855 0.84585589 -0.11061401 0
0.84813482 0.86433864 -0.084657229 0
0.83901268 0.85504222 -0.05576928 0
0.83399558 0.84992927 -0.027685888 0
1.101498 1.1225425 4.4898177e-05 0
1.0985953 1.1195842 0.036559328 0
0.94543719 0.96350002 0.06292057 0
0.94524711 0.96330631 0.094428003 0
0.95684016 0.97512084 0.12759688 0
0.94786453 0.96597373 0.15824865 0
0.95986032 0.97819871 0.19267918 0
0.96493912 0.98337454 0.22651216 0
0.58280343 0.62471586 -0.31098813 0
0.62834138 0.67352867 -0.3112078 0
0.67997152 0.72887182 -0.31112781 0
0.74260056 0.79600483 -0.31217426 0
0.81265533 0.87109762 -0.31180987 0
0.83995986 0.90036571 -0.29184389 0
0.83896363 0.89929789 -0.26142505 0
0.83833468 0.8986237 -0.23147483 0
0.83725756 0.8974691 -0.20172085 0
0.85001755 0.91114676 -0.1751176 0
0.83300215 0.89290768 -0.14271836 0
0.83786136 0.89811635 -0.11464629 0
0.8479858 0.90896893 -0.0869046 0
0.83388466 0.89385366 -0.056909859 0
0.83187354 0.89169794 -0.028353525 0
0.83813596 0.89841068 3.5076355e-05 0
1.0977966 1.1767448 0.037509162 0
0.93196249 0.99898475 0.063681521 0
0.93057597 0.99749857 0.095447004 0
0.92656356 0.99319756 0.12686181 0
0.88272393 0.9462052 0.1513121 0
0.92591852 0.99250615 0.19083348 0
0.92852253 0.99529743 0.22378919 0
0.56860954 0.64119947 -0.31195033 0
0.62210828 0.70152789 -0.31678921 0
0.65348703 0.73691255 -0.3074218 0
0.72560948 0.81824231 -0.31361321 0
0.79958969 0.901667 -0.31542799 0
0.84796143 0.95621395 -0.30291289 0
0.84230942 0.94984037 -0.26985177 0
0.84399438 0.95174044 -0.23959373 0
0.83897263 0.94607759 -0.20782083 0
0.83901983 0.94613087 -0.17771485 0
0.84069908 0.94802451 -0.14808938 0
0.84404278 0.95179504 -0.11874132 0
0.83425337 0.9407559 -0.087902598 0
0.84120381 0.94859362 -0.059024505 0
0.83943599 0.9466002 -0.029416222 0
0.84228116 0.94980854 3.6241545e-05 0
1.1017956 1.2424531 0.038704917 0
1.0993085 1.2396485 0.077229664 0
1.0936679 1.2332878 0.11533085 0
0.84688795 0.95500344 0.14925343 0
0.55826956 0.66248465 -0.31535035 0
0.59757644 0.70912915 -0.31331122 0
0.63611436 0.75486112 -0.30811366 0
0.70044583 0.83120167 -0.3117052 0
0.73567951 0.8730126 -0.29881319 0
0.84657878 1.004614 -0.31137741 0
0.84020364 0.9970488 -0.2771509 0
0.83742452 0.99375087 -0.24477082 0
0.83677155 0.99297601 -0.21341565 0
0.83416522 0.98988318 -0.1819205 0
0.83715594 0.99343216 -0.15183356 0
0.83924216 0.99590784 -0.12156338 0
0.84059799 0.99751675 -0.091194823 0
0.83833504 0.99483138 -0.06056571 0
0.84172511 0.99885428 -0.030370202 0
0.84891504 1.0073864 3.760901e-05 0
0.83008248 0.98503822 0.030023713 0
1.0957824 1.3003378 0.079262361 0
1.099649 1.304926 0.11939666 0
0.81321788 0.96502548 0.14756499 0
0.53905463 0.6734584 -0.31399778 0
0.56830996 0.71000803 -0.30726436 0
0.6295374 0.78650141 -0.31444281 0
0.68172807 0.8517049 -0.31284198 0
0.72248626 0.90262544 -0.30261126 0
0.82473409 1.0303669 -0.31280816 0
0.85299444 1.0656735 -0.29014981 0
0.84152007 1.0513382 -0.25364298 0
0.83943635 1.048735 -0.22077584 0
0.83457905 1.0426666 -0.18769012 0
0.83909059 1.048303 -0.15693314 0
0.84127796 1.0510358 -0.12566067 0
0.83363014 1.0414811 -0.093260914 0
0.84094667 1.0506219 -0.062650137 0
0.83955801 1.0488869 -0.031237228 0
0.84373802 1.0541092 3.8546033e-05 0
0.83587003 1.0442795 0.031176426 0
1.1059161 1.3816569 0.08249151 0
1.1005262 1.374923 0.12322049 0
1.1093305 1.3859226 0.16580161 0
0.76038593 0.94997472 0.1422836 0
0.52636689 0.69273537 -0.31669068 0
0.56422156 0.74255478 -0.31508631 0
0.59730798 0.78609878 -0.30815658 0
0.65546471 0.86263716 -0.31068206 0
0.71782279 0.94470465 -0.31054583 0
0.7219491 0.95013517 -0.28282881 0
0.72699815 0.95678008 -0.25542438 0
0.72565925 0.95501798 -0.22591448 0
0.73116601 0.96226525 -0.19862445 0
0.73384857 0.96579576 -0.17046428 0
0.7305162 0.96141011 -0.14112002 0
0.73040789 0.96126753 -0.11268815 0
0.73060405 0.96152574 -0.084423095 0
0.7298789 0.96057135 -0.056163915 0
0.7344557 0.96659476 -0.028225414 0
0.72518826 0.95439816 3.4219665e-05 0
0.73478627 0.96702981 0.028307501 0
0.73448455 0.96663272 0.056587782 0
0.73230559 0.96376508 0.084689163 0
0.72455871 0.95356965 0.11185472 0
0.73073786 0.96170187 0.14123274 0
0.50040209 0.69425416 -0.31151205 0
0.54028982 0.74959409 -0.31218755 0
0.57760441 0.80136406 -0.30832773 0
0.63272321 0.87783545 -0.31030557 0
0.69246793 0.96072489 -0.30996817 0
0.72637951 1.0077735 -0.29443514 0
0.85476339 1.1858923 -0.31073055 0
0.8496865 1.1788487 -0.27370265 0
0.84966481 1.1788186 -0.23882143 0
0.83824319 1.1629723 -0.20146792 0
0.8342346 1.1574109 -0.16674618 0
0.83765334 1.162154 -0.13371684 0
0.8337431 1.156729 -0.099682845 0
0.84137172 1.1673129 -0.06698899 0
0.83685124 1.1610413 -0.033276066 0
0.84117639 1.1670419 4.1069656e-05 0
0.84629238 1.1741397 0.033734161 0
0.83416319 1.1573118 0.066496685 0
1.0955139 1.5199078 0.13108782 0
1.0950592 1.519277 0.17491509 0
1.0895461 1.5116282 0.21788551 0
0.48644021 0.71209586 -0.31390882 0
0.52442247 0.76769775 -0.31411484 0
0.56109971 0.82138926 -0.31048489 0
0.61222124 0.89622569 -0.31124511 0
0.67131406 0.98273122 -0.31150249 0
0.74213064 1.086399 -0.31183493 0
0.824893 1.2075541 -0.31085223 0
0.92631507 1.356025 -0.30931243 0
0.85094786 1.2456956 -0.24794023 0
0.84271371 1.2336417 -0.2099589 0
0.83853698 1.2275274 -0.17374338 0
0.83484197 1.2221184 -0.13814795 0
0.84490508 1.2368497 -0.10471634 0
0.84040713 1.2302651 -0.069362313 0
0.84462827 1.2364445 -0.034815103 0
0.84276927 1.233723 4.2654123e-05 0
0.84117991 1.2313964 0.034758158 0
0.84682423 1.2396591 0.06997785 0
0.84170073 1.2321588 0.10440481 0
1.0973283 1.6063699 0.18169568 0
1.0978673 1.6071589 0.22758882 0
0.4634712 0.71664739 -0.31065974 0
0.49677041 0.76813662 -0.30906588 0
0.54371774 0.84072942 -0.3125087 0
0.5923655 0.91595155 -0.31280383 0
0.64503908 0.99739867 -0.31089231 0
0.71556211 1.1064457 -0.31230572 0
0.79176152 1.2242699 -0.30991241 0
0.89473844 1.383499 -0.31032941 0
1.0258303 1.5862011 -0.31046146 0
0.843808 1.3047472 -0.2183665 0
0.85057837 1.3152161 -0.18305795 0
0.84513777 1.3068035 -0.14526328 0
0.83405352 1.2896643 -0.10737139 0
0.83437693 1.2901644 -0.071529359 0
0.83785039 1.2955352 -0.035872091 0
0.83984601 1.2986211 4.4150966e-05 0
0.83705676 1.2943081 0.035926171 0
0.84035403 1.2994064 0.072130308 0
0.83263409 1.2874695 0.10727664 0
0.84651846 1.3089384 0.14559038 0
1.0935153 1.6908598 0.23545836 0
1.0972083 1.6965702 0.28406084 0
0.45104888 0.73760921 -0.31471142 0
0.48352399 0.79071647 -0.31314108 0
0.52277225 0.85489994 -0.31277198 0
0.56302667 0.9207288 -0.30948386 0
0.62139523 1.01618 -0.31175867 0
0.67997938 1.1119838 -0.30892637 0
0.76386541 1.2491643 -0.31123474 0
0.854518 1.3974104 -0.30851391 0
0.99173021 1.6217963 -0.31242979 0
1.1527766 1.8851585 -0.31053764 0
0.84808522 1.3868906 -0.18999423 0
0.8442468 1.3806137 -0.1510513 0
0.84187376 1.3767331 -0.11281539 0
0.84272498 1.378125 -0.075202897 0
0.83548993 1.3662934 -0.03723558 0
0.84312648 1.3787816 4.6138124e-05 0
0.83554351 1.3663809 0.037329465 0
0.82632351 1.3513033 0.073829904 0
0.83503765 1.3655537 0.11199115 0
0.84557831 1.3827912 0.15138288 0
1.0974915 1.7947499 0.24598983 0
1.0966984 1.7934527 0.29555357 0
0.42383483 0.73410195 -0.30855262 0
0.46805024 0.81068516 -0.31627014 0
0.49651122 0.85998088 -0.30994746 0
0.55015671 0.95289737 -0.3155289 0
0.59352291 1.0280098 -0.31069326 0
0.65492547 1.1343619 -0.31045225 0
0.7259509 1.2573813 -0.30861866 0
0.82826227 1.4345894 -0.31200755 0
0.9459849 1.6384906 -0.31094733 0
1.1064456 1.916416 -0.31098744 0
1.3323269 2.3076532 -0.31142643 0
0.8456009 1.4646207 -0.15785711 0
0.83364385 1.4439105 -0.11655895 0
0.83434141 1.4451188 -0.077684835 0
0.83319587 1.4431347 -0.038744293 0
0.83646685 1.4488001 4.7759484e-05 0
0.83261234 1.4421239 0.038812287 0
0.83673096 1.4492576 0.078003079 0
0.83825523 1.4518977 0.1172999 0
0.84175158 1.4579536 0.15723549 0
0.83128077 1.4398175 0.19440499 0
1.0973297 1.900627 0.30855304 0
0.40765661 0.74911714 -0.31044033 0
0.4368892 0.80283552 -0.30880767 0
0.47795546 0.87829953 -0.31210265 0
0.51556778 0.94741666 -0.30930683 0
0.56127834 1.0314152 -0.30734321 0
0.62391281 1.1465135 -0.30936977 0
0.70803702 1.3011016 -0.3148632 0
0.79005599 1.4518212 -0.31131935 0
0.90267652 1.6587747 -0.31037432 0
1.0594735 1.9469076 -0.31149703 0
1.2692121 2.3323271 -0.31033435 0
1.2956296 2.3808725 -0.25300586 0
0.85551214 1.5721046 -0.12512447 0
0.83958292 1.5428327 -0.081772454 0
0.83630812 1.5368149 -0.040679719 0
0.84286934 1.5488719 5.0341037e-05 0
0.84047985 1.5444809 0.040983092 0
0.83717096 1.5384004 0.081637755 0
0.82991576 1.5250682 0.12148045 0
0.83952212 1.542721 0.16404001 0
0.83324337 1.5311831 0.20383678 0
1.1007844 2.0228214 0.32377699 0
0.39538196 0.77236193 -0.31583717 0
0.42416567 0.82858974 -0.31449592 0
0.45517549 0.88916606 -0.31178245 0
0.49281004 0.96268362 -0.31013164 0
0.54280823 1.060353 -0.31178454 0
0.60269034 1.1773301 -0.31348082 0
0.66769689 1.3043177 -0.31146419 0
0.74833202 1.461835 -0.3093181 0
0.86241144 1.6846844 -0.3110505 0
1.0126568 1.9781823 -0.31231216 0
1.2136902 2.3708925 -0.31129077 0
1.2398933 2.4220793 -0.25397843 0
1.2472595 2.4364688 -0.19135319 0
0.84656751 1.6537338 -0.086490378 0
0.8352074 1.6315424 -0.042615615 0
0.84114254 1.6431365 5.2698018e-05 0
0.84271044 1.6461992 0.043104097 0
0.84191334 1.6446421 0.086120605 0
0.83845025 1.6378772 0.12873968 0
0.84309012 1.6469409 0.17280425 0
0.83472198 1.6305941 0.21419793 0
0.84122789 1.6433032 0.25954947 0
0.3734892 0.77734774 -0.3139213 0
0.40051907 0.83360535 -0.31246331 0
0.4347595 0.90487039 -0.31334171 0
0.4737668 0.98605675 -0.31370935 0
0.5149278 1.0717257 -0.31120804 0
0.5668155 1.1797202 -0.31020927 0
0.62363321 1.2979755 -0.30609363 0
0.71440715 1.4869044 -0.31070846 0
0.81667435 1.6997545 -0.30992857 0
0.95656931 1.9909196 -0.31041259 0
1.1559405 2.4058735 -0.31195378 0
1.438555 2.9940825 -0.31005254 0
2.2460318 4.6746941 -0.36256936 0
3.3606565 6.994576 -0.36126563 0
0.85021877 1.7695709 -0.045645863 0
0.83626372 1.7405261 5.5126988e-05 0
0.844051 1.7567339 0.045426071 0
0.84017783 1.7486726 0.090428896 0
0.84471387 1.7581135 0.13647123 0
0.83943594 1.7471285 0.18103571 0
0.8376314 1.7433727 0.22616361 0
0.84141684 1.7512513 0.27315804 0
0.35082471 0.78000414 -0.31131917 0
0.38135147 0.84787565 -0.31410453 0
0.41006178 0.91170853 -0.31202638 0
0.44788024 0.99579203 -0.31311053 0
0.48640522 1.0814463 -0.31036705 0
0.53811145 1.196407 -0.31092685 0
0.59831685 1.3302644 -0.31004822 0
0.68141943 1.51503 -0.31289223 0
0.77831173 1.730455 -0.31184533 0
0.91468108 2.0336511 -0.31337586 0
1.0979478 2.4411161 -0.31283072 0
1.3641859 3.0330551 -0.31042403 0
2.123281 4.7207847 -0.36187249 0
3.186933 7.0856495 -0.36169994 0
6.3798661 14.184639 -0.3616223 0
0.84545499 1.8797376 5.8841593e-05 0
0.84227854 1.8726753 0.047859173 0
0.84073871 1.8692517 0.095536649 0
0.83702588 1.8609968 0.14277208 0
0.8312884 1.8482404 0.18927854 0
0.83703363 1.861014 0.23860833 0
0.84113824 1.87014 0.28829896 0
0.8319518 1.8497154 0.33345616 0
0.33251932 0.79214883 -0.31271717 0
0.35707885 0.85065615 -0.31169662 0
0.39247519 0.93497962 -0.31649983 0
0.42511374 1.0127332 -0.31496343 0
0.46208343 1.1008048 -0.31247622 0
0.50487286 1.2027406 -0.30916283 0
0.5679161 1.3529261 -0.31188992 0
0.64086461 1.5267087 -0.31186435 0
0.7330668 1.7463588 -0.31127799 0
0.85689008 2.0413384 -0.31112877 0
1.034984 2.4656053 -0.31252196 0
1.2859796 3.0635433 -0.31012377 0
2.0002875 4.765213 -0.36129317 0
3.0080323 7.1659274 -0.36180717 0
6.0250449 14.353249 -0.36192882 0
0.99513334 2.3706706 7.3399722e-05 0
0.84792244 2.0199752 0.051060464 0
0.84224743 2.0064559 0.10143033 0
0.83832908 1.9971212 0.15154378 0
0.83779246 1.9958431 0.20216469 0
0.83652514 1.992824 0.25272074 0
0.83758396 1.9953462 0.30424488 0
0.83694798 1.9938312 0.35551527 0
0.31125346 0.79728097 -0.31154278 0
0.33595639 0.86055797 -0.3121185 0
0.36074251 0.92404807 -0.30961874 0
0.3955076 1.0130994 -0.31187347 0
0.43274945 1.108495 -0.31145963 0
0.47757015 1.223304 -0.31125119 0
0.5357908 1.3724372 -0.31317067 0
0.60352641 1.5459431 -0.31258228 0
0.6879822 1.762278 -0.31092146 0
0.80816388 2.0701253 -0.31230798 0
0.96870816 2.4813623 -0.31132105 0
1.2076718 3.0934715 -0.30996919 0
1.8817759 4.8202009 -0.3617461 0
2.8177776 7.2177849 -0.36071983 0
5.6552663 14.48606 -0.36156347 0
0.92395353 2.3667226 7.2532377e-05 0
0.84993315 2.1771181 0.054473095 0
0.83331615 2.1345534 0.10680869 0
0.84016341 2.1520927 0.16164267 0
0.83671403 2.1432571 0.21488918 0
0.83852047 2.1478844 0.26961511 0
0.83874339 2.1484554 0.32425949 0
0.84353429 2.1607273 0.38135651 0
0.2880424 0.79659539 -0.30833593 0
0.31593275 0.87372756 -0.313903 0
0.33818769 0.93527466 -0.31042159 0
0.37314874 1.0319612 -0.31468046 0
0.40515506 1.1204762 -0.31185356 0
0.43645215 1.2070298 -0.30421084 0
0.43656865 1.207352 -0.27289939 0
0.43673646 1.2078161 -0.24190885 0
0.64231253 1.7763468 -0.31044459 0
0.75412893 2.0855806 -0.31166893 0
0.90541816 2.5039783 -0.31119236 0
1.1269703 3.1166918 -0.30934727 0
1.7602558 4.8680739 -0.36188948 0
2.6428826 7.3090215 -0.36183068 0
5.2923403 14.636227 -0.36186239 0
0.85657233 2.3688929 7.1913433e-05 0
0.85086209 2.353101 0.058320425 0
0.84059161 2.3246973 0.11522482 0
0.84170491 2.3277762 0.1731874 0
0.84530139 2.3377225 0.23217385 0
0.83804673 2.3176594 0.28817946 0
0.84044683 2.324297 0.34748656 0
0.26993027 0.80984515 -0.31072852 0
0.29047862 0.87149429 -0.31036788 0
0.3159593 0.94794154 -0.31187966 0
0.34197539 1.025995 -0.31013048 0
0.37835073 1.1351284 -0.3131741 0
0.40339595 1.210269 -0.30236492 0
0.40372711 1.2112626 -0.27139372 0
0.40304041 1.2092023 -0.24007265 0
0.59961319 1.7989602 -0.31165254 0
0.70117199 2.103657 -0.3116264 0
0.84337473 2.5302939 -0.3117182 0
1.0570375 3.1713252 -0.31202257 0
1.6368268 4.9108095 -0.36188009 0
2.4582672 7.3752966 -0.36192486 0
4.9163013 14.749894 -0.36148977 0
0.78995186 2.3700147 7.1319519e-05 0
0.84942895 2.5484579 0.062610961 0
0.83709663 2.5114584 0.12339523 0
0.83702618 2.5112472 0.18520696 0
0.84379268 2.531548 0.2492294 0
0.84304917 2.5293171 0.31175214 0
0.83980972 2.5195982 0.37339669 0
0.24928974 0.81600052 -0.31057724 0
0.2696391 0.88261008 -0.31180367 0
0.28859296 0.94465184 -0.30830273 0
0.32052255 1.049167 -0.31458929 0
0.34959543 1.1443312 -0.31317905 0
0.38442349 1.258334 -0.31184983 0
0.37993756 1.2436502 -0.27641386 0
0.38427132 1.257836 -0.24772385 0
0.5489912 1.7970138 -0.30881658 0
0.64849871 2.1227319 -0.31192812 0
0.72906852 2.3864613 -0.291639 0
0.72496289 2.3730223 -0.23160458 0
0.7269935 2.379669 -0.17395152 0
0.7233972 2.3678973 -0.11526617 0
0.72513711 2.3735924 -0.057704989 0
0.72428775 2.3708124 7.077089e-05 0
0.84006524 2.7497869 0.067015 0
0.835033 2.7333148 0.13321777 0
0.83541983 2.7345812 0.20005931 0
0.83664238 2.7385828 0.26744783 0
0.83411485 2.7303095 0.33382446 0
0.23264946 0.83651203 -0.31604862 0
0.24320492 0.87446517 -0.30666012 0
0.26724714 0.9609111 -0.31130871 0
0.29139236 1.0477275 -0.31185314 0
0.3199791 1.1505136 -0.31256127 0
0.34831947 1.252414 -0.30810583 0
0.3901037 1.4026529 -0.3094669 0
0.43903062 1.5785742 -0.30861089 0
0.50738537 1.8243498 -0.31121448 0
0.59636569 2.1442864 -0.31278411 0
0.65858883 2.3680153 -0.28726202 0
0.65953726 2.3714254 -0.22975092 0
0.65942818 2.3710332 -0.17204885 0
0.6644451 2.3890719 -0.11544383 0
0.6629051 2.3835349 -0.05752163 0
0.65727884 2.3633051 7.0029295e-05 0
0.81603682 2.9341338 0.070983171 0
0.81219393 2.9203165 0.14128786 0
0.81062347 2.9146695 0.21167022 0
0.80717671 2.9022765 0.28135487 0
0.81010759 2.9128146 0.35352618 0
0.20887908 0.83180064 -0.31217733 0
0.22527054 0.89707488 -0.31249559 0
0.24474798 0.97463816 -0.31365478 0
0.26327384 1.048412 -0.30998039 0
0.29184544 1.1621902 -0.31363249 0
0.31720266 1.263168 -0.3086836 0
0.35464641 1.412277 -0.30951685 0
0.39974281 1.5918603 -0.30913746 0
0.45943001 1.8295473 -0.31002429 0
0.51551116 2.0528743 -0.29745731 0
