# .PCD v0.7 - Point Cloud Data file format
VERSION 0.7
FIELDS x y z intensity
SIZE 4 4 4 4
TYPE F F F F
COUNT 1 1 1 1
WIDTH 1349
HEIGHT 1
VIEWPOINT 0 0 0 1 0 0 0
POINTS 1349
DATA ascii
-1.1529244 -3.9516611 -0.1916382 0
-2.9140565 -9.9879599 -0.24190642 0
-0.23061769 -0.87167078 -0.19165908 0
-0.25866756 -0.97769153 -0.19048512 0
-0.29812998 -1.1268486 -0.19157116 0
-0.34711778 -1.3120087 -0.19072671 0
-0.41840675 -1.5814613 -0.19119 0
-0.52652359 -1.990113 -0.19214913 0
-0.701271 -2.6506097 -0.19167824 0
-1.0556773 -3.9901667 -0.19215225 0
-2.6624799 -10.063435 -0.24202979 0
-0.20949119 -0.88116598 -0.19252297 0
-0.23545788 -0.99038756 -0.19173981 0
-0.26869607 -1.1301947 -0.19092631 0
-0.31456077 -1.3231117 -0.19112575 0
-0.38163546 -1.6052425 -0.19283915 0
-0.47652453 -2.0043669 -0.1923029 0
-0.63548744 -2.6729999 -0.19207636 0
-0.95018411 -3.9966831 -0.19125026 0
-2.4065185 -10.122345 -0.2419088 0
-0.18504843 -0.87602425 -0.19031854 0
-0.20928636 -0.99076724 -0.19072995 0
-0.24380735 -1.1541905 -0.19387873 0
-0.2797814 -1.3244927 -0.19024462 0
-0.33965138 -1.6079187 -0.19206966 0
-0.42612526 -2.0172884 -0.19244948 0
-0.56678075 -2.6831551 -0.19171712 0
-0.84661585 -4.0079021 -0.1907039 0
-2.1512311 -10.183986 -0.24200729 0
-0.16346516 -0.88354158 -0.19099456 0
-0.18491927 -0.99950266 -0.19145215 0
-0.20953599 -1.1325579 -0.18929628 0
-0.24844578 -1.3428683 -0.19192223 0
-0.29718977 -1.6063333 -0.19092348 0
-0.37401035 -2.0215545 -0.19189481 0
-0.49972627 -2.7010584 -0.19203399 0
-0.94597542 -5.1130691 -0.24207678 0
-1.891183 -10.221988 -0.2416991 0
-0.14176634 -0.89144588 -0.19186866 0
-0.15947665 -1.0028107 -0.1912539 0
-0.18164374 -1.1422002 -0.19008112 0
-0.21414477 -1.3465711 -0.19161797 0
-0.25677958 -1.6146646 -0.19108257 0
-0.32041472 -2.0148108 -0.19042638 0
-0.4316003 -2.7139606 -0.19211566 0
-0.81538165 -5.1272292 -0.24169591 0
-1.6341077 -10.275489 -0.2419119 0
-0.11981973 -0.89917082 -0.19281903 0
-0.13297528 -0.99789488 -0.18961591 0
-0.1536915 -1.1533569 -0.19123134 0
-0.17913102 -1.3442643 -0.19058564 0
-0.21768224 -1.6335667 -0.19260797 0
-0.27067268 -2.0312259 -0.19127126 0
-0.36167192 -2.7141175 -0.19141963 0
-0.68486327 -5.1394625 -0.2413809 0
-1.3737818 -10.309358 -0.24181597 0
-0.096723303 -0.89845854 -0.19208162 0
-0.10879108 -1.0105555 -0.19143893 0
-0.1244247 -1.1557755 -0.19105084 0
-0.14555198 -1.3520259 -0.19110437 0
-0.17606162 -1.6354285 -0.19224234 0
-0.21914859 -2.0356615 -0.19110723 0
-0.29312068 -2.722785 -0.19144818 0
-0.55581909 -5.1629791 -0.24174953 0
-1.1130744 -10.339299 -0.24178234 0
-0.074223526 -0.90304619 -0.19260059 0
-0.083423682 -1.0149806 -0.19181725 0
-0.09499722 -1.1557909 -0.19059636 0
-0.11087865 -1.3490134 -0.19022246 0
-0.13519901 -1.6449091 -0.19289425 0
-0.16715485 -2.0337021 -0.19046657 0
-0.22393769 -2.724555 -0.19111438 0
-0.4245804 -5.1656899 -0.24129786 0
-0.85177332 -10.363165 -0.24176072 0
-0.051146068 -0.89989692 -0.19159259 0
-0.058114842 -1.0225101 -0.19290157 0
-0.065902829 -1.1595368 -0.19087899 0
-0.076883718 -1.3527417 -0.19041391 0
-0.082130268 -1.4450529 -0.16916066 0
-0.082089655 -1.4443382 -0.13503259 0
-0.081679091 -1.4371145 -0.10062999 0
-0.081958063 -1.4420229 -0.067241222 0
-0.082497954 -1.4515222 -0.033803005 0
-0.082917854 -1.4589101 4.1716747e-05 0
-0.028366761 -0.89907062 -0.19120336 0
-0.032117948 -1.0179627 -0.19182968 0
-0.036609292 -1.1603136 -0.19079401 0
-0.041836977 -1.3260025 -0.18644205 0
-0.041573055 -1.3176376 -0.15407328 0
-0.041877434 -1.3272847 -0.12395086 0
-0.041660685 -1.320415 -0.092355393 0
-0.041749261 -1.3232225 -0.061632819 0
-0.041889556 -1.3276689 -0.030884257 0
-0.041548491 -1.3168591 3.761291e-05 0
-0.0056307479 -0.89275336 -0.18976921 0
-0.006383209 -1.0120559 -0.1906255 0
-0.007310058 -1.1590075 -0.19048823 0
-0.0077076764 -1.2220498 -0.17174378 0
-0.0077365073 -1.2266209 -0.14336209 0
-0.0077136317 -1.222994 -0.11415695 0
-0.0077540847 -1.2294078 -0.085948907 0
-0.0078207692 -1.2399806 -0.057728019 0
-0.0076950067 -1.220041 -0.028367061 0
-0.0077729435 -1.2323979 3.5183672e-05 0
0.017101346 -0.90345508 -0.19207461 0
0.019044222 -1.0060962 -0.18953316 0
0.022236852 -1.1747612 -0.19310817 0
0.022798968 -1.2044575 -0.16929835 0
0.023037106 -1.2170382 -0.14226474 0
0.022765057 -1.202666 -0.11227737 0
0.022838756 -1.2065595 -0.084364995 0
0.022896392 -1.2096043 -0.056322798 0
0.022872947 -1.2083657 -0.028100075 0
0.022848742 -1.207087 3.446656e-05 0
0.040051382 -0.90636641 -0.19284706 0
0.045170661 -1.0222162 -0.19272332 0
0.051241327 -1.1595958 -0.19076714 0
0.053436749 -1.2092785 -0.17011139 0
0.054070931 -1.2236302 -0.14314926 0
0.053237151 -1.2047616 -0.1125626 0
0.053310093 -1.2064123 -0.084421895 0
0.053509101 -1.2109159 -0.056428783 0
0.053166032 -1.2031522 -0.028001122 0
0.053155199 -1.202907 3.4374567e-05 0
0.062365115 -0.89726901 -0.19118544 0
0.070433401 -1.0133504 -0.19132601 0
0.080449283 -1.1574523 -0.19068781 0
0.085031211 -1.2233741 -0.17234127 0
0.084630854 -1.2176142 -0.14264992 0
0.084569931 -1.2167375 -0.1138447 0
0.0842949 -1.2127806 -0.084989354 0
0.084258944 -1.2122633 -0.056572657 0
0.084227718 -1.211814 -0.028243193 0
0.084167741 -1.2109511 3.4654106e-05 0
0.08481127 -0.89358747 -0.19079633 0
0.095713079 -1.008451 -0.19079632 0
0.10956728 -1.1544214 -0.19058336 0
0.11402834 -1.201424 -0.16960049 0
0.113699 -1.1979541 -0.14063804 0
0.11490843 -1.2106968 -0.11351471 0
0.1151209 -1.2129354 -0.085176691 0
0.11514132 -1.2131506 -0.056731615 0
0.11494575 -1.21109 -0.028284924 0
0.11528698 -1.2146852 3.4833141e-05 0
0.10721923 -0.89024043 -0.19059879 0
0.12324797 -1.0233269 -0.19413751 0
0.14008945 -1.1631616 -0.19254868 0
0.14557348 -1.2086955 -0.17109115 0
0.14629507 -1.2146869 -0.14299038 0
0.14511009 -1.2048479 -0.11327363 0
0.14588548 -1.2112861 -0.085292265 0
0.1455528 -1.2085239 -0.056668993 0
0.14612693 -1.2132908 -0.028413411 0
0.14589758 -1.2113864 3.483305e-05 0
0.13121356 -0.89797449 -0.19290224 0
0.14645801 -1.0023017 -0.19078928 0
0.16794878 -1.1493762 -0.19090754 0
0.17565253 -1.2020975 -0.17073038 0
0.17856815 -1.222051 -0.14434186 0
0.17722999 -1.212893 -0.1144141 0
0.17603087 -1.2046869 -0.085113324 0
0.17598216 -1.2043535 -0.05666367 0
0.17760853 -1.2154838 -0.02856065 0
0.17487805 -1.1967973 3.4529461e-05 0
0.15154161 -0.88108134 -0.19003437 0
0.17258833 -1.0034496 -0.19177589 0
0.19693868 -1.1450255 -0.19094969 0
0.2076285 -1.2071774 -0.17214131 0
0.20809108 -1.2098669 -0.14347738 0
0.20737705 -1.2057154 -0.11419439 0
0.20825469 -1.2108182 -0.085890517 0
0.20919408 -1.2162799 -0.057454914 0
0.20570847 -1.1960142 -0.028216176 0
0.20911118 -1.2157979 3.5218716e-05 0
0.17608097 -0.88887608 -0.19261274 0
0.19966455 -1.0079285 -0.19353335 0
0.22467203 -1.1341691 -0.19002435 0
0.23923464 -1.2076827 -0.17301928 0
0.23940533 -1.2085444 -0.14399126 0
0.2397745 -1.210408 -0.1151753 0
0.23854958 -1.2042245 -0.085822538 0
0.24049911 -1.2140659 -0.057618711 0
0.24036954 -1.2134118 -0.028760584 0
0.23945811 -1.2088108 3.5180183e-05 0
0.19504564 -0.86897367 -0.18930648 0
0.22260225 -0.99174482 -0.1914437 0
0.25519112 -1.1369358 -0.19150604 0
0.27165738 -1.2102968 -0.17432055 0
0.27195218 -1.2116102 -0.1451281 0
0.27236077 -1.2134305 -0.11608005 0
0.27340421 -1.2180793 -0.08727394 0
0.27372882 -1.2195256 -0.058187176 0
0.27252081 -1.2141435 -0.028931741 0
0.27268207 -1.214862 3.5545265e-05 0
0.22026151 -0.87712789 -0.19223274 0
0.24838112 -0.98910612 -0.19208328 0
0.28204653 -1.1231688 -0.19032557 0
0.30428493 -1.2117269 -0.17557675 0
0.3058933 -1.2181318 -0.14678727 0
0.30351871 -1.2086756 -0.11632096 0
0.30188507 -1.20217 -0.086652376 0
0.3051888 -1.2153263 -0.058335755 0
0.30348325 -1.2085345 -0.028971376 0
0.30467653 -1.2132864 3.5712783e-05 0
0.23892802 -0.85908717 -0.18954016 0
0.27494419 -0.9885866 -0.19326846 0
0.30969986 -1.1135538 -0.1899603 0
0.33779225 -1.2145624 -0.17716654 0
0.33420286 -1.2016565 -0.14577198 0
0.33751208 -1.2135551 -0.11757291 0
0.33660984 -1.2103111 -0.087823577 0
0.33525068 -1.205424 -0.058248036 0
0.33602113 -1.2081943 -0.02915724 0
0.33736604 -1.21303 3.594442e-05 0
0.26152965 -0.85606545 -0.1902692 0
0.29990226 -0.98167056 -0.19333459 0
0.33997756 -1.1128491 -0.19124298 0
0.36912993 -1.2082735 -0.17755163 0
0.36827314 -1.205469 -0.14731511 0
0.3694306 -1.2092578 -0.11802234 0
0.37177214 -1.2169224 -0.088955857 0
0.37121657 -1.2151037 -0.059149679 0
0.36794025 -1.2043794 -0.029279964 0
0.36646801 -1.1995604 3.5807963e-05 0
0.28122056 -0.84371829 -0.18904227 0
0.32208022 -0.96630555 -0.1918484 0
0.37042403 -1.1113466 -0.19253011 0
0.42693686 -1.2808965 -0.18974632 0
0.52042162 -1.5613695 -0.19235207 0
0.64975125 -1.9493847 -0.19179742 0
0.86236662 -2.5872734 -0.19065751 0
1.3055609 -3.9169459 -0.19221465 0
3.2922356 -9.8773699 -0.24207416 0
0.30519328 -0.84402704 -0.19077656 0
0.34723884 -0.96030605 -0.19233601 0
0.40080774 -1.1084535 -0.1937197 0
0.460109 -1.272454 -0.19015537 0
0.55756545 -1.5419747 -0.19163534 0
0.70140439 -1.9397682 -0.1925317 0
0.93186474 -2.5771177 -0.19158126 0
1.4009393 -3.8743665 -0.19179922 0
3.5391624 -9.7877274 -0.24198931 0
0.32503015 -0.8325702 -0.18998069 0
0.37267166 -0.9546048 -0.19301651 0
0.42413816 -1.0864371 -0.19168179 0
0.49165428 -1.2593808 -0.18999559 0
0.59427673 -1.5222498 -0.19098718 0
0.74668747 -1.9126526 -0.19164984 0
0.99609667 -2.5515184 -0.19148619 0
1.4998871 -3.8419864 -0.19200914 0
3.7830043 -9.6902294 -0.24186239 0
0.34883672 -0.83102125 -0.19157524 0
0.39515078 -0.94135356 -0.19229248 0
0.45234346 -1.0776017 -0.19207603 0
0.52457994 -1.249688 -0.19047005 0
0.63399965 -1.5103545 -0.19144142 0
0.79432613 -1.8922946 -0.19155778 0
1.063326 -2.5331235 -0.19205861 0
1.5949895 -3.7996864 -0.19184589 0
4.0257754 -9.5904608 -0.24183124 0
0.36839134 -0.8190608 -0.19090065 0
0.4170388 -0.92722088 -0.19149469 0
0.47779801 -1.0623095 -0.19143881 0
0.55755305 -1.2396324 -0.1910214 0
0.66499048 -1.4785029 -0.18947116 0
0.83767319 -1.8624359 -0.19061469 0
1.1278929 -2.5076942 -0.19222769 0
1.690046 -3.7575541 -0.1918112 0
4.2666965 -9.4863348 -0.24184404 0
0.38964212 -0.81096697 -0.19124538 0
0.44412819 -0.92436951 -0.19315931 0
0.50419837 -1.0493944 -0.19134369 0
0.59052956 -1.2290765 -0.19163045 0
0.70626312 -1.4699543 -0.19059929 0
0.88949502 -1.851317 -0.19171333 0
1.1851493 -2.466666 -0.19131465 0
1.7782688 -3.701133 -0.19116129 0
4.5048261 -9.3759508 -0.24185149 0
0.41567749 -0.81200844 -0.19390333 0
0.46502656 -0.90840971 -0.19221565 0
0.53369325 -1.0425472 -0.19248998 0
0.62009376 -1.211327 -0.19124229 0
0.73899353 -1.4435925 -0.18953921 0
0.94234508 -1.8408314 -0.19302897 0
1.2510673 -2.443907 -0.19193737 0
1.8791395 -3.6708198 -0.19198409 0
4.7378325 -9.2551565 -0.24174312 0
0.43240735 -0.79459953 -0.19229104 0
0.48775235 -0.89630252 -0.19219743 0
0.55456543 -1.0190794 -0.19068056 0
0.65213174 -1.198369 -0.191734 0
0.77935803 -1.4321624 -0.1905604 0
0.98510784 -1.810252 -0.1923683 0
1.3079674 -2.4035447 -0.19129914 0
1.9721184 -3.6240003 -0.19207746 0
4.9733367 -9.1390934 -0.24191317 0
0.44618598 -0.77281523 -0.18968408 0
0.51411498 -0.8904714 -0.19366781 0
0.58974952 -1.0214741 -0.19385198 0
0.67249197 -1.1647879 -0.18901658 0
0.81563157 -1.4127125 -0.19065082 0
1.0257978 -1.7767304 -0.19149636 0
1.365774 -2.3655851 -0.19096066 0
2.5953379 -4.4952478 -0.24164975 0
5.1969914 -9.0014343 -0.24166436 0
0.47569188 -0.77790844 -0.19381928 0
0.53234124 -0.87054831 -0.19219568 0
0.61223173 -1.0011948 -0.19287448 0
0.70918196 -1.1597394 -0.19104108 0
0.85115927 -1.3919177 -0.1906829 0
1.0716364 -1.7524686 -0.19173549 0
1.4324101 -2.3424489 -0.19195028 0
2.709342 -4.4306412 -0.24177563 0
5.423758 -8.8695793 -0.24172257 0
0.49094197 -0.75912434 -0.1921652 0
0.55279189 -0.85476047 -0.19172931 0
0.63225967 -0.97763836 -0.19134967 0
0.73825091 -1.1415284 -0.19104971 0
0.89218849 -1.3795561 -0.1920131 0
1.1133053 -1.7214603 -0.19135623 0
1.4876329 -2.3002684 -0.19150956 0
2.8181965 -4.357667 -0.241598 0
5.6474948 -8.7325001 -0.24179432 0
0.50989765 -0.74643499 -0.19214955 0
0.57664073 -0.84413964 -0.19255018 0
0.65169472 -0.95401061 -0.18988395 0
0.76595157 -1.1212703 -0.19083391 0
0.92419255 -1.3529179 -0.19149108 0
1.1551861 -1.6910673 -0.19115782 0
1.5482416 -2.2664583 -0.19188687 0
2.9310656 -4.2907629 -0.2419131 0
5.8633895 -8.5833683 -0.24168563 0
0.53238004 -0.73862016 -0.19353513 0
0.5930739 -0.82282633 -0.19104211 0
0.68191558 -0.94608462 -0.19167095 0
0.79966104 -1.1094438 -0.19219488 0
0.95531607 -1.3253984 -0.19094786 0
1.2003646 -1.6653769 -0.19161741 0
1.6015139 -2.2219284 -0.19147798 0
3.0367496 -4.2131639 -0.24178229 0
6.0780878 -8.4326935 -0.24168552 0
0.54911596 -0.72267473 -0.19292705 0
0.61830413 -0.81373125 -0.19249237 0
0.70593446 -0.92905885 -0.1917702 0
0.82879418 -1.0907508 -0.19251901 0
0.98011696 -1.2899021 -0.18933751 0
1.2444122 -1.637733 -0.19198933 0
1.6605341 -2.1853783 -0.19187881 0
3.1426358 -4.1359272 -0.24182466 0
6.2960029 -8.2859774 -0.24195781 0
0.55708945 -0.69598985 -0.18949644 0
0.64347196 -0.80391032 -0.19394921 0
0.73390692 -0.91689366 -0.19302109 0
0.85416502 -1.0671359 -0.19209485 0
1.0224506 -1.2773805 -0.19122651 0
1.2889106 -1.6102777 -0.19252303 0
1.7172247 -2.1453843 -0.19211149 0
3.2358303 -4.0426273 -0.24106786 0
6.5019073 -8.1230431 -0.24191485 0
0.58140385 -0.68993747 -0.19178277 0
0.65864408 -0.7815966 -0.19251509 0
0.75910407 -0.90080994 -0.19360684 0
0.87916243 -1.0432802 -0.19173379 0
1.0577435 -1.255198 -0.19184116 0
1.3295567 -1.577752 -0.19258496 0
1.774484 -2.105736 -0.19251028 0
3.3471191 -3.9719431 -0.24181341 0
6.6982474 -7.9486437 -0.2416788 0
0.60210508 -0.67897111 -0.1928972 0
0.6737988 -0.75981736 -0.19127849 0
0.77416277 -0.87299401 -0.19176687 0
0.90449482 -1.0199646 -0.19158326 0
1.0804214 -1.2183503 -0.19031654 0
1.3571571 -1.5304146 -0.19092707 0
1.8220246 -2.0546281 -0.19198088 0
3.452806 -3.8935986 -0.24227203 0
6.8990793 -7.7798305 -0.24176334 0
0.61038494 -0.6542809 -0.19019884 0
0.69462943 -0.74458385 -0.19179597 0
0.79430473 -0.85142738 -0.19137222 0
0.93552333 -1.0028017 -0.1927332 0
1.1119845 -1.1919531 -0.19051644 0
1.4091059 -1.510442 -0.19281085 0
1.8608407 -1.9946635 -0.19070557 0
3.5440431 -3.7989137 -0.24186918 0
7.09445 -7.6046491 -0.24180678 0
0.62301993 -0.63492292 -0.18908234 0
0.70896226 -0.72250718 -0.19065773 0
0.81236786 -0.82788831 -0.1906292 0
0.95836443 -0.9766742 -0.19229923 0
1.1475435 -1.1694677 -0.1914908 0
1.4342995 -1.4617021 -0.19114926 0
1.9170094 -1.9536343 -0.19134776 0
3.6480496 -3.7177465 -0.24248633 0
7.2847538 -7.4239311 -0.24182968 0
0.64400464 -0.6240043 -0.19061056 0
0.72911996 -0.70647627 -0.19122259 0
0.8364051 -0.81042957 -0.19140898 0
0.98056185 -0.95010936 -0.19188049 0
1.1739686 -1.1375097 -0.19104873 0
1.4766397 -1.430781 -0.19191825 0
1.9587651 -1.8979335 -0.19067356 0
3.734113 -3.6181459 -0.24205993 0
7.4603086 -7.2286196 -0.24152407 0
0.66620415 -0.61369216 -0.19253542 0
0.74595582 -0.68715751 -0.19102871 0
0.85622382 -0.78873396 -0.19132788 0
1.0052891 -0.92604947 -0.1920844 0
1.2041739 -1.1092577 -0.19134724 0
1.5205574 -1.400703 -0.19297004 0
2.540632 -2.3403726 -0.2414878 0
3.824955 -3.5234616 -0.24210685 0
7.6593609 -7.0556293 -0.24212603 0
0.67930746 -0.59478897 -0.19192271 0
0.7648325 -0.66967303 -0.19147345 0
0.86980343 -0.76158369 -0.19000663 0
1.0306175 -0.90238947 -0.1925109 0
1.2230824 -1.0709081 -0.18999641 0
1.5294158 -1.3391279 -0.18974456 0
2.6019721 -2.2782383 -0.24177575 0
3.9031351 -3.4175122 -0.24151886 0
7.8323364 -6.8578472 -0.24204548 0
0.69510901 -0.57830083 -0.19220217 0
0.78828287 -0.65581751 -0.1931389 0
0.89284742 -0.74281073 -0.19088434 0
1.0511839 -0.87453985 -0.19216837 0
1.2473307 -1.0377256 -0.18963422 0
1.5641795 -1.3013302 -0.18992221 0
2.6556342 -2.2093735 -0.24150367 0
3.9880073 -3.3178508 -0.24151205 0
7.9882312 -6.645865 -0.24160263 0
0.70766777 -0.55914754 -0.19171156 0
0.8047502 -0.63585496 -0.19318002 0
0.91306764 -0.72143954 -0.19125354 0
1.0658826 -0.84218276 -0.19090886 0
1.2675083 -1.0014926 -0.18879886 0
1.6022972 -1.2660185 -0.19061001 0
2.7097735 -2.1410656 -0.24143597 0
4.0756946 -3.2203171 -0.24182321 0
8.154664 -6.4432216 -0.241641 0
0.72075981 -0.5405215 -0.19150151 0
0.80781335 -0.60580587 -0.19018443 0
0.93158519 -0.6986264 -0.19137794 0
1.0969763 -0.82265866 -0.19269779 0
1.3130518 -0.9847008 -0.1918197 0
1.6244656 -1.2182403 -0.18952912 0
2.7706394 -2.0777938 -0.24210949 0
4.1440463 -3.1077571 -0.24114805 0
8.3125114 -6.2338266 -0.24157923 0
0.73423404 -0.52221078 -0.19151868 0
0.84057909 -0.59784681 -0.1942842 0
0.94633859 -0.67306632 -0.1908582 0
1.1205448 -0.79696733 -0.19324295 0
1.3249464 -0.94234431 -0.19002232 0
1.6718862 -1.1890991 -0.19149926 0
2.812804 -2.0005562 -0.24130493 0
4.2359939 -3.0127745 -0.24199668 0
8.4755955 -6.0281148 -0.24182016 0
0.73976439 -0.49852434 -0.18961887 0
0.8475284 -0.57114607 -0.1924973 0
0.96278131 -0.64881456 -0.19081101 0
1.1268772 -0.75939816 -0.19096887 0
1.3411057 -0.90376586 -0.18900828 0
1.6965346 -1.143288 -0.19095658 0
2.8800006 -1.9408211 -0.24279001 0
4.311717 -2.9056492 -0.242056 0
8.6245928 -5.812079 -0.24180897 0
0.75961018 -0.48448613 -0.19151051 0
0.85717237 -0.54671216 -0.19149272 0
0.98938584 -0.63103908 -0.19286577 0
1.1554959 -0.73698556 -0.19260524 0
1.3723121 -0.87527281 -0.19023237 0
1.7300472 -1.1034395 -0.19153297 0
2.9222343 -1.8638271 -0.24230759 0
4.3770986 -2.7917523 -0.24169385 0
8.7677622 -5.5921569 -0.24178885 0
0.77406234 -0.46665522 -0.19212355 0
0.87231755 -0.52588987 -0.19184989 0
1.0064625 -0.60676116 -0.19314785 0
1.1603357 -0.69952589 -0.19040841 0
1.3959812 -0.84158844 -0.19050831 0
1.7588649 -1.0603583 -0.19169946 0
2.9675033 -1.7890043 -0.24224007 0
4.4527807 -2.6844265 -0.24205467 0
8.9156694 -5.3749461 -0.24204955 0
0.78458905 -0.44640675 -0.19187874 0
0.88379943 -0.50285441 -0.19152285 0
1.0147394 -0.57735515 -0.19187872 0
1.1867642 -0.67523193 -0.1918876 0
1.4106189 -0.80259824 -0.18968107 0
1.7875884 -1.0170822 -0.19197112 0
3.005496 -1.7100337 -0.24174131 0
4.5209794 -2.5722964 -0.24215564 0
9.0359058 -5.141149 -0.24171409 0
0.79242909 -0.42476761 -0.19111338 0
0.90190876 -0.48345223 -0.19274163 0
1.029623 -0.55191123 -0.19199796 0
1.2068335 -0.64690173 -0.19243136 0
1.4469864 -0.77563149 -0.19187784 0
1.8167926 -0.97385961 -0.19240654 0
3.0506537 -1.635249 -0.2419768 0
4.576335 -2.4530635 -0.24172746 0
9.1707001 -4.915792 -0.24192394 0
0.80682987 -0.40662214 -0.1920502 0
0.89950454 -0.45332786 -0.18972233 0
1.0408767 -0.52457595 -0.19156659 0
1.2225024 -0.61611068 -0.19238904 0
1.4561365 -0.7338565 -0.19057441 0
1.830786 -0.92267048 -0.19136132 0
3.0865724 -1.5555556 -0.24163476 0
4.6358485 -2.3363521 -0.24167934 0
9.2912312 -4.682549 -0.24190885 0
0.81890136 -0.38711357 -0.19253662 0
0.91674405 -0.43336609 -0.19099066 0
1.0551471 -0.49879241 -0.19181494 0
1.2242529 -0.57873267 -0.19030526 0
1.4847213 -0.70186204 -0.19193599 0
1.8605381 -0.8795194 -0.19208972 0
3.1267045 -1.4780655 -0.24177909 0
4.6946545 -2.2192717 -0.24174799 0
9.4115267 -4.4490461 -0.24204022 0
0.82685798 -0.36564329 -0.1921764 0
0.92953157 -0.41104639 -0.19143245 0
1.0544269 -0.46627611 -0.18948433 0
1.2390573 -0.54792118 -0.19039625 0
1.4963404 -0.66169381 -0.19121821 0
1.8787599 -0.8308028 -0.19174506 0
3.1617074 -1.3981326 -0.24168012 0
4.7456326 -2.0985572 -0.24156874 0
9.508604 -4.2047815 -0.24173056 0
0.83373785 -0.3438057 -0.1916976 0
0.94162786 -0.38829595 -0.19184421 0
1.0852687 -0.44752866 -0.19293547 0
1.2504432 -0.51564115 -0.19008549 0
1.5200719 -0.626827 -0.19216795 0
1.9064696 -0.78616452 -0.19248672 0
3.207974 -1.3228617 -0.24258733 0
4.802527 -1.9804021 -0.24184351 0
9.6172142 -3.9658189 -0.24187006 0
0.84996843 -0.32565695 -0.19347799 0
0.94518024 -0.36213642 -0.19064511 0
1.0789293 -0.41338104 -0.1898932 0
1.2696817 -0.4864659 -0.19108273 0
1.5219009 -0.58310121 -0.19047801 0
1.9175391 -0.73468608 -0.19167116 0
3.2292209 -1.2372439 -0.24175565 0
4.8500156 -1.8582354 -0.24179617 0
9.7120237 -3.7210653 -0.24181552 0
0.8526181 -0.30223033 -0.19228354 0
0.95983231 -0.34023488 -0.19180731 0
1.1012321 -0.39035732 -0.19202337 0
1.282987 -0.4547846 -0.19129677 0
1.5304683 -0.54251009 -0.18977614 0
1.9372993 -0.68672079 -0.19185275 0
3.2587037 -1.1551234 -0.24170329 0
4.8897924 -1.7333007 -0.24152131 0
9.8027239 -3.4748034 -0.2418132 0
0.85957551 -0.28049225 -0.19219483 0
0.98038125 -0.31991297 -0.19423833 0
1.1076504 -0.36144277 -0.19149086 0
1.2874203 -0.42010435 -0.19031624 0
1.5611697 -0.50943285 -0.19192763 0
1.9473478 -0.63544852 -0.19119871 0
3.2854111 -1.0720785 -0.24160033 0
4.9312105 -1.6091272 -0.24148418 0
9.8833256 -3.2250762 -0.24171659 0
0.86785442 -0.25915563 -0.19252214 0
0.97361726 -0.29073817 -0.19138344 0
1.1110306 -0.33177206 -0.19056691 0
1.3020101 -0.38880163 -0.19096157 0
1.5779661 -0.47120667 -0.19246916 0
1.9573942 -0.58451021 -0.19067594 0
3.3108497 -0.98867428 -0.2415591 0
4.9773655 -1.4863234 -0.24183036 0
9.9686584 -2.9768057 -0.24188904 0
0.86847746 -0.23564616 -0.19128008 0
0.98179269 -0.26639226 -0.19160783 0
1.1279575 -0.30605149 -0.19208416 0
1.3124633 -0.35611394 -0.19111563 0
1.5602251 -0.42333975 -0.18894184 0
1.9554089 -0.53056598 -0.18911786 0
3.3469455 -0.90813506 -0.24244316 0
5.0190229 -1.361824 -0.24210729 0
10.039395 -2.7240143 -0.24186021 0
0.87249708 -0.21325544 -0.19091915 0
0.98906583 -0.24174713 -0.19177543 0
1.1218966 -0.27421358 -0.189813 0
1.3142453 -0.32122737 -0.19013399 0
1.5795354 -0.38606948 -0.19003978 0
1.965008 -0.4802866 -0.18881373 0
3.3632779 -0.82205123 -0.24204627 0
5.048265 -1.2338952 -0.24193856 0
10.109496 -2.4709594 -0.24196951 0
0.89520657 -0.19500896 -0.1947494 0
0.99068904 -0.21580856 -0.19097322 0
1.1380631 -0.24791205 -0.19142862 0
1.3236809 -0.28834647 -0.19038557 0
1.5936977 -0.34716603 -0.1906288 0
1.990577 -0.43362099 -0.19015844 0
3.3712654 -0.73438579 -0.24121036 0
5.0670443 -1.1037889 -0.24142656 0
10.169951 -2.21539 -0.24200115 0
0.88249987 -0.16903818 -0.19099614 0
1.007331 -0.19294892 -0.19318101 0
1.1362429 -0.21764131 -0.19013794 0
1.3412094 -0.25690156 -0.19191299 0
1.6173326 -0.30979151 -0.19245933 0
2.5408728 -0.48669073 -0.24147747 0
3.3974721 -0.6507678 -0.24183322 0
5.0996318 -0.97680748 -0.24172761 0
10.220015 -1.9575897 -0.24193969 0
0.88779151 -0.14693443 -0.19127786 0
1.008857 -0.16697146 -0.19260412 0
1.1362073 -0.18804866 -0.1892775 0
1.3244705 -0.21920724 -0.18866609 0
1.6159768 -0.26745316 -0.19143377 0
2.5659297 -0.42467564 -0.24276285 0
3.4174044 -0.5655995 -0.24215879 0
5.126833 -0.84851944 -0.24192479 0
10.246338 -1.6958261 -0.24147272 0
0.88837659 -0.12409118 -0.19066842 0
1.0142117 -0.1416682 -0.19288236 0
1.1434852 -0.15972553 -0.1897579 0
1.3366786 -0.18671139 -0.18967344 0
1.6307104 -0.22778265 -0.19243683 0
2.5707808 -0.35909459 -0.2422872 0
3.4273806 -0.47874707 -0.24193244 0
5.1355777 -0.71735334 -0.24140622 0
10.29014 -1.4373585 -0.24157313 0
0.89624095 -0.10220913 -0.19174159 0
1.0113066 -0.11533144 -0.19171524 0
1.154627 -0.13167599 -0.19099452 0
1.3472263 -0.1536404 -0.19055921 0
1.6274482 -0.18559748 -0.19143811 0
2.5706539 -0.29316255 -0.24150099 0
3.442368 -0.39257458 -0.24221385 0
5.1628366 -0.58878028 -0.24191199 0
10.332161 -1.1783005 -0.24178445 0
0.90007186 -0.079699688 -0.19206966 0
1.0122669 -0.089634344 -0.19140747 0
1.1428547 -0.10119765 -0.18856463 0
1.1355284 -0.10054893 -0.16020551 0
1.646147 -0.14576325 -0.19314341 0
2.5742745 -0.22794721 -0.24122383 0
3.4454739 -0.30509028 -0.24181357 0
5.1710286 -0.45788494 -0.24167737 0
10.357081 -0.91710031 -0.24174899 0
0.90190881 -0.056971736 -0.19209364 0
1.0182875 -0.064323135 -0.19217771 0
1.1362677 -0.071775697 -0.18711933 0
1.1340597 -0.07163623 -0.15969235 0
1.6387223 -0.10351473 -0.19190462 0
2.5843196 -0.16324617 -0.24170205 0
3.4592483 -0.21851364 -0.24231608 0
5.1837201 -0.327445 -0.24180728 0
10.382775 -0.65585864 -0.2418853 0
0.90406269 -0.034235559 -0.19230711 0
1.0172064 -0.038520154 -0.19172916 0
1.1251464 -0.042607684 -0.18505187 0
1.1289433 -0.042751469 -0.1587694 0
1.6388834 -0.062062163 -0.191679 0
2.5805304 -0.097720988 -0.24104023 0
3.4533434 -0.13077317 -0.24159431 0
5.182785 -0.19626465 -0.2414557 0
10.39719 -0.39372671 -0.24191259 0
0.90961879 -0.011477112 -0.19336577 0
1.015481 -0.012812828 -0.19128205 0
1.1187153 -0.014115387 -0.18387701 0
1.1178526 -0.014104501 -0.15710954 0
1.1374478 -0.014351745 -0.13294788 0
1.1326753 -0.014291526 -0.10573271 0
1.1390529 -0.014371996 -0.079636872 0
1.1384261 -0.014364087 -0.053003248 0
1.1195651 -0.014126109 -0.026032461 0
1.132041 -0.014283523 3.2320517e-05 0
1.13875 -0.014368174 0.026543612 0
1.1266053 -0.014214939 0.052517362 0
1.1288779 -0.014243614 0.078990266 0
1.1374497 -0.014351768 0.10624392 0
1.1181191 -0.014107864 0.1307534 0
1.1260672 -0.014208148 0.15832964 0
1.123559 -0.014176502 0.18473902 0
1.1289787 -0.014244886 0.21272793 0
0.90348154 0.011399675 -0.19206113 0
1.0082067 0.012721045 -0.18991184 0
1.1451421 0.014448826 -0.18822064 0
1.1343281 0.014312382 -0.15942511 0
1.6446968 0.020751957 -0.19223645 0
2.6005986 0.032813042 -0.24276008 0
3.4518611 0.043553848 -0.24133684 0
5.1962366 0.065563492 -0.24192825 0
10.398329 0.13120088 -0.24178503 0
0.9060849 0.034312136 -0.19273725 0
1.0122186 0.038331266 -0.19078901 0
1.125834 0.042633723 -0.18516497 0
1.1190135 0.042375438 -0.15737291 0
1.6326623 0.061826583 -0.19095141 0
2.5901403 0.098084904 -0.24193788 0
3.4639244 0.13117386 -0.24233456 0
5.1722088 0.19586414 -0.24096298 0
10.398894 0.39379123 -0.24195223 0
0.90764135 0.057333846 -0.19331458 0
1.0150157 0.064116463 -0.19156024 0
1.1253066 0.071083315 -0.18531428 0
1.1232269 0.070951946 -0.15816693 0
1.6409582 0.10365597 -0.19216646 0
2.5847838 0.16327551 -0.24174547 0
3.4553728 0.21826883 -0.2420446 0
5.1885114 0.32774764 -0.24203078 0
10.380172 0.65569419 -0.24182466 0
0.90170866 0.079844624 -0.19241893 0
1.0215131 0.090453081 -0.19315581 0
1.1567394 0.10242712 -0.19085553 0
1.3532901 0.11983132 -0.19092831 0
1.6450783 0.14566861 -0.19301802 0
2.5717661 0.22772509 -0.24098878 0
3.4452391 0.30506951 -0.24179709 0
5.1773129 0.45844141 -0.24197109 0
10.347281 0.91623241 -0.24152021 0
0.89476407 0.10204069 -0.19142562 0
1.0117615 0.11538333 -0.19180149 0
1.1546074 0.13167375 -0.19099128 0
1.3542056 0.15443635 -0.19154641 0
1.6284239 0.18570875 -0.19155289 0
2.5622849 0.29220814 -0.24071476 0
3.4391315 0.39220551 -0.24198613 0
5.1607556 0.588543 -0.24181449 0
10.335938 1.1787312 -0.24187285 0
0.88294125 0.12333196 -0.18950185 0
1.0100671 0.14108929 -0.19209416 0
1.1525546 0.16099238 -0.19126295 0
1.3401103 0.18719074 -0.19016039 0
1.6249118 0.22697268 -0.19175255 0
2.5698607 0.35896608 -0.24220049 0
3.4269917 0.47869277 -0.241905 0
5.1484003 0.7191444 -0.24200895 0
10.29014 1.4373585 -0.24157313 0
0.8917973 0.14759743 -0.19214092 0
1.0065137 0.16658364 -0.19215678 0
1.1384839 0.18842544 -0.18965673 0
1.3472854 0.22298326 -0.191916 0
1.6248549 0.26892254 -0.1924855 0
2.5594039 0.42359564 -0.24214546 0
3.4124587 0.56478095 -0.24180834 0
5.1214485 0.8476283 -0.24167071 0
10.257998 1.6977559 -0.24174753 0
0.8847422 0.16946769 -0.19148144 0
1.001826 0.19189447 -0.19212529 0
1.138606 0.21809393 -0.19053337 0
1.334978 0.25570798 -0.19102134 0
1.3454701 0.25771767 -0.16010825 0
1.3632849 0.26113003 -0.12956281 0
1.3491129 0.25841543 -0.096030317 0
1.3454899 0.25772145 -0.063777551 0
1.3416981 0.25699517 -0.031762186 0
1.3488667 0.25836828 3.9208022e-05 0
0.88734549 0.19329652 -0.19303924 0
0.9953239 0.2168182 -0.19186668 0
1.1406547 0.24847661 -0.19186455 0
1.2067407 0.26287258 -0.17356601 0
1.2111689 0.26383719 -0.14487293 0
1.1967723 0.26070109 -0.11432684 0
1.2115655 0.26392359 -0.086686186 0
1.1962633 0.26059023 -0.056997675 0
1.2098682 0.26355386 -0.028789666 0
1.2084155 0.26323742 3.5307352e-05 0
0.86934566 0.21248518 -0.19022955 0
0.99144363 0.24232832 -0.19223647 0
1.1336972 0.27709785 -0.19180954 0
1.211769 0.29618016 -0.17530857 0
1.2053131 0.29460219 -0.1450157 0
1.2152151 0.29702246 -0.11676762 0
1.2091078 0.29552969 -0.087016299 0
1.1936926 0.2917619 -0.057207827 0
1.21979 0.29814065 -0.029195519 0
1.1983856 0.292909 3.521908e-05 0
0.86961466 0.23595472 -0.19153054 0
0.98111963 0.26620963 -0.19147646 0
1.1227779 0.30464613 -0.19120212 0
1.2159079 0.32991534 -0.17705563 0
1.1974534 0.32490802 -0.14501052 0
1.2038252 0.32663691 -0.11642826 0
1.2046918 0.32687202 -0.087264426 0
1.2043511 0.3267796 -0.058095403 0
1.2006567 0.32577717 -0.028925154 0
1.21082 0.32853481 3.5816796e-05 0
0.86080849 0.25705159 -0.1909591 0
0.98854655 0.29519629 -0.19431807 0
1.1140794 0.33268246 -0.19108985 0
1.2084231 0.36085504 -0.17723548 0
1.2152334 0.36288872 -0.14822561 0
1.2073541 0.3605358 -0.11761216 0
1.2018521 0.35889283 -0.087686948 0
1.2091559 0.36107388 -0.05874807 0
1.2111601 0.36167237 -0.029388744 0
1.21262 0.36210832 3.612888e-05 0
0.84737241 0.27651021 -0.1894663 0
0.9623 0.3140128 -0.19065598 0
1.1009196 0.35924643 -0.19032724 0
1.2018795 0.39219114 -0.17767096 0
1.2058681 0.3934927 -0.14824744 0
1.2008938 0.39186949 -0.11790875 0
1.2043829 0.39300805 -0.088567093 0
1.2023346 0.39233968 -0.058879014 0
1.2065139 0.3937034 -0.029507721 0
1.2113035 0.39526632 3.6375302e-05 0
0.85299855 0.30236518 -0.19236933 0
0.9578414 0.33952916 -0.19140947 0
1.1070575 0.39242226 -0.19303913 0
1.2057018 0.42738906 -0.17977336 0
1.2212049 0.43288445 -0.15142787 0
1.2000524 0.42538649 -0.11884244 0
1.2085966 0.42841518 -0.089643553 0
1.2055918 0.42735004 -0.059547745 0
1.2054696 0.42730677 -0.029736476 0
1.2024374 0.42623192 3.6420508e-05 0
0.8416782 0.32248065 -0.19159089 0
0.95539629 0.36605057 -0.19270571 0
1.0959792 0.41991356 -0.19289403 0
1.21157 0.464201 -0.18233714 0
1.2195334 0.46725211 -0.15263431 0
1.2088162 0.46314588 -0.12082945 0
1.2039599 0.46128526 -0.090134472 0
1.2076005 0.46268013 -0.06020458 0
1.2043068 0.46141821 -0.029985521 0
1.2021761 0.46060184 3.6753001e-05 0
0.82986504 0.34220868 -0.19080713 0
0.9435755 0.38909912 -0.19224103 0
1.0821984 0.44626254 -0.19238964 0
1.2026508 0.49593312 -0.18282034 0
1.2111195 0.49942532 -0.1531101 0
1.2036512 0.49634564 -0.12152666 0
1.2108742 0.49932417 -0.091566429 0
1.1985482 0.49424136 -0.060355958 0
1.2067921 0.49764085 -0.03035046 0
1.2133856 0.50035977 3.7469847e-05 0
0.82269877 0.36380404 -0.19120972 0
0.92648739 0.40970021 -0.19080551 0
1.0699553 0.47314292 -0.19227484 0
1.2083608 0.53434688 -0.18567933 0
1.2026631 0.53182733 -0.15368901 0
1.199947 0.53062624 -0.12246583 0
1.2035093 0.53220153 -0.091995955 0
1.1996387 0.53048998 -0.061065666 0
1.2082177 0.53428364 -0.03071567 0
1.2087398 0.53451449 3.7730963e-05 0
0.81588548 0.38568792 -0.19182755 0
0.92230266 0.43599376 -0.19214872 0
1.0573988 0.49985683 -0.19222426 0
1.2301632 0.58152658 -0.19122399 0
1.4790554 0.69918364 -0.19120352 0
1.8559703 0.87735999 -0.1916181 0
3.1333945 1.481228 -0.24229641 0
4.7004461 2.2220094 -0.24204622 0
9.4091387 4.4479175 -0.24197881 0
0.81356752 0.41001776 -0.19365397 0
0.91272497 0.45999062 -0.19251075 0
1.0365316 0.52238607 -0.19076689 0
1.2178541 0.61376816 -0.19165754 0
1.453609 0.73258275 -0.19024363 0
1.8362072 0.92540264 -0.19192795 0
3.0879817 1.5562657 -0.24174508 0
4.6394253 2.3381548 -0.24186581 0
9.2827644 4.6782818 -0.2416884 0
0.78659767 0.4216418 -0.189707 0
0.9046405 0.48491654 -0.19332542 0
1.0299933 0.55210972 -0.192067 0
1.201393 0.64398551 -0.19156387 0
1.4472589 0.77577758 -0.19191398 0
1.8014983 0.96566135 -0.19078679 0
3.0340524 1.6263502 -0.24065998 0
4.5718231 2.450645 -0.24148913 0
9.170701 4.915792 -0.24192396 0
0.77739656 0.44231445 -0.19011974 0
0.89205903 0.50755382 -0.19331273 0
1.0194262 0.58002174 -0.19276494 0
1.1810418 0.67197603 -0.19096233 0
1.2075843 0.68707788 -0.16237971 0
1.2198259 0.69404292 -0.13099846 0
3.0000038 1.7069088 -0.24129955 0
4.5068789 2.5642738 -0.24140039 0
9.0445957 5.1460934 -0.24194655 0
0.77676964 0.46828738 -0.19279552 0
0.88323176 0.53246969 -0.19425026 0
0.99982911 0.6027621 -0.19187486 0
1.1689434 0.70471525 -0.19182092 0
1.1453719 0.69050485 -0.15630789 0
1.2043462 0.7260583 -0.13126223 0
2.9604418 1.7847472 -0.24166363 0
4.450417 2.6830015 -0.24192618 0
8.9081593 5.370419 -0.24184567 0
0.75710863 0.48289064 -0.19087982 0
0.85472298 0.54514992 -0.19094552 0
0.98758531 0.62989068 -0.19251479 0
1.1434275 0.72928822 -0.1905936 0
1.1382922 0.72601283 -0.15779211 0
1.1811166 0.75332665 -0.13076104 0
2.9091051 1.855453 -0.24121891 0
4.3751354 2.7905002 -0.24158546 0
8.7624846 5.5887909 -0.24164331 0
0.75103587 0.50612015 -0.19250801 0
0.842381 0.56767726 -0.19132818 0
0.97085118 0.65425277 -0.19241035 0
1.122712 0.75659126 -0.190263 0
1.1448649 0.77151996 -0.16135116 0
1.1585186 0.78072107 -0.13039918 0
2.8700187 1.9340943 -0.24194852 0
4.3094616 2.9041293 -0.2419294 0
8.6176748 5.8074174 -0.24161501 0
0.73528826 0.52296054 -0.19179367 0
0.82598919 0.58747 -0.19091201 0
0.94703448 0.67356128 -0.19099855 0
1.1138518 0.79220706 -0.19208871 0
1.1510589 0.81866997 -0.16508357 0
1.1378254 0.80925786 -0.13032748 0
2.8219306 2.0070474 -0.2420879 0
4.2303457 3.0087574 -0.24167401 0
8.4734459 6.0265865 -0.24175884 0
0.71732247 0.53794378 -0.19058824 0
0.81634051 0.61220062 -0.19219199 0
0.93390816 0.70036852 -0.19185516 0
1.0848048 0.81353086 -0.19055972 0
1.0967768 0.82250905 -0.16022475 0
1.1036749 0.8276822 -0.12876759 0
1.1014912 0.8260445 -0.096252672 0
1.0937017 0.82020295 -0.063644081 0
1.1043783 0.8282097 -0.032095578 0
1.1026595 0.82692069 3.9347669e-05 0
1.0911703 0.8183046 0.031789646 0
1.0966775 0.82243466 0.063895695 0
1.098177 0.82355911 0.096041821 0
0.70256448 0.55511522 -0.19032903 0
0.80049604 0.63249362 -0.19215882 0
0.91501158 0.72297549 -0.19166072 0
1.0521748 0.83135188 -0.18845367 0
1.1057088 0.87365049 -0.16469838 0
1.1018677 0.87061554 -0.13107868 0
1.0984271 0.86789709 -0.097867891 0
1.0938456 0.86427712 -0.064901151 0
1.10067 0.86966926 -0.032615323 0
1.102816 0.87136483 4.0125258e-05 0
1.1021416 0.87083203 0.032739174 0
1.1013473 0.87020439 0.065426566 0
1.101638 0.87043405 0.098234527 0
0.68979031 0.5738759 -0.19073151 0
0.78011626 0.64902323 -0.19113797 0
0.90080696 0.74943268 -0.19258602 0
1.0284793 0.85565066 -0.18801773 0
1.0951489 0.9111169 -0.16649771 0
1.1014416 0.91635209 -0.1337367 0
1.0981554 0.91361809 -0.099866375 0
1.0905581 0.90729749 -0.066043742 0
1.0941998 0.91032726 -0.033093877 0
1.1020362 0.91684687 4.0925803e-05 0
1.1003717 0.91546202 0.033362322 0
1.0967672 0.91246325 0.066501401 0
1.1094029 0.9229756 0.10097203 0
0.68492889 0.59971094 -0.1935109 0
0.76807606 0.67251307 -0.19228548 0
0.87833214 0.76905125 -0.19186971 0
0.99804568 0.87387019 -0.18642676 0
1.1035241 0.96622515 -0.17142396 0
1.0985167 0.96184075 -0.13628575 0
1.0933104 0.95728219 -0.10159061 0
1.0964694 0.96004814 -0.06784752 0
1.1011063 0.96410817 -0.034027882 0
1.1076282 0.96981859 4.2029085e-05 0
1.0975431 0.96098828 0.034001105 0
1.1035005 0.96620446 0.06836652 0
1.0969012 0.96042615 0.10200792 0
1.0978099 0.96122181 0.13628209 0
1.0892826 0.95375556 0.27278417 0
0.66650552 0.61396974 -0.19262251 0
0.74113363 0.68271548 -0.18979383 0
0.85556853 0.78813028 -0.19118145 0
0.96287292 0.88697666 -0.18397979 0
1.056462 0.97318882 -0.16787533 0
1.1026391 1.015726 -0.13993309 0
1.0953194 1.0089833 -0.10411041 0
1.0962404 1.0098317 -0.069388345 0
1.0897558 1.0038582 -0.034449119 0
1.102501 1.0155989 4.2793545e-05 0
1.0978402 1.0113055 0.034789953 0
1.1004149 1.0136771 0.069738187 0
1.0960773 1.0096816 0.10426797 0
1.1040034 1.0169829 0.14019269 0
1.042685 0.96049768 0.26710066 0
0.65127021 0.63104427 -0.192761 0
0.73017502 0.70749861 -0.19149931 0
0.84255648 0.81638992 -0.1928167 0
0.84257877 0.8164115 -0.16487937 0
0.83718014 0.81118053 -0.13624062 0
0.84452552 0.8182978 -0.10976264 0
0.84182411 0.81568033 -0.081946321 0
0.83553296 0.8095845 -0.05416254 0
0.83556175 0.80961239 -0.027050929 0
0.84067053 0.81456256 3.3417946e-05 0
0.84122163 0.8150965 0.027301082 0
0.83666009 0.81067663 0.054302268 0
0.83654416 0.81056434 0.081499189 0
1.0908685 1.0569903 0.14186721 0
1.0026165 0.97147912 0.19627753 0
1.0045491 0.97335166 0.22997029 0
0.98137951 0.95090163 0.25746223 0
0.62575167 0.63770682 -0.18991141 0
0.71411574 0.72775912 -0.19204363 0
0.82069409 0.83637369 -0.19258302 0
0.84321737 0.85932726 -0.16919456 0
0.836842 0.85283011 -0.13964397 0
0.83353496 0.84945989 -0.1110853 0
0.83698624 0.8529771 -0.083544426 0
0.84468776 0.86082572 -0.056146502 0
0.84429568 0.86042619 -0.028027818 0
0.83952236 0.85556161 3.4219782e-05 0
0.8421669 0.8582567 0.028025839 0
0.84637588 0.86254609 0.056327861 0
0.83431023 0.85024995 0.083345667 0
0.84359473 0.85971183 0.11249534 0
1.091168 1.112015 0.18217357 0
0.94188333 0.95987821 0.18907054 0
0.95010018 0.96825206 0.22302882 0
0.95573926 0.9739989 0.25710291 0
0.61068279 0.65460014 -0.19029164 0
0.69613802 0.74620098 -0.19221252 0
0.79753304 0.85488784 -0.19215001 0
0.8398596 0.9002583 -0.17302489 0
0.8432554 0.9038983 -0.14447506 0
0.84083444 0.90130323 -0.11505309 0
0.84453624 0.90527129 -0.086551078 0
0.84102499 0.9015075 -0.057397164 0
0.84074914 0.9012118 -0.028656039 0
0.8367359 0.89690995 3.5017765e-05 0
0.84405494 0.90475535 0.0288394 0
0.83460462 0.89462543 0.057029005 0
0.83971465 0.90010291 0.086127572 0
0.83842629 0.89872193 0.11479437 0
1.1027734 1.1820797 0.18903188 0
0.92506891 0.99159545 0.19065838 0
0.92884791 0.99564618 0.2238676 0
0.92557931 0.9921425 0.25564438 0
0.59517574 0.67115712 -0.19067724 0
0.6790778 0.76577026 -0.1927771 0
0.76985598 0.86813736 -0.19070004 0
0.84652478 0.9545939 -0.17930448 0
0.83351362 0.93992174 -0.14682366 0
0.84273708 0.95032263 -0.11855762 0
0.84177411 0.94923675 -0.088695042 0
0.8420524 0.94955063 -0.05908405 0
0.84535372 0.95327336 -0.029623596 0
0.8411361 0.94851726 3.6192272e-05 0
0.83475214 0.94131839 0.029323962 0
0.83649224 0.94328058 0.058766048 0
0.84334773 0.9510113 0.088933773 0
0.83689666 0.94373661 0.11780863 0
1.0986674 1.2389256 0.1936264 0
1.089379 1.2284514 0.23083963 0
0.57325095 0.68026268 -0.18909346 0
0.65160775 0.77324677 -0.19045845 0
0.72814119 0.86406702 -0.18570986 0
0.84938252 1.0079411 -0.18523918 0
0.83805662 0.99450099 -0.15199691 0
0.83479577 0.9906314 -0.12091932 0
0.84187829 0.99903607 -0.091333725 0
0.83777314 0.99416459 -0.060525116 0
0.8382175 0.99469185 -0.030243643 0
0.84030181 0.99716532 3.7227423e-05 0
0.84895021 1.0074282 0.03070615 0
0.83699173 0.99323726 0.060542982 0
0.84008825 0.99691188 0.091214322 0
0.83931011 0.99598849 0.12164824 0
0.8425495 0.99983257 0.15288746 0
1.1003058 1.3057055 0.24006167 0
0.5620333 0.70216638 -0.1911781 0
0.63449442 0.79269439 -0.19124328 0
0.72455269 0.9052071 -0.19056086 0
0.84387028 1.0542744 -0.18977964 0
0.85034537 1.062364 -0.1590381 0
0.84047621 1.050034 -0.12554091 0
0.84139162 1.0511777 -0.094129212 0
0.8370524 1.0457566 -0.062360018 0
0.83732212 1.0460936 -0.031154037 0
0.84023988 1.0497389 3.8386221e-05 0
0.83595103 1.0443807 0.031179445 0
0.83586341 1.0442712 0.062347978 0
0.84011984 1.0495888 0.094064064 0
0.83582789 1.0442268 0.12492364 0
0.83138621 1.0386776 0.1555692 0
1.0935502 1.3662076 0.24603255 0
1.0961775 1.3694899 0.28840286 0
0.54466963 0.7168231 -0.19136488 0
0.61653614 0.81140441 -0.19194193 0
0.7000429 0.92130512 -0.19016972 0
0.72473931 0.95380729 -0.1683483 0
0.72684026 0.95657229 -0.1404099 0
0.72639209 0.95598245 -0.11206859 0
0.72383136 0.95261234 -0.083640493 0
0.73076963 0.96174365 -0.056232452 0
0.73065758 0.96159619 -0.028079454 0
0.72935587 0.95988303 3.4416324e-05 0
0.72576767 0.95516074 0.027960064 0
0.73857403 0.97201473 0.056902852 0
0.73090482 0.96192151 0.084527165 0
0.73256487 0.96410632 0.11309068 0
0.72930002 0.95980948 0.14095484 0
0.72976679 0.96042383 0.16958636 0
0.72500128 0.95415211 0.19702005 0
0.72555602 0.95488214 0.22595324 0
0.52600026 0.72976887 -0.1912159 0
0.58695942 0.81434315 -0.1890725 0
0.68338728 0.94812644 -0.19208461 0
0.72706878 1.0087298 -0.17474766 0
0.95186758 1.320614 -0.19025859 0
0.8528502 1.183238 -0.13614276 0
0.84062994 1.1662837 -0.10050623 0
0.83759993 1.1620799 -0.066688679 0
0.83804834 1.1627021 -0.033323668 0
0.8393032 1.164443 4.0978197e-05 0
0.84142625 1.1673886 0.033540189 0
0.8398205 1.1651608 0.066947669 0
0.84136933 1.1673095 0.1006772 0
0.8372311 1.1615682 0.1337319 0
0.84155947 1.1675733 0.16829358 0
0.84674889 1.1747731 0.20359653 0
1.1042813 1.5320717 0.3104991 0
0.50696141 0.7421366 -0.19104305 0
0.57328701 0.83923018 -0.19143033 0
0.65251935 0.95521772 -0.19012421 0
0.77114666 1.1288753 -0.19212824 0
0.92424262 1.3529912 -0.19150145 0
1.1584167 1.6957968 -0.19169244 0
0.8485288 1.2421544 -0.10516545 0
0.83723468 1.225621 -0.069100484 0
0.83829993 1.2271805 -0.034554251 0
0.83966655 1.2291811 4.2497089e-05 0
0.83858263 1.2275943 0.034650836 0
0.84481013 1.2367107 0.069811411 0
0.8393082 1.2286564 0.10410804 0
0.83809304 1.2268776 0.1387715 0
0.8407613 1.2307836 0.17429054 0
0.84162426 1.2320468 0.20977435 0
1.0954589 1.6036333 0.31929713 0
1.0992419 1.6091713 0.36717087 0
0.48906937 0.7562288 -0.19143221 0
0.55531043 0.85865474 -0.19260283 0
0.62652445 0.96877021 -0.18961394 0
0.73237526 1.1324432 -0.18952917 0
0.89035672 1.3767236 -0.19161887 0
1.1050724 1.7087301 -0.18994114 0
1.4784964 2.2861412 -0.1903334 0
0.85142779 1.3165295 -0.072991095 0
0.83503079 1.2911754 -0.035751373 0
0.83863467 1.2967479 4.4087279e-05 0
0.83932972 1.2978226 0.036023721 0
0.84213382 1.3021585 0.072283074 0
0.83773935 1.2953635 0.1079344 0
0.84717548 1.3099543 0.14570338 0
0.83675754 1.2938454 0.18017267 0
0.84484845 1.3063561 0.21872635 0
0.83630401 1.2931441 0.25319278 0
1.1023138 1.7044646 0.38244444 0
0.4675869 0.76465422 -0.19051693 0
0.52659339 0.86114866 -0.19012047 0
0.60481358 0.98906368 -0.19053748 0
0.70759231 1.1571399 -0.19061285 0
0.85000765 1.3900346 -0.19042492 0
1.0668782 1.7446873 -0.19088414 0
1.4300306 2.3385575 -0.19163141 0
0.84997779 1.3899857 -0.075850129 0
0.85248744 1.3940898 -0.037993114 0
0.83711141 1.368945 4.580896e-05 0
0.8404119 1.3743424 0.03754697 0
0.8418684 1.3767242 0.075218804 0
0.84147924 1.3760879 0.11285507 0
0.83950472 1.3728588 0.15029553 0
0.84138215 1.375929 0.18858591 0
0.83813304 1.3706157 0.22587176 0
0.8410964 1.3754618 0.2650694 0
1.099285 1.7976826 0.39700878 0
0.45367244 0.7857821 -0.19286674 0
0.50776875 0.87947947 -0.19127719 0
0.58099484 1.0063106 -0.19097428 0
0.67805701 1.1744268 -0.19058073 0
0.81159854 1.405727 -0.18970811 0
1.0247369 1.7748927 -0.19129828 0
1.364167 2.3628016 -0.19073597 0
1.3656112 2.3653033 -0.12715092 0
0.85052532 1.4731501 -0.039550126 0
0.83810014 1.451629 4.785274e-05 0
0.837511 1.4506087 0.03904064 0
0.84019852 1.4552635 0.078326337 0
0.83859462 1.4524856 0.11734739 0
0.84077513 1.4562622 0.15705308 0
0.84275615 1.4596934 0.19708864 0
0.84026945 1.4553864 0.23627146 0
0.84047067 1.455735 0.27636313 0
0.84102982 1.4567034 0.31691656 0
0.42949694 0.78925133 -0.19099678 0
0.48574713 0.8926177 -0.19140729 0
0.55768269 1.0248077 -0.19175239 0
0.64770198 1.1902288 -0.19043161 0
0.77899474 1.4314948 -0.19047159 0
0.98238164 1.8052422 -0.19183594 0
1.2874861 2.3659077 -0.1883036 0
1.2914165 2.3731303 -0.12577948 0
1.2898955 2.3703353 -0.062743127 0
0.84587544 1.554396 5.0520583e-05 0
0.83845448 1.5407591 0.040884331 0
0.8420313 1.5473319 0.082111724 0
0.83962512 1.5429102 0.12290167 0
0.83810353 1.5401142 0.16376281 0
0.84189701 1.547085 0.20595372 0
0.84173858 1.5467941 0.24758306 0
0.84016639 1.543905 0.28898403 0
0.84151846 1.5463895 0.33170205 0
0.41477954 0.81025434 -0.19348446 0
0.46627599 0.91085047 -0.19273211 0
0.52852333 1.0324481 -0.19062531 0
0.61968029 1.2105193 -0.19111477 0
0.74682802 1.458897 -0.19154862 0
0.94054937 1.8373234 -0.19266112 0
1.2379276 2.4182391 -0.18992148 0
1.2448326 2.4317281 -0.12717952 0
1.245877 2.4337683 -0.06356962 0
1.2449452 2.4319477 7.7996461e-05 0
0.85150433 1.6633778 0.0435539 0
0.83757842 1.6361741 0.085677177 0
0.83993036 1.6407685 0.12896696 0
0.83847886 1.6379331 0.1718591 0
0.84057599 1.6420298 0.21570015 0
0.84027672 1.641445 0.25925601 0
0.83911234 1.6391705 0.30275506 0
0.83882469 1.6386087 0.3468315 0
0.39018977 0.81210679 -0.19151416 0
0.44220635 0.92036957 -0.19232346 0
0.50554359 1.0521942 -0.19185421 0
0.58770531 1.2231984 -0.19071397 0
0.71245307 1.4828374 -0.19226977 0
0.88360113 1.8390501 -0.19044304 0
1.1830236 2.4622416 -0.19097151 0
1.786097 3.7174258 -0.1920028 0
4.5021219 9.3703222 -0.2417063 0
0.84866947 1.7663463 0.091342852 0
0.8384186 1.7450111 0.13545418 0
0.84226179 1.75301 0.18164515 0
0.84244007 1.753381 0.22746196 0
0.83903623 1.7462965 0.27238518 0
0.83594894 1.7398709 0.3173565 0
0.83850408 1.7451891 0.36479494 0
0.36498061 0.8114776 -0.1891332 0
0.41910678 0.93181866 -0.19244425 0
0.47709841 1.0607541 -0.1911585 0
0.55395573 1.2316344 -0.18978894 0
0.67118591 1.4922774 -0.19123638 0
0.84196275 1.871973 -0.19159079 0
1.1161401 2.4815638 -0.19022468 0
1.6904968 3.7585566 -0.19186237 0
4.2623978 9.476778 -0.24160039 0
1.0680944 2.3747418 0.12137202 0
0.84790182 1.8851777 0.1446272 0
0.84638333 1.8818016 0.19271554 0
0.84111208 1.8700817 0.23977095 0
0.83857322 1.864437 0.28741983 0
0.84093988 1.8696989 0.33705869 0
0.83151174 1.8487369 0.38193101 0
0.34640005 0.82521641 -0.19023706 0
0.3944042 0.93957496 -0.19192918 0
0.45215607 1.0771551 -0.19199646 0
0.52733588 1.2562534 -0.19147071 0
0.63281083 1.5075226 -0.19108245 0
0.79722816 1.8992081 -0.19225764 0
1.0571463 2.5184016 -0.19094242 0
1.5960892 3.8023062 -0.19197817 0
4.0246472 9.5877724 -0.24176346 0
0.99483579 2.3699615 0.11980627 0
0.84961766 2.0240138 0.15358441 0
0.84013265 2.0014179 0.20272939 0
0.84088951 2.0032208 0.25403926 0
0.8408218 2.0030596 0.30542099 0
0.83838618 1.9972574 0.35612619 0
0.83710754 1.9942113 0.40749004 0
0.32738119 0.83859241 -0.19135489 0
0.36843002 0.94373971 -0.19081965 0
0.42129943 1.0791656 -0.19039886 0
0.49595726 1.2704029 -0.19165842 0
0.59718668 1.5297037 -0.1919224 0
0.74801701 1.9160582 -0.19199109 0
0.99958622 2.560457 -0.192157 0
1.4963452 3.8329136 -0.19155571 0
3.7763028 9.6730633 -0.24143393 0
0.92243123 2.3628232 0.11823084 0
0.85138649 2.180841 0.16380192 0
0.84153229 2.1555991 0.21612664 0
0.83967555 2.1508431 0.26998651 0
0.84340942 2.1604075 0.32606339 0
0.83784264 2.146148 0.37878335 0
0.83829015 2.1472945 0.43430895 0
0.30751961 0.85046059 -0.19223075 0
0.34517685 0.95460349 -0.19119386 0
0.39272302 1.0860947 -0.18981217 0
0.4375996 1.2102032 -0.18085262 0
0.43552849 1.2044754 -0.14969121 0
0.42866611 1.1854972 -0.11766653 0
0.93236488 2.578501 -0.1916841 0
1.4003326 3.8726885 -0.19171615 0
3.5381796 9.7850094 -0.24192213 0
0.85714787 2.3704846 0.11749429 0
0.84846413 2.3464692 0.17457817 0
0.84099603 2.3258157 0.2309913 0
0.83632976 2.312911 0.28758901 0
0.84038889 2.3241367 0.34746259 0
0.84221601 2.3291895 0.40720782 0
0.84038824 2.3241348 0.46563816 0
0.28884828 0.86660296 -0.19416977 0
0.32128608 0.96392298 -0.19137537 0
0.36530823 1.0959982 -0.18987115 0
0.40152887 1.2046674 -0.17845407 0
0.4022392 1.2067986 -0.14867088 0
0.40446201 1.2134674 -0.11939148 0
0.86758804 2.6029389 -0.1918119 0
1.3007265 3.9024415 -0.1915029 0
3.2874522 9.863019 -0.24172245 0
0.7907778 2.3724928 0.11656745 0
0.8481887 2.5447369 0.18767686 0
0.84080029 2.5225701 0.24834554 0
0.8379252 2.5139444 0.30985737 0
0.8436169 2.5310206 0.37508947 0
0.83951372 2.5187101 0.43649799 0
0.83481294 2.5046067 0.49741581 0
0.26235712 0.85877401 -0.19087121 0
0.29765466 0.97431344 -0.19188565 0
0.33914641 1.1101285 -0.19077544 0
0.38016918 1.2444084 -0.18286152 0
0.37913302 1.2410167 -0.15165924 0
0.38082087 1.2465415 -0.12166119 0
0.7274068 2.381022 -0.17405042 0
0.72832841 2.3840387 -0.11605191 0
0.72842622 2.3843586 -0.057966731 0
0.72447556 2.3714271 7.0789247e-05 0
0.72266847 2.3655119 0.05764984 0
0.72569877 2.3754311 0.11577503 0
0.84208953 2.7564132 0.20165652 0
0.83234751 2.7245245 0.2660749 0
0.83605146 2.7366488 0.33459952 0
0.83484948 2.7327142 0.40172929 0
0.8355189 2.7349052 0.47016081 0
0.23981109 0.86226237 -0.1902407 0
0.27625191 0.99328858 -0.1941877 0
0.31057352 1.116695 -0.19049618 0
0.36511779 1.3128139 -0.19149834 0
