# .PCD v0.7 - Point Cloud Data file format
VERSION 0.7
FIELDS x y z intensity
SIZE 4 4 4 4
TYPE F F F F
COUNT 1 1 1 1
WIDTH 1322
HEIGHT 1
VIEWPOINT 0 0 0 1 0 0 0
POINTS 1322
DATA ascii
-1.2303988 -0.062150959 -0.14398411 0
-1.2473636 -0.063007906 -0.11657779 0
-1.2431663 -0.062795885 -0.087019853 0
-1.2388349 -0.062577091 -0.057747059 0
-1.2389905 -0.062584952 -0.028843811 0
-1.2440791 -0.062841989 3.5561734e-05 0
-1.2543126 -0.063358918 0.029272258 0
-1.2371337 -0.06249116 0.057738643 0
-1.2302082 -0.062141333 0.086183481 0
-1.2393271 -0.062601954 0.11589817 0
-0.90787017 -0.06886065 -0.193533 0
-1.0177 -0.077191085 -0.19223538 0
-1.1307495 -0.085765727 -0.18637399 0
-1.1240942 -0.085260943 -0.15842797 0
-1.25143 -0.094919182 -0.14667888 0
-1.2462633 -0.094527282 -0.11666077 0
-1.2409608 -0.094125107 -0.087004058 0
-1.2414011 -0.0941585 -0.057959002 0
-1.2405487 -0.094093844 -0.02892616 0
-1.2344569 -0.093631797 3.5342982e-05 0
-1.2450495 -0.094435222 0.029102437 0
-1.2479132 -0.094652437 0.058334656 0
-1.242206 -0.094219543 0.08716283 0
-1.2457293 -0.094486788 0.11668275 0
-0.89402348 -0.090548009 -0.19100761 0
-1.0197248 -0.10327923 -0.19304876 0
-1.15815 -0.11729912 -0.19131728 0
-1.2402726 -0.12561664 -0.17519301 0
-1.2340997 -0.12499143 -0.14497119 0
-1.2228873 -0.12385582 -0.11472867 0
-1.2358029 -0.12516393 -0.086836256 0
-1.2447004 -0.12606509 -0.058243047 0
-1.2339995 -0.12498128 -0.028837819 0
-1.2465506 -0.12625247 3.5769066e-05 0
-1.2416894 -0.12576012 0.029088825 0
-1.2374561 -0.12533137 0.057975229 0
-1.2461505 -0.12621196 0.087635219 0
-1.9896096 -0.20151058 0.18677609 0
-2.0037303 -0.20294073 0.23549718 0
-1.9401847 -0.19650476 0.27417168 0
-1.4716911 -0.14905503 0.27870002 0
-0.90333116 -0.11458279 -0.19355242 0
-1.011116 -0.12825474 -0.19197068 0
-1.1532766 -0.14628705 -0.1910613 0
-1.2033548 -0.15263923 -0.17046812 0
-1.2362473 -0.15681145 -0.14564201 0
-1.2334917 -0.15646191 -0.11605708 0
-1.2375066 -0.15697119 -0.08720658 0
-1.2416283 -0.15749399 -0.058266737 0
-1.2371007 -0.1569197 -0.028993614 0
-1.2419707 -0.15753743 3.5740359e-05 0
-1.2422519 -0.15757309 0.029185874 0
-1.2438549 -0.15777643 0.058442969 0
-1.2365799 -0.15685365 0.087212801 0
-1.6082335 -0.20399594 0.26652828 0
-1.4796549 -0.18768643 0.28101572 0
-0.8983199 -0.13705863 -0.19315837 0
-1.006344 -0.1535401 -0.19173934 0
-1.1398377 -0.17390755 -0.18950173 0
-1.2094872 -0.1845341 -0.17194186 0
-1.6251323 -0.24795 -0.19213255 0
-2.5536137 -0.38961044 -0.24111347 0
-3.4250064 -0.52256072 -0.24221109 0
-5.1297283 -0.78265387 -0.24157631 0
-10.279622 -1.5683845 -0.24177162 0
-1.3499005 -0.20595726 0.19198264 0
-1.3483706 -0.20572384 0.22425097 0
-1.3616163 -0.20774478 0.25951102 0
-0.88571972 -0.1580997 -0.19124614 0
-1.0090919 -0.18012144 -0.19306757 0
-1.1483536 -0.20497945 -0.19171657 0
-1.2023281 -0.21461383 -0.17163949 0
-1.6273378 -0.29047745 -0.19319852 0
-2.5500901 -0.45518741 -0.24178852 0
-3.3981721 -0.60656881 -0.24131919 0
-5.1195426 -0.91383094 -0.24210569 0
-10.233171 -1.8266062 -0.24168642 0
-1.335953 -0.2384657 0.19079426 0
-1.3298019 -0.23736773 0.22208843 0
-1.3205827 -0.23572211 0.25274384 0
-0.88112283 -0.18033023 -0.19117543 0
-1.0012897 -0.20492354 -0.19250306 0
-1.1419035 -0.23370151 -0.19156349 0
-1.1949394 -0.2445558 -0.17141126 0
-1.6178297 -0.33110434 -0.19300036 0
-2.5273168 -0.51723963 -0.24079035 0
-3.394006 -0.69461584 -0.2421912 0
-5.0861006 -1.0409193 -0.24168965 0
-10.188791 -2.0852337 -0.24180426 0
-1.2515706 -0.25614589 0.21003591 0
-1.2355022 -0.25285739 0.23760618 0
-0.87285984 -0.20171118 -0.19042657 0
-0.99563617 -0.23008384 -0.19247128 0
-1.1351783 -0.26233095 -0.19148502 0
-1.1863884 -0.27416518 -0.17112274 0
-1.6020776 -0.37022778 -0.19217473 0
-2.5138276 -0.58092612 -0.24082538 0
-3.3680296 -0.77832562 -0.24166238 0
-5.0526328 -1.1676245 -0.24142279 0
-10.127199 -2.3403175 -0.24166737 0
-0.87732351 -0.22620481 -0.19258459 0
-0.99003083 -0.25526473 -0.19257183 0
-1.1264191 -0.2904304 -0.19118306 0
-1.3314298 -0.34328938 -0.19323148 0
-1.5829762 -0.40814689 -0.19105828 0
-1.9904388 -0.51320505 -0.19186439 0
-3.3446772 -0.86237526 -0.24147162 0
-5.0252199 -1.2956783 -0.24159855 0
-10.060266 -2.59389 -0.24155548 0
-0.87382334 -0.24897701 -0.19313416 0
-0.98116052 -0.27956042 -0.1921577 0
-1.1207751 -0.31934056 -0.19153211 0
-1.3092473 -0.3730416 -0.19131762 0
-1.5817093 -0.45067376 -0.19221701 0
-1.972365 -0.56198263 -0.19142847 0
-3.3220196 -0.94653744 -0.24148367 0
-4.9851665 -1.4204152 -0.24131961 0
-9.9993124 -2.8490872 -0.24174152 0
-0.86268115 -0.26951364 -0.19211376 0
-0.97545099 -0.30474454 -0.19248456 0
-1.1097119 -0.34668949 -0.19107595 0
-1.3021719 -0.40681675 -0.19172306 0
-1.5724081 -0.49124229 -0.19253209 0
-1.9582154 -0.61177385 -0.19149277 0
-3.2997541 -1.0308894 -0.24167953 0
-4.9525342 -1.547241 -0.2415534 0
-9.9303503 -3.1023805 -0.24189028 0
-0.85619783 -0.29139543 -0.19224656 0
-0.96340221 -0.32788101 -0.19167891 0
-1.0977197 -0.37359414 -0.19057396 0
-1.2874441 -0.43816429 -0.191122 0
-1.5672338 -0.53338695 -0.19348527 0
-1.9474202 -0.66277832 -0.19201179 0
-3.2678564 -1.1121711 -0.24132234 0
-4.9115176 -1.671569 -0.24153364 0
-9.8480644 -3.3516564 -0.24186943 0
-0.84955025 -0.31326571 -0.19246794 0
-0.95147121 -0.35084835 -0.19100611 0
-1.0900911 -0.40196347 -0.19095005 0
-1.2721754 -0.46910578 -0.19055229 0
-1.5323095 -0.56502837 -0.19087344 0
-1.9248327 -0.70976853 -0.19148998 0
-3.2374904 -1.1938019 -0.24122813 0
-4.8657045 -1.7941943 -0.24143071 0
-9.7608919 -3.5992606 -0.24188253 0
-0.82718599 -0.32895792 -0.18922196 0
-0.95084441 -0.37813479 -0.19273479 0
-1.0828905 -0.43064725 -0.19153166 0
-1.2608695 -0.50142652 -0.19069371 0
-1.5229121 -0.60563642 -0.19154592 0
-1.9091766 -0.7592473 -0.19177777 0
-3.2141809 -1.2782254 -0.24181812 0
-4.8289342 -1.9203857 -0.24193414 0
-9.6597281 -3.8415108 -0.24170128 0
-0.8187359 -0.34977224 -0.18924811 0
-0.92810661 -0.3964965 -0.19009377 0
-1.0793606 -0.46111378 -0.19290434 0
-1.2460383 -0.53232014 -0.19042195 0
-1.5088327 -0.64458859 -0.19176023 0
-1.8897254 -0.80730975 -0.19180955 0
-3.1881182 -1.3619963 -0.24236633 0
-4.7715945 -2.0384734 -0.24156208 0
-9.5651236 -4.0863171 -0.2418377 0
-0.81367457 -0.37215909 -0.1901888 0
-0.92466486 -0.42292389 -0.19151412 0
-1.0510268 -0.48071942 -0.18994839 0
-1.2383294 -0.56638801 -0.19136751 0
-1.4982227 -0.68525821 -0.19254856 0
-1.8760926 -0.85808861 -0.19256271 0
-3.1402347 -1.4362829 -0.24140508 0
-4.7238097 -2.1605797 -0.24182659 0
-9.4549637 -4.3245182 -0.2417351 0
-0.8101691 -0.39557001 -0.19164202 0
-0.91875345 -0.448587 -0.1925734 0
-1.0440261 -0.50975215 -0.19094755 0
-1.2185191 -0.59494942 -0.19056591 0
-1.4806734 -0.72294784 -0.19257683 0
-1.8439648 -0.90032709 -0.19153646 0
-3.1111279 -1.5190272 -0.24203771 0
-4.6659036 -2.2781558 -0.24172872 0
-9.346056 -4.5632687 -0.24181826 0
-0.80414093 -0.41807443 -0.19265071 0
-0.90494722 -0.47048381 -0.19210733 0
-1.0265995 -0.5337311 -0.19016349 0
-1.2062477 -0.62713045 -0.1910613 0
-1.4530097 -0.75542259 -0.19139767 0
-1.8284719 -0.95062608 -0.19235811 0
-3.0658474 -1.59394 -0.24156782 0
-4.6043344 -2.3938024 -0.24159212 0
-9.2238512 -4.7954979 -0.24171099 0
-0.79353923 -0.43834257 -0.19269994 0
-0.89213896 -0.49280801 -0.19196761 0
-1.01512 -0.56074142 -0.19059794 0
-1.1795056 -0.65154624 -0.18936992 0
-1.4305195 -0.79020363 -0.19100143 0
-1.7966809 -0.99246734 -0.19158782 0
-3.0196931 -1.6680461 -0.24117157 0
-4.5454774 -2.5108731 -0.24175204 0
-9.1070213 -5.0306211 -0.24189962 0
-0.78467029 -0.45965618 -0.19330187 0
-0.87443495 -0.51223987 -0.19087921 0
-1.001931 -0.58692646 -0.19084217 0
-1.1724278 -0.68680269 -0.19095579 0
-1.4102819 -0.82613647 -0.19102249 0
-1.7758992 -1.0403135 -0.19211043 0
-2.9810116 -1.7462627 -0.24152532 0
-4.4817715 -2.6254008 -0.24181101 0
-8.9809303 -5.2609873 -0.2420003 0
-0.76142627 -0.47223958 -0.19045129 0
-0.8594346 -0.53302479 -0.1904808 0
-0.99201357 -0.61525077 -0.19184981 0
-1.1641176 -0.72199035 -0.19250888 0
-1.390685 -0.86250836 -0.19125578 0
-1.7436868 -1.0814415 -0.19151746 0
-2.9407084 -1.8238391 -0.24191242 0
-4.4057598 -2.7324696 -0.24135393 0
-8.8420134 -5.4838519 -0.24190952 0
-0.75480145 -0.49492857 -0.19185761 0
-0.85164994 -0.55843282 -0.19181815 0
-0.9809258 -0.64319986 -0.19278361 0
-1.1329471 -0.74288136 -0.19039422 0
-1.3724065 -0.89989656 -0.19180448 0
-1.7288051 -1.1335896 -0.19296391 0
-2.8866348 -1.8927866 -0.2413172 0
-4.3425221 -2.8474219 -0.24174961 0
-8.7011337 -5.7053943 -0.2419178 0
-0.74212587 -0.51385158 -0.19187112 0
-0.83213097 -0.57617158 -0.19063647 0
-0.96883792 -0.6708281 -0.19367377 0
-1.1178516 -0.77400595 -0.19107948 0
-1.3465457 -0.93235481 -0.19141802 0
-1.6916236 -1.1712885 -0.1920523 0
-2.8498859 -1.9732749 -0.24233137 0
-4.2605977 -2.9500587 -0.24125707 0
-8.5428543 -5.9151139 -0.24159096 0
-0.72528481 -0.52975398 -0.19091302 0
-0.82044083 -0.59925675 -0.19136235 0
-0.94437218 -0.6897772 -0.19220196 0
-1.1078757 -0.80920154 -0.19280392 0
-1.3279715 -0.96996129 -0.19219647 0
-1.6568406 -1.21017 -0.19151001 0
-2.7966552 -2.0427001 -0.24211185 0
-4.1945238 -3.0637147 -0.24181716 0
-8.4033365 -6.137866 -0.2419493 0
-0.70624465 -0.54369473 -0.1894529 0
-0.80710012 -0.62133718 -0.19184732 0
-0.92699999 -0.71364081 -0.19227086 0
-1.0916618 -0.84040391 -0.1936119 0
-1.3076844 -1.0067066 -0.19287625 0
-1.6240512 -1.2502581 -0.19130644 0
-2.7358186 -2.1061401 -0.24137014 0
-4.1095781 -3.1637137 -0.24144644 0
-8.2440557 -6.3465958 -0.24189822 0
-0.70808214 -0.57413602 -0.19377127 0
-0.78962213 -0.64025128 -0.1914729 0
-0.90755123 -0.73587203 -0.192028 0
-1.0661424 -0.86446291 -0.19289404 0
-1.2772776 -1.0356582 -0.19218557 0
-1.6031069 -1.2998512 -0.19264247 0
-2.6820776 -2.1747158 -0.24139443 0
-4.0365596 -3.272974 -0.24193273 0
-8.0767422 -6.5488849 -0.24176177 0
-0.68522656 -0.58486754 -0.19149528 0
-0.77789658 -0.66396493 -0.19263181 0
-0.89043969 -0.76002491 -0.19240488 0
-1.0384847 -0.88638705 -0.19187652 0
-1.247329 -1.0646439 -0.19166139 0
-1.5630049 -1.3340855 -0.19180857 0
-2.6313043 -2.2459204 -0.24184945 0
-3.9463127 -3.3683314 -0.24154213 0
-7.9117913 -6.7530212 -0.24184905 0
-0.67460483 -0.60587996 -0.19273902 0
-0.76284891 -0.68513423 -0.19312611 0
-0.86205381 -0.77423275 -0.19043303 0
-1.0223116 -0.91816437 -0.19310848 0
-1.2223469 -1.0978212 -0.19201908 0
-1.5300362 -1.3741649 -0.19195777 0
-2.5780568 -2.3154192 -0.24224947 0
-3.8604527 -3.4671719 -0.24156608 0
-7.7253776 -6.9383602 -0.24142687 0
-0.65314025 -0.61707437 -0.19099532 0
-0.74402446 -0.70294011 -0.19279057 0
-0.84739554 -0.80060309 -0.19159763 0
-0.99860418 -0.94346213 -0.19306676 0
-1.1921453 -1.1263161 -0.19167928 0
-1.4895982 -1.4073439 -0.19127983 0
-1.9850359 -1.8754239 -0.19091268 0
-3.7812107 -3.5724154 -0.24217239 0
-7.5551996 -7.1380081 -0.24166174 0
-0.63358217 -0.62960035 -0.18986236 0
-0.72568536 -0.72112471 -0.19269328 0
-0.82251728 -0.817348 -0.19057618 0
-0.95139408 -0.94541496 -0.18849257 0
-1.1626544 -1.1553475 -0.19156504 0
-1.4581453 -1.4489813 -0.19187592 0
-1.9270221 -1.9149115 -0.1899209 0
-3.6838093 -3.6606579 -0.24177453 0
-7.3793168 -7.3329406 -0.24187878 0
-0.62490708 -0.65313262 -0.19214135 0
-0.71017891 -0.74225593 -0.19348863 0
-0.80689573 -0.84334129 -0.19182733 0
-0.94122326 -0.98373604 -0.19133566 0
-1.1371355 -1.1884972 -0.19224159 0
-1.4169551 -1.4809556 -0.19131334 0
-1.8789456 -1.9638129 -0.19000706 0
-3.5888937 -3.7509954 -0.24168155 0
-7.1897378 -7.5144811 -0.24180438 0
-0.60562122 -0.66582471 -0.19131756 0
-0.68815225 -0.75655997 -0.1926285 0
-0.77979285 -0.85731041 -0.1904674 0
-0.9189195 -1.0102673 -0.1919239 0
-1.1112022 -1.2216645 -0.19300856 0
-1.3827747 -1.5202334 -0.19181782 0
-1.8519421 -2.0360396 -0.19241162 0
-3.4923384 -3.8395042 -0.24162817 0
-6.9994001 -7.6951957 -0.24185789 0
-0.59089953 -0.6835196 -0.19205554 0
-0.66576594 -0.77012092 -0.1917419 0
-0.76357079 -0.88325602 -0.19188902 0
-0.89405084 -1.0341882 -0.1921203 0
-1.0671713 -1.2344443 -0.19071156 0
-1.3428668 -1.5533533 -0.19165929 0
-1.7926621 -2.0736516 -0.19162923 0
-3.3882596 -3.9193497 -0.24119447 0
-6.8025956 -7.8688631 -0.241843 0
-0.57870501 -0.70459014 -0.19381024 0
-0.64293885 -0.78279674 -0.19079694 0
-0.73918355 -0.89997745 -0.19140773 0
-0.8723017 -1.0620527 -0.19314526 0
-1.0448107 -1.2720873 -0.19239189 0
-1.3073329 -1.5917158 -0.19226024 0
-1.7365917 -2.1143508 -0.19127901 0
-3.2910447 -4.0069423 -0.24139637 0
-6.6002097 -8.0359468 -0.24178141 0
-0.54922748 -0.70420194 -0.18983002 0
-0.62295181 -0.79872894 -0.19078727 0
-0.71186233 -0.91272718 -0.1902376 0
-0.83964056 -1.0765604 -0.1918686 0
-1.0007849 -1.2831745 -0.19018799 0
-1.2627507 -1.6190587 -0.19165231 0
-1.6841087 -2.1593103 -0.19144009 0
-3.1974208 -4.0996308 -0.24204154 0
-6.3938766 -8.1980247 -0.24172555 0
-0.54072338 -0.7305879 -0.19320242 0
-0.60667288 -0.81969428 -0.1920765 0
-0.69627428 -0.94075745 -0.19235586 0
-0.81238955 -1.0976444 -0.19191088 0
-0.97560722 -1.3181727 -0.1916647 0
-1.2204839 -1.6490332 -0.19149315 0
-1.6296083 -2.2018135 -0.19150087 0
-3.0906029 -4.175808 -0.24185669 0
-6.1882038 -8.3610716 -0.2418509 0
-0.51469827 -0.73342574 -0.19045693 0
-0.58451307 -0.83290917 -0.19165517 0
-0.67051482 -0.95545852 -0.19184043 0
-0.7786777 -1.1095866 -0.19050205 0
-0.94574583 -1.3476524 -0.19241911 0
-1.1771852 -1.6774448 -0.19128135 0
-1.5798111 -2.2511716 -0.1922646 0
-2.9867885 -4.2560616 -0.24206167 0
-5.9759955 -8.5155697 -0.24188003 0
-0.49937114 -0.75120568 -0.19174005 0
-0.56470549 -0.84948832 -0.19212933 0
-0.64425397 -0.96915334 -0.19126441 0
-0.75060081 -1.1291313 -0.19054443 0
-0.90960246 -1.368318 -0.19203071 0
-1.1384279 -1.7125409 -0.19194584 0
-1.5119091 -2.2743697 -0.19092605 0
-2.8777235 -4.328969 -0.24200031 0
-5.7504148 -8.6503677 -0.24150951 0
-0.47686881 -0.7581768 -0.19038673 0
-0.55239928 -0.87826318 -0.19542184 0
-0.61691278 -0.98083365 -0.19043607 0
-0.72518051 -1.1529691 -0.19141753 0
-0.87307698 -1.3881106 -0.19165492 0
-1.0933648 -1.7383479 -0.19168434 0
-1.461108 -2.323025 -0.1918537 0
-2.7675054 -4.400075 -0.24199352 0
-5.5399604 -8.8080187 -0.2419302 0
-0.46497101 -0.78239137 -0.19345878 0
-0.52169889 -0.87784547 -0.19233784 0
-0.59452552 -1.0003884 -0.19125849 0
-0.69808769 -1.1746491 -0.19203058 0
-0.83297592 -1.4016211 -0.19055691 0
-1.0438819 -1.7565056 -0.19072065 0
-1.3987826 -2.3536854 -0.19140926 0
-2.6537459 -4.4653707 -0.241824 0
-5.3171797 -8.9470425 -0.24198562 0
-0.44045565 -0.78562129 -0.19144768 0
-0.49737182 -0.88714015 -0.19156289 0
-0.57121927 -1.0188586 -0.19197224 0
-0.6636312 -1.1836896 -0.19070961 0
-0.80334347 -1.4328883 -0.19199012 0
-1.0022128 -1.7876027 -0.19128972 0
-1.3445905 -2.3982868 -0.19221538 0
-2.5454304 -4.5401716 -0.24231854 0
-5.09127 -9.0810728 -0.24205816 0
-0.421058 -0.79755366 -0.19170472 0
-0.47691354 -0.90335333 -0.19240344 0
-0.54205376 -1.0267397 -0.19081868 0
-0.63473958 -1.202302 -0.1910664 0
-0.76186138 -1.4430919 -0.19072014 0
-0.95599198 -1.8108073 -0.19113003 0
-1.2816108 -2.4275835 -0.19190982 0
-1.9209785 -3.6386518 -0.19155385 0
-4.8529925 -9.1923733 -0.24168307 0
-0.39854714 -0.80338043 -0.19062674 0
-0.45108351 -0.90928179 -0.19118039 0
-0.5188629 -1.0459096 -0.1918865 0
-0.60188705 -1.2132674 -0.19033426 0
-0.73027998 -1.4720784 -0.19205394 0
-0.91421562 -1.8428508 -0.1920156 0
-1.2203366 -2.4599209 -0.19197023 0
-1.8283942 -3.685627 -0.19153646 0
-4.6179399 -9.3087168 -0.24160063 0
-0.37957698 -0.8162486 -0.191346 0
-0.4270463 -0.91832739 -0.19075535 0
-0.49002966 -1.0537678 -0.19099832 0
-0.57187521 -1.2297699 -0.19059813 0
-0.69212949 -1.4883667 -0.19183886 0
-0.86799359 -1.8665478 -0.19214089 0
-1.1591891 -2.4927392 -0.19218695 0
-1.7347918 -3.7305248 -0.19153333 0
-4.3819613 -9.4230413 -0.24162047 0
-0.36360487 -0.83647829 -0.19387524 0
-0.40575239 -0.93343925 -0.19170612 0
-0.46312669 -1.0654296 -0.1909326 0
-0.54051089 -1.2434531 -0.19054385 0
-0.65406817 -1.5046933 -0.1917544 0
-0.81557435 -1.8762406 -0.19095893 0
-1.0921096 -2.512414 -0.19151773 0
-1.6464444 -3.7876694 -0.19227251 0
-4.1470675 -9.5403891 -0.24186856 0
-0.34260064 -0.84592116 -0.19399793 0
-0.38012916 -0.93858343 -0.19073148 0
-0.43631354 -1.0773093 -0.19102722 0
-0.50803471 -1.2543972 -0.19019546 0
-0.61173606 -1.510448 -0.19045953 0
-0.76535779 -1.8897581 -0.19030808 0
-1.0295017 -2.5419602 -0.19172825 0
-1.5483515 -3.8230612 -0.1920242 0
-3.9020514 -9.6346226 -0.24168384 0
-0.32262838 -0.85823357 -0.19489209 0
-0.35560149 -0.94594634 -0.19034326 0
-0.40773898 -1.0846388 -0.19044149 0
-0.47729522 -1.2696675 -0.19062357 0
-0.5793609 -1.5411755 -0.19242901 0
-0.72220665 -1.9211638 -0.19157416 0
-0.96245944 -2.5602677 -0.19121601 0
-1.4528093 -3.8646624 -0.19221079 0
-3.6590133 -9.7334518 -0.24176939 0
-0.29697856 -0.85489392 -0.19237036 0
-0.33187678 -0.95535326 -0.19048999 0
-0.38143766 -1.0980211 -0.19103998 0
-0.44539279 -1.2821249 -0.1907454 0
-0.5368762 -1.5454724 -0.19121276 0
-0.67620635 -1.9465535 -0.19234285 0
-0.89935285 -2.5889118 -0.19159903 0
-1.3525857 -3.8936052 -0.19189131 0
-3.4186289 -9.8409967 -0.24222039 0
-0.27657691 -0.86606878 -0.19325264 0
-0.30672982 -0.96048915 -0.18990996 0
-0.34987855 -1.0956045 -0.18902293 0
-0.41183636 -1.2896183 -0.19025323 0
-0.5006066 -1.567592 -0.19232503 0
-0.62730914 -1.9643464 -0.19247524 0
-0.8292734 -2.5967743 -0.19057125 0
-1.2554233 -3.9312136 -0.19212203 0
-3.1692436 -9.9241219 -0.24222045 0
-0.25507948 -0.87428766 -0.19358838 0
-0.28369132 -0.97235501 -0.19077966 0
-0.32492766 -1.113693 -0.19066812 0
-0.38225332 -1.3101773 -0.19180188 0
-0.45886436 -1.5727626 -0.19147752 0
-0.5758695 -1.973799 -0.1919162 0
-0.76682854 -2.6283131 -0.19140451 0
-1.1531762 -3.9525239 -0.19168004 0
-2.9138763 -9.9873419 -0.24189146 0
-0.22996682 -0.86921066 -0.19111817 0
-0.26028365 -0.98379982 -0.1916752 0
-0.29736814 -1.123969 -0.19108161 0
-0.34499973 -1.3040031 -0.18956293 0
-0.41804725 -1.5801024 -0.19102572 0
-0.5235523 -1.9788823 -0.19106479 0
-0.69952965 -2.6440277 -0.19120228 0
-1.0559846 -3.9913287 -0.1922082 0
-2.6599753 -10.053967 -0.24180211 0
-0.2067273 -0.86954039 -0.18998295 0
-0.23593523 -0.99239534 -0.19212852 0
-0.26784739 -1.1266248 -0.19032325 0
-0.31419894 -1.3215898 -0.19090591 0
-0.38007954 -1.598698 -0.19205295 0
-0.47545359 -1.9998622 -0.19187072 0
-0.63532603 -2.6723208 -0.19202757 0
-0.94812918 -3.9880395 -0.19083665 0
-2.4039986 -10.111746 -0.2416555 0
-0.18394887 -0.87081891 -0.18918768 0
-0.210246 -0.99531019 -0.1916045 0
-0.23963867 -1.1344559 -0.19056374 0
-0.27932796 -1.3223461 -0.1899363 0
-0.33851635 -1.6025454 -0.19142781 0
-0.4255904 -2.0147564 -0.19220792 0
-0.56589031 -2.6789398 -0.19141592 0
-0.84673625 -4.008472 -0.19073102 0
-2.1499925 -10.178122 -0.24186794 0
-0.16586958 -0.89653772 -0.19380392 0
-0.18591054 -1.0048605 -0.19247843 0
-0.21123375 -1.1417345 -0.19083005 0
-0.24696366 -1.3348573 -0.1907773 0
-0.29673779 -1.6038903 -0.19063312 0
-0.37189656 -2.0101292 -0.19081026 0
-0.49954289 -2.7000673 -0.19196352 0
-0.94631523 -5.1149058 -0.24216375 0
-1.8930781 -10.232231 -0.2419413 0
-0.14297281 -0.89903235 -0.19350152 0
-0.16103001 -1.0125784 -0.19311677 0
-0.18193796 -1.1440504 -0.19038902 0
-0.21291354 -1.3388289 -0.19051625 0
-0.25788888 -1.62164 -0.19190806 0
-0.32090181 -2.0178738 -0.19071588 0
-0.42959192 -2.7013319 -0.19122168 0
-0.81625605 -5.1327276 -0.2419551 0
-1.6340295 -10.274997 -0.24190032 0
-0.11817891 -0.88685751 -0.19017854 0
-0.13444641 -1.0089347 -0.19171365 0
-0.15459612 -1.1601454 -0.19235691 0
-0.17987256 -1.349829 -0.1913746 0
-0.2174105 -1.6315274 -0.19236754 0
-0.26996109 -2.0258861 -0.19076842 0
-0.36290419 -2.7233648 -0.19207183 0
-0.68666959 -5.153018 -0.24201754 0
-1.3752849 -10.320638 -0.24208055 0
-0.096938647 -0.90045881 -0.19250926 0
-0.10926177 -1.0149277 -0.19226719 0
-0.1250069 -1.1611836 -0.19194479 0
-0.14510356 -1.3478605 -0.19051561 0
-0.17528938 -1.6282552 -0.19139913 0
-0.21928638 -2.0369415 -0.19122741 0
-0.29326266 -2.7241039 -0.19154093 0
-0.55590284 -5.1637568 -0.24178594 0
-1.1136721 -10.344851 -0.24191216 0
-0.073525608 -0.89455497 -0.1907896 0
-0.083269507 -1.0131048 -0.19146274 0
-0.094928816 -1.1549587 -0.19045912 0
-0.11156589 -1.3573749 -0.19140148 0
-0.13478455 -1.6398665 -0.1923029 0
-0.16804183 -2.0444937 -0.19147725 0
-0.22571199 -2.7461421 -0.19262861 0
-0.42545182 -5.1762919 -0.2417931 0
-0.85185039 -10.364102 -0.24178259 0
-0.051022757 -0.89772725 -0.19113065 0
-0.05780872 -1.0171239 -0.19188546 0
-0.065376669 -1.1502793 -0.18935506 0
-0.07731054 -1.3602514 -0.19147098 0
-0.082806662 -1.4569539 -0.1705538 0
-0.082115009 -1.4447844 -0.1350743 0
-0.081859961 -1.4402969 -0.10085283 0
-0.08214128 -1.4452466 -0.067391537 0
-0.082397528 -1.4497552 -0.033761855 0
-0.081660114 -1.4367807 4.1083968e-05 0
-0.0284208 -0.90078336 -0.19156758 0
-0.032085821 -1.0169444 -0.19163778 0
-0.036509555 -1.1571524 -0.19027421 0
-0.041923244 -1.3287367 -0.1868265 0
-0.041480299 -1.3146977 -0.15372953 0
-0.04194608 -1.3294604 -0.12415404 0
-0.041444425 -1.3135607 -0.091875978 0
-0.041334972 -1.3100917 -0.06102122 0
-0.041689593 -1.3213314 -0.03073683 0
-0.041862369 -1.3268074 3.7897058e-05 0
-0.0056503112 -0.89585519 -0.19042856 0
-0.0064330953 -1.0199653 -0.19211529 0
-0.007294606 -1.1565577 -0.19008559 0
-0.0076878108 -1.2189001 -0.17130113 0
-0.0076248497 -1.2089176 -0.141293 0
-0.0076996828 -1.2207824 -0.11395051 0
-0.0076666945 -1.2155521 -0.084980242 0
-0.0077296481 -1.2255335 -0.057055421 0
-0.0077047758 -1.2215899 -0.028403075 0
-0.0076940949 -1.2198964 3.4826768e-05 0
0.016939428 -0.89490104 -0.19025603 0
0.019188415 -1.0137138 -0.1909682 0
0.022023501 -1.1634899 -0.19125541 0
0.022837285 -1.2064817 -0.16958287 0
0.022960236 -1.2129772 -0.14179005 0
0.022822082 -1.2056786 -0.11255861 0
0.022767471 -1.2027935 -0.084101669 0
0.022824936 -1.2058293 -0.056147024 0
0.022852387 -1.2072796 -0.028074818 0
0.022944642 -1.2121534 3.4611221e-05 0
0.040390663 -0.91404438 -0.1944807 0
0.045044273 -1.019356 -0.19218406 0
0.05102795 -1.1547672 -0.18997276 0
0.053463224 -1.2098776 -0.17019567 0
0.05331292 -1.2064762 -0.14114246 0
0.05344747 -1.2095212 -0.11300729 0
0.053750839 -1.2163864 -0.085119858 0
0.05377404 -1.2169114 -0.056708179 0
0.053275194 -1.2056226 -0.028058616 0
0.05352537 -1.211284 3.461395e-05 0
0.062716044 -0.902318 -0.19226125 0
0.070239618 -1.0105623 -0.19079961 0
0.080423951 -1.1570879 -0.19062777 0
0.083318576 -1.1987339 -0.16887011 0
0.084358089 -1.2136897 -0.14219014 0
0.084517501 -1.2159833 -0.11377412 0
0.084142931 -1.2105942 -0.084836125 0
0.08379326 -1.2055633 -0.05625999 0
0.083825834 -1.206032 -0.028108433 0
0.084169038 -1.2109698 3.465464e-05 0
0.083686493 -0.88173664 -0.18826596 0
0.096832171 -1.0202419 -0.19302714 0
0.1096221 -1.154999 -0.19067872 0
0.1150571 -1.2122631 -0.17113061 0
0.11346444 -1.1954826 -0.1403479 0
0.11577254 -1.2198012 -0.11436833 0
0.11497544 -1.2114028 -0.085069068 0
0.11442778 -1.2056326 -0.056380045 0
0.11482328 -1.2097996 -0.028254788 0
0.11501993 -1.2118716 3.4752458e-05 0
0.10743998 -0.89207333 -0.19099121 0
0.12193711 -1.0124429 -0.19207269 0
0.13758942 -1.142404 -0.18911247 0
0.14478686 -1.2021642 -0.17016666 0
0.14537215 -1.2070239 -0.14208831 0
0.14626469 -1.2144346 -0.11417492 0
0.14633836 -1.2150463 -0.085557036 0
0.14607567 -1.2128651 -0.056872565 0
0.14605528 -1.212696 -0.028399481 0
0.14529733 -1.2064025 3.468974e-05 0
0.13112132 -0.89734328 -0.19276664 0
0.14794219 -1.0124587 -0.19272269 0
0.16746598 -1.146072 -0.19035873 0
0.17626172 -1.2062666 -0.17132249 0
0.17555231 -1.2014117 -0.14190406 0
0.17758407 -1.2153163 -0.11464268 0
0.17662577 -1.208758 -0.085400961 0
0.1775118 -1.2148217 -0.057156187 0
0.1774189 -1.214186 -0.028530153 0
0.17647651 -1.2077366 3.4845078e-05 0
0.15420419 -0.89656192 -0.19337328 0
0.17138328 -0.99644327 -0.19043685 0
0.19634891 -1.1415964 -0.19037786 0
0.20763186 -1.207197 -0.1721441 0
0.20952372 -1.2181965 -0.14446518 0
0.20779094 -1.2081219 -0.1144223 0
0.20800212 -1.2093498 -0.08578635 0
0.20698363 -1.203428 -0.056847814 0
0.20834666 -1.2113529 -0.028578045 0
0.20991541 -1.2204738 3.5354162e-05 0
0.17584586 -0.88768923 -0.19235556 0
0.19853541 -1.0022286 -0.1924389 0
0.22335294 -1.1275101 -0.18890868 0
0.24216448 -1.2224729 -0.17513821 0
0.24023594 -1.2127374 -0.14449082 0
0.24085201 -1.2158474 -0.11569288 0
0.24042711 -1.2137024 -0.086498015 0
0.23858972 -1.204427 -0.05716126 0
0.24076696 -1.2154181 -0.028808136 0
0.23946802 -1.2088609 3.5181642e-05 0
0.19760919 -0.88039488 -0.1917946 0
0.22610638 -1.0073565 -0.19445734 0
0.25250858 -1.1249845 -0.18949296 0
0.27166298 -1.2103218 -0.17432415 0
0.27196133 -1.211651 -0.14513297 0
0.2700659 -1.2032064 -0.11510197 0
0.27311251 -1.2167797 -0.087180823 0
0.27123189 -1.2084012 -0.057656396 0
0.27040848 -1.2047327 -0.028707489 0
0.27276126 -1.2152148 3.5555589e-05 0
0.21870315 -0.87092215 -0.19087267 0
0.2508918 -0.99910414 -0.19402489 0
0.28091004 -1.118643 -0.18955866 0
0.30507851 -1.2148871 -0.17603466 0
0.3024646 -1.2044779 -0.14514196 0
0.30315384 -1.2072227 -0.11618113 0
0.30239967 -1.2042193 -0.086800084 0
0.30440482 -1.2122043 -0.058185898 0
0.30618843 -1.2193071 -0.02922962 0
0.30376977 -1.2096753 3.5606496e-05 0
0.24048644 -0.86469066 -0.19077645 0
0.27359194 -0.98372442 -0.1923179 0
0.31337386 -1.1267639 -0.19221382 0
0.3373166 -1.2128521 -0.17691706 0
0.33517995 -1.2051697 -0.14619815 0
0.33718941 -1.2123948 -0.1174605 0
0.33748421 -1.2134548 -0.088051699 0
0.33470675 -1.2034683 -0.058153536 0
0.33689174 -1.2113246 -0.029232785 0
0.33731821 -1.2128581 3.5939327e-05 0
0.26297584 -0.86079931 -0.19132136 0
0.29841426 -0.97679991 -0.19237535 0
0.33714503 -1.1035774 -0.18964963 0
0.36823061 -1.2053298 -0.17711906 0
0.36769128 -1.2035644 -0.14708236 0
0.37105584 -1.2145777 -0.11854155 0
0.36941412 -1.2092038 -0.088391639 0
0.3722474 -1.2184781 -0.059313934 0
0.3720305 -1.2177681 -0.029605458 0
0.37449351 -1.2258302 3.6592141e-05 0
0.28744394 -0.86238968 -0.19322574 0
0.3213883 -0.96422964 -0.19143626 0
0.36961094 -1.1089072 -0.19210751 0
0.42809242 -1.2843634 -0.19025989 0
0.52037185 -1.5612204 -0.19233368 0
0.65264106 -1.9580545 -0.19265044 0
0.86378181 -2.5915194 -0.19097039 0
1.303481 -3.9107056 -0.19190843 0
3.2874928 -9.8631401 -0.24172541 0
0.30888167 -0.85422742 -0.19308217 0
0.34583515 -0.95642406 -0.1915585 0
0.39756864 -1.0994956 -0.19215417 0
0.46363696 -1.2822108 -0.19161344 0
0.56255138 -1.5557635 -0.193349 0
0.69947022 -1.9344193 -0.19200081 0
0.93253702 -2.5789769 -0.19171947 0
1.4036348 -3.8818209 -0.19216825 0
3.5384517 -9.7857618 -0.24194072 0
0.32677066 -0.83702856 -0.19099802 0
0.36737412 -0.94103503 -0.19027278 0
0.42166567 -1.0801038 -0.19056439 0
0.4949539 -1.2678328 -0.19127069 0
0.59557575 -1.5255774 -0.19140467 0
0.74444115 -1.9068985 -0.19107328 0
0.99835455 -2.557302 -0.19192024 0
1.5006392 -3.8439128 -0.19210541 0
3.7782378 -9.6780205 -0.24155766 0
0.34912983 -0.83171946 -0.19173621 0
0.39685106 -0.94540405 -0.1931199 0
0.45034769 -1.0728471 -0.19122858 0
0.52252072 -1.2447823 -0.18972237 0
0.63265818 -1.5071589 -0.19103634 0
0.79255307 -1.8880707 -0.19113019 0
1.0611749 -2.5279987 -0.19167006 0
1.5939201 -3.7971387 -0.19171725 0
4.0253425 -9.5894299 -0.24180524 0
0.36665997 -0.81521142 -0.19000345 0
0.42073593 -0.93544084 -0.19319232 0
0.47861075 -1.0641166 -0.19176446 0
0.5577181 -1.2399994 -0.19107795 0
0.66995871 -1.4895489 -0.19088672 0
0.84299493 -1.8742681 -0.19182567 0
1.1253028 -2.5019355 -0.19178627 0
1.6906178 -3.7588255 -0.19187611 0
4.2668605 -9.4867001 -0.24185334 0
0.39196256 -0.81579655 -0.1923843 0
0.44029269 -0.91638666 -0.19149119 0
0.49965033 -1.0399284 -0.18961771 0
0.58855987 -1.224977 -0.19099128 0
0.70607316 -1.4695588 -0.19054803 0
0.88819367 -1.8486086 -0.19143286 0
1.1886675 -2.4739885 -0.1918826 0
1.7829196 -3.7108128 -0.19166124 0
4.5039463 -9.3741198 -0.24180424 0
0.40640941 -0.79390359 -0.18957999 0
0.46490952 -0.90818113 -0.19216728 0
0.5312739 -1.0378212 -0.19161738 0
0.61574411 -1.2028302 -0.18990083 0
0.7504617 -1.4659952 -0.19248059 0
0.93633914 -1.8290989 -0.19179872 0
1.2477857 -2.4374967 -0.19143392 0
1.8792357 -3.6710076 -0.19199392 0
4.7374249 -9.2543602 -0.24172233 0
0.42803556 -0.78656584 -0.1903469 0
0.48795503 -0.89667493 -0.1922773 0
0.55267102 -1.0155983 -0.19002919 0
0.65070307 -1.1957438 -0.19131397 0
0.77805847 -1.4297743 -0.19024265 0
0.97943795 -1.7998329 -0.19126111 0
1.3111753 -2.4094393 -0.19176832 0
1.9689493 -3.6181767 -0.19176881 0
4.9717655 -9.1362066 -0.24183674 0
0.45270178 -0.78410089 -0.1924541 0
0.51092225 -0.88494146 -0.19246511 0
0.58878738 -1.0198076 -0.1935357 0
0.67569041 -1.1703278 -0.18991557 0
0.81846195 -1.4176148 -0.19131242 0
1.0300314 -1.7840631 -0.19228669 0
1.3734971 -2.378962 -0.1920405 0
2.5935831 -4.4922085 -0.24148636 0
5.1989431 -9.0048151 -0.24175513 0
0.47392154 -0.77501333 -0.19309795 0
0.52674377 -0.86139464 -0.19017477 0
0.60375488 -0.9873324 -0.19020396 0
0.70838833 -1.1584417 -0.1908273 0
0.85721254 -1.4018168 -0.19203901 0
1.0711809 -1.7517236 -0.19165398 0
1.4240214 -2.3287306 -0.19082615 0
2.711585 -4.4343095 -0.24197581 0
5.4308009 -8.8810968 -0.24203645 0
0.4961907 -0.76724023 -0.19421965 0
0.54944277 -0.84958178 -0.19056769 0
0.64086795 -0.99094898 -0.1939549 0
0.73810613 -1.1413046 -0.19101223 0
0.89224201 -1.3796388 -0.19202462 0
1.1109016 -1.7177436 -0.19094308 0
1.4880425 -2.3009019 -0.19156229 0
2.8157837 -4.3539362 -0.24139114 0
5.6469531 -8.7316628 -0.24177112 0
0.50938982 -0.7456916 -0.19195819 0
0.57601023 -0.84321666 -0.19233966 0
0.65666795 -0.96129084 -0.191333 0
0.7640233 -1.1184475 -0.19035348 0
0.92001778 -1.3468065 -0.19062607 0
1.1596614 -1.6976188 -0.19189841 0
1.5451071 -2.2618697 -0.19149838 0
2.9349589 -4.2964625 -0.24223444 0
5.8725963 -8.5968456 -0.24206512 0
0.52132529 -0.72328281 -0.1895164 0
0.59436834 -0.82462221 -0.19145907 0
0.68252331 -0.94692773 -0.19184177 0
0.79823321 -1.1074628 -0.19185171 0
0.95646453 -1.3269918 -0.19117741 0
1.1990895 -1.6636078 -0.19141386 0
1.6047742 -2.2264519 -0.1918678 0
3.0350711 -4.210835 -0.24164866 0
6.0810413 -8.4367914 -0.24180298 0
0.54638624 -0.7190823 -0.19196799 0
0.61467046 -0.80894905 -0.19136111 0
0.70182878 -0.92365545 -0.19065486 0
0.82725757 -1.0887285 -0.19216207 0
0.99656862 -1.3115536 -0.19251561 0
1.2490346 -1.6438165 -0.19270249 0
1.6530623 -2.175545 -0.19101542 0
3.1461921 -4.1406074 -0.24209832 0
6.2946625 -8.2842131 -0.2419063 0
0.56090039 -0.70075095 -0.19079274 0
0.64076328 -0.80052626 -0.19313277 0
0.7313199 -0.91366154 -0.19234067 0
0.84824371 -1.0597383 -0.19076321 0
1.021764 -1.2765228 -0.19109811 0
1.2841495 -1.6043296 -0.19181187 0
1.7077955 -2.133604 -0.19105662 0
3.2493608 -4.0595312 -0.24207588 0
6.5072317 -8.1296949 -0.24211296 0
0.58563858 -0.6949628 -0.19317967 0
0.6480884 -0.76907039 -0.18942976 0
0.75113928 -0.89135832 -0.19157544 0
0.88338822 -1.0482949 -0.19265538 0
1.0540812 -1.2508521 -0.19117694 0
1.3133543 -1.558525 -0.19023804 0
1.7666072 -2.0963888 -0.19165574 0
3.3404515 -3.964031 -0.2413317 0
6.7091727 -7.9616084 -0.242073 0
0.59512204 -0.67109656 -0.19066003 0
0.67267615 -0.75855142 -0.1909598 0
0.7740472 -0.87286371 -0.19173825 0
0.90256798 -1.0177917 -0.19117513 0
1.0814269 -1.2194841 -0.19049364 0
1.3649651 -1.5392194 -0.19202551 0
1.8202037 -2.0525746 -0.19178902 0
3.4459651 -3.8858843 -0.24179204 0
6.8997316 -7.7805657 -0.2417862 0
0.60951012 -0.6533432 -0.18992625 0
0.69597375 -0.74602491 -0.19216718 0
0.79445916 -0.8515929 -0.19140941 0
0.92759615 -0.99430442 -0.19110006 0
1.1128371 -1.192867 -0.19066252 0
1.4067048 -1.5078683 -0.19248229 0
1.8589723 -1.9926608 -0.1905141 0
3.5451343 -3.8000836 -0.24194366 0
7.0947123 -7.6049304 -0.24181572 0
0.63668865 -0.64885277 -0.1932307 0
0.71414149 -0.72778535 -0.19205055 0
0.81642616 -0.83202422 -0.19158152 0
0.95490396 -0.97314763 -0.19160487 0
1.1434244 -1.1652697 -0.19080342 0
1.439116 -1.4666107 -0.19179116 0
1.9122669 -1.9488013 -0.19087438 0
3.6426384 -3.7122319 -0.24212663 0
7.2756758 -7.4146795 -0.2415283 0
0.64591104 -0.62585151 -0.19117481 0
0.73470849 -0.71189123 -0.19268827 0
0.82930768 -0.80355257 -0.18978475 0
0.97948557 -0.94906652 -0.19166988 0
1.1722353 -1.13583 -0.19076665 0
1.4786192 -1.432699 -0.19217554 0
1.9605155 -1.8996294 -0.19084394 0
3.7401328 -3.6239786 -0.24245016 0
7.4712129 -7.2391858 -0.24187711 0
0.66448766 -0.61211097 -0.19203934 0
0.74287301 -0.68431777 -0.19023925 0
0.85777247 -0.79016048 -0.19167393 0
0.99775022 -0.91910481 -0.19064392 0
1.2012564 -1.1065701 -0.19088364 0
1.5081389 -1.3892633 -0.19139403 0
2.534014 -2.334276 -0.24085875 0
3.8153281 -3.5145936 -0.24149752 0
7.6561685 -7.0526886 -0.24202512 0
0.67839003 -0.59398568 -0.1916635 0
0.76352274 -0.66852629 -0.19114557 0
0.86462235 -0.75704718 -0.18887484 0
1.0313472 -0.90302831 -0.1926472 0
1.2216234 -1.0696307 -0.18976977 0
1.5302466 -1.3398554 -0.18984763 0
2.5968146 -2.2737224 -0.24129653 0
3.897898 -3.4129267 -0.24119478 0
7.8329916 -6.8584213 -0.24206573 0
0.69251353 -0.57614154 -0.19148451 0
0.77735573 -0.64672661 -0.19046162 0
0.90850478 -0.75583696 -0.19423176 0
1.0559447 -0.87850058 -0.19303869 0
1.2491288 -1.0392215 -0.18990758 0
1.5647699 -1.3018214 -0.18999387 0
2.6651158 -2.2172618 -0.24236594 0
4.0027866 -3.3301468 -0.24240708 0
7.9984846 -6.6543961 -0.24191275 0
0.70572001 -0.55760854 -0.19118388 0
0.80885267 -0.63909644 -0.19416483 0
0.9173854 -0.72485107 -0.19215794 0
1.0687484 -0.84444708 -0.19142215 0
1.2742777 -1.0068414 -0.18980718 0
1.5991975 -1.2635694 -0.19024128 0
2.7167709 -2.1465943 -0.24205942 0
4.0767789 -3.2211738 -0.24188755 0
8.1570425 -6.4451008 -0.24171147 0
0.71783054 -0.53832477 -0.19072323 0
0.8157087 -0.61172682 -0.19204323 0
0.93503755 -0.70121545 -0.19208717 0
1.0945197 -0.8208164 -0.19226627 0
1.3117683 -0.9837383 -0.1916322 0
1.6216272 -1.2161117 -0.18919796 0
2.7629266 -2.0720096 -0.2414355 0
4.1551776 -3.1161046 -0.24179579 0
8.3255692 -6.243619 -0.24195872 0
0.73725462 -0.52435911 -0.19230658 0
0.82499558 -0.58676326 -0.19068235 0
0.95155418 -0.67677581 -0.19191009 0
1.1069807 -0.7873202 -0.19090378 0
1.3140748 -0.9346121 -0.18846314 0
1.6723893 -1.1894568 -0.19155689 0
2.8203905 -2.0059521 -0.24195577 0
4.2330918 -3.0107105 -0.2418309 0
8.4761667 -6.0285215 -0.24183647 0
0.73765934 -0.49710572 -0.18907928 0
0.85155839 -0.57386184 -0.19341263 0
0.95928264 -0.64645678 -0.19011761 0
1.1340483 -0.76423067 -0.19218412 0
1.3456552 -0.90683174 -0.18964945 0
1.6932485 -1.1410735 -0.1905867 0
2.8640313 -1.9300594 -0.24144377 0
4.3099103 -2.9044313 -0.24195457 0
8.6219025 -5.810266 -0.24173352 0
0.7690627 -0.49051502 -0.19389364 0
0.86556864 -0.5520674 -0.19336845 0
0.99024981 -0.63159013 -0.1930342 0
1.1536146 -0.73578566 -0.19229165 0
1.3809285 -0.88076854 -0.1914268 0
1.7397525 -1.1096296 -0.19260745 0
2.9078109 -1.8546277 -0.24111161 0
4.3726344 -2.7889051 -0.24144737 0
8.7637701 -5.5896101 -0.24167874 0
0.77359641 -0.46637434 -0.1920079 0
0.87458748 -0.52725834 -0.19234911 0
1.0016707 -0.60387236 -0.19222827 0
1.1589471 -0.69868881 -0.19018055 0
1.4000038 -0.84401351 -0.19105726 0
1.7608567 -1.0615592 -0.19191657 0
2.9612679 -1.7852452 -0.24173108 0
4.4590569 -2.6882102 -0.24239585 0
8.9016752 -5.3665099 -0.24166964 0
0.78444535 -0.446325 -0.1918436 0
0.89073914 -0.50680286 -0.19302671 0
1.0170877 -0.57869124 -0.19232275 0
1.1840012 -0.6736598 -0.19144084 0
1.404253 -0.79897624 -0.18882507 0
1.7853544 -1.0158111 -0.1917312 0
3.017555 -1.7168949 -0.24271126 0
4.5112357 -2.5667527 -0.24163374 0
9.0384436 -5.1425934 -0.24178198 0
0.79807401 -0.42779347 -0.19247478 0
0.90635425 -0.48583516 -0.19369166 0
1.0220221 -0.5478369 -0.19058058 0
1.1969533 -0.64160568 -0.19085597 0
1.4433768 -0.77369666 -0.19139919 0
1.8123085 -0.97145599 -0.19193165 0
3.0483601 -1.6340196 -0.24179487 0
4.5774117 -2.4536407 -0.24178432 0
9.1643276 -4.9123759 -0.24175583 0
0.81604898 -0.41126835 -0.19424464 0
0.90728873 -0.45725092 -0.19136415 0
1.0454507 -0.52688104 -0.19240838 0
1.2174106 -0.61354458 -0.19158775 0
1.4645258 -0.7380845 -0.19167238 0
1.8368131 -0.925708 -0.1919913 0
3.0834517 -1.5539829 -0.24139045 0
4.6372404 -2.3370535 -0.24175189 0
9.2918139 -4.6828427 -0.24192403 0
0.82491964 -0.38995856 -0.19395162 0
0.92702788 -0.43822747 -0.19313315 0
1.0555092 -0.49896356 -0.19188076 0
1.2360758 -0.58432156 -0.19214307 0
1.4683715 -0.6941331 -0.18982238 0
1.860835 -0.87965965 -0.19212036 0
3.1202476 -1.4750131 -0.2412798 0
4.6866741 -2.2154992 -0.24133706 0
9.4026756 -4.4448619 -0.24181259 0
0.822411 -0.36367679 -0.19114283 0
0.92998427 -0.41124654 -0.19152567 0
1.0602025 -0.46883011 -0.19052221 0
1.2476325 -0.55171317 -0.19171391 0
1.5030476 -0.6646598 -0.19207531 0
1.8753568 -0.82929796 -0.19139774 0
3.1736941 -1.4034332 -0.24259639 0
4.7432203 -2.0974905 -0.24144596 0
9.5117102 -4.2061548 -0.24180952 0
0.84213114 -0.34726682 -0.19362742 0
0.9404127 -0.38779485 -0.19159664 0
1.0741051 -0.44292521 -0.19095086 0
1.2615709 -0.52022982 -0.19177705 0
1.5174373 -0.62574059 -0.1918349 0
1.8976535 -0.78252912 -0.19159661 0
3.2003014 -1.3196976 -0.24200712 0
4.8020182 -1.9801923 -0.24181789 0
9.6117153 -3.9635513 -0.24173176 0
0.83357853 -0.31937733 -0.18974717 0
0.95726603 -0.36676696 -0.19308284 0
1.0827122 -0.41483042 -0.190559 0
1.2629707 -0.48389465 -0.19007276 0
1.533347 -0.58748668 -0.19191058 0
1.9252673 -0.737647 -0.19244364 0
3.2253258 -1.2357515 -0.24146406 0
4.8425331 -1.8553684 -0.2414231 0
9.7132826 -3.7215476 -0.24184686 0
0.85036635 -0.30143213 -0.19177572 0
0.9563123 -0.33898714 -0.19110391 0
1.0875136 -0.38549447 -0.18963124 0
1.275528 -0.45214054 -0.19018461 0
1.5446943 -0.54755282 -0.19154014 0
1.930805 -0.68441874 -0.19120961 0
3.2487268 -1.1515868 -0.24096328 0
4.8922901 -1.7341861 -0.2416447 0
9.801445 -3.47435 -0.24178164 0
0.85988581 -0.28059351 -0.19226421 0
0.9694559 -0.31634787 -0.19207375 0
1.1060292 -0.36091375 -0.19121058 0
1.2853301 -0.41942227 -0.19000724 0
1.553372 -0.50688839 -0.19096899 0
1.9519006 -0.63693416 -0.19164573 0
3.2938786 -1.0748415 -0.24222301 0
4.9406972 -1.6122229 -0.24194875 0
9.8804846 -3.2241488 -0.24164709 0
0.86088032 -0.25707304 -0.19097504 0
0.98771244 -0.29494721 -0.19415411 0
1.0986394 -0.32807183 -0.18844153 0
1.3040959 -0.38942453 -0.19126751 0
1.5577345 -0.4651652 -0.19000146 0
1.9560543 -0.58411008 -0.19054542 0
3.3131425 -0.98935896 -0.2417264 0
4.9767251 -1.486132 -0.24179924 0
9.9651423 -2.9757559 -0.24180374 0
0.87327796 -0.23694868 -0.19233736 0
0.98351789 -0.26686037 -0.19194451 0
1.1236546 -0.30488399 -0.19135141 0
1.3231589 -0.35901597 -0.19267306 0
1.5590752 -0.42302778 -0.1888026 0
1.9672759 -0.53378588 -0.19026557 0
3.3321309 -0.90411544 -0.24137005 0
5.0144372 -1.3605797 -0.24188606 0
10.037598 -2.7235265 -0.24181689 0
0.88142949 -0.21543869 -0.19287372 0
0.98256898 -0.24015917 -0.19051571 0
1.130277 -0.27626193 -0.19123089 0
1.3171902 -0.32194719 -0.19056004 0
1.5772066 -0.38550028 -0.1897596 0
1.9782225 -0.48351648 -0.19008349 0
3.3663616 -0.82280499 -0.24226819 0
5.0385461 -1.2315197 -0.24147278 0
10.101952 -2.4691155 -0.24178895 0
0.8845287 -0.19268292 -0.19242646 0
0.9936958 -0.21646354 -0.19155283 0
1.1419352 -0.24875554 -0.19207993 0
1.3200824 -0.28756258 -0.18986799 0
1.6016885 -0.34890676 -0.19158462 0
1.9854586 -0.43250602 -0.18966949 0
3.3768716 -0.73560697 -0.24161147 0
5.0709138 -1.1046318 -0.24161094 0
10.152583 -2.2116065 -0.24158785 0
0.89258033 -0.17096904 -0.19317782 0
0.99579149 -0.19073859 -0.19096801 0
1.1310438 -0.21664545 -0.18926792 0
1.3312671 -0.25499716 -0.19049035 0
1.6053166 -0.3074899 -0.19102946 0
2.5529544 -0.48900491 -0.24262568 0
3.3852501 -0.64842677 -0.24096327 0
5.1021152 -0.97728318 -0.24184532 0
10.205801 -1.9548672 -0.24160323 0
0.88978177 -0.14726384 -0.19170667 0
1.0025514 -0.16592784 -0.19140032 0
1.1413593 -0.18890134 -0.19013575 0
1.3379333 -0.22143543 -0.19058383 0
1.62605 -0.26912034 -0.19262707 0
2.5596797 -0.42364126 -0.24217156 0
3.4154294 -0.56527257 -0.24201883 0
5.1236644 -0.84799504 -0.24177527 0
10.256877 -1.6975703 -0.24172109 0
0.8985824 -0.12551676 -0.19285884 0
1.0216737 -0.14271054 -0.19430149 0
1.1569861 -0.16161138 -0.19199833 0
1.3345622 -0.18641576 -0.18937312 0
1.6274559 -0.22732806 -0.19205278 0
2.5653806 -0.35834026 -0.24177825 0
3.4194143 -0.47763431 -0.24137013 0
5.1362267 -0.717444 -0.24143672 0
10.31154 -1.4403476 -0.24207549 0
0.90679038 -0.1034122 -0.19399853 0
1.0129138 -0.11551473 -0.19201992 0
1.162674 -0.13259368 -0.19232561 0
1.3409054 -0.15291956 -0.18966514 0
1.617498 -0.18446274 -0.19026767 0
2.5720851 -0.29332578 -0.24163546 0
3.4314361 -0.39132789 -0.24144465 0
5.1606174 -0.5885272 -0.241808 0
10.337526 -1.1789124 -0.24191001 0
0.90000212 -0.079693511 -0.19205478 0
1.0091606 -0.089359298 -0.19082011 0
1.1482066 -0.10167155 -0.18944767 0
1.1196817 -0.099145733 -0.15796979 0
1.6300815 -0.14434068 -0.19125845 0
2.5651169 -0.22713633 -0.24036571 0
3.4476681 -0.30528459 -0.24196756 0
5.1741791 -0.45816389 -0.24182461 0
10.350349 -0.9165042 -0.24159186 0
0.90027684 -0.056868643 -0.19174604 0
1.0119963 -0.063925736 -0.1909904 0
1.1401333 -0.072019883 -0.18775591 0
1.1366786 -0.071801655 -0.16006112 0
1.6447297 -0.10389421 -0.19260812 0
2.5901773 -0.1636162 -0.24224989 0
3.4392645 -0.2172513 -0.24091622 0
5.181993 -0.32733589 -0.24172673 0
10.379006 -0.65562057 -0.24179751 0
0.90497655 -0.034270167 -0.1925015 0
1.0159324 -0.038471904 -0.19148901 0
1.1256984 -0.04262859 -0.18514268 0
1.1293581 -0.042767175 -0.15882772 0
1.6392421 -0.062075749 -0.19172096 0
2.6025558 -0.098555058 -0.24309756 0
3.4546614 -0.13082308 -0.24168651 0
5.1931276 -0.19665632 -0.24193755 0
10.398533 -0.39377755 -0.24194382 0
0.90293187 -0.011392741 -0.19194429 0
1.0176349 -0.012840005 -0.19168778 0
1.1266415 -0.014215395 -0.18517978 0
1.1391726 -0.014373506 -0.16010599 0
1.141446 -0.014402191 -0.13341518 0
1.1356502 -0.014329062 -0.10601041 0
1.1287528 -0.014242035 -0.078916743 0
1.1218786 -0.0141553 -0.052232828 0
1.1319544 -0.014282431 -0.026320539 0
1.1266594 -0.014215622 3.216687e-05 0
1.1188828 -0.014117499 0.026080517 0
1.1331233 -0.014297179 0.0528212 0
1.1248955 -0.014193364 0.078711607 0
1.1312799 -0.01427392 0.10566762 0
1.1313441 -0.01427473 0.13229993 0
1.1226553 -0.0141651 0.15784991 0
1.1475443 -0.014479136 0.18868276 0
1.1341925 -0.014310669 0.21371032 0
0.90840197 0.011461759 -0.1931071 0
1.0147344 0.012803407 -0.19114143 0
1.11581 0.01407873 -0.1833995 0
1.1368324 0.014343979 -0.15977708 0
1.639738 0.020689389 -0.19165684 0
2.5885289 0.032660756 -0.24163342 0
3.4624059 0.043686897 -0.24207409 0
5.1834846 0.065402597 -0.24133454 0
10.402747 0.13125663 -0.24188778 0
0.90759629 0.034369372 -0.19305876 0
1.0132362 0.038369805 -0.19098082 0
1.1304274 0.042807665 -0.18592043 0
1.1258806 0.042635486 -0.15833867 0
1.6367534 0.06198151 -0.1914299 0
2.5880618 0.098006189 -0.24174371 0
3.4607339 0.13105305 -0.24211134 0
5.1820645 0.19623737 -0.24142215 0
10.391258 0.39350209 -0.24177457 0
0.9031449 0.057049815 -0.19235691 0
1.0225769 0.06459409 -0.19298725 0
1.1250248 0.071065515 -0.18526788 0
1.1349701 0.071693733 -0.15982054 0
1.6404332 0.10362281 -0.19210497 0
2.579752 0.16295765 -0.24127486 0
3.4530196 0.21812017 -0.24187976 0
5.1788692 0.32713857 -0.24158101 0
10.37078 0.655101 -0.24160586 0
0.90115327 0.079795443 -0.19230042 0
1.0133493 0.089730196 -0.19161214 0
1.1529146 0.10208845 -0.19022448 0
1.3531928 0.1198227 -0.19091459 0
1.6442927 0.14559907 -0.19292586 0
2.5770221 0.2281905 -0.24148129 0
3.4344995 0.30411854 -0.24104336 0
5.1671214 0.45753896 -0.24149476 0
10.363704 0.9176867 -0.24190356 0
0.90773559 0.10352 -0.19420075 0
1.0213935 0.11648178 -0.19362745 0
1.1501251 0.1311626 -0.19024985 0
1.3480946 0.15373942 -0.19068202 0
1.622846 0.18507263 -0.19089675 0
2.571249 0.29323041 -0.2415569 0
3.4308918 0.39126581 -0.24140635 0
5.1617799 0.58865976 -0.24186248 0
10.328337 1.1778643 -0.24169497 0
0.88936365 0.12422905 -0.19088027 0
1.0096526 0.1410314 -0.19201533 0
1.1515409 0.16085078 -0.19109471 0
1.3473828 0.18820657 -0.19119234 0
1.6300769 0.22769417 -0.19236207 0
2.5747013 0.35964221 -0.24265669 0
3.4184506 0.47749969 -0.24130209 0
5.1435623 0.71846861 -0.24178155 0
10.293825 1.4378732 -0.24165964 0
0.88502187 0.14647605 -0.19068113 0
1.0118452 0.16746603 -0.19317463 0
1.1542255 0.19103074 -0.19227909 0
1.3409603 0.2219364 -0.19101501 0
1.6106666 0.26657432 -0.19080471 0
2.5635335 0.42427909 -0.24253617 0
3.4153841 0.56526506 -0.24201562 0
5.1189146 0.84720892 -0.24155115 0
10.257977 1.6977525 -0.24174704 0
0.88934082 0.17034853 -0.1924767 0
0.99897635 0.19134864 -0.19157879 0
1.1340703 0.21722516 -0.18977438 0
1.3249457 0.25378633 -0.18958583 0
1.34847 0.25829229 -0.16046523 0
1.3505913 0.25869861 -0.12835644 0
1.3456124 0.25774494 -0.095781155 0
1.3449305 0.25761431 -0.063751042 0
1.3393105 0.25653785 -0.031705666 0
1.3543758 0.25942352 3.9368158e-05 0
0.88098645 0.1919113 -0.19165586 0
1.003625 0.21862648 -0.19346687 0
1.1431353 0.24901697 -0.1922818 0
1.2086611 0.26329088 -0.17384221 0
1.1985584 0.26109016 -0.14336455 0
1.2156709 0.26481792 -0.11613221 0
1.2047324 0.26243508 -0.086197287 0
1.2137915 0.2644085 -0.05783283 0
1.2003107 0.26147187 -0.028562237 0
1.201223 0.26167059 3.50972e-05 0
0.88110441 0.21535924 -0.19280259 0
0.98015249 0.23956855 -0.19004717 0
1.1197593 0.27369121 -0.18945141 0
1.2021043 0.29381791 -0.17391036 0
1.2071282 0.29504585 -0.14523409 0
1.1968993 0.29254571 -0.11500768 0
1.1960777 0.2923449 -0.086078562 0
1.1983298 0.29289535 -0.057430066 0
1.2039299 0.29426414 -0.028815912 0
1.2129536 0.29646972 3.5647216e-05 0
0.86828095 0.23559283 -0.19123679 0
0.97120327 0.26351899 -0.18954118 0
1.1180725 0.30336943 -0.19040082 0
1.1988121 0.32527667 -0.17456619 0
1.2064956 0.32736146 -0.14610553 0
1.2040266 0.32669154 -0.11644772 0
1.2083644 0.32786852 -0.087530464 0
1.2147272 0.32959494 -0.058595922 0
1.2102253 0.32837346 -0.029155675 0
1.202208 0.3261981 3.5562047e-05 0
0.86537385 0.25841489 -0.19197187 0
0.98193312 0.29322141 -0.19301808 0
1.1068698 0.33052957 -0.18985325 0
1.2110792 0.3616482 -0.17762505 0
1.2079238 0.36070594 -0.14733402 0
1.2070402 0.3604421 -0.11758158 0
1.207907 0.36070094 -0.088128716 0
1.1971549 0.35749015 -0.058164984 0
1.2081406 0.3607707 -0.029315477 0
1.1917765 0.3558841 3.5507866e-05 0
0.85744512 0.27979708 -0.1917185 0
0.95805919 0.31262895 -0.18981576 0
1.0886307 0.35523638 -0.18820272 0
1.2045165 0.39305162 -0.17806078 0
1.2118874 0.39545685 -0.14898743 0
1.1984377 0.39106801 -0.1176676 0
1.203373 0.3926785 -0.088492826 0
1.2026079 0.39242882 -0.058892392 0
1.2089446 0.39449656 -0.029567167 0
1.2120696 0.39551631 3.6398305e-05 0
0.83684003 0.29663742 -0.18872525 0
0.9615916 0.34085849 -0.19215889 0
1.1007181 0.39017513 -0.19193374 0
1.2074724 0.42801672 -0.18003736 0
1.1909295 0.42215267 -0.14767376 0
1.2036617 0.42666587 -0.11919986 0
1.2134863 0.43014845 -0.090006232 0
1.1989754 0.42500472 -0.059220944 0
1.203476 0.42660004 -0.029687295 0
1.2131474 0.43002829 3.6744899e-05 0
0.83871734 0.32134619 -0.1909169 0
0.94764858 0.36308214 -0.19114298 0
1.0995537 0.4212831 -0.19352314 0
1.2093445 0.46334833 -0.1820022 0
1.1954775 0.45803529 -0.14962351 0
1.2035913 0.46114409 -0.1203072 0
1.2069408 0.46242735 -0.090357631 0
1.1948504 0.45779508 -0.05956893 0
1.1980615 0.45902535 -0.02983002 0
1.201638 0.46039566 3.673655e-05 0
0.83305365 0.34352359 -0.19154029 0
0.93612283 0.38602588 -0.19072264 0
1.079553 0.44517171 -0.19191937 0
1.2059351 0.49728748 -0.18331961 0
1.2055897 0.49714503 -0.15241101 0
1.2044606 0.49667943 -0.12160838 0
1.2132909 0.50032073 -0.091749184 0
1.2061379 0.49737108 -0.060738154 0
1.201846 0.49560127 -0.030226069 0
1.2087315 0.49844062 3.7326128e-05 0
0.82537335 0.36498678 -0.19183134 0
0.92551309 0.40926936 -0.19060487 0
1.0670695 0.47186676 -0.19175625 0
1.2007031 0.53096068 -0.18450266 0
1.2071785 0.53382409 -0.15426603 0
1.206388 0.5334745 -0.12312321 0
1.2084491 0.53438598 -0.09237355 0
1.1976907 0.52962852 -0.060966503 0
1.207471 0.53395343 -0.030696688 0
1.212983 0.5363909 3.7863418e-05 0
