# .PCD v0.7 - Point Cloud Data file format
VERSION 0.7
FIELDS x y z intensity
SIZE 4 4 4 4
TYPE F F F F
COUNT 1 1 1 1
WIDTH 1353
HEIGHT 1
VIEWPOINT 0 0 0 1 0 0 0
POINTS 1353
DATA ascii
1.0989163 1.2392062 0.23286058 0
0.57782447 0.68568993 -0.19060208 0
0.65740693 0.78012848 -0.19215348 0
0.73088533 0.86732346 -0.18640974 0
0.83849108 0.99501657 -0.18286392 0
0.83747661 0.99381268 -0.15189172 0
0.83811766 0.99457335 -0.1214005 0
0.83638769 0.99252045 -0.090738058 0
0.83691174 0.99314237 -0.060462881 0
0.83770448 0.99408305 -0.030225132 0
0.84250832 0.99978369 3.7325179e-05 0
0.83932513 0.99600631 0.030358016 0
0.83862549 0.99517602 0.060661159 0
0.84276992 1.0000942 0.09150549 0
0.83422911 0.98995894 0.12091181 0
0.85223132 1.0113218 0.1546443 0
1.098105 1.3030939 0.23958153 0
0.56093103 0.70078921 -0.19080316 0
0.6358524 0.79439098 -0.19165258 0
0.72960722 0.91152191 -0.19189024 0
0.84516424 1.055891 -0.19007066 0
0.84513235 1.0558511 -0.15806311 0
0.84275895 1.052886 -0.1258819 0
0.83781904 1.0467144 -0.093729533 0
0.84157509 1.051407 -0.062696956 0
0.83307701 1.0407901 -0.030996092 0
0.84828752 1.059793 3.8753875e-05 0
0.83840448 1.0474458 0.031270955 0
0.84177452 1.0516561 0.062788896 0
0.83806264 1.0470188 0.09383373 0
0.84076536 1.0503954 0.1256616 0
0.83847177 1.0475299 0.15689506 0
1.0988437 1.3728209 0.2472235 0
1.0956206 1.3687942 0.28825635 0
0.54568624 0.71816105 -0.19172205 0
0.61823106 0.81363505 -0.19246961 0
0.70231283 0.9242925 -0.19078636 0
0.72888064 0.95925766 -0.16931029 0
0.72587764 0.95530546 -0.14022395 0
0.73131776 0.96246499 -0.11282854 0
0.72649914 0.95612335 -0.083948761 0
0.72853631 0.95880443 -0.056060601 0
0.72510785 0.95429236 -0.027866174 0
0.73018992 0.96098071 3.4455683e-05 0
0.72715598 0.9569878 0.028013546 0
0.72633725 0.95591027 0.055960078 0
0.72194082 0.95012426 0.083490506 0
0.72521478 0.95443308 0.111956 0
0.72742385 0.95734036 0.14059223 0
0.72843653 0.95867312 0.16927722 0
0.7300995 0.96086174 0.1984055 0
0.72852117 0.95878446 0.22687665 0
0.52708536 0.73127431 -0.19161037 0
0.59303313 0.82276976 -0.19102898 0
0.68432295 0.94942456 -0.19234762 0
0.73082668 1.0139434 -0.17565085 0
0.95112622 1.3195854 -0.1901104 0
0.8500784 1.1793925 -0.13570029 0
0.83931375 1.1644577 -0.10034887 0
0.84118682 1.1670563 -0.066974267 0
0.83974224 1.1650522 -0.033391021 0
0.83859223 1.1634567 4.0943487e-05 0
0.83650082 1.160555 0.033343859 0
0.83482313 1.1582274 0.066549294 0
0.83733588 1.1617136 0.10019457 0
0.83448863 1.1577634 0.13329385 0
0.83716357 1.1614746 0.1674145 0
0.83576459 1.1595336 0.20095542 0
1.1072336 1.5361677 0.31132922 0
0.50683457 0.74195099 -0.19099528 0
0.58094847 0.85044575 -0.19398864 0
0.65364188 0.95686096 -0.19045128 0
0.76917225 1.1259849 -0.19163632 0
0.91917926 1.345579 -0.19045232 0
1.1526519 1.6873577 -0.19073848 0
0.85301489 1.2487216 -0.10572145 0
0.83714104 1.2254839 -0.069092751 0
0.83914483 1.2284172 -0.034589075 0
0.84486574 1.2367921 4.2760228e-05 0
0.84113914 1.2313367 0.03475647 0
0.84098625 1.2311128 0.069495425 0
0.84324431 1.2344185 0.10459628 0
0.84223217 1.2329367 0.13945685 0
0.83517921 1.222612 0.17313337 0
0.83534122 1.2228492 0.20820829 0
1.0990314 1.6088631 0.32033846 0
1.1008608 1.6115412 0.36771163 0
0.49082673 0.75894612 -0.19212008 0
0.55617309 0.85998863 -0.19290203 0
0.62774014 0.97064996 -0.18998185 0
0.7429713 1.1488274 -0.19227129 0
0.88326973 1.3657653 -0.19009364 0
1.1115594 1.7187608 -0.19105615 0
1.4821918 2.2918551 -0.19080912 0
0.84567612 1.3076358 -0.072498009 0
0.83790231 1.2956156 -0.035874315 0
0.83886242 1.2971001 4.4099252e-05 0
0.83758938 1.2951316 0.035949029 0
0.8411364 1.3006163 0.07219746 0
0.83734834 1.2947589 0.10788403 0
0.83852613 1.2965801 0.14421579 0
0.83722043 1.2945611 0.18027233 0
0.83898145 1.2972841 0.21720742 0
0.84179944 1.3016415 0.25485653 0
1.1020751 1.7040956 0.38236165 0
0.47018671 0.7689057 -0.19157621 0
0.53089535 0.86818379 -0.19167367 0
0.60106128 0.9829275 -0.18935537 0
0.71083874 1.1624488 -0.19148739 0
0.84866643 1.3878411 -0.19012444 0
1.0683347 1.747069 -0.19114473 0
1.4198778 2.3219545 -0.19027089 0
0.85388339 1.3963726 -0.076198652 0
0.84844226 1.3874745 -0.037812833 0
0.84126353 1.375735 4.6036177e-05 0
0.84470814 1.381368 0.037738912 0
0.84254485 1.3778305 0.075279243 0
0.83565497 1.3665632 0.11207394 0
0.83969128 1.3731639 0.15032892 0
0.83749002 1.3695642 0.18771353 0
0.83841991 1.3710848 0.22594906 0
0.83264327 1.3616382 0.26240543 0
1.0972675 1.7943835 0.39628017 0
0.45831695 0.79382664 -0.19484124 0
0.50848949 0.88072783 -0.19154869 0
0.58025384 1.0050271 -0.19073072 0
0.68328702 1.1834855 -0.19205074 0
0.81493336 1.4115032 -0.19048762 0
1.0274099 1.7795225 -0.19179729 0
1.3669542 2.3676293 -0.19112568 0
1.366879 2.3674991 -0.12726897 0
0.85260773 1.4767569 -0.039646961 0
0.83533955 1.4468476 4.7695121e-05 0
0.84084183 1.4563779 0.039195906 0
0.84296846 1.4600612 0.078584559 0
0.84220392 1.4587369 0.11785245 0
0.83481014 1.4459306 0.15593885 0
0.84141213 1.4573656 0.19677433 0
0.83880341 1.4528471 0.23585923 0
0.83852428 1.4523637 0.27572313 0
0.83196318 1.4409995 0.31350005 0
0.43005526 0.7902773 -0.19124506 0
0.4839702 0.88935238 -0.19070709 0
0.55397922 1.0180023 -0.190479 0
0.65022743 1.1948696 -0.19117412 0
0.78187925 1.4367954 -0.19117686 0
0.98419648 1.8085772 -0.19219033 0
1.2968477 2.3831108 -0.1896728 0
1.2878486 2.3665738 -0.12543197 0
1.2924012 2.3749399 -0.062865011 0
0.84893221 1.5600131 5.0703147e-05 0
0.84049225 1.5445037 0.040983696 0
0.83463818 1.5337462 0.081390768 0
0.83971047 1.5430671 0.12291417 0
0.84252864 1.5482458 0.16462746 0
0.83813131 1.5401652 0.20503251 0
0.84217352 1.5475932 0.24771099 0
0.84112024 1.5456578 0.28931212 0
0.83586419 1.5359992 0.32947332 0
0.411562 0.80396897 -0.19198354 0
0.46193969 0.90237969 -0.19093972 0
0.52693272 1.0293409 -0.19005162 0
0.61769462 1.2066404 -0.19050238 0
0.74933338 1.4637911 -0.19219121 0
0.93692523 1.8302438 -0.19191876 0
1.2457753 2.4335694 -0.19112548 0
1.2409474 2.4241381 -0.12678257 0
1.2442464 2.4305828 -0.063486412 0
1.2490684 2.4400022 7.825478e-05 0
0.84830242 1.657123 0.043390125 0
0.83777326 1.6365547 0.085697114 0
0.83832955 1.6376413 0.12872115 0
0.83896291 1.6388786 0.1719583 0
0.84226239 1.645324 0.21613289 0
0.84033483 1.6415585 0.25927392 0
0.83684039 1.6347324 0.30193534 0
0.83700091 1.6350459 0.34607738 0
0.39156535 0.81496984 -0.19218935 0
0.43556812 0.90655333 -0.18943639 0
0.50150222 1.0437828 -0.19032049 0
0.58378494 1.2150388 -0.18944179 0
0.71087158 1.479546 -0.19184299 0
0.88965493 1.8516499 -0.19174781 0
1.1845044 2.4653237 -0.19121055 0
1.7789354 3.7025206 -0.19123295 0
4.5055332 9.3774223 -0.24188945 0
0.85064012 1.7704479 0.091554955 0
0.83943474 1.747126 0.13561834 0
0.8366589 1.7413485 0.1804368 0
0.84347939 1.7555442 0.22774258 0
0.84026158 1.7488469 0.27278301 0
0.83725339 1.7425859 0.31785169 0
0.83501583 1.7379289 0.36327735 0
0.36812797 0.81847525 -0.19076417 0
0.42146859 0.93706983 -0.19352874 0
0.47611278 1.0585626 -0.19076359 0
0.55919635 1.2432861 -0.19158441 0
0.66655958 1.4819915 -0.18991823 0
0.83924997 1.8659416 -0.19097349 0
1.1168033 2.4830382 -0.19033769 0
1.6964149 3.7717144 -0.19253406 0
4.2659202 9.4846096 -0.24180004 0
1.0624281 2.3621438 0.12072814 0
0.8480072 1.885412 0.14464517 0
0.83943188 1.8663461 0.19113275 0
0.84196126 1.8719697 0.24001302 0
0.84405714 1.8766296 0.28929943 0
0.83724016 1.8614732 0.33557579 0
0.84010029 1.8678323 0.38587594 0
0.34729925 0.82735854 -0.19073088 0
0.39361519 0.93769538 -0.19154522 0
0.44786289 1.0669277 -0.19017346 0
0.52619284 1.2535304 -0.1910557 0
0.63576096 1.5145506 -0.19197327 0
0.79498088 1.8938544 -0.19171567 0
1.0589887 2.5227907 -0.19127518 0
1.5931944 3.7954099 -0.19162998 0
4.0228391 9.5834656 -0.24165486 0
0.99523866 2.3709214 0.11985479 0
0.84891742 2.0223455 0.15345784 0
0.83749831 1.9951421 0.20209371 0
0.83767605 1.9955655 0.25306845 0
0.83992279 2.0009179 0.30509445 0
0.83926922 1.9993609 0.35650125 0
0.83565044 1.9907402 0.40678078 0
0.33124349 0.84848577 -0.1936124 0
0.37382936 0.95757025 -0.19361612 0
0.41995996 1.0757345 -0.18979353 0
0.49349406 1.2640934 -0.19070655 0
0.59639943 1.5276872 -0.19166937 0
0.74464494 1.9074205 -0.19112559 0
0.99845159 2.5575507 -0.19193888 0
1.4998612 3.8419201 -0.19200583 0
3.7795649 9.6814194 -0.24164249 0
0.929609 2.3812091 0.11915084 0
0.84648365 2.1682823 0.16285865 0
0.8425774 2.1582763 0.21639504 0
0.83551526 2.1401865 0.2686488 0
0.8400107 2.1517015 0.32474941 0
0.84021753 2.1522315 0.37985703 0
0.83863533 2.1481786 0.43448779 0
0.31033021 0.85823339 -0.19398765 0
0.34625787 0.95759314 -0.19179265 0
0.39431101 1.0904864 -0.19057968 0
0.4357214 1.205009 -0.18007639 0
0.43498403 1.2029697 -0.14950408 0
0.43267608 1.196587 -0.11876725 0
0.92949432 2.5705621 -0.19109394 0
1.4030386 3.8801723 -0.19208664 0
3.5317771 9.7673035 -0.24148436 0
0.85705316 2.3702226 0.1174813 0
0.85159206 2.3551197 0.17522177 0
0.83613485 2.312372 0.22965612 0
0.83718777 2.3152838 0.28788406 0
0.84078759 2.3252394 0.34762746 0
0.83742905 2.3159511 0.40489334 0
0.84026724 2.3238003 0.46557114 0
0.28314328 0.84948683 -0.19033475 0
0.32373697 0.97127604 -0.19283524 0
0.36953136 1.1086684 -0.19206613 0
0.40360069 1.2108834 -0.17937487 0
0.40474895 1.2143283 -0.14959851 0
0.40413949 1.2124997 -0.11929628 0
0.86685348 2.6007349 -0.1916495 0
1.3061612 3.9187465 -0.19230302 0
3.2880194 9.8647203 -0.24176414 0
0.79252315 2.3777289 0.11682472 0
0.84902376 2.5472422 0.18786164 0
0.83957583 2.5188966 0.24798387 0
0.83843148 2.5154631 0.31004456 0
0.84021956 2.5208278 0.37357894 0
0.8379063 2.5138876 0.43566221 0
0.83845836 2.5155439 0.49958789 0
0.25922203 0.84851187 -0.18859035 0
0.29704219 0.9723087 -0.19149083 0
0.34001973 1.1129872 -0.1912667 0
0.37919211 1.2412102 -0.18239155 0
0.37904888 1.2407414 -0.15162559 0
0.38097894 1.247059 -0.12171169 0
0.72602844 2.3765101 -0.1737206 0
0.72205728 2.3635113 -0.11505268 0
0.72419387 2.3705049 -0.057629928 0
0.72615606 2.3769279 7.0953443e-05 0
0.72385603 2.3693991 0.057744581 0
0.72404385 2.370014 0.11551102 0
0.84102452 2.7529268 0.20140147 0
0.83317071 2.7272191 0.26633805 0
0.83175993 2.7226012 0.33288196 0
0.83505702 2.7333937 0.40182915 0
0.83528543 2.7341411 0.47002944 0
0.23990135 0.86258692 -0.19031231 0
0.27535141 0.99005073 -0.1935547 0
0.30929613 1.112102 -0.18971266 0
0.36575302 1.3150979 -0.1918315 0
0.44053608 1.5839871 -0.19215219 0
0.55143321 1.9827278 -0.1920927 0
0.65966046 2.3718686 -0.17210947 0
0.65915966 2.3700678 -0.11452552 0
0.66092712 2.3764229 -0.057349999 0
0.65878886 2.3687346 7.0190181e-05 0
0.6600607 2.3733077 0.057415549 0
0.66025394 2.3740025 0.11485664 0
0.80992585 2.9121614 0.21148807 0
0.81013787 2.9129236 0.28238705 0
0.81021225 2.9131911 0.35357186 0
0.81220269 2.9203479 0.42616358 0
0.812491 2.9213846 0.49853462 0
0.21944207 0.87386465 -0.19151756 0
0.2462326 0.98055023 -0.19042175 0
0.28172877 1.1219035 -0.19011116 0
0.33217657 1.3227972 -0.19167063 0
0.39657769 1.5792561 -0.19030346 0
0.4988662 1.9865906 -0.19118622 0
0.59407485 2.3657315 -0.17052186 0
0.59812117 2.381845 -0.11432873 0
0.59455913 2.36766 -0.056758311 0
0.59376109 2.3644822 6.9597947e-05 0
0.59641916 2.375067 0.057075769 0
0.59521323 2.3702648 0.11391272 0
0.76678151 3.0534859 0.22027579 0
0.77096951 3.0701635 0.2956498 0
0.76817048 3.0590169 0.3688001 0
0.76933289 3.0636461 0.44409999 0
0.19792248 0.8817907 -0.19209869 0
0.22275198 0.99241191 -0.19157247 0
0.25694674 1.1447575 -0.19282353 0
0.2981115 1.3281561 -0.19129597 0
0.35339978 1.5744781 -0.18859285 0
0.44754604 1.9939218 -0.19074394 0
0.55538416 2.4743657 -0.17728536 0
0.55137765 2.4565158 -0.11720764 0
0.55114311 2.4554708 -0.058511242 0
0.54980105 2.4494915 7.166891e-05 0
0.54889661 2.445462 0.058415923 0
0.54973274 2.4491873 0.11700161 0
0.71245962 3.1741734 0.22761241 0
0.71387547 3.1804814 0.30444118 0
0.71169561 3.1707695 0.37998658 0
0.71333355 3.178067 0.45793059 0
0.17452928 0.88104296 -0.19091536 0
0.19843288 1.001711 -0.19233951 0
0.22289856 1.1252164 -0.18852438 0
0.26315987 1.3284599 -0.19032249 0
0.32221985 1.6266012 -0.19380036 0
0.39872462 2.0128057 -0.19152674 0
0.4143284 2.0915751 -0.14906216 0
0.41229621 2.0813165 -0.098777816 0
0.41472861 2.0935955 -0.049622916 0
0.41429317 2.0913975 6.0866219e-05 0
0.41478929 2.0939019 0.049752116 0
0.41285056 2.0841148 0.099032193 0
0.4157432 2.0987175 0.14969392 0
0.41593796 2.0997005 0.19991842 0
0.41408527 2.0903478 0.2491765 0
0.40842623 2.0617805 0.29550439 0
0.29582679 1.4933661 0.25029528 0
0.27267048 1.3764704 0.2643804 0
0.15383133 0.89439416 -0.19290571 0
0.171884 0.99935454 -0.19099325 0
0.19751199 1.1483588 -0.19150557 0
0.23258902 1.352301 -0.19283566 0
0.27701071 1.6105741 -0.190997 0
0.34726256 2.019027 -0.19122384 0
0.36700389 2.1338055 -0.15136348 0
0.88001198 5.116497 -0.24169427 0
1.7627189 10.248663 -0.24178483 0
0.58092213 3.3775523 0.15974569 0
0.57772946 3.3589895 0.2384686 0
0.57802945 3.3607337 0.31849447 0
0.26105738 1.5178195 0.18008643 0
0.26957801 1.5673594 0.22359522 0
0.26963988 1.5677191 0.26153329 0
0.2354725 1.3690658 0.26173335 0
0.13016282 0.89078373 -0.19135751 0
0.14791605 1.0122799 -0.19268864 0
0.16592526 1.135528 -0.18860741 0
0.1975538 1.3519813 -0.19201793 0
0.23681287 1.6206552 -0.19142275 0
0.29480189 2.0175095 -0.19031481 0
0.39436448 2.6988771 -0.19068059 0
0.75053674 5.1363811 -0.24166179 0
1.5017971 10.277715 -0.24149908 0
0.50410885 3.4499247 0.16251513 0
0.50302887 3.4425337 0.2434209 0
0.50440145 3.4519272 0.32582659 0
0.22050279 1.5090353 0.17832711 0
0.27650416 1.8922868 0.26886728 0
0.20200473 1.3824418 0.26323199 0
0.10804487 0.89709574 -0.19206649 0
0.12234884 1.0158614 -0.19272123 0
0.13853888 1.1502873 -0.19041747 0
0.16244459 1.3487762 -0.19091962 0
0.19565111 1.6244897 -0.19123152 0
0.24522148 2.036072 -0.19142106 0
0.32504675 2.6988606 -0.19003928 0
0.62034458 5.1507163 -0.24152267 0
1.2440935 10.3297 -0.24190573 0
0.42444581 3.5241702 0.16545528 0
0.42431137 3.5230539 0.24827816 0
0.42293984 3.5116661 0.33035257 0
0.42326513 3.5143671 0.41390878 0
0.22910812 1.902283 0.26938021 0
0.1656633 1.3755012 0.26103115 0
0.085461937 0.90044296 -0.1922601 0
0.096716918 1.0190276 -0.19279739 0
0.11008153 1.1598397 -0.19147786 0
0.12863941 1.355369 -0.19133231 0
0.15454316 1.6282957 -0.19115952 0
0.19332738 2.0369337 -0.19098251 0
0.25790581 2.7173438 -0.19082166 0
0.49045217 5.1674957 -0.2416521 0
0.98224962 10.349167 -0.24170409 0
0.33989075 3.5811529 0.16767439 0
0.33965886 3.5787094 0.2515161 0
0.33919263 3.573797 0.33528528 0
0.33858073 3.5673501 0.41900903 0
0.33899763 3.5717425 0.50441831 0
0.17235787 1.8159949 0.29990944 0
0.12908351 1.3600481 0.25739837 0
0.06289392 0.90487713 -0.19280653 0
0.070258632 1.0108358 -0.19085126 0
0.079494245 1.1437119 -0.1884241 0
0.094660118 1.3619087 -0.19185714 0
0.11391665 1.6389593 -0.19201271 0
0.1416195 2.0375302 -0.1906426 0
0.15284513 2.1990371 -0.15410432 0
0.15122247 2.1756911 -0.10153292 0
0.7213648 10.378531 -0.24188764 0
0.2528871 3.6383765 0.1700007 0
0.25148726 3.6182361 0.25376719 0
0.13159142 1.8932525 0.17725249 0
0.13291235 1.9122571 0.22414194 0
0.13375343 1.924358 0.27120379 0
0.12400328 1.7840791 0.2940281 0
0.095222257 1.3699964 0.25874391 0
0.040256105 0.91099936 -0.19383281 0
0.045060847 1.0197312 -0.19225478 0
0.050665617 1.1465676 -0.18862382 0
0.060174216 1.361748 -0.19155955 0
0.072755046 1.6464534 -0.19261423 0
0.089334011 2.0216367 -0.18888442 0
0.10583971 2.3951623 -0.16760783 0
0.0941232 2.1300166 -0.099258959 0
0.098468885 2.2283599 -0.051860921 0
0.16258152 3.6792345 0.17166337 0
0.16122025 3.6484292 0.25551802 0
0.085613176 1.9374341 0.18112892 0
0.084648162 1.9155955 0.22421144 0
0.085763484 1.9408356 0.27313396 0
0.076043881 1.7208799 0.28320596 0
0.060878232 1.3776799 0.25982213 0
0.017211845 0.9092927 -0.19331568 0
0.019125683 1.0103997 -0.19034387 0
0.022172749 1.1713747 -0.19255149 0
0.026102748 1.3789943 -0.19383124 0
0.031024806 1.6390241 -0.19159248 0
0.038440991 2.0308173 -0.18959112 0
0.051899724 2.7418351 -0.19171447 0
0.041005675 2.1663082 -0.10086979 0
0.042463642 2.2433317 -0.052167807 0
0.043516029 2.2989287 6.5642467e-05 0
0.069997467 3.6979294 0.1723983 0
0.069833331 3.6892581 0.25817183 0
0.06984093 3.6896596 0.34466833 0
0.069837913 3.6895003 0.43149489 0
0.031629398 1.6709644 0.27477247 0
0.026013458 1.3742774 0.25897411 0
-0.0056968452 0.90323305 -0.19199684 0
-0.0063864519 1.01257 -0.19072235 0
-0.0072521558 1.1498271 -0.1889794 0
-0.00861164 1.3653729 -0.19188605 0
-0.010353445 1.6415356 -0.19185551 0
-0.012856411 2.0383801 -0.19026688 0
-0.01369927 2.1720152 -0.15184736 0
-0.013700783 2.1722553 -0.1011306 0
-0.06558039 10.397751 -0.24175715 0
-0.023462757 3.7200131 0.17340024 0
-0.023402678 3.7104874 0.25961611 0
-0.023371371 3.705524 0.34609517 0
-0.023337167 3.7001009 0.43266577 0
-0.010385505 1.6466187 0.27072597 0
-0.0087047527 1.3801359 0.26003674 0
-0.028087117 0.89020747 -0.18931843 0
-0.031942118 1.0123898 -0.19077951 0
-0.036430191 1.1546371 -0.1898606 0
-0.043145999 1.3674914 -0.19227557 0
-0.051634565 1.6365323 -0.19136211 0
-0.065379024 2.0721562 -0.19351202 0
-0.086183615 2.7315474 -0.19105594 0
-0.11998194 3.8027692 -0.17712469 0
-0.11952727 3.7883584 -0.088124856 0
-0.12042556 3.8168292 0.00010901854 0
-0.11959082 3.7903724 0.088388346 0
-0.11802137 3.7406297 0.17444453 0
-0.11735781 3.7195983 0.26037791 0
-0.11735422 3.7194848 0.34756505 0
-0.11718587 3.7141488 0.43451592 0
-0.051428217 1.6299921 0.26812035 0
-0.042866964 1.3586475 0.25611028 0
-0.05182514 0.91184491 -0.19413637 0
-0.057574011 1.0129943 -0.19110639 0
-0.06606067 1.1623141 -0.19133617 0
-0.077614106 1.3655927 -0.19222282 0
-0.093646109 1.64767 -0.19287941 0
-0.11626549 2.04565 -0.19124982 0
-0.15572822 2.7399826 -0.19185975 0
-0.21546189 3.7909756 -0.17677237 0
-0.21487181 3.7805932 -0.088042334 0
-0.2155233 3.7920561 0.00010843179 0
-0.21491615 3.7813733 0.088276871 0
-0.21202236 3.7304583 0.17416427 0
-0.21211834 3.732147 0.2615478 0
-0.21261898 3.7409554 0.34996137 0
-0.079085737 1.3914853 0.16297062 0
-0.077468544 1.3630315 0.19194181 0
-0.076951027 1.3539259 0.22295819 0
-0.078017205 1.372685 0.25904509 0
-0.073655941 0.89614064 -0.19112778 0
-0.084191643 1.0243241 -0.19358303 0
-0.094978549 1.1555638 -0.1905589 0
-0.11124331 1.3534502 -0.19084807 0
-0.13408911 1.6314055 -0.1913107 0
-0.16755746 2.0386007 -0.19092534 0
-0.22464527 2.7331638 -0.19171825 0
-0.4253042 5.1744962 -0.2417092 0
-0.85172713 10.362603 -0.24174762 0
-0.30670512 3.7315514 0.17452113 0
-0.30589026 3.721637 0.26126912 0
-0.30590478 3.7218137 0.34878191 0
-0.30619055 3.7252905 0.43707153 0
-0.11456333 1.3938435 0.19662531 0
-0.11410964 1.3883237 0.22902398 0
-0.112362 1.3670609 0.25843665 0
-0.095738702 0.88931257 -0.19012631 0
-0.10866225 1.0093588 -0.19121222 0
-0.12402333 1.1520472 -0.19043455 0
-0.14561895 1.352648 -0.19119231 0
-0.17483225 1.624009 -0.1909 0
-0.21838033 2.0285251 -0.19043727 0
-0.29089254 2.7020879 -0.1899929 0
-0.55627018 5.1671691 -0.24194571 0
-1.1122439 10.331584 -0.24160191 0
-0.3994413 3.7103927 0.17394766 0
-0.39979902 3.7137153 0.26133814 0
-0.39987665 3.7144365 0.34892523 0
-0.40018705 3.7173197 0.43718216 0
-0.15081832 1.4009447 0.19810092 0
-0.1492651 1.3865169 0.22927439 0
-0.14648613 1.3607032 0.25785157 0
-0.11772426 0.88344568 -0.18944691 0
-0.13448398 1.0092167 -0.19176723 0
-0.15317968 1.149516 -0.19059449 0
-0.18118805 1.3597009 -0.19277421 0
-0.21702524 1.6286362 -0.19202663 0
-0.27261147 2.0457754 -0.1926413 0
-0.36159286 2.7135241 -0.19137777 0
-0.68635803 5.1506801 -0.24190773 0
-1.3727531 10.301639 -0.24163491 0
-0.49158019 3.6889963 0.17347099 0
-0.4906317 3.6818786 0.25988641 0
-0.24397747 1.8308957 0.17251344 0
-0.24238557 1.8189493 0.21457198 0
-0.18587668 1.3948861 0.19784459 0
-0.18649101 1.3994963 0.23212507 0
-0.1830482 1.3736602 0.26109922 0
-0.14231008 0.89486498 -0.19260457 0
-0.1605937 1.0098348 -0.19259351 0
-0.18176655 1.1429726 -0.19020964 0
-0.21373053 1.3439664 -0.1912473 0
-0.25836471 1.6246321 -0.19226216 0
-0.32206488 2.0251873 -0.1914071 0
-0.42662203 2.6826568 -0.18989971 0
-0.81536239 5.1271086 -0.24169022 0
-1.6342508 10.276388 -0.24193309 0
-0.58476943 3.677109 0.17355077 0
-0.58127594 3.6551414 0.25895223 0
-0.27761692 1.7456926 0.16509295 0
-0.28073987 1.7653301 0.20901608 0
-0.27938566 1.7568147 0.25009948 0
-0.21804553 1.3710996 0.26157525 0
-0.16307288 0.88142133 -0.19053623 0
-0.18541463 1.0021801 -0.191965 0
-0.20900297 1.1296769 -0.18881476 0
-0.24585144 1.3288457 -0.18991813 0
-0.29688016 1.6046598 -0.19072458 0
-0.37075973 2.0039845 -0.19022699 0
-0.49563295 2.6789336 -0.19046102 0
-0.94443035 5.1047177 -0.2416814 0
-1.8915768 10.224116 -0.24174944 0
-0.67013317 3.6221206 0.17169903 0
-0.66753137 3.6080577 0.25672838 0
-0.66813421 3.6113162 0.34301347 0
-0.66882783 3.6150653 0.42988756 0
-0.28999633 1.5674522 0.2620782 0
-0.25348946 1.3701297 0.2625272 0
-0.18793686 0.88969815 -0.19328924 0
-0.20997727 0.99403805 -0.19135959 0
-0.23658819 1.1200149 -0.18813796 0
-0.28078607 1.3292488 -0.19092777 0
-0.33900777 1.6048719 -0.1917057 0
-0.42228374 1.9991025 -0.19071455 0
-0.56322658 2.6663299 -0.19051491 0
-0.6199761 2.9349835 -0.13965231 0
-0.6210593 2.9401114 -0.069867373 0
-0.62107688 2.9401946 8.5790067e-05 0
-0.75386351 3.56881 0.17001975 0
-0.75511694 3.574744 0.25563267 0
-0.75407851 3.5698278 0.340772 0
-0.75662065 3.5818624 0.42807376 0
-0.28773361 1.3621386 0.26230398 0
-0.20755468 0.87302059 -0.19074331 0
-0.23607427 0.99298024 -0.19224176 0
-0.26915523 1.132126 -0.19125257 0
-0.31269282 1.3152547 -0.18999079 0
-0.37535053 1.5788068 -0.1896634 0
-0.47468615 1.9966341 -0.19156101 0
-0.5234102 2.2015781 -0.15820096 0
-0.61804527 2.5996342 -0.12439834 0
-0.62091106 2.6116884 -0.062415417 0
-0.61952764 2.6058693 7.6466895e-05 0
-0.83713204 3.5211611 0.16870257 0
-0.83536047 3.5137095 0.25269529 0
-0.83460349 3.5105257 0.33701456 0
-0.83563793 3.5148766 0.42245424 0
-0.8355841 3.5146503 0.50790757 0
-0.22895595 0.86538988 -0.19027807 0
-0.26214609 0.99083942 -0.19304673 0
-0.29723677 1.1234725 -0.1909972 0
-0.34666786 1.3103082 -0.19047949 0
-0.41639861 1.573871 -0.19027239 0
-0.52375072 1.9796323 -0.19113721 0
-0.58020443 2.1930115 -0.15858714 0
-0.64692134 2.4451828 -0.11775131 0
-0.65040648 2.4583557 -0.059124477 0
-0.64759833 2.4477417 7.2283387e-05 0
-0.91523081 3.4593182 0.16679321 0
-0.91280162 3.4501367 0.24970062 0
-0.90922695 3.4366252 0.33201733 0
-0.90915871 3.4363673 0.41564372 0
-0.91054523 3.441608 0.50051379 0
-0.25328878 0.86815006 -0.19222936 0
-0.28511614 0.97723866 -0.19173785 0
-0.32441521 1.1119367 -0.19036742 0
-0.34531459 1.1835694 -0.17326726 0
-0.45971465 1.5756769 -0.19183233 0
-0.57228738 1.9615211 -0.19072239 0
-0.71455818 2.4491558 -0.17835754 0
-0.71272182 2.4428618 -0.11846807 0
-0.71388209 2.4468386 -0.059261944 0
-0.71688336 2.4571254 7.3071533e-05 0
-0.9890244 3.3898919 0.16459693 0
-0.98210984 3.3661921 0.24534106 0
-0.97849357 3.3537974 0.32629725 0
-0.98455232 3.3745637 0.41104302 0
-0.97977757 3.3581982 0.49182317 0
-0.27594367 0.86408591 -0.19281018 0
-0.30870512 0.96667463 -0.19113298 0
-0.3516756 1.1012317 -0.1899938 0
-0.37898672 1.1867534 -0.17507792 0
-0.39826992 1.2471365 -0.15300891 0
-0.39639598 1.2412685 -0.12162491 0
-0.39937797 1.2506062 -0.09177909 0
-0.39828524 1.2471844 -0.06095105 0
-0.39576787 1.2393016 -0.030247932 0
-0.40038654 1.2537644 3.7573784e-05 0
-0.3968496 1.242689 0.030405134 0
-0.39406973 1.2339841 0.06038006 0
-0.39939475 1.2506588 0.091858275 0
-0.39785293 1.2458308 0.12214726 0
-0.39976075 1.2518048 0.15365772 0
-0.39779666 1.2456546 0.18384354 0
-0.39744309 1.2445474 0.21479642 0
-0.4007172 1.2547998 0.24817958 0
-0.29800659 0.85785323 -0.19303626 0
-0.3328765 0.95823109 -0.19106382 0
-0.37996727 1.0937884 -0.19030355 0
-0.42672622 1.2283906 -0.18275119 0
-0.43302891 1.2465336 -0.15422672 0
-0.4344984 1.2507638 -0.12359048 0
-0.43009177 1.2380787 -0.091627173 0
-0.43475813 1.2515115 -0.061679129 0
-0.43176758 1.2429028 -0.030592062 0
-0.43426871 1.2501026 3.7780486e-05 0
-0.43036562 1.238867 0.030567652 0
-0.43444037 1.2505968 0.061709806 0
-0.43451381 1.2508081 0.09264522 0
-0.43042108 1.2390267 0.12250625 0
-0.43224254 1.24427 0.15402289 0
-0.43340603 1.2476193 0.18568881 0
-0.43245164 1.244872 0.21666721 0
-0.43101156 1.2407265 0.24746884 0
-0.31636682 0.84157699 -0.19110964 0
-0.35969326 0.95683098 -0.19253348 0
-0.40651691 1.081388 -0.18987069 0
-0.48015046 1.2772628 -0.19176389 0
-0.48229656 1.2829717 -0.16019005 0
-0.51301295 1.3646814 -0.13608296 0
-0.51155919 1.3608141 -0.10163369 0
-0.51225197 1.362657 -0.067772388 0
-0.51408714 1.3675387 -0.033968318 0
-0.51177925 1.3613995 4.1521242e-05 0
-1.2035043 3.2014785 0.079716973 0
-1.1951871 3.1793535 0.15832099 0
-1.1605815 3.0872979 0.23076701 0
-1.1589733 3.0830202 0.30762157 0
-1.158639 3.0821304 0.38502106 0
-1.161189 3.0889142 0.4639512 0
-0.34171951 0.84374547 -0.19349898 0
-0.38291067 0.94545126 -0.19212711 0
-0.43506542 1.0742275 -0.19048078 0
-0.50926095 1.257425 -0.19065453 0
-0.51584107 1.2736721 -0.16060333 0
-0.5146541 1.2707412 -0.12796998 0
-0.50903785 1.2568741 -0.094800174 0
-0.51615137 1.2744381 -0.064012304 0
-0.5103696 1.2601622 -0.031611085 0
-0.5100081 1.2592697 3.878662e-05 0
-1.2780782 3.1557248 0.15870014 0
-1.1992275 2.9610331 0.22352028 0
-1.1976119 2.9570444 0.29797286 0
-1.2038548 2.9724586 0.37499696 0
-1.204177 2.973254 0.45100045 0
-0.35878763 0.82539612 -0.19130667 0
-0.40125206 0.92308617 -0.18957986 0
-0.46311375 1.0653999 -0.19092728 0
-0.51691276 1.1891654 -0.18222491 0
-0.51095593 1.1754615 -0.14979792 0
-0.513744 1.1818755 -0.12028823 0
-0.51536554 1.1856059 -0.090377048 0
-0.51028991 1.1739293 -0.059591882 0
-0.51699507 1.1893547 -0.030152597 0
-0.51187664 1.1775796 3.6656747e-05 0
-1.3555611 3.1184881 0.1584976 0
-1.2300596 2.8297698 0.21588637 0
-1.229027 2.8273945 0.28794247 0
-1.2291937 2.8277779 0.36054352 0
-1.2280945 2.8252492 0.43311396 0
-1.2286938 2.8266282 0.5067327 0
-0.38602141 0.83010679 -0.19459465 0
-0.43149793 0.92790025 -0.19274384 0
-0.48796576 1.0493296 -0.19019388 0
-0.51300204 1.103168 -0.1709765 0
-0.51355821 1.104364 -0.14234391 0
-0.51313955 1.1034636 -0.11358964 0
-0.5177688 1.1134186 -0.085843123 0
-0.5126456 1.1024015 -0.05659971 0
-0.5125457 1.1021867 -0.028261667 0
-0.51121467 1.0993245 3.461137e-05 0
-1.4306233 3.0764358 0.1581451 0
-1.249885 2.6877732 0.2073939 0
-1.2442397 2.6756334 0.27559745 0
-1.2423065 2.6714764 0.34450299 0
-1.239746 2.6659703 0.41336146 0
-1.246305 2.6800747 0.48594424 0
-0.39781651 0.80190766 -0.19027729 0
-0.4520047 0.91113865 -0.19157082 0
-0.51462978 1.0373765 -0.19032098 0
-0.51574582 1.0396264 -0.16309389 0
-0.51552129 1.0391737 -0.13557526 0
-0.51335126 1.0347995 -0.1078208 0
-0.51458001 1.0372763 -0.080948196 0
-0.51220345 1.0324856 -0.05365672 0
-0.51273447 1.0335561 -0.02682516 0
-0.50806612 1.0241457 3.2637759e-05 0
-1.2484155 2.5165217 0.19654849 0
-1.2448407 2.5093157 0.26161918 0
-1.2427046 2.5050101 0.32697669 0
-1.2353778 2.4902408 0.39082438 0
-1.2424393 2.5044751 0.45964432 0
-0.4224301 0.80015266 -0.19232944 0
-0.47304127 0.89601862 -0.19084123 0
-0.53354871 1.0106298 -0.18782468 0
-0.53183383 1.0073816 -0.16009019 0
-0.53542513 1.014184 -0.13403535 0
-0.5373804 1.0178876 -0.10743766 0
-0.53594935 1.0151769 -0.080253646 0
-0.53338909 1.0103275 -0.053187862 0
-0.53354549 1.0106237 -0.026571009 0
-0.53532946 1.0140028 3.2734675e-05 0
-1.2469296 2.3618915 0.18686986 0
-1.2387209 2.3463428 0.2478084 0
-1.2421752 2.3528857 0.31111321 0
-1.2376015 2.3442225 0.37269148 0
-1.2417423 2.3520658 0.43728539 0
-1.2422868 2.3530972 0.50133884 0
-0.43937501 0.78369379 -0.19097798 0
-0.49693328 0.8863579 -0.19139399 0
-0.55391186 0.98798811 -0.18615566 0
-0.56270111 1.0036651 -0.16170505 0
-0.55781436 0.99494886 -0.13331142 0
-0.55802113 0.99531764 -0.10650803 0
-0.56046474 0.99967623 -0.080121003 0
-0.56082058 1.0003109 -0.0533887 0
-0.5625037 1.0033129 -0.026743546 0
-0.56101823 1.0006634 3.2750722e-05 0
-1.2924626 2.3053083 0.061599527 0
-1.2957908 2.3112447 0.12350763 0
-1.2538754 2.2364821 0.17939433 0
-1.2398716 2.2115042 0.23679708 0
-1.2430094 2.2171011 0.29721251 0
-1.2384729 2.2090094 0.35605097 0
-1.2435954 2.2181461 0.41808984 0
-1.2349441 2.2027154 0.47578835 0
-0.4599053 0.77386743 -0.1913511 0
-0.5248509 0.88314933 -0.19349992 0
-0.58634573 0.9866246 -0.18862705 0
-0.58799469 0.98939931 -0.1617461 0
-0.58466017 0.98378837 -0.1337506 0
-0.58288753 0.98080558 -0.10649546 0
-0.58219355 0.97963792 -0.0796673 0
-0.58654469 0.98695934 -0.053449191 0
-0.5866574 0.98714906 -0.026698865 0
-0.58308727 0.98114169 3.2583077e-05 0
-1.356337 2.2822635 0.061878763 0
-1.3531868 2.2769628 0.12346143 0
-1.2526376 2.1077719 0.17155147 0
-1.2423666 2.0904891 0.2271245 0
-1.2455559 2.0958557 0.28508246 0
-1.2437965 2.0928953 0.34228638 0
-1.2399511 2.0864248 0.39903384 0
-1.2411944 2.0885167 0.45774215 0
-0.48027003 0.76358443 -0.19174464 0
-0.54191434 0.86159313 -0.1917126 0
-0.61115301 0.97167617 -0.18865807 0
-0.61499393 0.97778285 -0.16233286 0
-0.60592401 0.96336251 -0.1330104 0
-0.61311024 0.97478795 -0.10748804 0
-0.60771209 0.96620536 -0.079796851 0
-0.61492795 0.97767788 -0.053769927 0
-0.61732811 0.98149395 -0.026958734 0
-0.61488837 0.977615 3.2970838e-05 0
-1.2452875 1.9798908 0.16364919 0
-1.2334254 1.9610311 0.21637262 0
-1.2373816 1.9673209 0.27176037 0
-1.2415527 1.9739527 0.32785413 0
-1.2448089 1.9791298 0.38439968 0
-1.2410738 1.9731913 0.43919152 0
-0.50349957 0.75741601 -0.19332521 0
-0.56519812 0.85022938 -0.19229694 0
-0.64085501 0.96404028 -0.19025533 0
-0.6419307 0.96565849 -0.16295789 0
-0.63868803 0.96078056 -0.13483663 0
-0.64035779 0.9632923 -0.1079682 0
-0.64042366 0.96339142 -0.080873623 0
-0.64601725 0.97180587 -0.054326408 0
-0.63801146 0.95976275 -0.026795603 0
-0.63829315 0.96018648 3.2915887e-05 0
-1.2570118 1.8909268 0.15886752 0
-1.2423422 1.8688594 0.20959567 0
-1.2451338 1.8730588 0.26299658 0
-1.2388803 1.8636516 0.31462735 0
-1.2355083 1.8585792 0.36692527 0
-1.2379744 1.862289 0.42132732 0
-0.51571465 0.73487401 -0.19083302 0
-0.5821175 0.82949561 -0.19086969 0
-0.66952389 0.95404643 -0.1915569 0
-0.66974127 0.95435619 -0.16385095 0
-0.67008805 0.95485038 -0.13633446 0
-0.6666643 0.94997168 -0.10832658 0
-0.66997373 0.95468748 -0.081536487 0
-0.66393554 0.94608331 -0.053808078 0
-0.66639239 0.94958425 -0.026972411 0
-0.66823536 0.95221037 3.3210046e-05 0
-1.2982767 1.8499955 0.15813126 0
-1.250996 1.7826225 0.20340033 0
-1.2369759 1.7626444 0.25179669 0
-1.2395102 1.7662556 0.30336949 0
-1.2403842 1.7675011 0.35501188 0
-1.2402841 1.7673583 0.40680265 0
-0.53586328 0.72402126 -0.19146588 0
-0.6014055 0.81257737 -0.19040883 0
-0.68786204 0.92939144 -0.19003186 0
-0.69199622 0.93497723 -0.16347034 0
-0.69511014 0.93918461 -0.13655913 0
-0.69048864 0.93294036 -0.10833723 0
-0.68171269 0.92108291 -0.080110408 0
-0.68682784 0.92799407 -0.05374806 0
-0.68883449 0.93070537 -0.026921421 0
-0.69373697 0.93732923 3.3291104e-05 0
-1.3446198 1.816757 0.15814058 0
-1.2505327 1.689633 0.19632886 0
-1.2403264 1.6758429 0.24379125 0
-1.2414559 1.6773691 0.29339078 0
-1.2395195 1.6747527 0.3425574 0
-1.2421386 1.6782916 0.39339247 0
-0.54863709 0.70344502 -0.18962598 0
-0.6276266 0.80472285 -0.19221897 0
-0.71240813 0.913427 -0.19038345 0
-0.71634352 0.91847283 -0.16369365 0
-0.7200439 0.9232173 -0.13683629 0
-0.70952028 0.90972424 -0.10768649 0
-0.72137392 0.92492259 -0.082001768 0
-0.7244274 0.92883772 -0.05483843 0
-0.71980721 0.92291379 -0.027212881 0
-0.71648073 0.91864872 3.3259301e-05 0
-1.3869923 1.7783573 0.15779497 0
-1.2521008 1.6054037 0.19015318 0
-1.2401835 1.5901237 0.23579973 0
-1.241429 1.5917206 0.28379992 0
-1.2425579 1.5931681 0.33217877 0
-1.237125 1.5862024 0.37900493 0
-0.57174093 0.6961112 -0.19147795 0
-0.64131457 0.78081912 -0.19031492 0
-0.73999286 0.90096283 -0.19161728 0
-0.74518156 0.90728015 -0.16499828 0
-0.7567727 0.92139274 -0.13935246 0
-0.74628711 0.90862626 -0.10975118 0
-0.74166977 0.90300447 -0.081692129 0
-0.74655825 0.90895635 -0.054759651 0
-0.75246215 0.91614449 -0.027564481 0
-0.74336338 0.90506649 3.3436176e-05 0
-1.4327617 1.744429 0.15794282 0
-1.2486875 1.5203134 0.18374898 0
-1.2468623 1.518091 0.22971147 0
-1.2384053 1.5077944 0.27432162 0
-1.2464145 1.5175459 0.32286769 0
-1.2430787 1.5134845 0.36900878 0
-0.5923118 0.68515325 -0.19251455 0
-0.66773111 0.77239406 -0.19230787 0
-0.75796545 0.87677211 -0.19048038 0
-0.77843285 0.90044767 -0.16727543 0
-0.77038795 0.89114177 -0.13767414 0
-0.77166557 0.89261967 -0.11013518 0
-0.77229232 0.89334464 -0.082555316 0
-0.77850664 0.90053302 -0.055418272 0
-0.77668053 0.89842063 -0.027612215 0
-0.7699101 0.890589 3.36085e-05 0
-1.4796332 1.7115571 0.15829736 0
-1.2438264 1.438789 0.1776334 0
-1.2391863 1.4334215 0.2215616 0
-1.241228 1.4357833 0.2668348 0
-1.2371804 1.4311012 0.31102034 0
-1.239736 1.4340574 0.35715845 0
-0.61022359 0.67088467 -0.19277146 0
-0.67919898 0.74671674 -0.19012231 0
-0.77700585 0.85424632 -0.18978667 0
-0.80499381 0.8850165 -0.16812958 0
-0.80048883 0.88006371 -0.13903967 0
-0.80437696 0.88433838 -0.11158278 0
-0.80291665 0.88273287 -0.083420798 0
-0.79408962 0.8730284 -0.054941531 0
-0.79322934 0.87208253 -0.027409315 0
-0.80001152 0.87953895 3.3942666e-05 0
-1.2561315 1.3810009 0.17435746 0
-1.2413621 1.3647631 0.21572323 0
-1.2358716 1.358727 0.2582289 0
-1.2458962 1.3697481 0.30442351 0
-1.2411473 1.3645271 0.34753269 0
-0.62495559 0.65318334 -0.19215627 0
-0.70119911 0.73287058 -0.19104208 0
-0.80348837 0.83978003 -0.19101728 0
-0.83143365 0.8689875 -0.16901718 0
-0.83466667 0.87236655 -0.14110687 0
-0.83611685 0.87388223 -0.11289018 0
-0.83668387 0.87447488 -0.084609076 0
-0.82594037 0.86324608 -0.055620074 0
-0.82800108 0.86539984 -0.027847229 0
-0.82890648 0.86634618 3.4230001e-05 0
-1.2509123 1.307413 0.16899893 0
-1.2347338 1.2905037 0.20884471 0
-1.2411067 1.2971644 0.25240171 0
-1.2512778 1.307795 0.29757863 0
-1.2432731 1.2994288 0.33883676 0
-0.64349014 0.63944602 -0.19283143 0
-0.72077513 0.71624529 -0.19138944 0
-0.82163417 0.8164705 -0.19037157 0
-0.85641712 0.85103482 -0.16967548 0
-0.86555278 0.86011314 -0.14261302 0
-0.85416001 0.8487919 -0.11239809 0
-0.85537177 0.84999609 -0.084302604 0
-0.85805702 0.85266441 -0.056315709 0
-0.86495584 0.8595199 -0.028351467 0
-0.86326718 0.85784185 3.4743785e-05 0
-1.2709888 1.2630011 0.041762751 0
-1.2787622 1.2707257 0.084030449 0
-1.2731488 1.2651476 0.1255803 0
-1.2540967 1.2462152 0.16512722 0
-1.2483174 1.2404721 0.20578118 0
-1.2327914 1.2250438 0.24434489 0
-1.2457839 1.2379546 0.28874949 0
-1.2418156 1.2340112 0.32984629 0
-0.65127534 0.61531252 -0.19044998 0
-0.73192871 0.69151223 -0.18965632 0
-0.8395775 0.79321676 -0.18982995 0
-0.88240349 0.83367795 -0.17060091 0
-0.88378996 0.83498782 -0.14210032 0
-0.88531947 0.83643287 -0.11368419 0
-0.88874817 0.83967227 -0.08547619 0
-0.88587558 0.83695829 -0.056737017 0
-0.88504273 0.83617145 -0.028309111 0
-0.88108194 0.83242935 3.4604178e-05 0
-1.2965573 1.2249625 0.041573774 0
-1.299889 1.2281102 0.083355352 0
-1.2890265 1.2178476 0.12407508 0
-1.2452509 1.1764892 0.16000178 0
-1.2574841 1.1880469 0.20228492 0
-1.2350715 1.1668719 0.2388835 0
-1.2353987 1.167181 0.27942547 0
-1.2406687 1.17216 0.32158121 0
-0.67906493 0.60988569 -0.1940133 0
-0.74653971 0.67048651 -0.18899721 0
-0.8611415 0.77341336 -0.19023149 0
-0.91765541 0.82416993 -0.17333956 0
-0.91841084 0.82484841 -0.14427361 0
-0.91456139 0.82139111 -0.11474053 0
-0.92004651 0.82631749 -0.086453013 0
-0.91921008 0.82556623 -0.057519149 0
-0.91750872 0.82403821 -0.028673194 0
-0.92445982 0.83028114 3.5473513e-05 0
-1.3269848 1.1917992 0.041571684 0
-1.3357064 1.1996323 0.083683945 0
-1.333127 1.1973157 0.12537131 0
-1.2571702 1.1290969 0.15782142 0
-1.2488102 1.1215885 0.19627336 0
-1.237131 1.1110992 0.23378339 0
-1.2398757 1.1135643 0.27399394 0
-1.2459517 1.1190212 0.3155295 0
-0.69166988 0.59036714 -0.19329596 0
-0.77208799 0.65900713 -0.19119345 0
-0.88565105 0.75593764 -0.19137016 0
-0.9521414 0.81268972 -0.17592324 0
-0.9492473 0.81021947 -0.14585891 0
-0.94563544 0.8071366 -0.11604633 0
-0.94029695 0.80258 -0.086424939 0
-0.94626474 0.80767375 -0.057918064 0
-0.94780445 0.80898798 -0.028972657 0
-0.94522196 0.80678368 3.5477555e-05 0
-1.4101652 1.2036308 0.043212097 0
-1.4068655 1.2008144 0.086215913 0
-1.4115967 1.2048526 0.1298497 0
-1.2441306 1.0619138 0.15277122 0
-1.2492719 1.0663021 0.19205499 0
-1.243834 1.0616606 0.22991329 0
-1.2337102 1.0530196 0.26667339 0
-1.2356974 1.0547158 0.30609384 0
-0.69999772 0.56758094 -0.19155893 0
-0.79573399 0.64520699 -0.19295496 0
-0.90262061 0.73187417 -0.19098474 0
-0.98760164 0.80077958 -0.17868389 0
-0.97196621 0.78810179 -0.14624688 0
-0.98408532 0.79792839 -0.11825575 0
-0.97531259 0.79081517 -0.087780841 0
-0.97521275 0.79073417 -0.058449741 0
-0.98418444 0.79800874 -0.029459674 0
-0.97436225 0.79004461 3.581147e-05 0
-1.2501825 1.0136887 0.15032488 0
-1.2469304 1.0110517 0.18771227 0
-1.2318106 0.99879211 0.22296025 0
-1.2402537 1.005638 0.26251787 0
-1.2395937 1.0051029 0.30067942 0
-0.71704262 0.55200744 -0.19234949 0
-0.80616862 0.62062007 -0.19162592 0
-0.91254824 0.70251524 -0.1892734 0
-1.0055755 0.7741313 -0.17834404 0
-1.014189 0.78076231 -0.14958729 0
-1.0098835 0.77744782 -0.11896005 0
-1.0198767 0.78514093 -0.089979567 0
-1.0110642 0.77835667 -0.059402168 0
-1.0178735 0.78359884 -0.029866587 0
-1.0160944 0.78222919 3.6608009e-05 0
-1.2472951 0.96021658 0.14701681 0
-1.2387503 0.95363837 0.18279932 0
-1.2317307 0.94823444 0.21854436 0
-1.2514746 0.96343404 0.2596634 0
-1.2431785 0.95704734 0.29559574 0
-0.72351259 0.52845955 -0.19044653 0
-0.83143646 0.60728806 -0.193927 0
-0.93854576 0.68552154 -0.19101615 0
-1.0505059 0.76729816 -0.18281984 0
-1.0463256 0.76424479 -0.15143403 0
-1.041342 0.76060474 -0.12036608 0
-1.0431404 0.76191837 -0.090306677 0
-1.0378665 0.75806618 -0.059833709 0
-1.0431919 0.76195598 -0.030035639 0
-1.0401098 0.75970477 3.6770718e-05 0
-1.2541778 0.91606182 0.14505669 0
-1.2425073 0.90753758 0.17991635 0
-1.2439855 0.90861726 0.21658084 0
-1.2440952 0.90869737 0.25329298 0
-1.2396491 0.90544993 0.28923064 0
-0.74166876 0.51353508 -0.19175293 0
-0.84413934 0.58448619 -0.19338752 0
-0.96182954 0.66597551 -0.19227278 0
-1.0765821 0.74543071 -0.18402509 0
-1.0678736 0.73940086 -0.15180342 0
-1.0803527 0.74804151 -0.1226539 0
-1.0776075 0.74614072 -0.091631077 0
-1.0833476 0.75011516 -0.061344739 0
-1.0677804 0.73933631 -0.03019671 0
-1.07698 0.7457062 3.7396901e-05 0
-1.2395972 0.85830313 0.10549188 0
-1.2547411 0.86878884 0.14254034 0
-1.235763 0.85564834 0.17575671 0
-1.241068 0.85932159 0.21222931 0
-1.2460591 0.86277735 0.24918003 0
-1.2409745 0.85925686 0.28438944 0
-0.76397955 0.5009467 -0.19419052 0
-0.84721977 0.55552793 -0.19082034 0
-0.97347027 0.63831127 -0.19131836 0
-1.1224722 0.73601282 -0.18863387 0
-1.1177135 0.73289251 -0.15620916 0
-1.1104158 0.72810745 -0.12394121 0
-1.1160684 0.73181385 -0.093301199 0
-1.1121013 0.72921258 -0.061911043 0
-1.1098945 0.72776562 -0.03085842 0
-1.1083542 0.72675556 3.7837359e-05 0
-1.2614301 0.82712859 0.10553972 0
-1.2356325 0.81021291 0.13800262 0
-1.2406392 0.81349581 0.17347485 0
-1.2432138 0.81518394 0.20901133 0
-1.2367408 0.81093967 0.24314627 0
-1.2374256 0.81138861 0.27879435 0
-0.76518327 0.47456968 -0.19139101 0
-0.86649519 0.53740376 -0.19204567 0
-0.98362136 0.61004585 -0.19022679 0
-1.1495649 0.71296471 -0.19010232 0
-1.1506536 0.71363997 -0.15824515 0
-1.1503012 0.7134214 -0.12634307 0
-1.1509312 0.71381211 -0.094679423 0
-1.1482223 0.7121321 -0.062901296 0
-1.1558955 0.71689093 -0.031624254 0
-1.1460941 0.71081209 3.8501028e-05 0
-1.2640649 0.7839781 0.069332428 0
-1.2404575 0.7693367 0.1021279 0
-1.2487111 0.77445561 0.13723654 0
-1.2344072 0.76558423 0.16984753 0
-1.2368853 0.7671212 0.20462716 0
-1.2389659 0.76841152 0.23969446 0
-1.2388479 0.76833838 0.27465826 0
-0.77031398 0.45124632 -0.18976523 0
-0.88901991 0.52078372 -0.19406295 0
-1.0008353 0.58628464 -0.19063346 0
-1.1668438 0.68353164 -0.19004631 0
-1.1862365 0.69489181 -0.16067557 0
-1.1897532 0.69695181 -0.12870325 0
-1.1891203 0.69658113 -0.096344024 0
-1.1848862 0.6941008 -0.063929752 0
-1.1940794 0.69948614 -0.032175682 0
-1.1814202 0.69207042 3.9088522e-05 0
-1.2531029 0.73406184 0.067693435 0
-1.2448522 0.72922862 0.10094228 0
-1.2482445 0.73121578 0.13511395 0
-1.2474413 0.73074526 0.16904943 0
-1.2386887 0.72561806 0.20183143 0
-1.2350943 0.72351247 0.23533773 0
-1.2368511 0.72454154 0.27007529 0
-0.7857815 0.4340573 -0.19081607 0
-0.89882857 0.49650326 -0.19340704 0
-1.0193602 0.56308365 -0.19139408 0
-1.1799418 0.65178716 -0.18943995 0
-1.4429783 0.7970857 -0.19266492 0
-1.8056105 0.99739993 -0.19254002 0
-3.021719 1.6691651 -0.24133335 0
-4.5478916 2.5122066 -0.24188043 0
-9.0986176 5.025979 -0.24167641 0
-1.2466125 0.68861538 0.033193734 0
-1.261492 0.69683462 0.067175142 0
-1.235513 0.68248409 0.098756768 0
-1.2559888 0.69379479 0.13401413 0
-1.2380521 0.68388671 0.16538526 0
-1.235598 0.68253106 0.19845775 0
-1.2479746 0.68936783 0.23440211 0
-1.2407299 0.68536592 0.26706007 0
-0.81167251 0.4219901 -0.19445506 0
-0.89933956 0.46756837 -0.1909169 0
-1.0235285 0.53213441 -0.18959463 0
-1.2055178 0.62675101 -0.1909457 0
-1.4476426 0.75263214 -0.19069068 0
-1.8219577 0.94723934 -0.1916728 0
-3.0635734 1.5927577 -0.24138866 0
-4.6044235 2.3938487 -0.24159679 0
-9.2236872 4.795413 -0.2417067 0
-1.242986 0.64623076 0.032652475 0
-1.2371126 0.64317721 0.064991809 0
-1.247121 0.64838058 0.098345257 0
-1.2445765 0.64705765 0.13101217 0
-1.2427496 0.64610791 0.16378222 0
-1.2321656 0.64060521 0.19524738 0
-1.2401481 0.64475536 0.2298024 0
-1.236017 0.64260757 0.26247105 0
-0.81547469 0.39816052 -0.19289704 0
-0.9266426 0.45243892 -0.19422698 0
-1.0399218 0.50774819 -0.19019689 0
-1.2207348 0.59603125 -0.19091244 0
-1.4651947 0.71539026 -0.19056366 0
-1.8443658 0.90052289 -0.19157811 0
-3.1029596 1.5150391 -0.24140225 0
-4.6672492 2.2788129 -0.24179846 0
-9.3471537 4.5638046 -0.24184665 0
-1.2424604 0.60663885 3.9472401e-05 0
-1.2589121 0.61467153 0.032652911 0
-1.2463661 0.6085459 0.064650469 0
-1.2389172 0.60490894 0.096463665 0
-1.2472314 0.60896838 0.12963246 0
-1.2434515 0.60712278 0.16180377 0
-1.2348572 0.60292661 0.19320107 0
-1.2318106 0.60143906 0.22537284 0
-1.2474946 0.60909688 0.26156059 0
-0.82824975 0.37882549 -0.1935956 0
-0.93150467 0.4260523 -0.19293076 0
-1.0593745 0.48453745 -0.19145703 0
-1.2425288 0.56830871 -0.19201647 0
-1.4889288 0.68100739 -0.19135411 0
-1.8567971 0.84926325 -0.19058223 0
-3.1405714 1.4364369 -0.24143097 0
-4.7205763 2.1591005 -0.24166106 0
-9.4503794 4.3224216 -0.24161789 0
-1.249781 0.57162577 3.9234132e-05 0
-1.2520599 0.57266808 0.032090075 0
-1.2468928 0.57030481 0.063910805 0
-1.2412775 0.56773645 0.095501341 0
-1.2437427 0.56886399 0.12773691 0
-1.2441345 0.56904316 0.15997283 0
-1.2318199 0.5634107 0.19044042 0
-1.2400346 0.56716794 0.22418708 0
-1.2336451 0.56424552 0.25558949 0
-0.82086748 0.35068288 -0.18974084 0
-0.93124408 0.39783686 -0.19073638 0
-1.0624994 0.45391047 -0.18989088 0
-1.2608265 0.53863776 -0.19268189 0
-1.5109738 0.64550328 -0.19203235 0
-1.8863864 0.80588329 -0.19147064 0
-3.1882172 1.3620385 -0.24237385 0
-4.7744064 2.0396748 -0.24170445 0
-9.5690851 4.0880098 -0.24193788 0
-1.2594956 0.53806925 3.9100327e-05 0
-1.2354076 0.52777863 0.031311903 0
-1.2489618 0.5335691 0.063306436 0
-1.2329103 0.5267117 0.093804926 0
-1.2400516 0.52976257 0.1259445 0
-1.2385064 0.52910244 0.15748192 0
-1.245783 0.53221107 0.1904618 0
-1.2452377 0.53197813 0.22262944 0
-1.2370907 0.52849764 0.2534591 0
-0.83557332 0.33229339 -0.19114059 0
-0.94448948 0.37560752 -0.19144665 0
-1.0838476 0.43102789 -0.19170095 0
-1.2700443 0.50507516 -0.1920813 0
-1.5182339 0.60377598 -0.19095752 0
-1.9138769 0.76111656 -0.19224991 0
-3.2125151 1.277563 -0.24169278 0
-4.832499 1.9218034 -0.24211274 0
-1.2475814 0.49614206 -0.031216409 0
-1.2629807 0.50226611 3.880262e-05 0
-1.2296375 0.48900607 0.030843021 0
-1.2456682 0.49538121 0.062485851 0
-1.255015 0.4990983 0.094498239 0
-1.243703 0.4945997 0.12500769 0
-1.232437 0.4901194 0.15508787 0
-1.2454295 0.49528632 0.18843661 0
-1.2396882 0.49300304 0.21934281 0
-1.2374618 0.49211767 0.25091046 0
-0.84689492 0.31228659 -0.19186637 0
-0.94848132 0.34974584 -0.19040588 0
-1.082882 0.39930514 -0.18968724 0
-1.2778959 0.47121516 -0.19140913 0
-1.5424637 0.56877267 -0.19213831 0
-1.9151847 0.70621091 -0.19053017 0
-3.250633 1.1986481 -0.24220739 0
-4.8683629 1.7951747 -0.24156263 0
-1.2572063 0.46358603 -0.031154556 0
-1.2337623 0.45494115 3.7540212e-05 0
-1.2390187 0.45687944 0.030779291 0
-1.2375402 0.45633429 0.061480813 0
-1.2396555 0.45711428 0.092443578 0
-1.2412034 0.45768508 0.12355603 0
-1.2462108 0.45953152 0.1553122 0
-1.2476125 0.46004835 0.18695056 0
-1.2423481 0.45810714 0.21769838 0
-1.2411132 0.45765179 0.24922942 0
-0.86122513 0.29310641 -0.19337536 0
-0.96231848 0.32751217 -0.19146329 0
-1.0992086 0.37410089 -0.19083245 0
-1.2827358 0.43656191 -0.19042304 0
-1.546595 0.52636278 -0.19093728 0
-1.9379641 0.65956002 -0.19107942 0
-3.2694037 1.1126976 -0.2414366 0
-1.2565131 0.42763737 -0.061791532 0
-1.2499816 0.42541447 -0.030699674 0
-1.2307314 0.41886288 3.7114503e-05 0
-1.2407054 0.42225742 0.030546719 0
-1.2326906 0.41952968 0.060694516 0
-1.2377937 0.42126644 0.091482729 0
-1.2341807 0.42003682 0.12176286 0
-1.24511 0.42375648 0.15379311 0
-1.2443986 0.42351434 0.18480839 0
-1.2426469 0.42291817 0.2158116 0
-1.2494278 0.42522594 0.24866471 0
-0.87597519 0.27366692 -0.19507426 0
-0.97347963 0.30412868 -0.19209555 0
-1.1033922 0.34471518 -0.18998782 0
-1.2931491 0.40399787 -0.1903946 0
-1.5783769 0.49310702 -0.19326293 0
-1.9699844 0.61545068 -0.19264366 0
-3.2965903 1.0299009 -0.24144781 0
-1.248462 0.390037 -0.060892101 0
-1.2511376 0.39087293 -0.030476069 0
-1.2326801 0.3851065 3.6868416e-05 0
-1.239408 0.3872084 0.030264528 0
-1.2519246 0.39111876 0.061136037 0
-1.2410961 0.38773578 0.090974569 0
-1.2369422 0.38643801 0.1210345 0
-1.2459736 0.38925958 0.15263766 0
-1.2354594 0.38597482 0.18197611 0
-1.2411752 0.38776052 0.21378826 0
-1.2396721 0.38729089 0.24469976 0
-0.86546314 0.24659495 -0.19128637 0
-0.96785325 0.27576879 -0.1895515 0
-1.1139333 0.31739116 -0.1903629 0
-1.2994097 0.37023863 -0.18988009 0
-1.5805565 0.45034531 -0.19207692 0
-1.9728874 0.56213146 -0.19147916 0
-1.2481741 0.35564014 -0.090732053 0
-1.2598528 0.35896772 -0.060986362 0
-1.2335802 0.35148191 -0.029822806 0
-1.2392021 0.35308379 3.6785237e-05 0
-1.2361668 0.35221893 0.02995877 0
-1.2373787 0.35256425 0.05997207 0
-1.2356284 0.3520655 0.089893796 0
-1.2341449 0.35164285 0.1198542 0
-1.2450551 0.35475144 0.15138008 0
-1.2326938 0.35122937 0.18020564 0
-1.2389567 0.35301384 0.211804 0
-1.2244049 0.34886765 0.23987176 0
-0.87035125 0.22440712 -0.19105408 0
-0.98467588 0.25388405 -0.19153024 0
-1.133431 0.2922383 -0.19237316 0
-1.3197999 0.34029076 -0.19154362 0
-1.5811341 0.4076719 -0.19083594 0
-1.9866625 0.51223141 -0.19150038 0
-1.2516551 0.32272068 -0.09036424 0
-1.2623395 0.32547545 -0.060689759 0
-1.2457134 0.32118866 -0.02991063 0
-1.2460992 0.32128814 3.6737561e-05 0
-1.246608 0.32141933 0.030005656 0
-1.2428539 0.32045138 0.059826389 0
-1.2526275 0.32297137 0.090508662 0
-1.2490497 0.32204887 0.12047394 0
-1.2348754 0.31839427 0.14911786 0
-1.2464241 0.32137191 0.18096948 0
-1.2370614 0.3189579 0.2100369 0
-1.2473606 0.32161337 0.24270144 0
-0.87750161 0.20278385 -0.19143924 0
-0.99581301 0.23012471 -0.19250548 0
-1.1257156 0.2601442 -0.18988881 0
-1.3300209 0.30735755 -0.19184007 0
-1.5914367 0.36776873 -0.19089831 0
-2.5261097 0.58376443 -0.24200203 0
-1.2453847 0.28779879 -0.089358665 0
-1.2411473 0.28681955 -0.059303977 0
-1.2374705 0.28596988 -0.029530009 0
-1.2251468 0.28312194 3.5897738e-05 0
-1.2366238 0.2857742 0.029582309 0
