# .PCD v0.7 - Point Cloud Data file format
VERSION 0.7
FIELDS x y z intensity
SIZE 4 4 4 4
TYPE F F F F
COUNT 1 1 1 1
WIDTH 1340
HEIGHT 1
VIEWPOINT 0 0 0 1 0 0 0
POINTS 1340
DATA ascii
0.17803383 1.8757979 -0.30967534 0
0.20797777 2.1912928 -0.30933651 0
0.18159108 1.9132776 -0.22461598 0
0.20684566 2.1793647 -0.20433681 0
0.18240958 1.9219016 -0.13496284 0
0.73409915 7.7346063 -0.36170012 0
1.4679904 15.467023 -0.36123127 0
0.33981985 3.5804057 0.083825596 0
0.34031004 3.5855703 0.16788124 0
0.18513243 1.95059 0.13708988 0
0.13096982 1.3799226 0.12946112 0
0.064017981 0.92104942 -0.31193623 0
0.069230549 0.99604452 -0.31164125 0
0.075849965 1.0912803 -0.31369403 0
0.081429146 1.17155 -0.3073777 0
0.091326848 1.3139517 -0.31217605 0
0.10260412 1.4762019 -0.31454146 0
0.11561043 1.6633282 -0.31404534 0
0.1309949 1.8846701 -0.31049538 0
0.13635632 1.9618069 -0.27636704 0
0.13593064 1.9556824 -0.2291185 0
0.23066652 3.318681 -0.31051415 0
0.35842779 5.1568279 -0.36138067 0
0.53936148 7.7599845 -0.36213499 0
1.0784277 15.51572 -0.36161777 0
0.13502701 1.9426813 0.04538843 0
0.13197012 1.898701 0.088715531 0
0.13213012 1.9010028 0.13332798 0
0.095704094 1.3769288 0.12891257 0
0.037666228 0.85239017 -0.31057417 0
0.040682517 0.92064911 -0.31135377 0
0.044618901 1.0097299 -0.31547031 0
0.047850247 1.0828555 -0.31082612 0
0.052204221 1.1813862 -0.30951416 0
0.05761537 1.3038411 -0.30932993 0
0.064751185 1.4653252 -0.31177643 0
0.073065206 1.6534723 -0.31173706 0
0.08396478 1.9001306 -0.31259379 0
0.097431533 2.2048845 -0.31016508 0
0.11785835 2.6671453 -0.31202227 0
0.1477066 3.3426137 -0.31230518 0
0.22849837 5.170939 -0.36185014 0
0.34290481 7.7599673 -0.36161512 0
0.68708324 15.548758 -0.36186832 0
0.085689008 1.9391502 0.045240991 0
0.085739553 1.940294 0.090528995 0
0.085297845 1.9302981 0.13518858 0
0.061280794 1.38679 0.12964971 0
0.016209941 0.85636264 -0.31177321 0
0.017341521 0.91614342 -0.3095834 0
0.018750973 0.99060398 -0.30924845 0
0.020674558 1.092226 -0.31326634 0
0.022468379 1.1869926 -0.31073546 0
0.024831163 1.3118172 -0.31097448 0
0.027825452 1.470004 -0.31252295 0
0.031223075 1.6494986 -0.31074035 0
0.035793908 1.8909732 -0.31083968 0
0.041778065 2.2071133 -0.31023148 0
0.05043323 2.6643608 -0.31144843 0
0.06314081 3.3356957 -0.31141075 0
0.098015405 5.178102 -0.36206302 0
0.14681391 7.7561021 -0.36114731 0
0.29445845 15.556085 -0.36175072 0
0.069951631 3.6955078 0.086148754 0
0.069862239 3.6907852 0.17206523 0
0.036789827 1.9435872 0.13601094 0
0.02633746 1.3913941 0.12997662 0
0.030835871 1.6290427 0.19052002 0
0.030441189 1.608192 0.22614086 0
-0.0053740684 0.85205698 -0.31015626 0
-0.0057306802 0.90859765 -0.30698463 0
-0.006276154 0.99508238 -0.31059706 0
-0.0068613277 1.0878614 -0.31196484 0
-0.0074155196 1.1757284 -0.30773768 0
-0.0081815245 1.2971783 -0.30745527 0
-0.0092478292 1.4662405 -0.31167322 0
-0.010426743 1.653157 -0.31137994 0
-0.011850086 1.8788276 -0.30879399 0
-0.013842164 2.1946709 -0.30843347 0
-0.016785696 2.6613672 -0.31104895 0
-0.021037079 3.3354225 -0.31133568 0
-0.03262151 5.1721306 -0.36158788 0
-0.049071018 7.7801948 -0.3622115 0
-0.098120824 15.557028 -0.36171505 0
-0.023392428 3.7088623 0.0864463 0
-0.0234208 3.713361 0.17309016 0
-0.012319569 1.9532639 0.13666634 0
-0.010283504 1.6304464 0.15228336 0
-0.010254149 1.6257924 0.1901096 0
-0.010114845 1.6037056 0.22547409 0
-0.027611528 0.87513387 -0.31870863 0
-0.029071787 0.92141604 -0.31146428 0
-0.031897333 1.0109704 -0.31570694 0
-0.034089897 1.0804626 -0.30999106 0
-0.037207384 1.1792698 -0.30881205 0
-0.041217692 1.3063745 -0.30978286 0
-0.046133865 1.4621903 -0.31096074 0
-0.052408122 1.6610498 -0.31301606 0
-0.060024194 1.9024374 -0.31282374 0
-0.070041977 2.2199461 -0.31213465 0
-0.083904549 2.6593137 -0.31095743 0
-0.10559301 3.3467188 -0.31253931 0
-0.12029669 3.8127449 -0.26667947 0
-0.12004811 3.8048663 -0.17722237 0
-0.11966884 3.7928455 -0.088229232 0
-0.1196915 3.7935636 0.00010835401 0
-0.11757874 3.7266004 0.08690124 0
-0.11748583 3.7236559 0.17365295 0
-0.061195739 1.939569 0.13577297 0
-0.043864962 1.3902785 0.12991376 0
-0.050109401 1.5881929 0.18580168 0
-0.05017516 1.5902772 0.22369292 0
-0.048221666 0.84844309 -0.30933303 0
-0.052407239 0.92208672 -0.31203872 0
-0.056382991 0.99203867 -0.31014058 0
-0.061771121 1.0868409 -0.31216893 0
-0.067584403 1.1891235 -0.31173983 0
-0.074600272 1.3125652 -0.31159812 0
-0.083514839 1.469414 -0.31284562 0
-0.093255945 1.6408052 -0.30954602 0
-0.10757642 1.8927689 -0.31158116 0
-0.12555192 2.2090416 -0.31094792 0
-0.15054335 2.6487567 -0.31006855 0
-0.18941106 3.3326204 -0.31156993 0
-0.21491969 3.7814357 -0.26478463 0
-0.21520604 3.786474 -0.17656247 0
-0.21482934 3.779846 -0.088024929 0
-0.21572731 3.7956455 0.00010853443 0
-0.21302868 3.7481639 0.087501593 0
-0.078024104 1.3728063 0.064092346 0
-0.07730189 1.3600993 0.095315382 0
-0.077646762 1.3661671 0.12780312 0
-0.087493174 1.5394113 0.18029568 0
-0.070747159 0.86075068 -0.31437117 0
-0.075950705 0.92406005 -0.31325543 0
-0.081936844 0.99689084 -0.3122046 0
-0.088435069 1.0759519 -0.30958387 0
-0.096628249 1.175635 -0.30874473 0
-0.10753521 1.3083353 -0.3111392 0
-0.12064771 1.4678696 -0.31306544 0
-0.13516626 1.6445106 -0.3107897 0
-0.15510291 1.8870715 -0.31118858 0
-0.18207234 2.2151971 -0.31236175 0
-0.21860334 2.6596541 -0.31189078 0
-0.27338886 3.3262064 -0.3115162 0
-0.42265022 5.1422062 -0.36070094 0
-0.63625628 7.7410607 -0.36159766 0
-1.2744042 15.505136 -0.36171699 0
-0.30659297 3.7301867 0.08723478 0
-0.11543836 1.4044895 0.065686651 0
-0.11424337 1.3899506 0.097578339 0
-0.11384542 1.3851089 0.12980255 0
-0.12508006 1.5217961 0.17854548 0
-0.091150574 0.84669369 -0.30997863 0
-0.099292807 0.92232651 -0.31341752 0
-0.10670497 0.99117774 -0.31115973 0
-0.11749053 1.0913644 -0.31477144 0
-0.12647228 1.1747955 -0.30926406 0
-0.13977361 1.2983508 -0.30950516 0
-0.15764117 1.4643219 -0.31305766 0
-0.17805506 1.6539456 -0.31332228 0
-0.20399258 1.894878 -0.31322521 0
-0.23504491 2.183322 -0.30860531 0
-0.28502387 2.6475739 -0.31121865 0
-0.35765696 3.3222597 -0.31189263 0
-0.5534035 5.1405406 -0.36144873 0
-0.83132464 7.7221379 -0.36157867 0
-1.6657795 15.473352 -0.36184108 0
-0.40103701 3.7252152 0.087327413 0
-0.15201131 1.4120263 0.066197485 0
-0.15043826 1.3974144 0.098337561 0
-0.14885005 1.3826616 0.1298839 0
-0.15980132 1.4843874 0.17457408 0
-0.11400073 0.8555029 -0.31415707 0
-0.12180032 0.91403383 -0.31154498 0
-0.13223523 0.99234128 -0.31247324 0
-0.14415888 1.0818207 -0.31296858 0
-0.15731856 1.1805756 -0.31173167 0
-0.17175874 1.28894 -0.30819699 0
-0.19220784 1.4423976 -0.30930907 0
-0.2195901 1.6478839 -0.31312415 0
-0.24987482 1.8751515 -0.31090787 0
-0.29370326 2.204056 -0.31248426 0
-0.34985834 2.6254642 -0.30955905 0
-0.44115853 3.3106139 -0.31174535 0
-0.68461579 5.1376057 -0.36234191 0
-1.025772 7.6977658 -0.3615346 0
-2.0540721 15.414504 -0.36156213 0
-0.49232972 3.6946211 0.086873844 0
-0.24164781 1.8134129 0.08527375 0
-0.18301873 1.3734391 0.096944571 0
-0.18477671 1.3866315 0.13065331 0
-0.19593444 1.4703633 0.1734511 0
-0.1347973 0.84762365 -0.31241351 0
-0.14448428 0.90853661 -0.31081524 0
-0.15765987 0.99138647 -0.31332576 0
-0.16943666 1.0654405 -0.30936846 0
-0.18548398 1.1663482 -0.30911258 0
-0.207846 1.3069636 -0.31366104 0
-0.22953774 1.4433641 -0.31065977 0
-0.25977555 1.6335036 -0.31153828 0
-0.29610035 1.8619189 -0.30985427 0
-0.34697536 2.1818278 -0.31047553 0
-0.41905019 2.6350439 -0.31183627 0
-0.52443576 3.2977226 -0.31167859 0
-0.81151801 5.1029344 -0.36122617 0
-1.2219121 7.683548 -0.36219993 0
-2.4441454 15.369116 -0.36182922 0
-0.28223279 1.7747178 0.041884162 0
-0.28067243 1.7649059 0.083299346 0
-0.28107673 1.7674482 0.12521668 0
-0.21751744 1.3677789 0.12935305 0
-0.2264027 1.4236506 0.16856104 0
-0.15649232 0.84585291 -0.31311691 0
-0.16903594 0.91365206 -0.31392482 0
-0.18075936 0.97701806 -0.31012779 0
-0.19715944 1.0656617 -0.31077865 0
-0.21739608 1.1750423 -0.31277129 0
-0.2351495 1.2710009 -0.30635706 0
-0.26458788 1.4301175 -0.30914751 0
-0.30277693 1.6365323 -0.31347352 0
-0.3461991 1.8712324 -0.31275868 0
-0.40185463 2.1720548 -0.31042925 0
-0.48443535 2.6184099 -0.31121558 0
-0.60617685 3.276432 -0.31101328 0
-0.94176769 5.0903258 -0.36190096 0
-1.4143543 7.6446929 -0.36193579 0
-2.8292558 15.292342 -0.36158773 0
-0.67138511 3.6288874 0.086015947 0
-0.66942126 3.6182725 0.17151664 0
-0.66623873 3.6010709 0.25623125 0
-0.25431582 1.3745964 0.13056321 0
-0.25596619 1.3835166 0.16452166 0
-0.17978542 0.85110897 -0.31664148 0
-0.1900776 0.89983249 -0.31072587 0
-0.20611092 0.97573465 -0.3112725 0
-0.22281313 1.0548034 -0.30915356 0
-0.24559477 1.1626523 -0.31102422 0
-0.27382353 1.296288 -0.31401795 0
-0.30298331 1.4343311 -0.31161216 0
-0.34325233 1.6249658 -0.31281781 0
-0.38899025 1.8414903 -0.30933002 0
-0.4570936 2.1638932 -0.31081262 0
-0.54706436 2.5898173 -0.30935976 0
-0.62094772 2.9395831 -0.28043646 0
-0.61776751 2.9245279 -0.20896372 0
-0.61941034 2.9323051 -0.13952486 0
-3.2140107 15.215213 -0.3615669 0
-0.7579025 3.5879309 0.08547134 0
-0.75472993 3.5729117 0.17021516 0
-0.75583607 3.5781484 0.25587609 0
-0.28778356 1.362375 0.13005088 0
-0.28464192 1.3475025 0.16104203 0
-0.19810721 0.83328241 -0.31177032 0
-0.21268624 0.89460504 -0.31067547 0
-0.2299097 0.96705067 -0.31025454 0
-0.24996082 1.0513902 -0.30990353 0
-0.27013275 1.1362376 -0.30568451 0
-0.30457646 1.2811155 -0.31210533 0
-0.34021229 1.4310076 -0.31265602 0
-0.38230363 1.6080531 -0.31132033 0
-0.43708122 1.8384595 -0.31057507 0
-0.51129705 2.1506276 -0.31066185 0
-0.52448088 2.2060819 -0.26501849 0
-0.62067407 2.6106915 -0.2504749 0
-0.61704171 2.595413 -0.18650113 0
-0.62112206 2.6125758 -0.12501761 0
-3.5966229 15.128185 -0.36154085 0
-0.83605486 3.5166304 0.084248669 0
-0.83555132 3.5145123 0.16838402 0
-0.83574754 3.5153377 0.25281239 0
-0.83600193 3.5164077 0.33757925 0
-0.31270206 1.3152936 0.15808558 0
-0.22050309 0.83344042 -0.31381172 0
-0.23445062 0.88615823 -0.3096984 0
-0.25500283 0.96383983 -0.31119016 0
-0.2763603 1.0445652 -0.30984911 0
-0.30034032 1.135203 -0.30734763 0
-0.3366929 1.2726055 -0.31200302 0
-0.37642032 1.4227642 -0.31283104 0
-0.422187 1.5957495 -0.3109023 0
-0.48237005 1.8232248 -0.30995938 0
-0.56827974 2.1479397 -0.31224597 0
-0.58071703 2.1949492 -0.26535732 0
-0.6461556 2.4422884 -0.23580752 0
-0.64697945 2.4454026 -0.17683874 0
-0.64807451 2.4495416 -0.11796121 0
-3.9771287 15.032442 -0.3615365 0
-0.91287386 3.4504097 0.083187684 0
-0.91417921 3.4553435 0.16660157 0
-0.91157639 3.4455056 0.24936546 0
-0.90980989 3.4388285 0.33223021 0
-0.34381711 1.2995331 0.15718424 0
-0.25934008 0.88889086 -0.31284136 0
-0.28040889 0.96110445 -0.31249249 0
-0.30996767 1.0624175 -0.31736419 0
-0.3386057 1.1605747 -0.31642982 0
-0.34755942 1.1912637 -0.29411748 0
-0.41142687 1.4101701 -0.31224567 0
-0.45863527 1.5719773 -0.30842775 0
-0.52551806 1.8012189 -0.30837494 0
-0.61797076 2.1181016 -0.31007698 0
-0.71257412 2.4423554 -0.29734695 0
-0.71313733 2.4442859 -0.23766252 0
-0.71294999 2.4436438 -0.17795613 0
-0.71423286 2.448041 -0.11871924 0
-4.3561096 14.930612 -0.36161646 0
-0.98968697 3.3921628 0.082359374 0
-0.9828124 3.3686001 0.1635631 0
-0.98367196 3.3715463 0.24573129 0
-0.98261923 3.367938 0.32767302 0
-0.36643571 1.2559623 0.15298408 0
-0.37202081 1.2751054 0.18674488 0
-0.26114628 0.81774956 -0.31247193 0
-0.28061619 0.87871742 -0.31165424 0
-0.30364731 0.95083666 -0.31154659 0
-0.33027568 1.0342203 -0.31133211 0
-0.36104539 1.1305722 -0.31063524 0
-0.37949395 1.1883417 -0.29566669 0
-0.38596165 1.2085946 -0.26968306 0
-0.39637592 1.2412057 -0.24541384 0
-0.39675704 1.2423991 -0.21434917 0
-0.39956734 1.2511992 -0.18458539 0
-0.39476007 1.2361459 -0.15166049 0
-0.39779279 1.2456424 -0.12205349 0
-0.39684516 1.2426751 -0.091197036 0
-0.39741674 1.2444649 -0.060818143 0
-0.39762419 1.2451144 -0.03038981 0
-0.39614591 1.2404854 3.7175829e-05 0
-0.39736754 1.2443107 0.030444814 0
-0.40076369 1.2549455 0.061405722 0
-0.39648294 1.2415408 0.09118858 0
-0.39939103 1.2506471 0.12261948 0
-0.39976811 1.251828 0.15366055 0
-0.39717475 1.2437071 0.18355612 0
-0.28170082 0.81091475 -0.31247753 0
-0.30090648 0.86620092 -0.30980992 0
-0.32708454 0.94155818 -0.31111228 0
-0.35573196 1.0240238 -0.31086636 0
-0.38865137 1.1187868 -0.30999354 0
-0.42785043 1.2316266 -0.30902457 0
-0.42792127 1.2318306 -0.27718958 0
-0.42705745 1.229344 -0.24512161 0
-0.4312188 1.241323 -0.21597247 0
-0.43217492 1.2440753 -0.18508466 0
-0.43907198 1.2639295 -0.15637901 0
-0.42760822 1.2309295 -0.1216306 0
-0.43287775 1.2460985 -0.092220701 0
-0.43300316 1.2464595 -0.061430149 0
-0.43219188 1.2441242 -0.030622123 0
-0.43798047 1.2607875 3.8103401e-05 0
-0.43146539 1.2420329 0.030645764 0
-0.43193978 1.2433984 0.061354611 0
-0.43475857 1.2515128 0.092697412 0
-0.43344483 1.247731 0.12336686 0
-0.43424615 1.2500377 0.15473683 0
-0.4341296 1.2497021 0.18599881 0
-0.29964226 0.79708749 -0.30996484 0
-0.3267782 0.86927259 -0.31375852 0
-0.34559608 0.91933066 -0.30655229 0
-0.38670519 1.0286862 -0.3151443 0
-0.41716221 1.1097059 -0.31029588 0
-0.46043754 1.2248238 -0.31013474 0
-0.48498398 1.2901206 -0.29296726 0
-0.51382941 1.3668532 -0.27503812 0
-0.51079297 1.358776 -0.23857464 0
-0.51345485 1.3658569 -0.20506512 0
-0.50928324 1.3547598 -0.16915341 0
-0.51071811 1.3585768 -0.13547423 0
-0.92403108 2.4580431 -0.18358126 0
-0.92511207 2.4609187 -0.12239495 0
-1.1988708 3.1891525 -0.079215415 0
-1.2047422 3.2047713 9.7742115e-05 0
-1.1673955 3.1054239 0.07732521 0
-1.1626153 3.0927083 0.15400636 0
-1.1637225 3.0956535 0.23139156 0
-1.1617724 3.090466 0.30836451 0
-1.1582214 3.0810199 0.38488233 0
-0.32039818 0.79110062 -0.31068239 0
-0.35047832 0.86537206 -0.31544298 0
-0.3771072 0.93112183 -0.31355795 0
-0.40754509 1.0062766 -0.311331 0
-0.45312944 1.1188296 -0.31594434 0
-0.48968381 1.2090867 -0.30918095 0
-0.51224142 1.264784 -0.29005718 0
-0.5092997 1.2575207 -0.25554338 0
-0.51067019 1.2609046 -0.22358215 0
-0.51218081 1.2646345 -0.19174767 0
-0.51189739 1.2639346 -0.15937549 0
-0.51364756 1.2682561 -0.12771972 0
-0.99428499 2.4550061 -0.18516971 0
-0.9861095 2.4348199 -0.1222958 0
-5.8387852 14.416645 -0.36164054 0
-1.2041342 2.9731486 0.074764475 0
-1.1991946 2.9609518 0.14890508 0
-1.1980506 2.9581275 0.22330093 0
-1.194577 2.9495504 0.29721773 0
-1.1999874 2.9629095 0.37379229 0
-0.33877322 0.77935266 -0.30932811 0
-0.37015215 0.85154039 -0.31370664 0
-0.39859182 0.91696626 -0.3120794 0
-0.43697074 1.0052575 -0.31432778 0
-0.47219262 1.0862859 -0.31002107 0
-0.5110153 1.175598 -0.30381873 0
-0.50767791 1.1679204 -0.27069542 0
-0.51165241 1.1770638 -0.24174079 0
-0.5105229 1.1744654 -0.21047258 0
-0.50890154 1.1707354 -0.17940074 0
-0.51130992 1.176276 -0.1499017 0
-0.51551306 1.1859453 -0.12070245 0
-1.066296 2.4530294 -0.18699093 0
-1.0701669 2.4619346 -0.12497457 0
-6.2038755 14.272106 -0.36182734 0
-1.2340257 2.8388941 0.072148666 0
-1.2315656 2.8332343 0.14399955 0
-1.2321154 2.8344991 0.21624716 0
-1.2250884 2.8183336 0.2870197 0
-1.2331676 2.83692 0.36170915 0
-0.36696273 0.7891227 -0.31678101 0
-0.39045218 0.83963478 -0.31285143 0
-0.42626056 0.91663772 -0.3155286 0
-0.45916432 0.98739451 -0.31226653 0
-0.5024631 1.080505 -0.31189117 0
-0.50871837 1.0939564 -0.28594664 0
-0.51329404 1.103796 -0.25875321 0
-0.50889295 1.0943319 -0.22731507 0
-0.51224917 1.101549 -0.19965878 0
-0.51000386 1.0967207 -0.16997725 0
-0.51076865 1.0983653 -0.14157072 0
-0.51349151 1.1042205 -0.11366756 0
-1.1417243 2.4551828 -0.1892914 0
-1.1393021 2.4499741 -0.12578705 0
-6.5574808 14.101315 -0.36157817 0
-1.2526666 2.6937549 0.069241501 0
-1.2410259 2.6687226 0.13718648 0
-1.2350168 2.6558006 0.20492682 0
-1.2466156 2.6807427 0.27612373 0
-1.2442696 2.675698 0.34504738 0
-0.38532227 0.77672207 -0.31560647 0
-0.41039321 0.82725936 -0.31200033 0
-0.44556934 0.89816648 -0.31294176 0
-0.47798446 0.96350801 -0.30842933 0
-0.50919378 1.0264188 -0.2998932 0
-0.51293015 1.0339506 -0.27355859 0
-0.51533467 1.0387975 -0.24648671 0
-0.51351923 1.035138 -0.2176422 0
-0.50882965 1.025685 -0.18817601 0
-0.51517189 1.0384694 -0.1629124 0
-0.50779092 1.023591 -0.13354228 0
-0.52305377 1.0543574 -0.10985865 0
-1.2179563 2.4551229 -0.19159579 0
-1.2162561 2.4516959 -0.12741092 0
-6.9087534 13.926476 -0.36145106 0
-1.2502909 2.5203023 0.065573245 0
-1.2445859 2.5088022 0.1305389 0
-1.2476964 2.5150723 0.19643527 0
-1.2410855 2.5017464 0.26082999 0
-1.2367897 2.4930871 0.32542038 0
-0.39974299 0.7571795 -0.31166601 0
-0.43344003 0.82100731 -0.31366834 0
-0.46727604 0.88509828 -0.31239817 0
-0.50777113 0.96180278 -0.31188658 0
-0.53295648 1.0095079 -0.29878724 0
-0.53499049 1.0133606 -0.271597 0
-0.5306257 1.0050931 -0.24159014 0
-0.53532279 1.0139902 -0.21596774 0
-0.53747487 1.0180665 -0.18920679 0
-0.5309937 1.0057901 -0.15983729 0
-0.53394169 1.0113741 -0.133664 0
-0.55374736 1.0488893 -0.11070987 0
-1.2952731 2.4534619 -0.19395562 0
-1.2969769 2.4566894 -0.1293304 0
-7.268611 13.767954 -0.36198285 0
-1.2557255 2.3785522 0.062689826 0
-1.2422248 2.3529797 0.12402295 0
-1.2366769 2.3424714 0.18533336 0
-1.2432543 2.3549299 0.24871533 0
-1.2423415 2.3532009 0.3111549 0
-1.2387959 2.3464847 0.37305114 0
-0.41882861 0.74704605 -0.31174675 0
-0.45429468 0.81030536 -0.3138603 0
-0.48827937 0.87092233 -0.31164515 0
-0.54104722 0.96504194 -0.31726405 0
-0.55914474 0.99732172 -0.29926199 0
-0.56252337 1.0033481 -0.27263179 0
-0.55557179 0.99094886 -0.24148387 0
-0.55111015 0.98299086 -0.21226023 0
-0.55926418 0.99753487 -0.18795446 0
-0.56345135 1.0050033 -0.16192064 0
-0.55539519 0.99063385 -0.13273326 0
-0.57566828 1.0267941 -0.1098763 0
-1.2864231 2.2945359 -0.18390006 0
-1.3027961 2.3237398 -0.12402289 0
-1.2946179 2.3091528 -0.061551016 0
-1.2899503 2.3008273 7.5303789e-05 0
-1.2611251 2.249413 0.060105961 0
-1.2461253 2.2226586 0.11877379 0
-1.2348042 2.2024655 0.17666577 0
-1.2405483 2.2127111 0.2369263 0
-1.241115 2.213722 0.29675955 0
-1.2476124 2.225311 0.35867849 0
-0.43779045 0.73665559 -0.31192237 0
-0.47528714 0.79974997 -0.31431812 0
-0.51064426 0.85924423 -0.31197879 0
-0.55593413 0.93545204 -0.31204966 0
-0.58868837 0.99056655 -0.3015973 0
-0.5826298 0.98037189 -0.27029827 0
-0.58324713 0.98141068 -0.24266949 0
-0.58823586 0.9898051 -0.21686843 0
-0.58907676 0.99122006 -0.18950564 0
-0.58401608 0.98270452 -0.16065165 0
-0.58772165 0.98893988 -0.13445099 0
-0.60812151 1.023266 -0.11110579 0
-0.80727178 1.3583696 -0.11046697 0
-1.3523052 2.2754793 -0.12322952 0
-1.3528084 2.2763259 -0.061566506 0
-1.3598491 2.2881732 7.5988741e-05 0
-1.2528632 2.1081514 0.057158083 0
-1.2391267 2.0850377 0.11305486 0
-1.244537 2.0941412 0.17044206 0
-1.2445204 2.0941133 0.22751826 0
-1.2398491 2.0862532 0.28377628 0
-1.2364469 2.0805283 0.34026378 0
-0.45753238 0.72743368 -0.31280756 0
-0.48813745 0.77609289 -0.30976379 0
-0.53209621 0.84598321 -0.31194067 0
-0.58737862 0.93387711 -0.31636882 0
-0.61355501 0.9754951 -0.30162731 0
-0.60848099 0.96742785 -0.27087742 0
-0.60727948 0.96551758 -0.24245232 0
-0.62066239 0.98679519 -0.21957125 0
-0.60596412 0.96342629 -0.1870563 0
-0.61437917 0.97680539 -0.16217057 0
-0.6082918 0.96712714 -0.13353018 0
-0.62791073 0.99831933 -0.11008279 0
-0.84391737 1.3417497 -0.11081226 0
-4.1318903 6.5693188 -0.36129671 0
-8.289566 13.179635 -0.36200553 0
-1.2520939 1.9907122 0.054813322 0
-1.2354274 1.9642138 0.10815981 0
-1.2434624 1.976989 0.16340934 0
-1.2389264 1.9697771 0.21733764 0
-1.2469792 1.9825803 0.27386823 0
-1.2391869 1.9701914 0.32722941 0
-1.2408087 1.97277 0.38316444 0
-0.47541228 0.71516424 -0.31259173 0
-0.51443976 0.77387339 -0.31396025 0
-0.54687601 0.82266736 -0.30833465 0
-0.59639096 0.8971529 -0.30892867 0
-0.63543785 0.95589125 -0.30042902 0
-0.63106704 0.94931626 -0.27017984 0
-0.63541663 0.9558593 -0.24397649 0
-0.63754374 0.95905912 -0.21691103 0
-0.64220744 0.96607476 -0.19065684 0
-0.63725579 0.95862597 -0.16177113 0
-0.64317995 0.96753776 -0.13578494 0
-0.65499097 0.98530507 -0.11043544 0
-0.88239121 1.327384 -0.11142963 0
-4.3018904 6.4713478 -0.36176473 0
-8.6074438 12.948206 -0.3615008 0
-1.2529429 1.8848063 0.052751176 0
-1.2456691 1.8738642 0.10488251 0
-1.2341012 1.8564625 0.15597197 0
-1.2365774 1.8601874 0.20862308 0
-1.2335646 1.8556553 0.26055297 0
-1.2385 1.8630797 0.31453079 0
-1.2341669 1.8565613 0.36652693 0
-0.49316055 0.7027353 -0.31250003 0
-0.52319294 0.74553037 -0.30772072 0
-0.58170938 0.82891411 -0.31607798 0
-0.61788398 0.88046145 -0.30845284 0
-0.66659844 0.9498778 -0.30373004 0
-0.65920085 0.93933648 -0.27198806 0
-0.65772903 0.93723917 -0.24338347 0
-0.65508586 0.93347287 -0.2147952 0
-0.66369522 0.94574076 -0.18988925 0
-0.66729778 0.95087439 -0.16325316 0
-0.66841644 0.95246834 -0.13599434 0
-0.68011796 0.96914262 -0.11051267 0
-0.90717471 1.2926899 -0.11040408 0
-4.4615917 6.3576012 -0.36158583 0
-8.9370689 12.734988 -0.36173025 0
-1.2585995 1.7934572 0.051067322 0
-1.2339146 1.7582821 0.10012445 0
-1.2437357 1.7722766 0.15148811 0
-1.2398487 1.7667379 0.20158789 0
-1.2441188 1.7728226 0.25325069 0
-1.2408949 1.7682288 0.3037084 0
-1.2466736 1.7764633 0.35681197 0
-0.54851121 0.74111021 -0.31151122 0
-0.59210193 0.80000705 -0.31065473 0
-0.64965439 0.87776792 -0.31315371 0
-0.69943142 0.94502318 -0.30772442 0
-0.68650216 0.92755407 -0.27350631 0
-0.69562149 0.93987542 -0.24854808 0
-0.68619603 0.92714041 -0.21725404 0
-0.6857838 0.92658347 -0.18945771 0
-0.69042683 0.9328568 -0.1630996 0
-0.69526207 0.93938982 -0.13658898 0
-0.71196061 0.96195179 -0.11170617 0
-0.94398361 1.2754452 -0.11093076 0
-4.6144223 6.2346869 -0.36110392 0
-9.2526903 12.501593 -0.36161888 0
-1.2506773 1.6898285 0.048999786 0
-1.2409593 1.6766981 0.097231261 0
-1.2459755 1.6834755 0.14653903 0
-1.245882 1.6833493 0.19559871 0
-1.2414811 1.6774031 0.24401821 0
-1.242559 1.6788595 0.29365146 0
-1.2364651 1.6706258 0.34171328 0
-0.52031368 0.66712958 -0.30796087 0
-0.56947678 0.73016495 -0.31285235 0
-0.61940527 0.79418164 -0.31436312 0
-0.66895682 0.85771513 -0.3119238 0
-0.72175515 0.9254114 -0.30717221 0
-0.71545011 0.91732734 -0.27572748 0
-0.72399753 0.92828655 -0.25023597 0
-0.72640312 0.93137091 -0.2224706 0
-0.72279501 0.9267447 -0.19315922 0
-0.71637255 0.91851002 -0.16370028 0
-0.72652644 0.93152899 -0.13806823 0
-0.72521573 0.92984849 -0.11006866 0
-0.97450519 1.2494794 -0.11077632 0
-4.7790608 6.1275597 -0.36177012 0
-9.5718937 12.272777 -0.361873 0
-1.2468313 1.5986472 0.047253262 0
-1.2369772 1.5860128 0.093753032 0
-1.2357138 1.5843929 0.14058435 0
-1.246859 1.5986829 0.18935713 0
-1.2415276 1.5918469 0.23605527 0
-1.2540712 1.6079302 0.28669003 0
-1.2423854 1.5929469 0.33213264 0
-1.243502 1.5943786 0.38095853 0
-0.54620814 0.66502428 -0.31325305 0
-0.58348387 0.71040863 -0.31059834 0
-0.6386615 0.77758896 -0.31407568 0
-0.69388646 0.84482694 -0.31350586 0
-0.74357647 0.90532595 -0.30663696 0
-0.75585628 0.920277 -0.2822583 0
-0.73766255 0.89812559 -0.24704565 0
-0.74291366 0.90451896 -0.22046523 0
-0.74471188 0.90670836 -0.19283925 0
-0.74227542 0.90374184 -0.1643548 0
-0.74286419 0.9044587 -0.13679135 0
-0.75973409 0.92499834 -0.11172874 0
-1.0027864 1.2209215 -0.11045313 0
-4.9211411 5.9916325 -0.36096308 0
-9.878582 12.02746 -0.36187598 0
-1.2543436 1.5271997 0.046062496 0
-1.2364103 1.5053654 0.0908015 0
-1.2374368 1.5066152 0.13641085 0
-1.2495818 1.5214022 0.18388058 0
-1.2414923 1.5115529 0.22872214 0
-1.2359743 1.5048347 0.27378312 0
-1.2377251 1.5069662 0.32061681 0
-1.2278801 1.4949796 0.36449704 0
-0.56055927 0.64842367 -0.3119984 0
-0.60641807 0.70147061 -0.31328249 0
-0.64637059 0.74768537 -0.3084884 0
-0.7052958 0.81584686 -0.30925894 0
-0.77371877 0.89499474 -0.30965331 0
-0.77472103 0.89615405 -0.28076732 0
-0.77077752 0.89159238 -0.2505199 0
-0.7719537 0.89295298 -0.22232418 0
-0.7807914 0.90317595 -0.19621666 0
-0.77371675 0.89499229 -0.166262 0
-0.77791995 0.89985442 -0.13902016 0
-0.77976662 0.90199047 -0.11129139 0
-1.0410702 1.2042519 -0.11128671 0
-5.0787024 5.8747597 -0.36152926 0
-10.173723 11.768395 -0.36169189 0
-1.2502536 1.4462235 0.044557694 0
-1.2400736 1.4344479 0.088383578 0
-1.2342323 1.427691 0.13204333 0
-1.2408917 1.4353943 0.17721428 0
-1.2516919 1.4478874 0.22379757 0
-1.2410573 1.4355857 0.26679811 0
-1.2418801 1.4365375 0.3122018 0
-1.2363596 1.4301517 0.35618576 0
-0.62237465 0.68424356 -0.31250459 0
-0.67746687 0.74481243 -0.31425768 0
-0.73550701 0.80862218 -0.31345725 0
-0.79473782 0.87374097 -0.30914131 0
-0.8114683 0.89213467 -0.28583366 0
-0.7974987 0.87677634 -0.25193223 0
-0.79774195 0.87704378 -0.223305 0
-0.8026818 0.88247472 -0.19605812 0
-0.80818492 0.88852489 -0.16879608 0
-0.80027103 0.87982428 -0.13900185 0
-0.80380982 0.88371485 -0.1115041 0
-1.0686862 1.1749221 -0.11103352 0
-5.2259192 5.7454171 -0.36157131 0
-10.471176 11.512094 -0.36182192 0
-1.2536097 1.3782283 0.043423768 0
-1.2535944 1.3782116 0.086840391 0
-1.2458686 1.3697177 0.1295485 0
-1.2408237 1.3641714 0.17223266 0
-1.2454146 1.3692187 0.21642749 0
-1.2399249 1.3631833 0.25907582 0
-1.2384952 1.3616114 0.30261514 0
-1.2416574 1.3650879 0.3476755 0
-0.59095275 0.61764467 -0.31115434 0
-0.63834 0.66717225 -0.31196672 0
-0.69161344 0.72285193 -0.31225753 0
-0.74976349 0.78362852 -0.31100509 0
-0.81722045 0.85413229 -0.30940264 0
-0.82435852 0.86159283 -0.28262436 0
-0.83490974 0.87262058 -0.25671127 0
-0.8246842 0.86193323 -0.22468567 0
-0.83010173 0.86759537 -0.1973442 0
-0.82337606 0.86056596 -0.1673792 0
-0.82427853 0.8615092 -0.13935068 0
-0.82683516 0.86418128 -0.11163699 0
-1.0903065 1.139553 -0.11025648 0
-5.369657 5.6121917 -0.36160085 0
-10.751006 11.236603 -0.3615765 0
-1.2446969 1.3009168 0.041964345 0
-1.2429602 1.2991018 0.08380571 0
-1.2446578 1.3008759 0.12596844 0
-1.2333838 1.2890928 0.16663082 0
-1.2445379 1.3007507 0.21050298 0
-1.2427013 1.2988311 0.25272599 0
-1.2330276 1.2887205 0.29323837 0
-1.2466799 1.3029895 0.33976525 0
-0.64480889 0.64075649 -0.30712679 0
-0.70607823 0.70164078 -0.31069398 0
-0.77070361 0.76586002 -0.31157392 0
-0.84188354 0.83659256 -0.31064713 0
-0.86113894 0.85572696 -0.28773797 0
-0.86695081 0.86150229 -0.25979474 0
-0.85157478 0.84622294 -0.22612105 0
-0.85636371 0.85098177 -0.19841836 0
-0.86011231 0.85470682 -0.17040759 0
-0.86089617 0.85548574 -0.14184578 0
-0.85507518 0.84970129 -0.11251851 0
-1.1366398 1.1294965 -0.11202345 0
-1.2696348 1.2616557 -0.083328255 0
-1.279549 1.2715075 -0.041940976 0
-1.2649832 1.2570332 5.0911589e-05 0
-1.2439606 1.2361428 0.040874649 0
-1.2498376 1.2419828 0.082129747 0
-1.2411102 1.2333102 0.12242009 0
-1.2534199 1.2455425 0.16503808 0
-1.2435359 1.2357208 0.20499296 0
-1.2421811 1.2343744 0.24620597 0
-1.2505223 1.2426633 0.28984776 0
-1.2364228 1.2286524 0.32841387 0
-0.62069732 0.58642298 -0.3108235 0
-0.66626108 0.62947071 -0.30967882 0
-0.72326189 0.68332398 -0.31056747 0
-0.80168957 0.75742096 -0.31627169 0
-0.86463034 0.81688625 -0.31133372 0
-0.89372486 0.84437418 -0.29141247 0
-0.88686931 0.83789712 -0.25934383 0
-0.8851074 0.83623248 -0.22934777 0
-0.88618129 0.83724713 -0.20036715 0
-0.89351273 0.84417373 -0.17274874 0
-0.88683254 0.83786237 -0.14258951 0
-0.89470029 0.84529573 -0.11488879 0
-1.1516708 1.0880766 -0.11076302 0
-1.3014663 1.2296005 -0.083354048 0
-1.2960351 1.2244692 -0.041455172 0
-1.2901376 1.2188973 5.0669696e-05 0
-1.2537092 1.1844804 0.040199861 0
-1.2437084 1.1750319 0.079752773 0
-1.2385219 1.1701318 0.11921377 0
-1.2471015 1.1782377 0.16023956 0
-1.2499939 1.1809703 0.20108001 0
-1.2447194 1.175987 0.24074954 0
-1.2447666 1.1760317 0.28154436 0
-1.2348139 1.1666286 0.32006368 0
-0.64419919 0.57857192 -0.31517959 0
-0.68172657 0.6122762 -0.30958593 0
-0.741503 0.66596293 -0.31108364 0
-0.80536491 0.72331899 -0.31042072 0
-0.89004463 0.79937196 -0.31312042 0
-0.91730976 0.82385951 -0.29222965 0
-0.9264763 0.83209223 -0.26470035 0
-0.92037475 0.82661223 -0.23300603 0
-0.92167217 0.8277775 -0.20360309 0
-0.92072386 0.82692581 -0.17391917 0
-0.92361641 0.82952368 -0.14509135 0
-0.915196 0.8219611 -0.11482015 0
-1.1786259 1.0585543 -0.11075067 0
-1.3249953 1.1900125 -0.082910977 0
-1.3346008 1.1986394 -0.041707799 0
-1.3382835 1.2019469 5.1352821e-05 0
-1.2529075 1.1252685 0.039250996 0
-1.2452048 1.1183505 0.078013889 0
-1.2391106 1.1128771 0.11652973 0
-1.2523898 1.1248035 0.1572213 0
-1.2422754 1.1157196 0.19524629 0
-1.2319546 1.1064502 0.23280519 0
-1.2416654 1.1151717 0.27438942 0
-1.2450018 1.1181682 0.31528896 0
-0.65733951 0.56106484 -0.31458014 0
-0.70352435 0.60048538 -0.31250274 0
-0.75700319 0.64613163 -0.31064594 0
-0.82779938 0.70655894 -0.31209496 0
-0.91039664 0.7770589 -0.31328091 0
-0.95370322 0.81402278 -0.29718384 0
-0.95003629 0.81089294 -0.26549974 0
-0.95448285 0.81468827 -0.23636018 0
-0.9489941 0.81000334 -0.20505723 0
-0.94771385 0.80891061 -0.17510517 0
-0.93379062 0.79702657 -0.14348388 0
-0.94086242 0.80306268 -0.1154606 0
-1.3946773 1.1904113 -0.12818812 0
-1.4057041 1.1998231 -0.086038992 0
-1.3997079 1.1947051 -0.042786524 0
-1.4117585 1.2049907 5.2988336e-05 0
-1.2512984 1.0680319 0.038343899 0
-1.2590253 1.074627 0.077155933 0
-1.2391777 1.0576863 0.11398926 0
-1.2444123 1.0621543 0.15280581 0
-1.24322 1.0611366 0.1911246 0
-1.2360488 1.0550157 0.22847426 0
-1.239408 1.0578829 0.26790497 0
-1.2340254 1.0532887 0.30567968 0
-0.67237675 0.54518497 -0.3150911 0
-0.72077024 0.58442396 -0.31351143 0
-0.78498685 0.63649285 -0.31543669 0
-0.83781368 0.67932653 -0.30930787 0
-0.91547084 0.74229354 -0.30848187 0
-0.98220026 0.79639995 -0.29970488 0
-0.98265386 0.79676771 -0.2689096 0
-0.97190726 0.78805405 -0.23567463 0
-0.97392052 0.78968644 -0.20607102 0
-0.98401511 0.79787147 -0.17803499 0
-0.97845668 0.79336452 -0.14722347 0
-0.97462469 0.79025739 -0.11711889 0
-4.0105987 3.2519236 -0.36096498 0
-6.0450358 4.9015117 -0.36231148 0
-12.084603 9.7985897 -0.36172941 0
-1.2577327 1.0198107 0.03774032 0
-1.2420691 1.00711 0.074535377 0
-1.2610673 1.0225143 0.1135927 0
-1.2301297 0.99742925 0.14791368 0
-1.2388178 1.0044738 0.18649101 0
-1.2416893 1.0068021 0.22474831 0
-1.2430118 1.0078745 0.2631017 0
-1.2429519 1.0078257 0.30149397 0
-0.67169404 0.51709634 -0.30855691 0
-0.73406637 0.56511295 -0.31299126 0
-0.78560919 0.60479259 -0.30945444 0
-0.8711549 0.67064911 -0.31526753 0
-0.9297722 0.71577495 -0.3071157 0
-1.0067903 0.77506649 -0.30114326 0
-1.0062355 0.77463937 -0.26992661 0
-1.0228481 0.78742844 -0.24313053 0
-1.018343 0.78396022 -0.21121649 0
-1.0044305 0.77324986 -0.17814098 0
-1.0085398 0.77641332 -0.14875406 0
-1.0118991 0.77899945 -0.11919747 0
-4.1051917 3.160337 -0.36218435 0
-6.1635604 4.7449493 -0.36212227 0
-12.32505 9.4883051 -0.36164334 0
-1.2574786 0.96805608 0.036987767 0
-1.2508532 0.96295559 0.073580608 0
-1.2408046 0.95521981 0.10956097 0
-1.241275 0.95558196 0.14630722 0
-1.2363799 0.95181352 0.18244952 0
-1.2388289 0.95369887 0.21980378 0
-1.2403761 0.95489001 0.25736061 0
-1.2414572 0.95572227 0.29518646 0
-0.69364673 0.50664526 -0.31266767 0
-0.74023378 0.54067284 -0.30970389 0
-0.81147707 0.59270954 -0.31365144 0
-0.86621815 0.63269287 -0.30760404 0
-0.95238006 0.69562626 -0.30868581 0
-1.0414544 0.76068693 -0.30567172 0
-1.0538263 0.76972342 -0.27739334 0
-1.0445349 0.76293689 -0.2436308 0
-1.0332817 0.75471741 -0.21029714 0
-1.0504884 0.76728535 -0.18281679 0
-1.0567281 0.77184296 -0.1529396 0
-1.0546668 0.77033734 -0.12190627 0
-4.1821175 3.0546532 -0.36205399 0
-6.265389 4.576292 -0.36120397 0
-12.56812 9.1798582 -0.36186197 0
-1.2552851 0.91687059 4.4377754e-05 0
-1.2583883 0.91913712 0.036320604 0
-1.2464106 0.91038859 0.071944743 0
-1.2429316 0.90784746 0.1076913 0
-1.2491901 0.91241872 0.14447981 0
-1.2405808 0.90613037 0.17963739 0
-1.2360452 0.90281767 0.21519843 0
-1.2456788 0.90985405 0.25361541 0
-1.2490081 0.9122858 0.29141426 0
-0.71105784 0.49233991 -0.31481442 0
-0.75459319 0.522484 -0.31009567 0
-0.82006562 0.56781745 -0.31133267 0
-0.88842446 0.61514944 -0.30987769 0
-0.98325342 0.6808095 -0.31302345 0
-1.0902116 0.75486791 -0.31429023 0
-1.0901637 0.75483465 -0.28185371 0
-1.065518 0.73776984 -0.2441041 0
-1.0780497 0.74644685 -0.21550556 0
-1.0706939 0.74135363 -0.18301858 0
-1.0808984 0.74841934 -0.15365496 0
-1.0767336 0.74553561 -0.12224302 0
-4.2574182 2.9478571 -0.36201659 0
-6.3859138 4.421638 -0.36160344 0
-12.78115 8.8497305 -0.36144948 0
-1.2464439 0.86304384 4.3281343e-05 0
-1.2424878 0.86030459 0.035223752 0
-1.232131 0.85313356 0.069855385 0
-1.2469574 0.86339945 0.10611825 0
-1.2522182 0.86704201 0.14225374 0
-1.2503808 0.86576974 0.17783573 0
-1.2479057 0.86405605 0.21339859 0
-1.2409497 0.8592397 0.24815831 0
-1.2436627 0.86111814 0.28500548 0
-0.71799588 0.47079492 -0.31252584 0
-0.762932 0.50025988 -0.30823568 0
-0.83982021 0.55067599 -0.31345606 0
-0.91115195 0.59744871 -0.31244594 0
-0.97931546 0.64214396 -0.30651256 0
-1.0951871 0.71812183 -0.31040064 0
-1.1101731 0.72794825 -0.28218699 0
-1.112911 0.72974348 -0.25066227 0
-1.1124749 0.72945762 -0.21863727 0
-1.1008859 0.7218585 -0.18500626 0
-1.1177537 0.73291892 -0.15621479 0
-1.1079149 0.72646755 -0.12366206 0
-4.3327193 2.8409944 -0.36220711 0
-6.4937172 4.2579756 -0.36150736 0
-1.2544962 0.82258195 -0.034878783 0
-1.262879 0.82807863 4.3112581e-05 0
-1.2281827 0.80532795 0.034231089 0
-1.2444928 0.81602263 0.069366477 0
-1.2376454 0.8115328 0.10354973 0
-1.2253654 0.80348068 0.13685592 0
-1.2286571 0.80563903 0.17179942 0
-1.2423829 0.81463915 0.20887165 0
-1.2436193 0.81544989 0.2444986 0
-1.2424555 0.81468678 0.27992758 0
-0.73927933 0.45850399 -0.31665206 0
-0.77985793 0.48367101 -0.31004331 0
-0.84129602 0.52177513 -0.30899325 0
-0.91055751 0.56473136 -0.30725661 0
-1.0084893 0.62546909 -0.3106038 0
-1.1134657 0.69057584 -0.31054243 0
-1.1521318 0.71455669 -0.2881763 0
-1.1587918 0.7186873 -0.25682884 0
-1.1542807 0.71588945 -0.22323135 0
-1.1530439 0.7151224 -0.19067764 0
-1.157415 0.7178334 -0.15917501 0
-1.1463557 0.7109744 -0.12590973 0
-4.3918939 2.72387 -0.36129174 0
-6.6042614 4.0959892 -0.36179104 0
-1.2446036 0.7719081 -0.034051232 0
-1.2404364 0.76932359 4.1670293e-05 0
-1.2385211 0.76813573 0.033968076 0
-1.2405251 0.7693786 0.068041302 0
-1.2582607 0.78037828 0.10359365 0
-1.2428608 0.77082717 0.13659357 0
-1.2459604 0.77274954 0.17143719 0
-1.2391937 0.76855284 0.20500904 0
-1.2416381 0.77006888 0.24021144 0
-1.236526 0.76689839 0.27414349 0
-0.73738676 0.43195772 -0.31107271 0
-0.79789758 0.46740463 -0.31242573 0
-0.8669368 0.50784755 -0.31360313 0
-0.93955022 0.5503841 -0.31225303 0
-1.0239826 0.59984422 -0.31061387 0
-1.1303221 0.66213739 -0.31048393 0
-1.1958002 0.70049417 -0.29458287 0
-1.1890756 0.6965549 -0.25956169 0
-1.1917423 0.69811708 -0.22699636 0
-1.1849349 0.69412929 -0.19299284 0
-1.1897781 0.69696641 -0.16115527 0
-1.1854663 0.69444054 -0.1282395 0
-4.4620538 2.6138501 -0.36152121 0
-1.2579174 0.73688215 -0.067870103 0
-1.2567381 0.73619127 -0.033864081 0
-1.2495017 0.73195225 4.1341067e-05 0
-1.244424 0.72897774 0.033614658 0
-1.2277567 0.71921414 0.066324219 0
-1.2584355 0.7371856 0.10204371 0
-1.2352787 0.72362047 0.13371049 0
-1.2388533 0.7257145 0.16788562 0
-1.2471052 0.73054838 0.20320281 0
-1.2462585 0.73005235 0.23746498 0
-1.2385664 0.72554642 0.27044985 0
-0.75095999 0.41482225 -0.31228247 0
-0.80902994 0.44689947 -0.31226876 0
-0.87722945 0.48457214 -0.31280264 0
-0.95055872 0.52507848 -0.3114081 0
-1.0481175 0.57896888 -0.31340256 0
-1.1411974 0.63038528 -0.30900249 0
-1.2955432 0.71564418 -0.31460458 0
-1.4519936 0.80206573 -0.31243533 0
-1.6591091 0.9164741 -0.31151271 0
-1.9504851 1.077427 -0.31315088 0
-2.7122259 1.4982046 -0.3621335 0
-3.3849847 1.8698293 -0.36095548 0
-4.5268764 2.500598 -0.36154464 0
-1.2439796 0.68716097 -0.066161275 0
-1.2424314 0.68630582 -0.033001315 0
-1.2397833 0.684843 4.0434759e-05 0
-1.240497 0.68523723 0.033030894 0
-1.2340624 0.68168288 0.065714508 0
-1.2459772 0.68826449 0.0995932 0
-1.2502365 0.69061726 0.13340035 0
-1.2541995 0.69280636 0.16754231 0
-1.2481637 0.68947226 0.20047604 0
-1.2441099 0.68723297 0.2336762 0
-1.2503145 0.6906603 0.26912311 0
-0.75284559 0.39140588 -0.30886024 0
-0.81933028 0.42597139 -0.31199542 0
-0.8836447 0.45940858 -0.31085667 0
-0.95856893 0.49836183 -0.30981293 0
-1.0533246 0.54762542 -0.31072775 0
-1.1566072 0.60132229 -0.30896717 0
-1.3022096 0.67702132 -0.31197467 0
-1.4652531 0.76178789 -0.31105226 0
-1.690966 0.8791365 -0.31322828 0
-1.9748477 1.0267271 -0.31280226 0
-2.7338302 1.4213237 -0.36011374 0
-3.4498146 1.7935652 -0.36292589 0
-1.2421964 0.64582032 -0.097876593 0
-1.2440271 0.64677209 -0.065274835 0
-1.2397827 0.6445654 -0.032488503 0
-1.2539998 0.65195698 4.0348918e-05 0
-1.2460446 0.64782101 0.032732822 0
-1.2293326 0.63913232 0.064583078 0
-1.2488856 0.64929807 0.098484419 0
-1.2406704 0.64502698 0.13060102 0
-1.2546415 0.65229052 0.16534947 0
-1.2413094 0.64535916 0.19669631 0
-1.2375535 0.64340645 0.22932161 0
-1.2401495 0.64475614 0.26334864 0
-0.76696599 0.37447581 -0.31067678 0
-0.82116473 0.40093869 -0.30874228 0
-0.89435947 0.43667647 -0.3106499 0
-0.97309804 0.47512105 -0.31053418 0
-1.0783777 0.52652454 -0.31409812 0
-1.1723993 0.57243115 -0.30922785 0
-1.3242717 0.64658374 -0.31325075 0
-1.48989 0.72744787 -0.31228527 0
-1.7037997 0.83189064 -0.31161708 0
-1.9946915 0.97392029 -0.31195259 0
-2.7772741 1.356021 -0.36121309 0
-3.4823925 1.7002995 -0.36172336 0
-1.2407565 0.60580695 -0.096527651 0
-1.242031 0.60642922 -0.064346507 0
-1.2440131 0.60739702 -0.032187384 0
-1.2397393 0.60531026 3.9385952e-05 0
-1.2533092 0.61193591 0.032507587 0
-1.2449812 0.60786968 0.064578623 0
-1.2349302 0.6029622 0.096153229 0
-1.2338492 0.6024344 0.12824155 0
-1.2473136 0.60900849 0.16230632 0
-1.228598 0.59987044 0.19222178 0
-1.2243631 0.59780276 0.22401023 0
-0.78878093 0.36077324 -0.31572449 0
-0.83311564 0.38105103 -0.30952108 0
-0.91662258 0.41924551 -0.31460729 0
-0.98156667 0.44894969 -0.30952215 0
-1.0750331 0.49169943 -0.30941075 0
-1.1805912 0.5399797 -0.30769593 0
-1.3358477 0.61099106 -0.31224188 0
-1.5084984 0.68995816 -0.31243619 0
-1.7227052 0.78793222 -0.31133848 0
-2.3512096 1.075398 -0.36334851 0
-2.8118064 1.2860661 -0.36136767 0
-1.2491809 0.57135129 -0.12821631 0
-1.2541238 0.57361209 -0.096410587 0
-1.2373177 0.5659253 -0.063342161 0
-1.2275878 0.56147504 -0.031385746 0
-1.2372211 0.56588107 3.883984e-05 0
-1.2470508 0.57037705 0.031961694 0
-1.2292476 0.56223416 0.063006371 0
-1.2412281 0.56771386 0.095497541 0
-1.2318877 0.56344169 0.12651935 0
-1.2326326 0.56378245 0.15849391 0
-1.2541015 0.5736019 0.19388518 0
-1.236389 0.56550056 0.223528 0
-0.80202192 0.34263188 -0.31746194 0
-0.85241079 0.36415851 -0.31317529 0
-0.92515647 0.39523619 -0.31401256 0
-0.99754888 0.42616296 -0.31107113 0
-1.1002679 0.47004557 -0.3131595 0
-1.2131907 0.5182873 -0.3126834 0
-1.3379282 0.57157642 -0.30925772 0
-1.52264 0.65048718 -0.31186545 0
-1.7507517 0.74793881 -0.31289598 0
-2.3666716 1.011066 -0.36167926 0
-2.8393524 1.2130001 -0.36085835 0
-1.248757 0.5334816 -0.12675044 0
-1.2421836 0.53067338 -0.094432972 0
-1.2493101 0.53371793 -0.063246354 0
-1.2418052 0.53051168 -0.031396907 0
-1.2454699 0.53207731 3.8664904e-05 0
-1.2442683 0.531564 0.031536482 0
-1.2521063 0.53491247 0.063465819 0
-1.2504072 0.5341866 0.095136166 0
-1.2413553 0.53031951 0.12607691 0
-1.2540199 0.53572994 0.15945454 0
-1.2344071 0.52735114 0.18872258 0
-1.2467216 0.53261209 0.22289474 0
-0.79814696 0.31740957 -0.31265754 0
-0.85973984 0.34190401 -0.31259802 0
-0.9242999 0.36757848 -0.31047407 0
-1.0022175 0.39856502 -0.30929163 0
-1.0788898 0.42905632 -0.30389595 0
-1.2201532 0.48523432 -0.31122234 0
-1.3538047 0.53838527 -0.309688 0
-1.5223155 0.60539913 -0.30857113 0
-1.7687858 0.70341623 -0.31284648 0
-2.3911288 0.95091158 -0.36163396 0
-1.2537498 0.49859518 -0.15769175 0
-1.2469944 0.49590859 -0.12526122 0
-1.2483176 0.49643484 -0.093916871 0
-1.2399268 0.49309793 -0.062121496 0
-1.2442671 0.49482405 -0.03113348 0
-1.2402954 0.49324456 3.810566e-05 0
-1.2486389 0.49656263 0.031319633 0
-1.2493701 0.49685341 0.06267155 0
-1.2490907 0.49674225 0.094052151 0
-1.233224 0.49043238 0.12395442 0
-1.2503515 0.4972437 0.15734221 0
-1.2462306 0.49560487 0.1885578 0
-0.80410433 0.29650784 -0.31196034 0
-0.86893278 0.32041287 -0.31290051 0
-0.94375259 0.34800214 -0.31395799 0
-1.0128617 0.37348565 -0.30956885 0
-1.1117723 0.40995824 -0.31014484 0
-1.2261254 0.45212513 -0.30973637 0
-1.3662546 0.50379682 -0.30952874 0
-1.5560971 0.57379991 -0.31238362 0
-1.7866102 0.65880001 -0.31295854 0
-2.3999312 0.88495779 -0.35947275 0
-1.2393848 0.45701444 -0.15438503 0
-1.2523243 0.46178582 -0.12458619 0
-1.2437291 0.45861638 -0.092671297 0
-1.2500383 0.46094283 -0.062025473 0
-1.2546593 0.46264681 -0.031091437 0
-1.2391257 0.45691893 3.7703412e-05 0
-1.2351123 0.455439 0.030682251 0
-1.2343298 0.45515049 0.061321322 0
-1.2474499 0.45998839 0.09302482 0
-1.2361822 0.45583349 0.12305619 0
-1.2330382 0.45467418 0.15367052 0
-1.239145 0.45692605 0.18568175 0
-0.81062835 0.27588648 -0.31169075 0
-0.86467892 0.29428184 -0.30859584 0
-0.94162536 0.32046956 -0.31046072 0
-1.0423739 0.35475793 -0.3157517 0
-1.115654 0.37969783 -0.30845609 0
-1.238089 0.42136696 -0.30997333 0
-1.3859398 0.47168598 -0.31119227 0
-1.5765169 0.53654635 -0.31366447 0
-1.785323 0.6076107 -0.30994803 0
-1.2566452 0.42768231 -0.18654987 0
-1.2547652 0.42704245 -0.15490897 0
-1.2312011 0.41902274 -0.12139399 0
-1.2457265 0.42396626 -0.091993526 0
-1.2450755 0.42374468 -0.061229058 0
-1.2419605 0.42268458 -0.030502673 0
-1.2365667 0.42084882 3.7290476e-05 0
-1.2458738 0.42401642 0.030673968 0
-1.2335647 0.41982719 0.060737561 0
-1.2439793 0.42337164 0.091939896 0
-1.244422 0.42352229 0.12277326 0
-1.2379801 0.42132992 0.15291245 0
-0.81420869 0.25437018 -0.3105 0
-0.88058138 0.27510595 -0.311694 0
-0.95120996 0.29717129 -0.31104887 0
-1.0304505 0.32192713 -0.30958009 0
-1.1411813 0.35652104 -0.31292641 0
-1.2551785 0.39213529 -0.31167477 0
-1.4049168 0.43891564 -0.31286627 0
-1.5817471 0.49415991 -0.31212422 0
-1.7964633 0.56124026 -0.30932438 0
-1.25223 0.39121419 -0.18436995 0
-1.2352459 0.38590813 -0.15124859 0
-1.2432475 0.38840792 -0.12157647 0
-1.240585 0.3875761 -0.090862527 0
-1.2408795 0.38766813 -0.060522281 0
-1.2419019 0.38798752 -0.030251097 0
-1.2465677 0.38944522 3.7283786e-05 0
-1.2426447 0.38821959 0.030343564 0
-1.2378147 0.38671061 0.060446996 0
-1.2410421 0.38771892 0.090970613 0
-1.2223809 0.38188887 0.11960969 0
-1.2402414 0.38746879 0.15193544 0
-0.83442587 0.23775156 -0.31582093 0
-0.89804435 0.25587827 -0.31548885 0
-0.94905549 0.27041277 -0.30801448 0
-1.0455937 0.29791924 -0.31177133 0
-1.1329762 0.32281697 -0.30834407 0
-1.2568481 0.35811159 -0.30974638 0
-1.4014533 0.39931372 -0.30975196 0
-1.5942717 0.45425311 -0.3122339 0
-1.8212636 0.51892954 -0.31124035 0
-1.2442547 0.35452339 -0.18182039 0
-1.2344108 0.35171854 -0.1500116 0
-1.2452931 0.3548193 -0.1208623 0
-1.2294731 0.3503117 -0.089372642 0
-1.2437348 0.35437524 -0.06020613 0
-1.2376529 0.35264236 -0.029921267 0
-1.2517792 0.35666734 3.7158581e-05 0
-1.2390226 0.35303265 0.030027982 0
-1.2426829 0.35407558 0.060229152 0
-1.2276148 0.3497822 0.089310803 0
-1.2296821 0.35037124 0.1194208 0
-1.2594503 0.35885304 0.15313032 0
-0.8314234 0.21437016 -0.31253716 0
-0.90189469 0.23254015 -0.31467944 0
-0.96555507 0.24895401 -0.31123102 0
-1.0469431 0.26993871 -0.31004348 0
-1.1506199 0.29667023 -0.31100905 0
-1.2708142 0.32766053 -0.31105116 0
-1.4259245 0.36765346 -0.31301007 0
-1.5993849 0.4123776 -0.31109786 0
-1.2465975 0.32141662 -0.21158051 0
-1.249081 0.32205695 -0.18128014 0
-1.2381651 0.31924248 -0.14944109 0
-1.2430596 0.32050443 -0.11982226 0
-1.2374616 0.31906107 -0.089339525 0
-1.2474897 0.32164666 -0.059975822 0
-1.2408444 0.31993327 -0.029793721 0
-1.2519737 0.32280281 3.6910755e-05 0
-1.2336805 0.31808618 0.029694494 0
-1.2404686 0.31983638 0.059711568 0
-1.236408 0.31878942 0.089336716 0
-1.229522 0.31701395 0.11859045 0
-0.83450913 0.19284862 -0.31176817 0
-0.9013859 0.20830333 -0.31256804 0
-0.98028314 0.22653587 -0.31403542 0
-1.0529763 0.24333468 -0.30991271 0
-1.1473038 0.26513305 -0.30820584 0
-1.2760605 0.29488772 -0.3104147 0
-1.4381946 0.33235568 -0.31376225 0
-1.6156871 0.37337282 -0.31233639 0
-1.2424475 0.28712004 -0.20957947 0
-1.2409661 0.28677768 -0.17899495 0
-1.2520292 0.2893343 -0.15018521 0
-1.2578017 0.29066825 -0.12049776 0
-1.2492812 0.28869924 -0.089638241 0
-1.2368307 0.28582203 -0.05909773 0
-1.2496028 0.28877357 -0.029819524 0
-1.2382027 0.2861391 3.6280289e-05 0
-1.2293705 0.28409803 0.029408798 0
-1.2325292 0.28482798 0.058964577 0
-1.2485807 0.28853735 0.089661516 0
-1.2442364 0.2875334 0.11927174 0
-0.83913511 0.17173705 -0.3117778 0
-0.90366054 0.18494278 -0.31163892 0
-0.97492754 0.19952828 -0.31060758 0
-1.0709491 0.21917999 -0.31347448 0
-1.1570854 0.23680863 -0.30912948 0
-1.2760051 0.26114669 -0.30869961 0
-1.4265184 0.29195067 -0.30950883 0
-1.2516676 0.2561658 -0.24063951 0
-1.2473147 0.25527492 -0.20924704 0
-1.2481228 0.25544029 -0.1790403 0
-1.2310132 0.25193867 -0.14685476 0
-1.2295396 0.25163707 -0.11714451 0
-1.2428217 0.25435537 -0.0886859 0
-1.2264844 0.25101179 -0.058282092 0
-1.2450492 0.25481126 -0.029547984 0
-1.2323397 0.25221014 3.5910551e-05 0
-1.244192 0.25463584 0.02960019 0
-1.2258108 0.25087392 0.058321677 0
-1.2437956 0.25455472 0.088828251 0
-1.2486937 0.25555712 0.11904282 0
-0.85030419 0.15177807 -0.31440422 0
-0.91091043 0.1625962 -0.31262437 0
-0.98243624 0.17536345 -0.31149051 0
-1.0680404 0.19064367 -0.31111562 0
-1.1768965 0.21007432 -0.31290612 0
-1.2960813 0.23134863 -0.31204459 0
-1.4479953 0.25846508 -0.31265369 0
-1.2498344 0.22309364 -0.23912838 0
-1.2351303 0.22046898 -0.20620388 0
-1.2356043 0.22055359 -0.17638987 0
-1.2470117 0.22258979 -0.14804597 0
-1.230514 0.21964498 -0.11667202 0
-1.2469095 0.22257155 -0.088548549 0
-1.2452608 0.22227727 -0.058889002 0
-1.2213674 0.21801232 -0.028846184 0
-1.2251239 0.21868284 3.552813e-05 0
-1.2443433 0.22211348 0.029461037 0
-1.236689 0.22074719 0.058555514 0
-1.2533065 0.2237134 0.089075871 0
-0.83917898 0.12803538 -0.30899736 0
-0.92659765 0.14137302 -0.31668279 0
-0.98002774 0.14952497 -0.30943179 0
-1.0779537 0.16446576 -0.31269458 0
-1.1711434 0.17868391 -0.31007871 0
-1.2875602 0.19644588 -0.30870101 0
-1.2627239 0.19265656 -0.27151319 0
-1.2502583 0.19075465 -0.2382125 0
-1.2508923 0.19085138 -0.20796491 0
-1.2424403 0.18956184 -0.1766265 0
-1.2195801 0.186074 -0.14418581 0
-1.2456024 0.19004428 -0.11761039 0
-1.242815 0.189619 -0.087889932 0
-1.2397838 0.18915652 -0.058385622 0
-1.2491956 0.1905925 -0.029380459 0
-1.2455589 0.19003765 3.5970188e-05 0
-1.2485512 0.19049419 0.029437458 0
-1.2431039 0.18966308 0.058613934 0
-1.2452468 0.18999001 0.08813417 0
-0.90778762 0.11514807 -0.30916241 0
-0.99062783 0.12565592 -0.31167805 0
-1.0738643 0.13621403 -0.31041223 0
-1.1788779 0.14953445 -0.31102824 0
-1.2934557 0.16406803 -0.30902329 0
-1.2405679 0.15735951 -0.26581052 0
-1.2544136 0.15911575 -0.23816319 0
-1.2445661 0.15786664 -0.20618507 0
-1.2390243 0.15716371 -0.17552109 0
-1.232574 0.15634552 -0.14520927 0
-1.2370249 0.15691009 -0.11638951 0
-1.2378393 0.15701339 -0.087230027 0
-1.237133 0.1569238 -0.058055785 0
-1.2486796 0.15838842 -0.029264985 0
-1.2251948 0.1554095 3.5257599e-05 0
-1.2317649 0.15624288 0.028939491 0
-1.2385201 0.15709974 0.058192316 0
-0.85322452 0.086415827 -0.31216395 0
-0.91647339 0.092821769 -0.31122351 0
-0.98908097 0.10017557 -0.31029707 0
-1.0861681 0.11000869 -0.31306645 0
-1.169819 0.11848099 -0.30775127 0
-1.3114721 0.13282782 -0.31242719 0
-1.2580665 0.12741882 -0.26878521 0
-1.2504417 0.12664656 -0.23672681 0
-1.2479082 0.12638998 -0.20614465 0
-1.2383089 0.12541774 -0.17491563 0
-1.2367125 0.12525605 -0.14527811 0
-1.256972 0.12730797 -0.11792642 0
-1.2459542 0.12619208 -0.08754956 0
-1.2485456 0.12645455 -0.058422975 0
-1.2351472 0.12509753 -0.028864641 0
-1.253477 0.12695399 3.596782e-05 0
