# .PCD v0.7 - Point Cloud Data file format
VERSION 0.7
FIELDS x y z intensity
SIZE 4 4 4 4
TYPE F F F F
COUNT 1 1 1 1
WIDTH 1315
HEIGHT 1
VIEWPOINT 0 0 0 1 0 0 0
POINTS 1315
DATA ascii
-1.2316241 -1.145641 0.043127414 0
-1.2496115 -1.1479225 0.071660735 0
-1.2342812 -1.145978 0.10100594 0
-1.2401515 -1.1467227 0.13012981 0
-1.2396132 -1.1466544 0.15925986 0
-1.2411548 -1.1468499 0.18857457 0
-1.5972736 -1.1920216 0.36584377 0
-1.4764667 -1.176698 0.38156566 0
-0.89678091 -1.1262648 -0.092066534 0
-1.0179795 -1.1447563 -0.0931715 0
-1.1396264 -1.1633162 -0.088658176 0
-1.1963321 -1.171968 -0.069239832 0
-1.6073445 -1.2346771 -0.089174353 0
-2.5610952 -1.3801929 -0.14094146 0
-3.4209402 -1.5113813 -0.14102203 0
-5.1350884 -1.7729126 -0.1409042 0
-10.282473 -2.5582602 -0.14089118 0
-1.3603761 -1.1969966 0.29458144 0
-1.3467696 -1.1949205 0.32511714 0
-1.3512466 -1.1956036 0.35869074 0
-0.88689291 -1.1477753 -0.090739422 0
-0.99644333 -1.1673299 -0.089863561 0
-1.1435542 -1.193589 -0.090107583 0
-1.197885 -1.203287 -0.070173897 0
-1.6045153 -1.27587 -0.089634292 0
-2.5418432 -1.4431816 -0.14012855 0
-3.405344 -1.5973153 -0.1409273 0
-5.1146326 -1.9024208 -0.14094917 0
-10.236154 -2.8166049 -0.14080949 0
-1.3515617 -1.230718 0.29413295 0
-1.325615 -1.2260866 0.32252228 0
-1.3221673 -1.2254713 0.35420394 0
-0.89665282 -1.1730003 -0.093785919 0
-0.99221814 -1.1925586 -0.089975916 0
-1.1431494 -1.2234483 -0.090965532 0
-1.1927795 -1.2336055 -0.070270799 0
-1.5979719 -1.316532 -0.089777254 0
-2.5394437 -1.5092132 -0.14106816 0
-3.3844595 -1.6821538 -0.14060909 0
-5.0922613 -2.0316718 -0.14105831 0
-10.18365 -3.0736735 -0.14073499 0
-1.2523704 -1.2458013 0.31130403 0
-1.241474 -1.2435713 0.33991241 0
-0.88158685 -1.1932454 -0.091572635 0
-0.98999792 -1.2182983 -0.090599276 0
-1.1303269 -1.2507273 -0.089860596 0
-1.1917844 -1.2649297 -0.0710712 0
-1.5945415 -1.3580037 -0.090417229 0
-2.5252585 -1.5730853 -0.14104342 0
-3.3637745 -1.7668599 -0.14045657 0
-5.0574045 -2.1582446 -0.14072692 0
-10.128325 -3.3300953 -0.1407471 0
-0.87037265 -1.2139562 -0.090302251 0
-0.97681415 -1.2414006 -0.089220144 0
-1.1229513 -1.2790798 -0.089789458 0
-1.3135941 -1.3282343 -0.089813985 0
-1.5836526 -1.3978648 -0.090287112 0
-1.9962076 -1.504236 -0.09154398 0
-3.3521626 -1.8538488 -0.14111197 0
-5.0239453 -2.284893 -0.1406137 0
-10.064464 -3.584516 -0.14070928 0
-0.86383957 -1.2357023 -0.090172447 0
-0.97339278 -1.2669171 -0.089856811 0
-1.099913 -1.3029664 -0.087163039 0
-1.3028712 -1.3607948 -0.089557879 0
-1.5724938 -1.4376179 -0.090245105 0
-1.9746913 -1.5522155 -0.090778403 0
-3.3215365 -1.9359697 -0.14054897 0
-4.9963651 -2.4131758 -0.14093846 0
-9.9893551 -3.8358202 -0.14055397 0
-0.85757917 -1.2575164 -0.090224139 0
-0.97055525 -1.2928118 -0.090740331 0
-1.105454 -1.334956 -0.089540191 0
-1.3033115 -1.3967694 -0.091063894 0
-1.5747416 -1.481568 -0.091966726 0
-1.966117 -1.6038392 -0.091390349 0
-3.3026681 -2.0213964 -0.14099391 0
-4.9614239 -2.5396149 -0.14106408 0
-9.9244556 -4.0901356 -0.14080001 0
-0.85939234 -1.2821065 -0.092212193 0
-0.96276224 -1.3172871 -0.09077502 0
-1.0985974 -1.3635168 -0.089925103 0
-1.2820591 -1.4259555 -0.089496829 0
-1.5539701 -1.5184968 -0.090997674 0
-1.9507937 -1.6535504 -0.09147007 0
-3.2695417 -2.1023684 -0.14054833 0
-4.9081349 -2.6600418 -0.1404448 0
-9.8384619 -4.3380122 -0.14068712 0
-0.84733176 -1.3020992 -0.091215648 0
-0.9600358 -1.3436581 -0.091950603 0
-1.0916028 -1.3921725 -0.090415113 0
-1.2715689 -1.4585336 -0.089636974 0
-1.5394406 -1.5573096 -0.090912707 0
-1.9240681 -1.6991383 -0.090540461 0
-3.2481563 -2.1873865 -0.14112504 0
-4.8792868 -2.7888544 -0.1411826 0
-9.7581539 -4.5879025 -0.14086843 0
-0.8459149 -1.3260858 -0.092758738 0
-0.95606804 -1.3698919 -0.093020685 0
-1.0672377 -1.4141022 -0.087965064 0
-1.2595584 -1.490585 -0.089672364 0
-1.521889 -1.5949094 -0.090569384 0
-1.8987314 -1.7447733 -0.089856006 0
-3.2258315 -2.2725384 -0.14179753 0
-4.8180642 -2.9057424 -0.14046793 0
-9.664484 -4.8330822 -0.14087427 0
-0.83372951 -1.3458862 -0.091968633 0
-0.9303906 -1.3871808 -0.089790724 0
-1.0658078 -1.4450325 -0.089685909 0
-1.2459742 -1.5220013 -0.089590631 0
-1.5117421 -1.63554 -0.091283418 0
-1.8901125 -1.7971838 -0.090977333 0
-3.1792064 -2.3478975 -0.1407925 0
-4.7773671 -3.030648 -0.14093323 0
-9.5614347 -5.07445 -0.14079869 0
-0.8205418 -1.3650379 -0.091051273 0
-0.92080581 -1.4108968 -0.089946233 0
-1.0492878 -1.4696621 -0.088839807 0
-1.2331564 -1.5537599 -0.089748256 0
-1.48694 -1.6698357 -0.090253346 0
-1.8670181 -1.8436761 -0.090760924 0
-3.1399651 -2.4258974 -0.14048883 0
-4.7177095 -3.1475277 -0.14059378 0
-9.4769249 -5.3243008 -0.1413511 0
-0.81222236 -1.3863405 -0.091387756 0
-0.91768807 -1.4378349 -0.0915839 0
-1.0350018 -1.495114 -0.088504843 0
-1.221343 -1.5860963 -0.090189524 0
-1.4655105 -1.7053125 -0.089761056 0
-1.8557763 -1.8958622 -0.091894142 0
-3.1109896 -2.5087276 -0.14113232 0
-4.6682372 -3.2690632 -0.1409297 0
-9.3481541 -5.5540614 -0.14092737 0
-0.79763991 -1.4044933 -0.090356238 0
-0.9056114 -1.4606279 -0.091484748 0
-1.0365895 -1.5287237 -0.091224067 0
-1.2055401 -1.6165615 -0.090133153 0
-1.4450796 -1.7410985 -0.089511015 0
-1.8161174 -1.9340018 -0.090190493 0
-3.0689993 -2.5853775 -0.14092253 0
-4.6010146 -3.3818753 -0.14049865 0
-9.216939 -5.7817035 -0.14058501 0
-0.79044783 -1.4264654 -0.091215409 0
-0.89392394 -1.4836245 -0.091590919 0
-1.0118452 -1.548763 -0.089195602 0
-1.1879811 -1.6460586 -0.089916699 0
-1.4214077 -1.7750009 -0.088944547 0
-1.807049 -1.9880251 -0.091826908 0
-3.0218384 -2.6590617 -0.1404503 0
-4.5438895 -3.4998264 -0.14074899 0
-9.1023531 -6.0178728 -0.14083111 0
-0.77736139 -1.4452378 -0.090770952 0
-0.87638265 -1.5032439 -0.09054666 0
-0.99466842 -1.5725352 -0.088674016 0
-1.1718578 -1.6763319 -0.090051241 0
-1.4052389 -1.8130454 -0.089500986 0
-1.7767168 -2.0306554 -0.091333888 0
-2.983958 -2.7378516 -0.14087258 0
-4.4869142 -3.6182764 -0.14117064 0
-8.9800844 -6.2503548 -0.14103335 0
-0.76835352 -1.4664325 -0.091457255 0
-0.87293553 -1.5312947 -0.092718594 0
-0.99259406 -1.6055074 -0.091180094 0
-1.1669984 -1.7136736 -0.092175998 0
-1.3839211 -1.84821 -0.089489155 0
-1.7423812 -2.0705283 -0.090510659 0
-2.9318893 -2.8082659 -0.14029668 0
-4.4056869 -3.722321 -0.14043291 0
-8.8359861 -6.4700103 -0.14080086 0
-0.7536056 -1.4840757 -0.090830885 0
-0.84881312 -1.5465039 -0.090428241 0
-0.96427405 -1.6222124 -0.088732086 0
-1.1366851 -1.7352636 -0.09021575 0
-1.3668386 -1.8861768 -0.090192087 0
-1.7166673 -2.115562 -0.090747483 0
-2.8860559 -2.882338 -0.14037985 0
-4.3362613 -3.8332481 -0.14048493 0
-8.6973639 -6.6928535 -0.14086966 0
-0.74061412 -1.5027717 -0.090761743 0
-0.83380347 -1.5672965 -0.090272434 0
-0.95175749 -1.6489685 -0.089483701 0
-1.1224321 -1.7671444 -0.091058575 0
-1.3345866 -1.9140413 -0.08888609 0
-1.6927506 -2.1620357 -0.091320477 0
-2.8467767 -2.9610889 -0.14117943 0
-4.2669058 -3.9443934 -0.14069903 0
-8.5446701 -6.9063382 -0.14069948 0
-0.73126197 -1.5241237 -0.091772415 0
-0.81681204 -1.5866102 -0.089772813 0
-0.93568939 -1.6734391 -0.089662693 0
-1.1020114 -1.7949222 -0.090982534 0
-1.3165288 -1.9516075 -0.089710988 0
-1.6606854 -2.2029822 -0.091096647 0
-2.7949405 -3.0314515 -0.14107731 0
-4.1869898 -4.0482154 -0.14046857 0
-8.4002771 -7.1256356 -0.1409189 0
-0.70181817 -1.5303295 -0.087556429 0
-0.80926073 -1.6130428 -0.091622077 0
-0.93575448 -1.7104228 -0.093318321 0
-1.0786966 -1.8204652 -0.090514861 0
-1.2902044 -1.9832922 -0.089471348 0
-1.6273719 -2.242857 -0.090841971 0
-2.731344 -3.0927377 -0.1400909 0
-4.1115756 -4.1552935 -0.14065063 0
-8.2391691 -7.3328767 -0.14081304 0
-0.70804948 -1.5641918 -0.093058549 0
-0.79108804 -1.6315222 -0.091094218 0
-0.908889 -1.7270391 -0.091546811 0
-1.0601536 -1.8496894 -0.091016389 0
-1.2582543 -2.0103159 -0.088499419 0
-1.5919294 -2.2808704 -0.090445973 0
-2.6807613 -3.1637309 -0.14039323 0
-4.0343318 -4.2612495 -0.14088719 0
-8.0779057 -7.5399108 -0.14085537 0
-0.6776861 -1.5685554 -0.088689886 0
-0.77130556 -1.6484631 -0.090270527 0
-0.89573699 -1.7546703 -0.092789628 0
-1.0366688 -1.874961 -0.090750627 0
-1.2486567 -2.0559011 -0.091044717 0
-1.5624362 -2.323724 -0.090887956 0
-2.6308429 -3.2356508 -0.1409262 0
-3.9548087 -4.3657069 -0.14115137 0
-7.9005136 -7.7335196 -0.1405637 0
-0.67083234 -1.5926591 -0.090969153 0
-0.75989246 -1.6726464 -0.091653906 0
-0.86225659 -1.7645822 -0.089722641 0
-1.0201579 -1.9063975 -0.091915302 0
-1.220006 -2.085886 -0.090833999 0
-1.5225974 -2.3576512 -0.090176336 0
-2.5748351 -3.3026931 -0.14106788 0
-3.8565483 -4.4538326 -0.14041232 0
-7.7312956 -7.9338427 -0.14067185 0
-0.64911395 -1.6034832 -0.089132436 0
-0.73900008 -1.688406 -0.090770714 0
-0.8380174 -1.7819556 -0.088727094 0
-0.99063945 -1.92615 -0.090744846 0
-1.1968081 -2.1209342 -0.091615252 0
-1.4865882 -2.3947129 -0.090048037 0
-1.9853256 -2.8659105 -0.090063848 0
-3.7704487 -4.5524602 -0.14057513 0
-7.5553293 -8.1283436 -0.14072666 0
-0.63597554 -1.6222391 -0.089901127 0
-0.72128588 -1.7070134 -0.090813376 0
-0.8233583 -1.8084443 -0.090026386 0
-0.96902871 -1.9531991 -0.091209002 0
-1.1606603 -2.1436265 -0.090426616 0
-1.463655 -2.4447169 -0.091758765 0
-1.9233745 -2.9015472 -0.08868704 0
-3.6784925 -4.6456347 -0.14051911 0
-7.3776331 -8.3215275 -0.14088511 0
-0.62283373 -1.6412762 -0.090833001 0
-0.69639254 -1.7181575 -0.089027561 0
-0.80151176 -1.8280247 -0.089808591 0
-0.9491629 -1.9823449 -0.092177309 0
-1.138453 -2.1801848 -0.091658644 0
-1.4137596 -2.4679263 -0.090043046 0
-1.8907188 -2.9664285 -0.09032575 0
-3.579349 -4.7313299 -0.14013399 0
-7.186029 -8.5009155 -0.14074199 0
-0.60498095 -1.6554843 -0.090452679 0
-0.68742555 -1.7461245 -0.091727398 0
-0.78194648 -1.8500416 -0.090261005 0
-0.92646122 -2.0089221 -0.092732139 0
-1.0976136 -2.1970885 -0.08984714 0
-1.3782527 -2.5056255 -0.090355299 0
-1.8435634 -3.0171916 -0.090671919 0
-3.490931 -4.82832 -0.14062779 0
-6.9986415 -8.6847248 -0.14089492 0
-0.58696067 -1.6693827 -0.090121575 0
-0.66408336 -1.7585938 -0.090567492 0
-0.75670546 -1.865734 -0.089438178 0
-0.89035106 -2.0203276 -0.090564214 0
-1.0740993 -2.2328775 -0.091153361 0
-1.3342779 -2.5338376 -0.089602105 0
-1.7929825 -3.0644414 -0.090797223 0
-3.3975458 -4.9205108 -0.14095446 0
-6.7981343 -8.8541222 -0.14074862 0
-0.57388645 -1.689202 -0.091552369 0
-0.64760971 -1.7789621 -0.09150178 0
-0.7374469 -1.8883415 -0.090239905 0
-0.86811525 -2.0474341 -0.091463618 0
-1.0315921 -2.2464719 -0.089166857 0
-1.3004394 -2.5738013 -0.09041933 0
-1.7380264 -3.1065762 -0.090573974 0
-3.295089 -5.0023451 -0.14079408 0
-6.5952148 -9.0203438 -0.14066371 0
-0.54819381 -1.6934181 -0.088839091 0
-0.62849665 -1.7963798 -0.091813408 0
-0.72091043 -1.9148698 -0.091945551 0
-0.84054154 -2.0682571 -0.091326706 0
-1.0101006 -2.2856603 -0.091173105 0
-1.2624367 -2.6091979 -0.090782143 0
-1.6853056 -3.1513867 -0.090716518 0
-3.1891818 -5.0796084 -0.14052121 0
-6.3938293 -9.1885052 -0.14079019 0
-0.53368068 -1.711681 -0.090063743 0
-0.60996288 -1.8147482 -0.092456199 0
-0.68783921 -1.9199692 -0.089324303 0
-0.81101084 -2.0863903 -0.090844937 0
-0.98515028 -2.3216753 -0.092760496 0
-1.2185886 -2.6370811 -0.090378247 0
-1.6312418 -3.1946294 -0.090836935 0
-3.0799792 -5.1520624 -0.14013116 0
-6.1821203 -9.3434601 -0.1406808 0
-0.51887316 -1.7300553 -0.091391884 0
-0.57728827 -1.8132948 -0.088635288 0
-0.6711421 -1.9470329 -0.091328226 0
-0.77908903 -2.1008532 -0.089870624 0
-0.94405204 -2.3359194 -0.091302328 0
-1.1725514 -2.6615224 -0.089716323 0
-1.5819556 -3.2449081 -0.091673769 0
-2.9827714 -5.2410178 -0.14084466 0
-5.9726133 -9.5014305 -0.14081216 0
-0.50000471 -1.7429166 -0.091386981 0
-0.56391114 -1.8390512 -0.091220133 0
-0.64038771 -1.9540952 -0.089435436 0
-0.74923158 -2.1178293 -0.089473762 0
-0.90158224 -2.3470111 -0.08957281 0
-1.1354493 -2.698818 -0.090637498 0
-1.51885 -3.275569 -0.090955205 0
-2.8771746 -5.3189011 -0.14106569 0
-5.7505598 -9.6413431 -0.14058611 0
-0.47554821 -1.7469184 -0.08927805 0
-0.54336685 -1.8547437 -0.091600709 0
-0.62165922 -1.9792213 -0.091231592 0
-0.72023952 -2.1359546 -0.089400075 0
-0.86814094 -2.3711042 -0.089814864 0
-1.0941544 -2.7304444 -0.091023169 0
-1.4607285 -3.3132632 -0.090961434 0
-2.7591274 -5.3775954 -0.1403757 0
-5.5336413 -9.7888126 -0.14072639 0
-0.46105841 -1.7667394 -0.09126582 0
-0.51979005 -1.8655652 -0.091022886 0
-0.59345412 -1.9895173 -0.090256833 0
-0.69052899 -2.1528621 -0.089248933 0
-0.83573371 -2.3971932 -0.090440281 0
-1.040471 -2.7416978 -0.089305066 0
-1.4000752 -3.346792 -0.090749048 0
-2.6483865 -5.4472842 -0.14045399 0
-5.3100271 -9.9259386 -0.14073405 0
-0.44133148 -1.7782135 -0.091281436 0
-0.50067174 -1.8840561 -0.092238687 0
-0.56354684 -1.9962037 -0.088750757 0
-0.66281927 -2.1732714 -0.089785852 0
-0.80260253 -2.4225967 -0.091075502 0
-1.0069194 -2.7870278 -0.091403641 0
-1.3428631 -3.3862357 -0.091137312 0
-2.5383413 -5.5185571 -0.14076601 0
-5.0829148 -10.0572 -0.14073683 0
-0.41801539 -1.7829282 -0.089792617 0
-0.47100157 -1.8832928 -0.089440994 0
-0.54393232 -2.0214357 -0.090852581 0
-0.63627881 -2.1963553 -0.090852596 0
-0.76156574 -2.4336696 -0.089919619 0
-0.95800114 -2.8057506 -0.090756096 0
-1.2792274 -3.4142065 -0.09072841 0
-1.9180692 -4.624279 -0.090390496 0
-4.8508663 -10.179482 -0.14065528 0
-0.39836881 -1.7942771 -0.090037026 0
-0.45618996 -1.9108315 -0.092787139 0
-0.51587147 -2.0311358 -0.090170093 0
-0.60438067 -2.2095501 -0.090460517 0
-0.72373825 -2.4501479 -0.089619361 0
-0.91257483 -2.8307996 -0.090905212 0
-1.2189358 -3.4483538 -0.090932749 0
-1.8322519 -4.6846595 -0.091072254 0
-4.617949 -10.299991 -0.14068167 0
-0.37815222 -1.8045721 -0.090148486 0
-0.42724696 -1.9101462 -0.090309776 0
-0.48734805 -2.0393887 -0.08936245 0
-0.57045233 -2.2180974 -0.089478217 0
-0.6911788 -2.4777095 -0.090874977 0
-0.86563098 -2.8528545 -0.090863161 0
-1.1555232 -3.4762435 -0.090770312 0
-1.7332643 -4.7186275 -0.090501867 0
-4.3836522 -10.418065 -0.14079703 0
-0.35714871 -1.8131593 -0.089981847 0
-0.40306276 -1.9187853 -0.089925252 0
-0.45707372 -2.0430384 -0.087868415 0
-0.53758574 -2.2282574 -0.088885717 0
-0.64635646 -2.4784858 -0.088808767 0
-0.81570125 -2.8680661 -0.090246342 0
-1.0923655 -3.5045366 -0.090763085 0
-1.6449407 -4.7757435 -0.091240294 0
-4.1431894 -10.523001 -0.1407288 0
-0.33759332 -1.8252553 -0.090743802 0
-0.38373315 -1.93918 -0.092058234 0
-0.43405116 -2.063421 -0.089492865 0
-0.51264364 -2.2574751 -0.091315277 0
-0.6104154 -2.4988849 -0.089381285 0
-0.76963592 -2.892019 -0.090643682 0
-1.0288031 -3.5319335 -0.090809204 0
-1.5500727 -4.8190088 -0.091388084 0
-3.9018764 -10.625888 -0.14076293 0
-0.31445336 -1.8283709 -0.089571886 0
-0.35631961 -1.9397405 -0.090278737 0
-0.40770024 -2.0764198 -0.089908041 0
-0.47669846 -2.259964 -0.089803942 0
-0.5755831 -2.52301 -0.090527453 0
-0.72094792 -2.9096994 -0.090528287 0
-0.9663806 -3.5625825 -0.091218196 0
-1.4457622 -4.8378 -0.090436943 0
-3.65803 -10.72272 -0.14079839 0
-0.2939778 -1.8383526 -0.090087257 0
-0.33298638 -1.9506443 -0.090715684 0
-0.3792873 -2.0839279 -0.089480542 0
-0.44395256 -2.2700758 -0.089575432 0
-0.53601539 -2.5350914 -0.090282775 0
-0.67250603 -2.9279985 -0.090597041 0
-0.9008168 -3.5852227 -0.091148056 0
-1.3462256 -4.8673935 -0.090156831 0
-3.4122243 -10.814656 -0.14086521 0
-0.27493888 -1.8532826 -0.09181843 0
-0.31098002 -1.9661413 -0.092174269 0
-0.35063052 -2.0903022 -0.088985123 0
-0.41210654 -2.2828074 -0.089857705 0
-0.49724996 -2.5494242 -0.090439342 0
-0.62494624 -2.9492905 -0.091078781 0
-0.82931745 -3.5892553 -0.089834861 0
-1.253237 -4.9167109 -0.090966173 0
-3.1611538 -10.891132 -0.1407062 0
-0.25061211 -1.8516072 -0.089966916 0
-0.28159136 -1.9577889 -0.089052223 0
-0.32460538 -2.1052198 -0.090080298 0
-0.37622678 -2.2821529 -0.088296421 0
-0.4590314 -2.5659666 -0.090983354 0
-0.57099277 -2.9497156 -0.089645244 0
-0.76696044 -3.6213968 -0.090710215 0
-1.1508629 -4.9372268 -0.090487085 0
-2.9106133 -10.96879 -0.14073105 0
-0.2295977 -1.8607903 -0.090650685 0
-0.25983241 -1.975069 -0.091089971 0
-0.29478222 -2.1071696 -0.089075588 0
-0.34908056 -2.3124022 -0.091370068 0
-0.41843382 -2.5745382 -0.090677164 0
-0.52472162 -2.9762766 -0.090876661 0
-0.70187062 -3.6458507 -0.091138028 0
-1.0505387 -4.9637189 -0.09042386 0
-2.6605647 -11.04917 -0.14097384 0
-0.20645782 -1.8617972 -0.08966025 0
-0.23552121 -1.9840442 -0.091614343 0
-0.2669293 -2.1161535 -0.089392774 0
-0.31258172 -2.3081775 -0.089544825 0
-0.37925977 -2.58864 -0.091160603 0
-0.47409379 -2.9875329 -0.090744726 0
-0.63337177 -3.657491 -0.090760969 0
-0.94804132 -4.98106 -0.09004467 0
-2.403635 -11.103607 -0.14074649 0
-0.18396662 -1.8648074 -0.089237534 0
-0.20971252 -1.9866892 -0.091035791 0
-0.23720318 -2.1168306 -0.088431351 0
-0.27949584 -2.3170452 -0.089742504 0
-0.33960417 -2.6015997 -0.091623493 0
-0.42273998 -2.995167 -0.090390198 0
-0.56818938 -3.6837285 -0.091552757 0
-0.8462227 -4.9999452 -0.089864396 0
-2.1470344 -11.158023 -0.14067437 0
-0.16317657 -1.8765401 -0.090825312 0
-0.18446791 -1.9916214 -0.091023125 0
-0.2104626 -2.1321247 -0.09004315 0
-0.24722205 -2.3308122 -0.090759121 0
-0.29698807 -2.5998013 -0.0904494 0
-0.37086067 -2.9990883 -0.089808248 0
-0.49829048 -3.6878562 -0.090886243 0
-0.94468743 -6.1006656 -0.14102609 0
-1.8894286 -11.207064 -0.14062901 0
-0.13995072 -1.8754475 -0.089759536 0
-0.15897211 -1.9950566 -0.090846799 0
-0.18038836 -2.129725 -0.088816561 0
-0.21168663 -2.3265326 -0.089319773 0
-0.25804526 -2.6180418 -0.091779016 0
-0.31900233 -3.0013483 -0.089195602 0
-0.43138731 -3.70804 -0.091484122 0
-0.81465793 -6.1180968 -0.14079978 0
-1.6321106 -11.258349 -0.14079009 0
-0.11923891 -1.8914156 -0.092481755 0
-0.13356259 -1.9989058 -0.090872206 0
-0.1522212 -2.1389267 -0.089643739 0
-0.17789163 -2.3315668 -0.089333154 0
-0.21564683 -2.6148956 -0.090698652 0
-0.26890558 -3.0145686 -0.089740597 0
-0.35993415 -3.69768 -0.090045117 0
-0.68491697 -6.1364689 -0.14077279 0
-1.3727124 -11.297936 -0.14082883 0
-0.094971046 -1.8805239 -0.089566179 0
-0.10773434 -1.9990817 -0.090323366 0
-0.12254658 -2.1366718 -0.088692553 0
-0.14428023 -2.3385549 -0.089743383 0
-0.17502178 -2.6241119 -0.091200359 0
-0.21779744 -3.0214529 -0.089808173 0
-0.29295382 -3.7195771 -0.091005124 0
-0.55453765 -6.1494179 -0.14064552 0
-1.1118274 -11.326058 -0.14075269 0
-0.071481481 -1.8708305 -0.08704298 0
-0.082751989 -2.0079539 -0.09154252 0
-0.093279302 -2.1360354 -0.088133909 0
-0.1101687 -2.3415215 -0.08970549 0
-0.13356027 -2.6261168 -0.090975784 0
-0.16777329 -3.0423725 -0.091311 0
-0.22413616 -3.7281156 -0.091144823 0
-0.42500189 -6.1719632 -0.14112067 0
-0.85057223 -11.349697 -0.14072593 0
-0.050223336 -1.8900956 -0.090815164 0
-0.056645509 -2.0030916 -0.090287827 0
-0.064969815 -2.1495545 -0.090028025 0
-0.076057523 -2.3446391 -0.089810185 0
-0.081034653 -2.4322097 -0.067940287 0
-0.080833562 -2.4286716 -0.033598576 0
-0.080531292 -2.4233532 0.00055421353 0
-0.08122804 -2.4356124 0.033528801 0
-0.081434213 -2.43924 0.067204066 0
-0.080763966 -2.4274471 0.10101152 0
-0.02721698 -1.8827996 -0.089049794 0
-0.031015083 -2.0031786 -0.090091102 0
-0.035416748 -2.1426871 -0.088685937 0
-0.040913671 -2.3169096 -0.085698687 0
-0.040679637 -2.3094919 -0.053402457 0
-0.040796172 -2.3131855 -0.022663726 0
-0.041190356 -2.3256788 0.0074978862 0
-0.040958177 -2.31832 0.039067183 0
-0.040344682 -2.2988756 0.070506848 0
-0.04043695 -2.3018 0.10100789 0
-0.0047203302 -1.8921661 -0.090950064 0
-0.0054737898 -2.0116267 -0.091591127 0
-0.0063096099 -2.1441457 -0.088835113 0
-0.0067218295 -2.2095032 -0.07051494 0
-0.0066886339 -2.2042401 -0.041027371 0
-0.0067711198 -2.2173181 -0.013656227 0
-0.006729471 -2.2107146 0.015579762 0
-0.0066689979 -2.2011268 0.044552747 0
-0.0067613316 -2.2157662 0.072453767 0
-0.0067569278 -2.2150681 0.10100539 0
0.018252557 -1.9020963 -0.093091778 0
0.020257721 -2.008028 -0.090943836 0
0.022961462 -2.1508653 -0.089969881 0
0.024086673 -2.2103095 -0.070655577 0
0.023791661 -2.1947243 -0.039937649 0
0.0238274 -2.1966121 -0.011741443 0
0.023887718 -2.1997988 0.016329424 0
0.02372238 -2.1910641 0.045012306 0
0.023876585 -2.1992106 0.072834216 0
0.023739927 -2.1919911 0.10100473 0
0.040755309 -1.8895414 -0.090575077 0
0.045908634 -2.0061617 -0.090744831 0
0.052484855 -2.1549821 -0.09079925 0
0.054946143 -2.2106812 -0.070844583 0
0.05433761 -2.1969101 -0.040305603 0
0.054619823 -2.2032967 -0.012455752 0
0.054184619 -2.1934478 0.016706424 0
0.054050881 -2.1904213 0.044997685 0
0.054245975 -2.1948364 0.072913609 0
0.054363444 -2.1974947 0.10100492 0
0.063706025 -1.8918366 -0.091339074 0
0.071862109 -2.0091813 -0.091590129 0
0.082116604 -2.1567161 -0.091360204 0
0.08537858 -2.2036474 -0.070100315 0
0.085787185 -2.2095261 -0.041986424 0
0.085451223 -2.2046926 -0.012749186 0
0.084957473 -2.1975889 0.016295286 0
0.085146554 -2.2003093 0.044455908 0
0.085773163 -2.2093244 0.072535671 0
0.085561678 -2.2062817 0.10100523 0
0.086801924 -1.8935889 -0.092112504 0
0.098088801 -2.0125096 -0.09261965 0
0.11007956 -2.1388464 -0.088809408 0
0.11582538 -2.1993854 -0.069853865 0
0.11603718 -2.201617 -0.041354734 0
0.11627951 -2.2041702 -0.012936322 0
0.11618852 -2.2032115 0.015724624 0
0.11583631 -2.1995006 0.044376377 0
0.11515252 -2.192296 0.07287433 0
0.11528944 -2.1937387 0.10100494 0
0.10916751 -1.8876202 -0.091359891 0
0.12277084 -2.0005684 -0.090880938 0
0.13987637 -2.1425955 -0.089946322 0
0.14700362 -2.2017729 -0.07065656 0
0.14637929 -2.1965892 -0.041150067 0
0.14675838 -2.1997368 -0.012829391 0
0.14714655 -2.2029598 0.015510449 0
0.14653425 -2.197876 0.0442986 0
0.14632879 -2.1961701 0.072707169 0
0.14611465 -2.194392 0.10100505 0
0.13188176 -1.8851724 -0.091481902 0
0.1470805 -1.9891866 -0.089360632 0
0.16784155 -2.1312671 -0.088707812 0
0.17741866 -2.1968093 -0.070529677 0
0.17710334 -2.1946511 -0.041399885 0
0.17772016 -2.1988726 -0.013131192 0
0.17698857 -2.1938658 0.015865082 0
0.17835566 -2.2032216 0.043856196 0
0.17744014 -2.1969562 0.072593495 0
0.17824845 -2.2024879 0.1010054 0
0.1533971 -1.8754973 -0.090169065 0
0.17389613 -1.9946812 -0.091176115 0
0.19731256 -2.1308272 -0.089397199 0
0.20730497 -2.1889243 -0.070094936 0
0.20919573 -2.1999173 -0.042596895 0
0.21044333 -2.207171 -0.014375983 0
0.20885478 -2.1979351 0.015234197 0
0.20884722 -2.197891 0.043878328 0
0.20863023 -2.1966295 0.072487094 0
0.20957083 -2.2020981 0.10100553 0
0.17664167 -1.8760808 -0.091189958 0
0.19805939 -1.9841998 -0.09006276 0
0.22538593 -2.1221471 -0.088833757 0
0.24222393 -2.2071471 -0.073506199 0
0.24154225 -2.203706 -0.043720145 0
0.24073847 -2.1996484 -0.014199963 0
0.24043643 -2.1981237 0.014819527 0
0.24028109 -2.1973395 0.043637332 0
0.24040791 -2.1979797 0.072321795 0
0.23853372 -2.1885185 0.1010053 0
0.19959985 -1.8742156 -0.091810711 0
0.22323531 -1.9795171 -0.090179868 0
0.25435114 -2.1181455 -0.089174189 0
0.27175227 -2.1956716 -0.072785892 0
0.27217811 -2.1975687 -0.043758366 0
0.27292314 -2.2008879 -0.014934113 0
0.2729817 -2.201149 0.014142314 0
0.27115729 -2.1930208 0.043536954 0
0.27020666 -2.1887853 0.072387762 0
0.27336264 -2.2028461 0.1010059 0
0.22009303 -1.8618696 -0.090265013 0
0.24773853 -1.9719598 -0.089862518 0
0.28476551 -2.1194091 -0.090532534 0
0.30266166 -2.1906753 -0.073107548 0
0.30522302 -2.2008753 -0.045027722 0
0.30522832 -2.2008963 -0.015632382 0
0.30292076 -2.1917071 0.014300378 0
0.30643883 -2.2057168 0.042581927 0
0.305069 -2.2002618 0.071940646 0
0.30511788 -2.2004566 0.10100605 0
0.24069951 -1.8512461 -0.089202218 0
0.27452457 -1.9728671 -0.091318257 0
0.31058115 -2.1025119 -0.088932894 0
0.33675909 -2.1966369 -0.0751433 0
0.3348352 -2.1897194 -0.044652451 0
0.33625513 -2.1948249 -0.01582527 0
0.33881268 -2.2040207 0.012826273 0
0.33490935 -2.189986 0.042950932 0
0.34121597 -2.212662 0.071446925 0
0.33801356 -2.2011476 0.10100631 0
0.26106769 -1.8406566 -0.088253923 0
0.29844084 -1.9629903 -0.090794034 0
0.33674312 -2.0883651 -0.087905131 0
0.37239009 -2.2050486 -0.077680774 0
0.37199792 -2.2037647 -0.047444988 0
0.369582 -2.1958568 -0.016789077 0
0.3711895 -2.2011185 0.012387061 0
0.37210697 -2.2041216 0.041834079 0
0.37008741 -2.1975112 0.071597092 0
0.37268391 -2.2060101 0.10100672 0
0.29021022 -1.8570585 -0.093460001 0
0.32258537 -1.9541905 -0.090598591 0
0.36898509 -2.093399 -0.090305455 0
0.43135661 -2.2805262 -0.090307228 0
0.5206185 -2.5483298 -0.091094367 0
0.65243077 -2.9437931 -0.091330402 0
0.86303937 -3.5756614 -0.089620464 0
1.3022012 -4.8932347 -0.090606146 0
3.2853971 -10.843222 -0.14052929 0
0.31014416 -1.844317 -0.092291959 0
0.34893841 -1.9516044 -0.091767378 0
0.39997038 -2.0927358 -0.091873728 0
0.46162146 -2.2632349 -0.089407422 0
0.55907428 -2.5327454 -0.090848677 0
0.69878948 -2.9191346 -0.09057612 0
0.93728185 -3.578697 -0.091524266 0
1.401431 -4.8623242 -0.090762757 0
3.5374081 -10.769474 -0.14083236 0
0.32875761 -1.828915 -0.090619557 0
0.37197453 -1.9396158 -0.091180481 0
0.42305708 -2.0704646 -0.089782529 0
0.49882168 -2.2645369 -0.091418482 0
0.60183281 -2.5284019 -0.092132069 0
0.74826467 -2.9034894 -0.090834208 0
1.001817 -3.5529678 -0.091428138 0
1.4974221 -4.8224688 -0.090598457 0
3.7808752 -10.671573 -0.14069359 0
0.34808999 -1.8162137 -0.089659728 0
0.39024812 -1.9166455 -0.088462196 0
0.45445603 -2.0696058 -0.091588996 0
0.52928609 -2.2478707 -0.090854682 0
0.63162941 -2.4916794 -0.089461125 0
0.7937997 -2.8780119 -0.090225495 0
1.0649514 -3.523967 -0.091205813 0
1.5914962 -4.7783356 -0.090338133 0
4.0274048 -10.581313 -0.14090018 0
0.37461194 -1.8200177 -0.092648931 0
0.41985196 -1.9206017 -0.091368683 0
0.47729108 -2.0483086 -0.08987496 0
0.55491704 -2.2208979 -0.088814102 0
0.66681772 -2.4696918 -0.088743813 0
0.83951598 -2.8536594 -0.08984194 0
1.1258109 -3.4901915 -0.090736426 0
1.6904124 -4.7454948 -0.090771817 0
4.2620521 -10.463135 -0.14055517 0
0.38783386 -1.794468 -0.088909261 0
0.44475099 -1.9129304 -0.092036076 0
0.50770509 -2.0439575 -0.091334365 0
0.58651257 -2.2079806 -0.089040376 0
0.70852947 -2.4619358 -0.0899776 0
0.89162648 -2.8430178 -0.090992369 0
1.1912504 -3.4666288 -0.091171868 0
1.7794372 -4.6908293 -0.090211757 0
4.5060439 -10.365749 -0.14089416 0
0.41055492 -1.7893909 -0.090088911 0
0.4674724 -1.9005768 -0.091853537 0
0.53227156 -2.0271592 -0.090655424 0
0.62036914 -2.199254 -0.090056352 0
0.74302083 -2.438849 -0.08935187 0
0.93704754 -2.817872 -0.090773858 0
1.2508942 -3.4309583 -0.09079095 0
1.8766433 -4.6533322 -0.090659134 0
4.7399364 -10.246655 -0.14083035 0
0.42811772 -1.7742189 -0.088979803 0
0.48900631 -1.8861089 -0.091337271 0
0.55512589 -2.0076115 -0.089567907 0
0.65530646 -2.191705 -0.09141057 0
0.78260362 -2.4256287 -0.090145387 0
0.98000765 -2.7883818 -0.090211712 0
1.313938 -3.4020183 -0.091059484 0
1.9718848 -4.611073 -0.090989433 0
4.9702401 -10.120905 -0.14074475 0
0.45144877 -1.7695355 -0.09053684 0
0.51090944 -1.8725243 -0.091122903 0
0.57724589 -1.9874221 -0.088451363 0
0.6817084 -2.1683559 -0.090362795 0
0.8221187 -2.4115534 -0.090969048 0
1.0333179 -2.7773602 -0.091747917 0
1.371839 -3.3636949 -0.090702064 0
2.5939059 -5.4803724 -0.14045531 0
5.1990042 -9.9925261 -0.14074226 0
0.47229904 -1.7600592 -0.091069542 0
0.5307222 -1.8555998 -0.090289004 0
0.61970264 -2.0011113 -0.093950756 0
0.70681441 -2.1435668 -0.089170463 0
0.84917235 -2.3763676 -0.089049138 0
1.0682462 -2.7346234 -0.089984201 0
1.4339218 -3.3326201 -0.091051899 0
2.7148924 -5.4274168 -0.14121361 0
5.4246445 -9.8587294 -0.14074828 0
0.49120006 -1.7473093 -0.09091448 0
0.5532015 -1.8431798 -0.090563081 0
0.63225216 -1.9654127 -0.090082146 0
0.73698986 -2.1273644 -0.089500852 0
0.88763309 -2.3602982 -0.089852639 0
1.11195 -2.7071505 -0.089985423 0
1.4914813 -3.2940052 -0.090909176 0
2.81813 -5.3453498 -0.14053836 0
5.6402388 -9.7090654 -0.14047152 0
0.50840688 -1.7321188 -0.090250246 0
0.57736045 -1.8330594 -0.091494806 0
0.66468257 -1.9608896 -0.092413954 0
0.7695142 -2.1143517 -0.090508394 0
0.91809446 -2.3318572 -0.089055307 0
1.1647705 -2.6929641 -0.091612227 0
1.5482537 -3.2543418 -0.090797208 0
2.9313619 -5.2790627 -0.14088677 0
5.8613596 -9.5682621 -0.14059138 0
0.52904159 -1.7219291 -0.090996943 0
0.59054273 -1.8072553 -0.08894255 0
0.68125212 -1.9331048 -0.090240233 0
0.79237986 -2.0872827 -0.089240335 0
0.94978923 -2.3056712 -0.08867804 0
1.197433 -2.64925 -0.090023495 0
1.6050867 -3.2148261 -0.090818278 0
3.0392737 -5.2046065 -0.1409353 0
6.0827641 -9.4271221 -0.14086236 0
0.54748499 -1.7085385 -0.091041349 0
0.62355518 -1.8086522 -0.092853419 0
0.70544612 -1.9164263 -0.090402491 0
0.82677263 -2.0761003 -0.090852715 0
0.99612486 -2.2989798 -0.091271289 0
1.2423261 -2.6229978 -0.090546794 0
1.6575023 -3.1693983 -0.090445481 0
3.1431122 -5.1245642 -0.14081596 0
6.2907209 -9.2670364 -0.140747 0
0.57218283 -1.7029217 -0.093328722 0
0.63502479 -1.7814323 -0.090139098 0
0.72972339 -1.8997422 -0.090694167 0
0.850815 -2.0510259 -0.090151958 0
1.0204719 -2.2629836 -0.089703836 0
1.2863026 -2.5950944 -0.091017537 0
1.7165433 -3.1326082 -0.090955876 0
3.2505252 -5.0490613 -0.14111964 0
6.4990377 -9.1075325 -0.14080144 0
0.57903451 -1.6752621 -0.089709453 0
0.65633982 -1.7669984 -0.090586431 0
0.75584036 -1.8850732 -0.091555573 0
0.88077605 -2.0333314 -0.090902843 0
1.0548451 -2.2398946 -0.090168364 0
1.3275608 -2.5635197 -0.091184326 0
1.7722347 -3.091203 -0.091190152 0
3.3463995 -4.9592252 -0.14072062 0
6.6938834 -8.9316015 -0.1405158 0
0.60349947 -1.6687373 -0.092061423 0
0.68697751 -1.7628722 -0.093772702 0
0.77477622 -1.8618796 -0.090707116 0
0.90068227 -2.003859 -0.089598976 0
1.0793971 -2.2053888 -0.088994093 0
1.3606234 -2.522517 -0.090307258 0
1.8191264 -3.0395534 -0.09060245 0
3.4462602 -4.8744106 -0.140774 0
6.8934379 -8.7616625 -0.1405611 0
0.62045044 -1.6533183 -0.092061333 0
0.69894254 -1.7374551 -0.091747485 0
0.79931307 -1.8450439 -0.091373749 0
0.93294716 -1.9882883 -0.091031365 0
1.1175375 -2.1861534 -0.090330519 0
1.4062183 -2.4955947 -0.091312014 0
1.8661381 -2.9885898 -0.090178229 0
3.5411797 -4.7840924 -0.14063688 0
7.0835342 -8.5811968 -0.14043112 0
0.63295424 -1.6333466 -0.090831272 0
0.71340871 -1.715338 -0.090621091 0
0.81923926 -1.8231906 -0.091042615 0
0.95565039 -1.9622078 -0.090588771 0
1.1467725 -2.1569812 -0.090229161 0
1.4435064 -2.4593842 -0.091276027 0
1.9186442 -2.9435997 -0.090443291 0
3.6357231 -4.6934838 -0.14063182 0
7.2817254 -8.4091444 -0.1407264 0
0.64811474 -1.6163352 -0.090568297 0
0.7328096 -1.6983998 -0.090964369 0
0.83986849 -1.8021338 -0.091008224 0
0.97839582 -1.9363589 -0.09029559 0
1.1799064 -2.1316113 -0.090886079 0
1.4752381 -2.4177711 -0.090639062 0
1.9611635 -2.8886056 -0.08984179 0
3.7277782 -4.6003561 -0.14061573 0
7.458601 -8.2153139 -0.14046685 0
0.66937572 -1.6050086 -0.092200048 0
0.74272305 -1.6725745 -0.088980965 0
0.85828143 -1.7790242 -0.090599559 0
1.0053104 -1.914464 -0.09093193 0
1.2126119 -2.1054254 -0.091562845 0
1.514614 -2.3836226 -0.091121726 0
2.5445657 -3.332391 -0.14079869 0
3.818522 -4.5059304 -0.1406676 0
7.6427956 -8.0287647 -0.14060117 0
0.6766715 -1.5809202 -0.08993233 0
0.76863611 -1.6614428 -0.091211386 0
0.87936866 -1.7583981 -0.090912916 0
1.0331669 -1.8930609 -0.091834731 0
1.2289104 -2.0644503 -0.08978001 0
1.5259925 -2.3245697 -0.088228576 0
2.6100085 -3.2737143 -0.14146158 0
3.9068019 -4.409162 -0.14071508 0
7.8169293 -7.8327966 -0.14056885 0
0.69063824 -1.5630633 -0.089726202 0
0.78679627 -1.6430626 -0.091565557 0
0.89388317 -1.7321543 -0.089927085 0
1.042056 -1.8554276 -0.08935117 0
1.2520375 -2.0301232 -0.089231275 0
1.5636306 -2.2893553 -0.088766865 0
2.6568131 -3.1988366 -0.14055191 0
3.9914329 -4.3091826 -0.1406901 0
7.9854074 -7.6319976 -0.14051737 0
0.70051491 -1.5420184 -0.088539474 0
0.79771578 -1.6188195 -0.090287156 0
0.92154175 -1.7166578 -0.091854088 0
1.0642354 -1.8294038 -0.089468934 0
1.2806642 -2.0004101 -0.089642949 0
1.5970942 -2.2504299 -0.088904761 0
2.7080224 -3.1282046 -0.14022276 0
4.079196 -4.211606 -0.14100276 0
8.1557388 -7.4325924 -0.14067355 0
0.71950513 -1.5281423 -0.089938901 0
0.80513161 -1.5923564 -0.088353299 0
0.93700331 -1.6912514 -0.091320463 0
1.0957035 -1.8102659 -0.091332667 0
1.3120997 -1.9725485 -0.090567894 0
1.6236931 -2.2062225 -0.088354923 0
2.7597473 -3.0581872 -0.14010215 0
4.1583939 -4.1070781 -0.14095585 0
8.3276224 -7.2337193 -0.14101964 0
0.72712511 -1.5057541 -0.088439859 0
0.83219749 -1.580485 -0.091151364 0
0.94493532 -1.6606678 -0.089408316 0
1.1107954 -1.7786326 -0.090423204 0
1.3240033 -1.9302729 -0.088776939 0
1.6735207 -2.1788609 -0.090604492 0
2.8139703 -2.9899855 -0.14035103 0
4.2307057 -3.9976132 -0.14066854 0
8.4656515 -7.0096412 -0.14053823 0
0.7568444 -1.4986702 -0.092776753 0
0.83924037 -1.5541966 -0.089423187 0
0.96853435 -1.6413273 -0.090787716 0
1.1360663 -1.7542263 -0.091390602 0
1.3396162 -1.8913978 -0.087690644 0
1.6943274 -2.1304364 -0.089628078 0
2.8735092 -2.9250824 -0.14119026 0
4.3082581 -3.8919539 -0.14083672 0
8.6320848 -6.8057632 -0.1410213 0
0.76476657 -1.4764459 -0.09159451 0
0.85518754 -1.5341172 -0.089861251 0
0.97993135 -1.6136799 -0.089862458 0
1.1540103 -1.724709 -0.091224812 0
1.3734199 -1.8646504 -0.089280479 0
1.730314 -2.0922806 -0.090484254 0
2.916183 -2.8486385 -0.14075464 0
4.3732586 -3.7779741 -0.14045765 0
8.7760811 -6.586133 -0.14102097 0
0.7805891 -1.459295 -0.092531301 0
0.87257022 -1.5147473 -0.090720795 0
1.005023 -1.5945983 -0.091714241 0
1.1705788 -1.6944062 -0.09095902 0
1.4062459 -1.8364817 -0.090805776 0
1.7680691 -2.0546124 -0.09162607 0
2.9658864 -2.7767346 -0.14105815 0
4.4457664 -3.6689029 -0.14065 0
8.8987083 -6.3534255 -0.1405922 0
0.77715427 -1.4309146 -0.088851832 0
0.88857991 -1.4943124 -0.091377281 0
1.0245659 -1.5716841 -0.092582203 0
1.1829343 -1.6617908 -0.09014041 0
1.4142724 -1.7934151 -0.089070953 0
1.7873862 -2.0057051 -0.090874381 0
3.0049152 -2.6984413 -0.14064585 0
4.5160847 -3.5582497 -0.1408709 0
9.0367355 -6.1303587 -0.14073981 0
0.79949844 -1.4173272 -0.091612957 0
0.89327401 -1.4675939 -0.089717753 0
1.0304682 -1.5411344 -0.09100347 0
1.1992092 -1.631585 -0.090089925 0
1.4431437 -1.7623417 -0.090268679 0
1.8127515 -1.9604635 -0.090904988 0
3.061285 -2.6297178 -0.14177239 0
4.5718188 -3.4394131 -0.14046705 0
9.1600809 -5.8988695 -0.14064769 0
0.80165589 -1.3928159 -0.089616351 0
0.91796267 -1.4514316 -0.092439599 0
1.0496457 -1.5177966 -0.092030756 0
1.2170194 -1.6021488 -0.090402462 0
1.4624745 -1.725852 -0.090306006 0
1.8310627 -1.9116113 -0.090318017 0
3.0951207 -2.548665 -0.1412573 0
4.632081 -3.3232548 -0.14046176 0
9.2905045 -5.6709838 -0.14089414 0
0.82232547 -1.3775641 -0.092142232 0
0.92642015 -1.426772 -0.091833182 0
1.0570174 -1.4885083 -0.091007449 0
1.224263 -1.5675691 -0.089184962 0
1.4916395 -1.6939642 -0.091733985 0
1.8589385 -1.867595 -0.090853564 0
3.1235356 -2.4653993 -0.14048833 0
4.6932788 -3.2074533 -0.14065661 0
9.3999681 -5.4324136 -0.14074749 0
0.82756513 -1.3548175 -0.091143928 0
0.93787885 -1.4035991 -0.091980495 0
1.0603634 -1.4577627 -0.089405648 0
1.2452848 -1.5395365 -0.090233065 0
1.4962183 -1.6505014 -0.090107702 0
1.8870455 -1.8233283 -0.091520853 0
3.168133 -2.3898356 -0.14112642 0
4.7510843 -3.0898294 -0.14082624 0
9.5076132 -5.1932044 -0.14071019 0
0.8344273 -1.3329806 -0.090661727 0
0.94781792 -1.3797392 -0.091936477 0
1.0654495 -1.4282465 -0.088268481 0
1.2565047 -1.5070312 -0.089888401 0
1.5201242 -1.6157391 -0.091081001 0
1.9082786 -1.7758011 -0.091600604 0
3.2044299 -2.3102908 -0.14127524 0
4.805162 -2.9703794 -0.14095674 0
9.6005411 -4.947834 -0.14045583 0
0.84029841 -1.310871 -0.090084635 0
0.95025843 -1.3530011 -0.090502493 0
1.0841931 -1.4043168 -0.089677759 0
1.2610421 -1.4720747 -0.088665493 0
1.5214075 -1.5718312 -0.089323916 0
1.9095166 -1.7205313 -0.089801468 0
3.2375736 -2.2293632 -0.14133765 0
4.8474064 -2.8461547 -0.1406471 0
9.7175741 -4.712111 -0.14095905 0
0.84183627 -1.2873554 -0.088661902 0
0.96045142 -1.3294014 -0.090765961 0
1.0956225 -1.3773159 -0.089904942 0
1.2754514 -1.4410604 -0.089057527 0
1.5567605 -1.540777 -0.091945134 0
1.9365472 -1.6754012 -0.090711392 0
3.2644365 -2.1461024 -0.14108583 0
4.8939171 -2.7237096 -0.14070651 0
9.7954254 -4.461163 -0.14063871 0
0.85595024 -1.2682837 -0.090196021 0
0.98171043 -1.3093212 -0.093338259 0
1.1090211 -1.3508644 -0.090588994 0
1.2962563 -1.411962 -0.090508021 0
1.556514 -1.496888 -0.090265088 0
1.9499347 -1.625267 -0.090386651 0
3.2846544 -2.060806 -0.14050265 0
4.9349399 -2.5993187 -0.14064871 0
9.8875237 -4.2154202 -0.14082503 0
0.86823827 -1.2482717 -0.091420777 0
0.9767161 -1.2806649 -0.090830676 0
1.1177468 -1.3227791 -0.090581395 0
1.2968237 -1.3762543 -0.089087628 0
1.5563675 -1.4537584 -0.088745497 0
1.9530923 -1.572227 -0.089191563 0
3.3159401 -1.9791958 -0.14088903 0
4.9713345 -2.4735239 -0.1405196 0
9.9668388 -3.9652636 -0.14085084 0
0.87595278 -1.2267025 -0.091741525 0
0.98963982 -1.2575494 -0.091978751 0
1.1266799 -1.2947328 -0.090730287 0
1.3171403 -1.346411 -0.090684406 0
1.5666895 -1.4141217 -0.088636287 0
1.9531623 -1.5189844 -0.087835945 0
3.3379488 -1.894722 -0.14075051 0
5.0140095 -2.3494916 -0.14084804 0
10.04094 -3.7134614 -0.14090355 0
0.86273229 -1.1999229 -0.087598838 0
0.99599677 -1.2324954 -0.091960005 0
1.1390806 -1.2674679 -0.091585122 0
1.3120867 -1.309754 -0.08871036 0
1.57406 -1.3737854 -0.088293396 0
1.9724526 -1.4711604 -0.088465057 0
3.3578718 -1.8097841 -0.14061667 0
5.0510392 -2.2236273 -0.14105442 0
10.111265 -3.4604464 -0.14101817 0
0.88073093 -1.1809357 -0.090417929 0
0.99482161 -1.2057889 -0.090611659 0
1.1385174 -1.2370911 -0.090370752 0
1.3289677 -1.2785782 -0.090035446 0
1.601812 -1.3380138 -0.090512462 0
1.9811769 -1.4206533 -0.088196985 0
3.3730888 -1.7238631 -0.14030071 0
5.0776076 -2.09517 -0.14091305 0
10.166969 -3.2038205 -0.14093658 0
0.88793367 -1.1591847 -0.090990923 0
1.0000292 -1.1806561 -0.090623461 0
1.1352361 -1.2065542 -0.088836052 0
1.3452576 -1.2467827 -0.091382451 0
1.6125215 -1.2979757 -0.090800501 0
2.5462003 -1.4768169 -0.1409208 0
3.3981225 -1.6399981 -0.14083979 0
5.1022696 -1.9664185 -0.14083606 0
10.223064 -2.9472795 -0.14101842 0
0.89276963 -1.1368895 -0.091170125 0
1.0142101 -1.1569885 -0.092469715 0
1.139814 -1.1777767 -0.088745616 0
1.3491523 -1.2124233 -0.091072761 0
1.6213522 -1.2574739 -0.090984754 0
2.5553734 -1.4120597 -0.14070158 0
3.4202187 -1.5551964 -0.14131877 0
5.1289997 -1.8380091 -0.14101067 0
10.253378 -2.6861222 -0.14064525 0
0.89653981 -1.1143878 -0.09124095 0
1.0144048 -1.1308514 -0.091763414 0
1.1440731 -1.1489639 -0.088723399 0
1.3433467 -1.1767991 -0.089510985 0
1.6220806 -1.2157334 -0.090333067 0
2.5552833 -1.3460861 -0.1397644 0
3.4350054 -1.4689684 -0.14143151 0
5.14011 -1.7071426 -0.14060305 0
10.300971 -2.4280274 -0.14083409 0
0.89853054 -1.0916514 -0.091052599 0
1.0117981 -1.1045687 -0.090653323 0
1.1588607 -1.12134 -0.09056329 0
1.3360062 -1.1415421 -0.087863959 0
1.6337469 -1.1754971 -0.091094039 0
2.5701756 -1.2822893 -0.14039414 0
3.4331822 -1.3807082 -0.14052856 0
5.164289 -1.5781273 -0.140964 0
10.327894 -2.166995 -0.1406914 0
0.89863992 -1.068779 -0.090585805 0
1.0161853 -1.0791874 -0.090993769 0
1.1360049 -1.0897973 -0.086303316 0
1.1357361 -1.0897734 -0.059126947 0
1.6383715 -1.1342808 -0.091146387 0
2.5900707 -1.218552 -0.14164235 0
3.4499633 -1.2946939 -0.14108989 0
5.1704283 -1.4470378 -0.14063339 0
10.3557 -1.9061841 -0.1407236 0
0.89896202 -1.0460165 -0.090288125 0
1.0163419 -1.053431 -0.090656258 0
1.1302608 -1.0606271 -0.084999301 0
1.1251403 -1.0603036 -0.057328764 0
1.6375089 -1.0926689 -0.090678029 0
2.588798 -1.1527599 -0.1410594 0
3.4454432 -1.2068723 -0.14031039 0
5.1758456 -1.3161784 -0.14042412 0
10.377558 -1.6447599 -0.14077064 0
0.89956516 -1.0233207 -0.09017279 0
1.0138127 -1.0276471 -0.089935429 0
1.1314387 -1.0321014 -0.084956132 0
1.1311173 -1.0320892 -0.057967711 0
1.6452534 -1.0515589 -0.09133967 0
2.5872729 -1.0872318 -0.14060864 0
3.4514325 -1.1199563 -0.14042206 0
5.2020626 -1.1862501 -0.14133802 0
10.396218 -1.3829453 -0.1408969 0
0.90026349 -1.0006391 -0.090199538 0
1.0260205 -1.0022259 -0.092113443 0
1.1326694 -1.0035715 -0.085040025 0
1.1278856 -1.0035112 -0.0574123 0
1.1371597 -1.0036281 -0.031829912 0
1.1352223 -1.0036037 -0.0049091261 0
1.13087 -1.0035489 0.021973746 0
1.1292691 -1.0035286 0.04843884 0
1.1335645 -1.0035828 0.074635074 0
1.120136 -1.0034133 0.10100235 0
1.135239 -1.0036039 0.12740946 0
1.1293015 -1.0035291 0.15356803 0
1.1301897 -1.0035403 0.17998429 0
1.1285341 -1.0035193 0.20629053 0
1.1211684 -1.0034264 0.23196644 0
1.1380709 -1.0036397 0.26085082 0
1.1333538 -1.0035801 0.28715974 0
1.1339524 -1.0035877 0.3144519 0
0.90375441 -0.97790152 -0.090941645 0
1.0170898 -0.97647154 -0.090431206 0
1.1325392 -0.97501481 -0.085018627 0
1.125761 -0.97510034 -0.057113711 0
1.6381403 -0.96863544 -0.090385832 0
2.5886142 -0.95664281 -0.14058003 0
3.4643967 -0.94559264 -0.14117475 0
5.1946177 -0.92376155 -0.14083713 0
10.393464 -0.85816514 -0.14067885 0
0.91384947 -0.95472306 -0.093211256 0
1.0217369 -0.95063752 -0.091429047 0
1.1395732 -0.94617522 -0.086293988 0
1.1275246 -0.94663149 -0.057462458 0
1.6401713 -0.92721832 -0.090745293 0
2.5920181 -0.89117324 -0.14105189 0
3.4481595 -0.85875237 -0.14019309 0
5.1850314 -0.79297954 -0.14054456 0
10.387308 -0.59597677 -0.14068957 0
0.90549433 -0.93215567 -0.091679417 0
1.0172379 -0.92509705 -0.090825371 0
1.1247287 -0.91830707 -0.084088273 0
1.1320361 -0.91784549 -0.058299799 0
1.6318752 -0.88627166 -0.09001828 0
2.587348 -0.82591641 -0.14092377 0
3.4517834 -0.77131182 -0.14075452 0
5.1924124 -0.66135985 -0.14119691 0
10.373108 -0.33410594 -0.14066696 0
0.9016434 -0.90953976 -0.091226734 0
1.0213813 -0.89893723 -0.091976263 0
1.1546894 -0.887133 -0.089386158 0
1.3487003 -0.86995369 -0.089172907 0
1.6362306 -0.84449345 -0.090895198 0
2.5724382 -0.761594 -0.13999006 0
3.451916 -0.68371785 -0.14122692 0
5.1692085 -0.53165478 -0.14057639 0
10.367925 -0.071318239 -0.14100893 0
0.90318 -0.88640296 -0.092047311 0
1.0076813 -0.87448549 -0.089872874 0
1.1515133 -0.85808253 -0.089347906 0
1.3457185 -0.835935 -0.089237727 0
1.6434352 -0.80198276 -0.09223368 0
2.5719504 -0.69609302 -0.14056087 0
3.4378352 -0.59734577 -0.14085597 0
5.1571732 -0.40126899 -0.14063059 0
10.338457 0.18961492 -0.14093858 0
0.89396495 -0.86455667 -0.090688325 0
1.005662 -0.8489545 -0.090100698 0
1.1518 -0.82854146 -0.090005629 0
1.3351287 -0.80293357 -0.088344835 0
1.6266671 -0.76221055 -0.090874322 0
2.5677369 -0.630759 -0.1409381 0
3.4306843 -0.51021987 -0.14112648 0
5.1423721 -0.27112606 -0.1407094 0
10.298424 0.44908705 -0.14077431 0
0.89245176 -0.84174782 -0.091101639 0
1.0054226 -0.82305056 -0.090792052 0
1.1584872 -0.79771751 -0.091856323 0
1.3329442 -0.76884389 -0.08876396 0
1.6197996 -0.72136772 -0.090800814 0
2.5518012 -0.56711626 -0.14036359 0
3.4072268 -0.42553857 -0.14039817 0
5.1294847 -0.14049527 -0.14103356 0
10.261589 0.70889646 -0.14083876 0
0.89395446 -0.81824672 -0.09229397 0
1.0067542 -0.79664052 -0.091913141 0
1.1388766 -0.77133322 -0.089445211 0
1.3271319 -0.7352739 -0.08878883 0
1.3523424 -0.73044497 -0.059839685 0
1.3603575 -0.72890967 -0.028221598 0
1.3459409 -0.73167109 0.0052352119 0
1.3573568 -0.72948444 0.03667653 0
1.3471966 -0.73143059 0.069101103 0
1.3591269 -0.72914541 0.10100988 0
0.88112658 -0.79756278 -0.090503998 0
1.0021286 -0.77120405 -0.092020206 0
1.1308259 -0.74316907 -0.089077003 0
1.2011918 -0.72784078 -0.071657367 0
1.2079917 -0.72635949 -0.043405969 0
1.2113831 -0.72562075 -0.01465912 0
1.2062205 -0.72674531 0.014736349 0
1.2043275 -0.72715771 0.043634921 0
1.208271 -0.72629863 0.072241925 0
1.2071352 -0.72654605 0.10100564 0
0.88559645 -0.77307326 -0.092601962 0
0.98532939 -0.74869657 -0.08989165 0
1.1279182 -0.71384507 -0.089696564 0
1.2090411 -0.69401705 -0.073802568 0
1.2097279 -0.69384921 -0.044459257 0
1.2053858 -0.69491053 -0.014759121 0
1.2047853 -0.69505727 0.014335284 0
1.205942 -0.69477457 0.043222211 0
1.2049485 -0.6950174 0.072153427 0
1.2038449 -0.69528711 0.10100575 0
0.87715077 -0.75155717 -0.092005379 0
0.98735738 -0.72165453 -0.091533311 0
1.1162266 -0.68668818 -0.08895015 0
1.2155906 -0.65972745 -0.075897135 0
1.2099191 -0.66126633 -0.045431722 0
1.212523 -0.66055977 -0.01620484 0
1.205472 -0.66247296 0.013720023 0
1.2044204 -0.66275829 0.042918645 0
1.2023878 -0.66330981 0.072027013 0
1.2067752 -0.66211939 0.10100607 0
0.87149894 -0.7293393 -0.092144124 0
0.97010344 -0.69989437 -0.089530818 0
1.1055366 -0.65945184 -0.088487051 0
1.2152586 -0.62668705 -0.077124722 0
1.2058612 -0.62949324 -0.045993198 0
1.202219 -0.63058084 -0.016046634 0
1.2032261 -0.63028014 0.013254287 0
1.2131566 -0.62731475 0.042075291 0
1.1919739 -0.63364023 0.072070844 0
1.2136673 -0.62716222 0.10100653 0
0.8482638 -0.71280915 -0.088477381 0
0.94909823 -0.67990541 -0.086876951 0
1.1049392 -0.62905222 -0.089883305 0
1.2041329 -0.5966838 -0.076889642 0
1.2144486 -0.59331769 -0.048212115 0
1.2068471 -0.59579813 -0.017427227 0
1.2039464 -0.59674466 0.012507053 0
1.2147595 -0.59321618 0.041530646 0
1.1949824 -0.59966975 0.07176853 0
1.2178328 -0.59221333 0.10100694 0
0.85313022 -0.68722582 -0.091208927 0
0.96670574 -0.64696634 -0.092015795 0
1.1083122 -0.59677064 -0.09211766 0
1.2031219 -0.56316316 -0.078273021 0
1.2047675 -0.56257987 -0.048298422 0
1.2172294 -0.55816245 -0.019476606 0
1.2083772 -0.56130028 0.011415387 0
1.2081913 -0.5613662 0.041342381 0
1.2064961 -0.56196707 0.071232632 0
1.2023327 -0.56344289 0.10100678 0
0.83937371 -0.66806793 -0.089874156 0
0.94432563 -0.62785661 -0.089305826 0
1.0884893 -0.57262176 -0.090433903 0
1.2113271 -0.5255577 -0.08118356 0
1.2129141 -0.52494967 -0.050713513 0
1.2070861 -0.52718258 -0.019588737 0
1.2025682 -0.52891362 0.011013063 0
1.2151687 -0.52408582 0.04043708 0
1.2036712 -0.52849096 0.071024962 0
1.2161328 -0.52371645 0.10100754 0
0.83092833 -0.64704692 -0.089857213 0
0.9413349 -0.60151893 -0.090615653 0
1.0739279 -0.54684204 -0.089775719 0
1.1972971 -0.4959687 -0.080887996 0
1.2050942 -0.49275342 -0.051254813 0
1.2091055 -0.4910993 -0.021008587 0
1.2165521 -0.48802856 0.0090482775 0
1.2108819 -0.49036673 0.040042408 0
1.2033024 -0.49349228 0.070732206 0
1.1946249 -0.49707061 0.10100726 0
0.83283722 -0.62143582 -0.092369251 0
0.93382913 -0.57677639 -0.091146462 0
1.0722138 -0.51558161 -0.091535188 0
1.2059488 -0.45644292 -0.084188603 0
1.2150122 -0.45243499 -0.054172207 0
1.2139946 -0.452885 -0.022829695 0
1.2075132 -0.45575109 0.0087428633 0
1.2136497 -0.45303747 0.03924112 0
1.2026837 -0.45788679 0.070420183 0
1.2133534 -0.45316854 0.10100824 0
0.81137478 -0.6061973 -0.089567564 0
0.90809882 -0.56047356 -0.08801619 0
1.052377 -0.49226999 -0.090163864 0
1.2321378 -0.40729293 -0.090409078 0
1.4766351 -0.29171339 -0.0897943 0
1.8636461 -0.10876432 -0.091339611 0
3.13097 0.49032894 -0.14106318 0
4.6943655 1.229382 -0.14071254 0
9.3970804 3.4524639 -0.14067324 0
0.80538577 -0.58388895 -0.090504177 0
0.91479689 -0.52874851 -0.091771878 0
1.0522795 -0.45946077 -0.092515491 0
1.2051175 -0.38243422 -0.088529415 0
1.4606086 -0.25367305 -0.090061791 0
1.8268476 -0.069097728 -0.089877419 0
3.0811028 0.56301576 -0.14015989 0
4.6419387 1.3496382 -0.14097565 0
9.2896214 3.6919539 -0.14087115 0
0.79362941 -0.56440353 -0.090197511 0
0.89838892 -0.50824904 -0.090810843 0
1.0209806 -0.44253603 -0.08923427 0
1.1981728 -0.34755525 -0.089924656 0
1.4439824 -0.2157934 -0.090379886 0
1.8046817 -0.022446897 -0.090050347 0
3.0528932 0.646635 -0.14110675 0
4.5793724 1.4648769 -0.14086603 0
9.1757154 3.9286654 -0.14106013 0
0.77640271 -0.54809767 -0.088668041 0
0.88954145 -0.48372528 -0.091585644 0
1.0101447 -0.41510579 -0.089855276 0
1.1758443 -0.32082787 -0.088994034 0
1.2104557 -0.30113509 -0.061664406 0
1.2180568 -0.2968103 -0.029733455 0
3.0002995 0.71723038 -0.14027458 0
4.5058279 1.5738292 -0.14032152 0
9.0447798 4.1563516 -0.14095502 0
0.77631384 -0.5218671 -0.091470174 0
0.87373626 -0.4631345 -0.090977244 0
1.0000885 -0.38696119 -0.090767272 0
1.1585088 -0.29145512 -0.088978358 0
1.1391776 -0.3031092 -0.054359186 0
