# .PCD v0.7 - Point Cloud Data file format
VERSION 0.7
FIELDS x y z intensity
SIZE 4 4 4 4
TYPE F F F F
COUNT 1 1 1 1
WIDTH 1314
HEIGHT 1
VIEWPOINT 0 0 0 1 0 0 0
POINTS 1314
DATA ascii
10.307776 0.45039347 -0.14099388 0
1.2044208 -0.59658986 0.071537696 0
1.212598 -0.59392154 0.10100678 0
0.76985335 -0.5257619 -0.089866661 0
0.85371572 -0.4752042 -0.0865741 0
0.99985403 -0.38710251 -0.090722285 0
1.1545326 -0.29385224 -0.088325866 0
1.128805 -0.30936244 -0.052943666 0
1.2090741 -0.2609711 -0.030700943 0
2.9678731 0.79934758 -0.14122033 0
4.4454079 1.6901019 -0.1406305 0
8.8999281 4.375577 -0.14062534 0
0.76025981 -0.50501323 -0.090458266 0
0.85500288 -0.44458529 -0.089820005 0
0.98136508 -0.36399034 -0.090141945 0
1.1574794 -0.25166306 -0.091803066 0
1.1477822 -0.25784805 -0.058002178 0
1.1838589 -0.23483804 -0.029986387 0
2.9164979 0.87025458 -0.14078075 0
4.3844519 1.8065286 -0.1410757 0
8.7742147 4.6063581 -0.1409695 0
0.74194223 -0.48995695 -0.088956974 0
0.84529525 -0.42030773 -0.09079843 0
0.95998144 -0.34302118 -0.089092635 0
1.1244216 -0.2322056 -0.089417212 0
1.1441715 -0.21889624 -0.06014571 0
1.1597388 -0.20840552 -0.029456472 0
2.8689914 0.94345313 -0.14080939 0
4.3043828 1.9107578 -0.14061917 0
8.6175203 4.8173642 -0.14061294 0
0.72438031 -0.47478279 -0.087723888 0
0.82502139 -0.40320364 -0.089492746 0
0.95603853 -0.31002 -0.091647618 0
1.1006976 -0.20713386 -0.088681825 0
1.1447443 -0.17580649 -0.063067816 0
1.148312 -0.173269 -0.030446639 0
2.8179612 1.0142391 -0.1406934 0
4.2275043 2.0167513 -0.14048564 0
8.4708719 5.0347705 -0.1406872 0
0.72314787 -0.44771054 -0.090906762 0
0.81828636 -0.37636307 -0.091450341 0
0.93380815 -0.28972945 -0.090664081 0
1.0931151 -0.17025992 -0.090877987 0
1.1044917 -0.16172829 -0.060239065 0
1.1037892 -0.16225508 -0.027696868 0
1.1001388 -0.16499272 0.0049210358 0
1.1050217 -0.16133079 0.036724281 0
1.1084754 -0.15874073 0.068784058 0
1.0902357 -0.17241934 0.10100926 0
1.1061014 -0.16052118 0.13316666 0
1.1036375 -0.16236898 0.16521482 0
1.0950265 -0.16882661 0.19665149 0
0.70495915 -0.43305477 -0.089743443 0
0.79861647 -0.35905358 -0.090503372 0
0.92349201 -0.26038602 -0.092262588 0
1.062156 -0.15082392 -0.089096479 0
1.1100019 -0.1130195 -0.064222343 0
1.0964806 -0.12370309 -0.029351538 0
1.1007466 -0.12033239 0.0029826483 0
1.1033926 -0.11824176 0.035560604 0
1.106168 -0.11604878 0.068221025 0
1.1020294 -0.11931881 0.10101046 0
1.104641 -0.11725536 0.13375486 0
1.1004182 -0.12059185 0.16628389 0
1.0981514 -0.12238285 0.19880715 0
0.693124 -0.41345349 -0.090413518 0
0.77943921 -0.34164295 -0.089762993 0
0.88949937 -0.25007764 -0.088989861 0
1.0282974 -0.13460359 -0.086835973 0
1.100934 -0.074173063 -0.066258706 0
1.0894725 -0.083708555 -0.031194722 0
1.1056844 -0.070220917 0.00050793053 0
1.1034722 -0.072061449 0.034203585 0
1.0993249 -0.075511783 0.067750975 0
1.1039523 -0.071661979 0.10101136 0
1.0969387 -0.077497035 0.1341991 0
1.1013894 -0.073794216 0.16769299 0
1.0935057 -0.080353111 0.20040688 0
0.6905095 -0.38554814 -0.093841948 0
0.76375389 -0.32141671 -0.089989148 0
0.88245291 -0.21748611 -0.091586672 0
0.98738021 -0.12561366 -0.083282165 0
1.1046909 -0.02289876 -0.070483454 0
1.1073999 -0.020526674 -0.03629655 0
1.1093593 -0.018811133 -0.002020953 0
1.1041772 -0.023348417 0.03270622 0
1.096609 -0.029975083 0.067111611 0
1.1032254 -0.024181928 0.10101222 0
1.1062975 -0.02149203 0.13521253 0
1.0985165 -0.028304961 0.16896777 0
1.090206 -0.035581317 0.2022651 0
1.0974174 -0.029267278 0.23708281 0
1.0945052 -0.031817105 0.37481841 0
0.66477537 -0.37781385 -0.090870537 0
0.74891686 -0.30030462 -0.090567105 0
0.85274523 -0.20466027 -0.08936248 0
0.96627498 -0.10007921 -0.083473288 0
1.0569839 -0.016520288 -0.066833042 0
1.1025817 0.025483403 -0.038831774 0
1.0949647 0.018466864 -0.0030137056 0
1.1001945 0.02328435 0.031393435 0
1.0962933 0.019690666 0.066345409 0
1.1085523 0.030983362 0.10101338 0
1.0964528 0.019837532 0.13568552 0
1.0977936 0.02107266 0.17048071 0
1.1030673 0.025930677 0.20581062 0
1.087116 0.011236701 0.23889491 0
1.0364308 -0.035453346 0.36621937 0
0.6525799 -0.35792306 -0.091889895 0
0.72797823 -0.2848663 -0.089697264 0
0.83574241 -0.18044886 -0.090063982 0
0.83991736 -0.17640355 -0.063197546 0
0.83800894 -0.17825273 -0.03524654 0
0.8378284 -0.17842767 -0.0077951904 0
0.83626974 -0.17993793 0.019659596 0
0.84205806 -0.17432937 0.046448026 0
0.83444363 -0.18170729 0.073987208 0
0.83577615 -0.1804162 0.10100358 0
0.84231693 -0.17407855 0.12827541 0
0.83952278 -0.17678592 0.15539524 0
0.83993977 -0.17638186 0.18270548 0
1.0983498 0.074002892 0.24368384 0
1.0040394 -0.017378595 0.29733574 0
1.005834 -0.015639689 0.3310118 0
0.99170005 -0.02933469 0.36088458 0
0.63014346 -0.34810266 -0.089978211 0
0.71590239 -0.26070532 -0.091291703 0
0.8086319 -0.16620418 -0.088553511 0
0.84245902 -0.13173082 -0.06787651 0
0.83678544 -0.13751277 -0.038501564 0
0.8377037 -0.13657698 -0.01054064 0
0.83939391 -0.13485447 0.01728289 0
0.84290606 -0.13127521 0.045007084 0
0.8376388 -0.13664314 0.073195912 0
0.84204102 -0.13215676 0.10100468 0
0.84253258 -0.13165584 0.12897599 0
0.84414333 -0.13001427 0.15708484 0
0.84122944 -0.13298389 0.18490995 0
0.84019935 -0.13403365 0.21288306 0
1.0953511 0.1259928 0.28367969 0
0.94151998 -0.030777242 0.28977242 0
0.94541788 -0.02680489 0.32267138 0
0.95848924 -0.013483789 0.358551 0
0.61578733 -0.33026484 -0.090608276 0
0.70394498 -0.23576733 -0.093128718 0
0.80231762 -0.13032022 -0.092097633 0
0.84433895 -0.085276872 -0.072776608 0
0.83262962 -0.097828299 -0.041517232 0
0.84827536 -0.08105734 -0.014967551 0
0.83827251 -0.09177956 0.015161091 0
0.83899295 -0.091007322 0.043778401 0
0.83705288 -0.093086928 0.072473548 0
0.83736932 -0.092747718 0.1010054 0
0.83277047 -0.09767732 0.12939094 0
0.8397451 -0.09020111 0.15828408 0
0.84034538 -0.089557678 0.18706274 0
0.84137148 -0.088457733 0.21603464 0
1.1031213 0.19211581 0.28989491 0
0.93055218 0.0071364376 0.2925581 0
0.92980647 0.0063370797 0.32483423 0
0.92998159 0.0065247747 0.35756162 0
0.60293168 -0.31048772 -0.091879509 0
0.67692739 -0.22704557 -0.090919681 0
0.77877718 -0.11219344 -0.091698177 0
0.84735227 -0.034863975 -0.078303002 0
0.83609712 -0.04755595 -0.046136726 0
0.84748548 -0.034713712 -0.018118186 0
0.84040713 -0.042695668 0.012522044 0
0.84172124 -0.041213837 0.041977946 0
0.84437698 -0.038219001 0.071415171 0
0.83905703 -0.044218149 0.10100646 0
0.8392359 -0.044016447 0.13041764 0
0.83233476 -0.051798608 0.15937592 0
0.84208626 -0.040802207 0.18966842 0
0.84285593 -0.039934304 0.21948077 0
1.1025376 0.25289896 0.29510719 0
1.1028481 0.25324896 0.33445767 0
0.58095515 -0.30104342 -0.090343006 0
0.65506148 -0.21310326 -0.090212785 0
0.72660869 -0.12819996 -0.084100135 0
0.85046893 0.018781934 -0.084293269 0
0.84507132 0.0123767 -0.05212206 0
0.83986115 0.0061939093 -0.020541532 0
0.83577424 0.0013440583 0.010404589 0
0.83642781 0.0021196341 0.040612862 0
0.83605158 0.0016731356 0.070840053 0
0.83850694 0.0045868489 0.1010075 0
0.8424418 0.0092563368 0.1314059 0
0.84223384 0.0090095736 0.1618221 0
0.84331208 0.010289107 0.19242898 0
0.84119588 0.0077778432 0.22275075 0
0.83992779 0.0062730047 0.25320533 0
1.1013447 0.31648985 0.34104618 0
0.56581002 -0.2836248 -0.091160975 0
0.63582897 -0.19614783 -0.090381481 0
0.72687024 -0.082406968 -0.089943789 0
0.85660899 0.079679757 -0.09145499 0
0.85537368 0.078136474 -0.058825914 0
0.83769137 0.056045327 -0.024009025 0
0.84111094 0.060317669 0.0069815759 0
0.83825916 0.056754742 0.038593058 0
0.83337885 0.050657663 0.069999322 0
0.84038699 0.059413109 0.10100874 0
0.84175819 0.061126266 0.1323301 0
0.8423962 0.061923299 0.16373299 0
0.8377375 0.056103025 0.19465865 0
0.83678228 0.05490962 0.22589107 0
0.83932966 0.058092151 0.25784367 0
1.1035647 0.38820961 0.34903687 0
1.0994523 0.38307169 0.3899785 0
0.54099733 -0.27858445 -0.088761948 0
0.61677682 -0.1788533 -0.090743177 0
0.70315605 -0.065172225 -0.089780383 0
0.73160177 -0.027735677 -0.068745665 0
0.72554553 -0.035706129 -0.039001185 0
0.72884393 -0.031365242 -0.011326162 0
0.72953904 -0.03045043 0.016782941 0
0.7314561 -0.027927425 0.044760089 0
0.73260474 -0.026415732 0.072853558 0
0.72794104 -0.03255352 0.1010047 0
0.72874331 -0.031497683 0.12900756 0
0.7274583 -0.033188786 0.15694179 0
0.73415077 -0.024381068 0.18576027 0
0.73106354 -0.028444078 0.21367891 0
0.72794002 -0.032554831 0.24147411 0
0.73282808 -0.026121821 0.27104175 0
0.72698706 -0.033808973 0.29826534 0
0.7279489 -0.032543149 0.32736543 0
0.52622449 -0.26056406 -0.089972846 0
0.59207553 -0.16920283 -0.089436285 0
0.67629743 -0.052354004 -0.088847585 0
0.73112196 0.023709092 -0.074517272 0
0.9532783 0.33192721 -0.089375429 0
0.85475922 0.19524255 -0.035321582 0
0.84126019 0.17651418 0.00050528557 0
0.8363505 0.16970244 0.03445876 0
0.83889359 0.1732308 0.06765186 0
0.83823091 0.17231134 0.10101128 0
0.83610249 0.1693584 0.13425954 0
0.83485734 0.16763094 0.16744475 0
0.84063953 0.17565301 0.2014437 0
0.83782029 0.17174163 0.23464081 0
0.84136355 0.17665759 0.26902997 0
0.84081137 0.17589143 0.30290502 0
1.1047045 0.54201478 0.41131452 0
0.5069524 -0.24859509 -0.089702137 0
0.57758534 -0.14519605 -0.091569908 0
0.65702575 -0.028903868 -0.090182997 0
0.76861024 0.13444367 -0.090283178 0
0.92249924 0.3597205 -0.089967974 0
1.1574571 0.70367354 -0.090402029 0
0.85584211 0.26214173 -0.0049807113 0
0.84442419 0.24542716 0.031356942 0
0.84390157 0.24466208 0.06622541 0
0.8357178 0.2326819 0.10101265 0
0.83931661 0.23795012 0.1356113 0
0.84042692 0.23957554 0.17033909 0
0.83950341 0.2382237 0.2049818 0
0.84287691 0.24316207 0.2403727 0
0.84189594 0.24172607 0.27529418 0
0.84006703 0.23904875 0.31011376 0
1.09841 0.61723489 0.42084375 0
1.1019313 0.62238973 0.46871418 0
0.4905563 -0.23227081 -0.090662487 0
0.55530435 -0.13215348 -0.091292404 0
0.62926376 -0.017792907 -0.08917772 0
0.73802263 0.15037671 -0.089768119 0
0.88556594 0.37851706 -0.089407749 0
1.1138864 0.73155993 -0.09031824 0
1.4880428 1.3101034 -0.090466507 0
0.84642011 0.31798747 0.028492125 0
0.84352916 0.31351724 0.064896882 0
0.83993107 0.30795375 0.1010145 0
0.84229934 0.31161574 0.13707976 0
0.8363474 0.30241242 0.17267318 0
0.84192252 0.31103304 0.20931824 0
0.84323448 0.31306162 0.24582842 0
0.84171301 0.31070903 0.2820003 0
0.83941203 0.30715111 0.31803706 0
0.83679718 0.30310789 0.35401753 0
1.1014158 0.71227723 0.48276526 0
0.47557655 -0.21316573 -0.092404939 0
0.53258115 -0.11994496 -0.090960152 0
0.60171694 -0.0068857935 -0.088284619 0
0.70690489 0.16513017 -0.089194842 0
0.8519845 0.40238169 -0.089679129 0
1.0671993 0.75432676 -0.089796878 0
1.4223456 1.3351047 -0.089500643 0
0.84791231 0.39572242 0.025391528 0
0.8524068 0.40307227 0.063024297 0
0.84694272 0.39413682 0.10101669 0
0.83688188 0.37768415 0.13831612 0
0.84056062 0.38369992 0.17598531 0
0.84171891 0.38559416 0.21372695 0
0.84133673 0.38496926 0.25141948 0
0.8373341 0.3784236 0.28843063 0
0.83486199 0.37438098 0.32569808 0
0.84350199 0.38851014 0.36649087 0
1.0993879 0.80696541 0.49766445 0
0.45579925 -0.20151392 -0.092386328 0
0.51477152 -0.099371165 -0.092577748 0
0.58319515 0.019141827 -0.090406902 0
0.677531 0.18253592 -0.089188673 0
0.81686854 0.42387512 -0.089741834 0
1.0251596 0.78464502 -0.090224929 0
1.3658001 1.3746505 -0.089857705 0
1.3715457 1.3846021 -0.026642358 0
0.84837705 0.47844937 0.061565474 0
0.83690053 0.45857158 0.10101812 0
0.84358603 0.4701511 0.14024881 0
0.83959806 0.46324375 0.17914994 0
0.83991587 0.46379426 0.21836635 0
0.84023172 0.46434131 0.25773999 0
0.83798718 0.46045366 0.29671592 0
0.84012848 0.4641625 0.33692828 0
0.84199911 0.46740249 0.37751576 0
0.83856857 0.46146062 0.41659236 0
0.43443689 -0.19275358 -0.091789924 0
0.49082237 -0.089138538 -0.092052884 0
0.55566818 0.030023251 -0.08975435 0
0.64653832 0.19700781 -0.088832639 0
0.78396201 0.44954005 -0.090477519 0
0.98275828 0.8148517 -0.090748839 0
1.2944556 1.3876324 -0.088210054 0
1.2941632 1.3870947 -0.024981698 0
1.2962818 1.3909881 0.03796402 0
0.85046512 0.57174748 0.10102113 0
0.84139591 0.55508178 0.14195065 0
0.83579999 0.54479855 0.18237945 0
0.84347671 0.55890542 0.22429326 0
0.84128743 0.55488235 0.26516497 0
0.84532201 0.56229633 0.30752364 0
0.83728242 0.5475226 0.34695619 0
0.84007144 0.55264789 0.38958666 0
0.83635843 0.54582483 0.43025452 0
0.4176147 -0.17540285 -0.093382128 0
0.46398374 -0.084822863 -0.090411521 0
0.52964652 0.043446574 -0.089708634 0
0.61863285 0.21727768 -0.089520879 0
0.74713147 0.46829429 -0.090406187 0
0.93662566 0.83846325 -0.090687446 0
1.2420881 1.4351711 -0.089439921 0
1.2427735 1.4365101 -0.025899222 0
1.242605 1.4361806 0.037617449 0
1.249805 1.4502456 0.10104863 0
0.85242051 0.67397207 0.14452133 0
0.83879089 0.64734715 0.18667194 0
0.83950424 0.64874071 0.22972234 0
0.84038132 0.65045398 0.27301973 0
0.83729464 0.64442426 0.31557852 0
0.83532333 0.64057344 0.35839748 0
0.84222251 0.65405065 0.40449613 0
0.83883983 0.64744276 0.44740531 0
0.39044878 -0.17867413 -0.090192728 0
0.43778929 -0.08014372 -0.089008309 0
0.50414258 0.05795816 -0.089982398 0
0.58357197 0.22327557 -0.088086136 0
0.70948529 0.48534051 -0.090235554 0
0.89087594 0.86287111 -0.090830602 0
1.1861588 1.4774468 -0.090349935 0
1.7834365 2.7205684 -0.090641685 0
4.5014176 8.3775368 -0.14064579 0
0.84855396 0.77478594 0.19219597 0
0.8370235 0.75078744 0.23604178 0
0.83682203 0.75036818 0.2812323 0
0.83732712 0.75141937 0.32678881 0
0.84000397 0.75699061 0.37335348 0
0.8415274 0.76016146 0.42007482 0
0.83573526 0.74810618 0.4641369 0
0.36910006 -0.17082188 -0.089792661 0
0.41784203 -0.062451746 -0.090445764 0
0.48049504 0.076847464 -0.091158681 0
0.55812317 0.24944153 -0.089912556 0
0.67507505 0.50946587 -0.091096513 0
0.84586173 0.88918358 -0.091285937 0
1.118171 1.4946206 -0.089434348 0
1.6876466 2.760761 -0.090457924 0
4.2661371 8.4936342 -0.14078672 0
1.0727494 1.3936329 0.22276066 0
0.84792745 0.89377636 0.2454358 0
0.84166676 0.87985665 0.2923902 0
0.83616066 0.86761469 0.33905217 0
0.8424114 0.88151222 0.38937181 0
0.84157282 0.87964779 0.43789229 0
0.84266037 0.88206583 0.48757473 0
0.34621835 -0.16682974 -0.088631846 0
0.39251819 -0.056531277 -0.089566894 0
0.44776872 0.07509008 -0.088749401 0
0.52676541 0.26328114 -0.089939453 0
0.63286632 0.51604158 -0.089834623 0
0.80169147 0.91822773 -0.092128657 0
1.0575585 1.5277703 -0.089870505 0
1.5977976 2.8147626 -0.091096066 0
4.0230808 8.5924282 -0.14064045 0
0.9969157 1.3833032 0.22090982 0
0.84646893 1.0248992 0.25380951 0
0.83929068 1.0077988 0.30326152 0
0.83573085 0.99931842 0.35315686 0
0.837735 1.0040927 0.40491626 0
0.8430059 1.0166495 0.45864508 0
0.83832502 1.0054983 0.50857884 0
0.3309187 -0.14413401 -0.091882728 0
0.37474054 -0.031883683 -0.092613049 0
0.42134801 0.087502152 -0.089010142 0
0.49770728 0.28309777 -0.090987824 0
0.59486902 0.53197926 -0.089894064 0
0.74822456 0.92480201 -0.090823911 0
0.99769157 1.5638161 -0.090635113 0
1.4950994 2.8379345 -0.090301119 0
3.7832215 8.6989985 -0.14084359 0
0.9253701 1.3785632 0.21945305 0
0.84836698 1.1813185 0.26400396 0
0.84086317 1.1620972 0.31667495 0
0.83677214 1.151618 0.36971009 0
0.8374818 1.1534359 0.42436549 0
0.84264731 1.1666675 0.48148543 0
0.84428728 1.1708682 0.53788161 0
0.30806157 -0.14002725 -0.090990134 0
0.34901968 -0.026755597 -0.091812395 0
0.39513549 0.10077992 -0.089536898 0
0.4372271 0.21718636 -0.079325639 0
0.43528971 0.21182838 -0.048303891 0
0.43313637 0.20587328 -0.017655781 0
0.93087906 1.5824051 -0.090207942 0
1.3993936 2.8781047 -0.090483807 0
3.5341616 8.7819109 -0.14061038 0
0.8580389 1.3809621 0.21845327 0
0.84578288 1.3470674 0.27479643 0
0.84252298 1.3380518 0.3321135 0
0.83966726 1.3301542 0.38937205 0
0.83922493 1.3289311 0.44754893 0
0.8391614 1.3287554 0.50623029 0
0.84320891 1.3399489 0.56763166 0
0.28632838 -0.13317254 -0.09085054 0
0.32271942 -0.023992028 -0.090678431 0
0.3660298 0.10594788 -0.088769428 0
0.40435439 0.22092929 -0.078306459 0
0.40737116 0.22998026 -0.04923721 0
0.40370119 0.21896961 -0.017908921 0
0.87107414 1.6211827 -0.091396846 0
1.3044559 2.9214149 -0.090938129 0
3.2863674 8.8675489 -0.14060064 0
0.78925419 1.3757062 0.21716963 0
0.84966189 1.5569415 0.28875765 0
0.84116024 1.5314348 0.3491345 0
0.83812511 1.5223289 0.41054142 0
0.84200728 1.5339761 0.474911 0
0.83966529 1.5269496 0.53704065 0
0.84089088 1.5306265 0.6014272 0
0.26310366 -0.13126364 -0.089735158 0
0.29854763 -0.015244868 -0.090862878 0
0.3380433 0.11403635 -0.088636495 0
0.38206378 0.25812867 -0.082333811 0
0.37936735 0.24930242 -0.05039287 0
0.37983674 0.25083891 -0.020065157 0
0.72483313 1.3801162 -0.072231092 0
0.727359 1.3883841 -0.01477181 0
0.72473592 1.3797979 0.043374863 0
0.7250815 1.3809292 0.10104115 0
0.72613591 1.3843806 0.15881912 0
0.72697765 1.3871357 0.21679403 0
0.84359694 1.7688658 0.30275458 0
0.83543444 1.7421477 0.36772066 0
0.83625787 1.744843 0.43526259 0
0.83775741 1.7497513 0.50363016 0
0.83836591 1.7517431 0.57218504 0
0.24133247 -0.12506279 -0.089704327 0
0.27254531 -0.012834098 -0.08992698 0
0.31041029 0.12331274 -0.088828079 0
0.36737034 0.32811776 -0.091198392 0
0.43831304 0.58319873 -0.089787222 0
0.54945475 0.98281878 -0.090093739 0
0.66220987 1.3882399 -0.071550034 0
0.66049922 1.3820891 -0.013618594 0
0.66112697 1.3843462 0.043687597 0
0.66041994 1.381804 0.10104065 0
0.6584115 1.3745825 0.15815774 0
0.65997046 1.380188 0.21560825 0
0.80874437 1.915118 0.31189555 0
0.80874819 1.9151316 0.38253343 0
0.8107422 1.9223011 0.45434836 0
0.81078243 1.922446 0.52587759 0
0.81315494 1.9309764 0.59931463 0
0.22065552 -0.11447516 -0.090755917 0
0.24853913 -0.0034367109 -0.090481661 0
0.28176287 0.1288673 -0.088506348 0
0.33223149 0.32984403 -0.09016978 0
0.39939493 0.59730297 -0.090217464 0
0.49876657 0.99302191 -0.089804269 0
0.59755421 1.3864152 -0.070270516 0
0.59522313 1.3771322 -0.01261816 0
0.59644705 1.3820062 0.044124864 0
0.59408981 1.3726192 0.10103992 0
0.59741855 1.385875 0.15804857 0
0.59936869 1.3936408 0.21549195 0
0.76808262 2.065495 0.32134008 0
0.76941448 2.0707989 0.39565027 0
0.76996899 2.0730071 0.47016624 0
0.76797634 2.0650721 0.54372495 0
0.19699989 -0.11595252 -0.089287259 0
0.22477986 0.0078137256 -0.091508217 0
0.25632322 0.14834669 -0.090654112 0
0.29903889 0.33865502 -0.090295516 0
0.35552433 0.59031075 -0.088236324 0
0.44913673 1.0073758 -0.09003628 0
0.55215448 1.4663439 -0.074973024 0
0.55293238 1.4698095 -0.016360646 0
0.55052596 1.4590886 0.042628102 0
0.55025864 1.4578974 0.10104199 0
0.55107337 1.4615271 0.15951429 0
0.55075312 1.4601004 0.21798182 0
0.71396607 2.187252 0.32875282 0
0.71473897 2.1906955 0.40536433 0
0.71450204 2.18964 0.4819352 0
0.7145136 2.1896915 0.5590331 0
0.1779017 -0.096143216 -0.092568286 0
0.19802448 0.0054388377 -0.090028919 0
0.22399537 0.13654271 -0.087657638 0
0.26521209 0.34460929 -0.090131707 0
0.32188818 0.63071638 -0.09204451 0
0.39619973 1.0058494 -0.088875555 0
0.41439885 1.0977204 -0.047766615 0
0.41631657 1.1074011 0.0014627969 0
0.41637519 1.1076972 0.051267039 0
0.41621101 1.1068685 0.1010314 0
0.41475359 1.0995111 0.15060137 0
0.41530931 1.1023166 0.20035869 0
0.4164274 1.1079607 0.2505599 0
0.41575494 1.1045661 0.30033261 0
0.41508386 1.1011784 0.35016155 0
0.40665984 1.0586531 0.39449188 0
0.29575485 0.49879256 0.35038051 0
0.27184319 0.37808385 0.36360404 0
0.1542097 -0.098362714 -0.091188081 0
0.17294711 0.010578845 -0.09012159 0
0.19535983 0.14088908 -0.087503828 0
0.23199022 0.35386267 -0.09056107 0
0.27896976 0.62700754 -0.090705626 0
0.34790647 1.0278139 -0.090071537 0
0.3678942 1.1440251 -0.050358463 0
0.88122392 4.1285868 -0.14078917 0
1.7626774 9.2534647 -0.14067508 0
0.58216405 2.389816 0.26078969 0
0.57982093 2.376193 0.33990017 0
0.57837623 2.3677933 0.41911915 0
0.26236096 0.53044194 0.281284 0
0.27096435 0.58046323 0.32490742 0
0.27151364 0.58365685 0.36337617 0
0.23557217 0.37468854 0.36173162 0
0.13057922 -0.10232642 -0.089566983 0
0.1473773 0.012633119 -0.089747272 0
0.16757435 0.15085378 -0.088404082 0
0.1989014 0.36524406 -0.091410421 0
0.23837906 0.63541383 -0.090930842 0
0.29653028 1.0333781 -0.08983127 0
0.39592025 1.7135644 -0.089991368 0
0.75099462 4.1435556 -0.14052513 0
1.5031158 9.2907801 -0.14058407 0
0.50710273 2.4744539 0.26413661 0
0.50509936 2.4607437 0.3449218 0
0.50674444 2.472002 0.42768118 0
0.2225402 0.52701873 0.2801573 0
0.27558121 0.89001101 0.36799288 0
0.20267215 0.39104953 0.36380255 0
0.10916357 -0.090997189 -0.091352887 0
0.12201544 0.015711699 -0.08969105 0
0.13830127 0.15093282 -0.087781407 0
0.16419089 0.36589411 -0.090856604 0
0.19729678 0.64077216 -0.090917371 0
0.24787433 1.0607171 -0.091760986 0
0.32783866 1.7246604 -0.090131603 0
0.61980015 4.1488147 -0.139961 0
1.2441173 9.3325138 -0.14075048 0
0.42553246 2.5358112 0.26646951 0
0.42443192 2.5266736 0.34874904 0
0.42555046 2.5359607 0.43260112 0
0.42451528 2.5273657 0.515149 0
0.23057711 0.91709834 0.37093228 0
0.16679557 0.3875207 0.36225051 0
0.085838646 -0.095145136 -0.089945443 0
0.097231001 0.02488688 -0.090909712 0
0.1110163 0.17013147 -0.090438806 0
0.13007025 0.37088731 -0.091041036 0
0.1566439 0.65087229 -0.091582514 0
0.19571869 1.0625715 -0.091411971 0
0.2588875 1.7281301 -0.089856781 0
0.49172112 4.1813092 -0.14082691 0
0.98284799 9.3559141 -0.1406412 0
0.34205481 2.6043966 0.26923177 0
0.34047768 2.5877793 0.35237139 0
0.34057227 2.5887764 0.43665642 0
0.33980429 2.5806844 0.52028799 0
0.3404763 2.587765 0.60613924 0
0.17393845 0.83309084 0.40193486 0
0.13141759 0.38508311 0.36108032 0
0.063611656 -0.088105708 -0.091049798 0
0.072503954 0.039830957 -0.093333639 0
0.080763668 0.1586664 -0.088153355 0
0.095570311 0.37169483 -0.09075693 0
0.11517461 0.65374869 -0.091520526 0
0.14202389 1.0400388 -0.088905059 0
0.19125752 1.7483804 -0.090880491 0
0.36056435 4.1842585 -0.14046353 0
0.72147691 9.3768349 -0.14062816 0
0.25367817 2.6464489 0.27084798 0
0.25241929 2.6283367 0.35469499 0
0.13308506 0.91143268 0.2789225 0
0.13359104 0.91871232 0.3246139 0
0.13458908 0.93307143 0.37189311 0
0.12415493 0.78295189 0.39304802 0
0.096074566 0.37894967 0.35938296 0
0.040867724 -0.086499423 -0.091116346 0
0.045667749 0.022125635 -0.089717068 0
0.051783334 0.16052189 -0.088187538 0
0.061710857 0.38518265 -0.092379488 0
0.073835067 0.65955466 -0.091923855 0
0.090854459 1.0447049 -0.089068897 0
0.12213284 1.7525377 -0.090896435 0
0.23028022 4.1999226 -0.14084744 0
0.45990154 9.3962746 -0.1407343 0
0.16267164 2.6699343 0.27170026 0
0.16270879 2.6707749 0.3573035 0
0.086474121 0.94557768 0.28185961 0
0.085786484 0.93001634 0.32561642 0
0.086907595 0.95538729 0.37464532 0
0.076555334 0.72111458 0.38245279 0
0.061781347 0.38677791 0.36048892 0
0.018162802 -0.081230193 -0.092083685 0
0.020194156 0.026085172 -0.090311222 0
0.022934815 0.17087284 -0.089738466 0
0.026698919 0.36972836 -0.090053342 0
0.032123048 0.65628237 -0.091387801 0
0.039368663 1.0390642 -0.088391028 0
0.052838091 1.7506471 -0.09061151 0
0.099169232 4.198297 -0.14057928 0
0.19776452 9.4070339 -0.14079212 0
0.070931248 2.7064991 0.27326903 0
0.070740625 2.6964285 0.35889471 0
0.070576064 2.6877351 0.44445869 0
0.070854463 2.7024424 0.53272665 0
0.032562025 0.67947322 0.37538126 0
0.027114457 0.39168099 0.36120632 0
-0.0046476782 -0.097937614 -0.08850152 0
-0.0054357094 0.027004514 -0.090453915 0
-0.0063834665 0.17727116 -0.090759702 0
-0.0076334011 0.37544778 -0.090826727 0
-0.0093357563 0.64535576 -0.090080135 0
-0.011870658 1.0472636 -0.089126222 0
-0.016285021 1.7471597 -0.090337209 0
-0.03178766 4.2050991 -0.14085749 0
-0.064616688 9.4101315 -0.14082564 0
-0.022518909 2.7355406 0.27459529 0
-0.022449113 2.7244747 0.36081597 0
-0.022459289 2.726088 0.44798616 0
-0.022412578 2.7186821 0.53455687 0
-0.0093526747 0.64803821 0.37016925 0
-0.0076811435 0.38301733 0.35953256 0
-0.027321314 -0.092478305 -0.089753039 0
-0.03142976 0.037736926 -0.092567824 0
-0.035244629 0.15864721 -0.087788917 0
-0.042420246 0.38607493 -0.092412569 0
-0.050401591 0.63903981 -0.089432858 0
-0.064015508 1.0705261 -0.09138944 0
-0.085324541 1.7459054 -0.090340875 0
-0.11905714 2.8150439 -0.0762273 0
-0.11893684 2.8112307 0.012562567 0
-0.11918601 2.819128 0.10107917 0
-0.11903066 2.8142045 0.1896648 0
-0.11716603 2.7551057 0.27559066 0
-0.11650547 2.7341697 0.36161876 0
-0.11628287 2.7271144 0.44824785 0
-0.116431 2.7318094 0.53629971 0
-0.050496604 0.64205116 0.36931303 0
-0.042104904 0.3760803 0.3583484 0
-0.050684921 -0.080367595 -0.092544265 0
-0.056612559 0.023927007 -0.090178452 0
-0.065957062 0.18834022 -0.092887469 0
-0.076329961 0.37084761 -0.090484895 0
-0.091972642 0.64607519 -0.090468861 0
-0.11488971 1.049293 -0.089618944 0
-0.15434682 1.7435267 -0.090387754 0
-0.21433239 2.7989516 -0.075674601 0
-0.21454035 2.8026104 0.012664685 0
-0.2138337 2.7901773 0.10107847 0
-0.21338277 2.7822433 0.18901761 0
-0.21077646 2.7363863 0.27491152 0
-0.2107624 2.7361388 0.36204755 0
-0.21112175 2.7424614 0.45007098 0
-0.077560678 0.39250174 0.26280597 0
-0.076981872 0.38231781 0.29412022 0
-0.076623142 0.37600616 0.32580137 0
-0.07658945 0.37541321 0.35850966 0
-0.072140455 -0.09973672 -0.088752948 0
-0.083187565 0.034668837 -0.092544056 0
-0.093701273 0.16258457 -0.088980518 0
-0.11036088 0.36527494 -0.090035193 0
-0.1339189 0.65189546 -0.09148746 0
-0.16800658 1.0666261 -0.091576837 0
-0.22375058 1.7448394 -0.09081576 0
-0.42484799 4.1915064 -0.14103322 0
-0.8507061 9.3727417 -0.14076394 0
-0.30546692 2.7390473 0.27534133 0
-0.30386737 2.7195864 0.36134383 0
-0.30522025 2.7360461 0.4500826 0
-0.30490568 2.732219 0.53759855 0
-0.1133265 0.40135625 0.29714501 0
-0.11344139 0.40275434 0.33060855 0
-0.11137024 0.3775554 0.35936674 0
-0.09598542 -0.088638276 -0.091580607 0
-0.10833394 0.026066456 -0.091378458 0
-0.12250461 0.15769723 -0.088628121 0
-0.14450692 0.36207572 -0.090041004 0
-0.17559676 0.65086812 -0.091828175 0
-0.21746631 1.0397923 -0.089519404 0
-0.29247475 1.7365422 -0.09069223 0
-0.55449039 4.1703944 -0.14062496 0
-1.1121167 9.3501606 -0.14081553 0
-0.4000462 2.7357688 0.27560574 0
-0.39844686 2.7209127 0.3620615 0
-0.39827049 2.7192743 0.44934422 0
-0.39866686 2.7229562 0.53755617 0
-0.14930524 0.40664724 0.29836357 0
-0.148707 0.40109017 0.33088401 0
-0.1470844 0.38601795 0.36158997 0
-0.11725438 -0.10206184 -0.089288153 0
-0.13284063 0.014903102 -0.089842714 0
-0.15346998 0.16971329 -0.091197528 0
-0.17959709 0.36578062 -0.091147684 0
-0.21542545 0.63464969 -0.090502761 0
-0.27114636 1.0527995 -0.091324054 0
-0.36008057 1.7201941 -0.090122618 0
-0.68571883 4.1639023 -0.14105542 0
-1.372171 9.3152895 -0.14073354 0
-0.49133682 2.7051888 0.2746993 0
-0.49068493 2.7002966 0.36140102 0
-0.2408046 0.82510406 0.2719292 0
-0.24288169 0.84069127 0.31684402 0
-0.1860663 0.41432789 0.30005381 0
-0.18562357 0.41100553 0.33322841 0
-0.18241018 0.38689104 0.36254922 0
-0.14065593 -0.098702699 -0.090713985 0
-0.15777345 0.008934591 -0.089409299 0
-0.18231367 0.16324678 -0.090831287 0
-0.21437587 0.36485818 -0.091726117 0
-0.25763181 0.63685733 -0.091471337 0
-0.31975779 1.0275137 -0.089644574 0
-0.42704642 1.7021592 -0.089551888 0
-0.81410128 4.1360126 -0.14063478 0
-1.6312447 9.2743206 -0.1406619 0
-0.58058393 2.6676235 0.27356809 0
-0.58014756 2.6648798 0.35985395 0
-0.27891412 0.77068335 0.26741412 0
-0.27722058 0.76003402 0.30809164 0
-0.2784088 0.76750582 0.35106751 0
-0.21753885 0.38474742 0.36310655 0
-0.16370811 -0.099171728 -0.091446362 0
-0.18224914 0.0010440681 -0.088725977 0
-0.20934398 0.14749375 -0.089032583 0
-0.24837263 0.35844651 -0.09164793 0
-0.2981053 0.62725526 -0.09116713 0
-0.37134746 1.0231347 -0.090057991 0
-0.49459058 1.6892731 -0.089464448 0
-0.94244748 4.1099739 -0.14045288 0
-1.8885036 9.2234793 -0.14051078 0
-0.66708857 2.6216376 0.27213898 0
-0.66788661 2.6259515 0.35821012 0
-0.66816837 2.6274743 0.44450158 0
-0.66847289 2.6291201 0.53125596 0
-0.28842014 0.57490617 0.36250457 0
-0.25325233 0.38482156 0.36426097 0
-0.18759927 -0.096580237 -0.092973627 0
-0.20864543 0.003052864 -0.090063326 0
-0.23860399 0.14487746 -0.089545287 0
-0.28031719 0.34234884 -0.090301 0
-0.33787853 0.61484569 -0.09064766 0
-0.4215655 1.0110221 -0.089859761 0
-0.56336725 1.6823153 -0.089921646 0
-0.61997265 1.9502866 -0.038900588 0
-0.6164313 1.933522 0.03151406 0
-0.61807221 1.9412901 0.10105591 0
-0.75163847 2.5735965 0.27070805 0
-0.75349849 2.5824018 0.35638496 0
-0.75175077 2.5741279 0.44113073 0
-0.75339997 2.5819354 0.5277732 0
-0.28681463 0.37310782 0.36332473 0
-0.20797637 -0.11040011 -0.091055803 0
-0.23254959 -0.0070398119 -0.089194469 0
-0.26857325 0.1444836 -0.090560906 0
-0.31443018 0.33736792 -0.090667956 0
-0.37443355 0.58975524 -0.088721938 0
-0.47246519 1.0020978 -0.090087496 0
-0.52085161 1.2056217 -0.056751687 0
-0.61781174 1.6134574 -0.023577033 0
-0.61996871 1.6225302 0.038551774 0
-0.61728328 1.6112344 0.1010467 0
-0.83713543 2.5359809 0.26986998 0
-0.83081871 2.5094116 0.35258651 0
-0.83313948 2.5191731 0.43778718 0
-0.83069819 2.5089045 0.52141988 0
-0.83385497 2.5221827 0.60841912 0
-0.23041402 -0.11470899 -0.091329105 0
-0.26093528 0.00065288285 -0.091902129 0
-0.29682615 0.13631037 -0.090388976 0
-0.34653568 0.32419863 -0.089971788 0
-0.41531271 0.58415669 -0.089250974 0
-0.52160937 0.98592848 -0.089740865 0
-0.57695168 1.195107 -0.05699395 0
-0.65035927 1.4725673 -0.017584017 0
-0.64256978 1.4431252 0.042469744 0
-0.65065134 1.4736714 0.10104313 0
-0.91088939 2.4572988 0.26714996 0
-0.90879792 2.4493935 0.34984228 0
-0.91122288 2.4585593 0.43407235 0
-0.91377771 2.4682157 0.51917118 0
-0.91184562 2.4609129 0.60273451 0
-0.24763224 -0.13719091 -0.087705411 0
-0.28141266 -0.021408226 -0.088932045 0
-0.32367197 0.123436 -0.089532577 0
-0.34248841 0.18792966 -0.071367629 0
-0.45895472 0.58711916 -0.090951361 0
-0.57088757 0.97077018 -0.089610167 0
-0.71339518 1.4592166 -0.077340044 0
-0.71480173 1.4640374 -0.018005325 0
-0.71514535 1.4652152 0.041522712 0
-0.71273243 1.4569449 0.10104314 0
-0.9844293 2.3881888 0.26496473 0
-0.98521984 2.3908985 0.34733173 0
-0.98608768 2.393873 0.43012491 0
-0.9846648 2.3889959 0.51246709 0
-0.98150855 2.3781779 0.5941515 0
-0.27782249 -0.11627236 -0.093833305 0
-0.31164998 -0.010345545 -0.092589058 0
-0.35333207 0.12017718 -0.090444647 0
-0.37756741 0.19606724 -0.073901899 0
-0.39253137 0.2429252 -0.05020814 0
-0.39780241 0.25943092 -0.02138496 0
-0.39633822 0.25484589 0.0096659753 0
-0.39682212 0.25636128 0.04009416 0
-0.39759901 0.25879398 0.070508055 0
-0.39607573 0.25402406 0.10100766 0
-0.39520857 0.25130859 0.13132444 0
-0.39673179 0.25607839 0.16190761 0
-0.39842919 0.26139358 0.19283067 0
-0.39585602 0.25333598 0.22280368 0
-0.39749092 0.25845554 0.25413013 0
-0.39754567 0.25862697 0.2851482 0
-0.39532313 0.25166729 0.31514761 0
-0.39824608 0.26082018 0.34822291 0
-0.29779792 -0.1292353 -0.092561774 0
-0.33316424 -0.027428474 -0.090817772 0
-0.37820056 0.10221484 -0.088936247 0
-0.42795229 0.24543205 -0.082723103 0
-0.42959249 0.25015357 -0.052379403 0
-0.43406019 0.26301447 -0.022772556 0
-0.43404332 0.26296595 0.0082938243 0
-0.43370318 0.26198688 0.039302718 0
-0.43101361 0.25424448 0.070362732 0
-0.43169975 0.25621966 0.10100804 0
-0.43197706 0.25701788 0.13172171 0
-0.42995277 0.25119069 0.16218115 0
-0.43306461 0.26014856 0.19351436 0
-0.42990693 0.25105873 0.2236076 0
-0.43279129 0.25936177 0.25553599 0
-0.43308139 0.26019695 0.28693753 0
-0.4312087 0.25480607 0.31750298 0
-0.42989519 0.25102499 0.34835762 0
-0.31549567 -0.14744118 -0.090201519 0
-0.36104551 -0.026272621 -0.092808388 0
-0.40555236 0.092121392 -0.08890482 0
-0.47712618 0.28251711 -0.089974754 0
-0.48583624 0.30568698 -0.060718898 0
-0.51574564 0.38524988 -0.036095876 0
-0.51397491 0.38053957 -0.001336796 0
-0.51312184 0.37827018 0.032954033 0
-0.51291424 0.377718 0.067015201 0
-0.50863999 0.36634794 0.10101175 0
-1.2056035 2.2203617 0.18089095 0
-1.1923094 2.1849978 0.25903925 0
-1.1595628 2.0978878 0.33172861 0
-1.159031 2.096473 0.40886587 0
-1.1611735 2.1021721 0.48715746 0
-1.1584449 2.094914 0.56421453 0
-0.3352766 -0.15904966 -0.089431949 0
-0.3829259 -0.041397955 -0.091653191 0
-0.43284696 0.081862956 -0.088965647 0
-0.50472707 0.2593433 -0.088351496 0
-0.51178324 0.27676597 -0.058672879 0
-0.51342475 0.28081897 -0.026936164 0
-0.51373184 0.28157726 0.0051146094 0
-0.51243275 0.27836958 0.037298445 0
-0.51264077 0.27888325 0.069158301 0
-0.51299429 0.2797561 0.10100949 0
-1.2731044 2.1565573 0.2591739 0
-1.1982498 1.9717326 0.32449004 0
-1.2009088 1.9782977 0.40000594 0
-1.2001355 1.9763882 0.47511229 0
-1.1970254 1.9687092 0.54965729 0
-0.35743126 -0.16477528 -0.090132512 0
-0.40716052 -0.050372388 -0.091861345 0
-0.46215996 0.076154619 -0.089965321 0
-0.51637816 0.20088437 -0.081409492 0
-0.51118028 0.18892661 -0.049178917 0
-0.50798517 0.18157616 -0.018197587 0
-0.51006275 0.18635562 0.011352429 0
-0.5104084 0.18715087 0.041250903 0
-0.51366043 0.1946322 0.070955463 0
-0.51244116 0.19182721 0.10100716 0
-1.3526354 2.1247063 0.25923982 0
-1.2247629 1.830534 0.31609815 0
-1.2289913 1.8402612 0.38913274 0
-1.2300162 1.8426192 0.46204093 0
-1.2229345 1.8263273 0.53260815 0
-1.2269422 1.8355472 0.60738248 0
-0.38096529 -0.1679633 -0.09156657 0
-0.43081456 -0.060766604 -0.091903366 0
-0.48791796 0.062029395 -0.089584567 0
-0.51183069 0.11345187 -0.069940425 0
-0.51289606 0.11574283 -0.041460026 0
-0.51210862 0.11404946 -0.012606716 0
-0.50957215 0.10859504 0.016324708 0
-0.51116663 0.11202386 0.044426408 0
-0.51192182 0.11364785 0.072689414 0
-0.50870454 0.1067293 0.10100491 0
-1.4328972 2.0941286 0.25947458 0
-1.2508973 1.7027528 0.30869395 0
-1.2424452 1.6845775 0.3763862 0
-1.2378348 1.6746631 0.44450352 0
-1.2392163 1.677634 0.51448011 0
-1.2408392 1.681124 0.58516335 0
-0.39864144 -0.18375805 -0.090167426 0
-0.44949013 -0.081258565 -0.089947589 0
-0.51058447 0.041893635 -0.088214852 0
-0.51434499 0.049474034 -0.061988581 0
-0.51038283 0.04148725 -0.03350972 0
-0.50685292 0.034371767 -0.0056901556 0
-0.51211071 0.044970188 0.020257385 0
-0.51075184 0.042231116 0.047363687 0
-0.51000351 0.040722642 0.074237145 0
-0.50714511 0.03496078 0.10100304 0
-1.2530589 1.5385535 0.29840332 0
-1.2369984 1.5061791 0.36114618 0
-1.2348359 1.5018198 0.42613301 0
-1.2398781 1.5119839 0.49352673 0
-1.2423989 1.517065 0.56096017 0
-0.42047593 -0.19099584 -0.090912886 0
-0.47426653 -0.089107484 -0.090758182 0
-0.53698927 0.029699717 -0.088408403 0
-0.53194147 0.020138416 -0.059445444 0
-0.53377146 0.023604665 -0.032894868 0
-0.53843367 0.032435689 -0.0068725999 0
-0.53632772 0.028446708 0.020514207 0
-0.53198302 0.020217095 0.047825601 0
-0.53199166 0.020233426 0.074428253 0
-0.53153753 0.019373212 0.10100296 0
-1.2518069 1.3836827 0.28871718 0
-1.2373689 1.3563349 0.34870324 0
-1.2384747 1.3584297 0.41140079 0
-1.2351913 1.3522103 0.47322947 0
-1.2366431 1.3549602 0.53680319 0
-1.2436072 1.3681514 0.60323524 0
-0.44173709 -0.19964769 -0.091457747 0
-0.49175328 -0.11043605 -0.088803731 0
-0.56050551 0.012194309 -0.087728657 0
-0.55826569 0.0081992485 -0.059739996 0
-0.5596661 0.010696981 -0.033016387 0
-0.55587864 0.0039415094 -0.0053146463 0
-0.5544163 0.0013332699 0.021574775 0
-0.55721742 0.0063293907 0.047831964 0
-0.55220091 -0.0026182795 0.074670367 0
-0.56183535 0.014566217 0.10100325 0
-1.2954596 1.3230994 0.1627592 0
-1.2925854 1.3179729 0.22426537 0
-1.2526566 1.2467535 0.28032973 0
-1.2409583 1.225888 0.33816108 0
-1.2433212 1.2301025 0.3984904 0
-1.2377908 1.2202382 0.45710537 0
-1.2410108 1.2259815 0.51851887 0
-1.2393453 1.2230108 0.57882977 0
-0.46729693 -0.20134792 -0.093861468 0
-0.52460802 -0.10491249 -0.092799149 0
-0.58404011 -0.0049080518 -0.08722835 0
-0.58915925 0.0037057733 -0.061364044 0
-0.58544719 -0.0025404359 -0.033183116 0
-0.5879392 0.0016528104 -0.0066260155 0
-0.58658481 -0.00062611361 0.020568887 0
-0.57967514 -0.012252774 0.048058417 0
-0.58703011 0.00012317639 0.074210234 0
-0.58610904 -0.0014267232 0.1010032 0
-1.354067 1.2907908 0.16279005 0
-1.3554704 1.2931523 0.22472906 0
-1.2496357 1.1150677 0.27224419 0
-1.2394983 1.0980098 0.32774866 0
-1.2370561 1.0939004 0.38433042 0
-1.2372931 1.0942993 0.44173521 0
-1.2362185 1.0924909 0.49911654 0
-1.2386007 1.0964997 0.55811542 0
-0.48501852 -0.21660933 -0.093059011 0
-0.54389375 -0.12300315 -0.091787122 0
-0.61664778 -0.0073310998 -0.089684598 0
-0.61114818 -0.016074922 -0.060604502 0
-0.60968393 -0.01840296 -0.03307924 0
-0.60593921 -0.024356689 -0.005431233 0
-0.61637986 -0.0077570942 0.019907484 0
-0.61458468 -0.010611203 0.047145292 0
-0.60853064 -0.020236578 0.074353307 0
-0.60421801 -0.027093258 0.10100285 0
-1.24678 0.99452025 0.26494375 0
-1.2434708 0.98925894 0.31927612 0
-1.2357628 0.97700411 0.37258923 0
-1.2363715 0.97797173 0.4277136 0
-1.2442592 0.99051255 0.48550123 0
-1.2387171 0.98170108 0.53967267 0
-0.50252008 -0.23188421 -0.092352785 0
-0.56456101 -0.13855579 -0.091441251 0
-0.63584906 -0.031316962 -0.088088013 0
-0.63790405 -0.028225627 -0.061212618 0
-0.64377654 -0.019391622 -0.035146166 0
-0.63531852 -0.032115068 -0.0063124131 0
-0.63825214 -0.027702 0.020247968 0
-0.64019507 -0.024779227 0.047051672 0
-0.63294482 -0.035685804 0.074346669 0
-0.63289112 -0.035766628 0.10100309 0
-1.2456864 0.88606352 0.25852972 0
-1.2414662 0.87971503 0.31058264 0
-1.2443506 0.88405389 0.36400732 0
-1.2374406 0.87365919 0.41547954 0
-1.2318679 0.86527628 0.4671039 0
-1.2415349 0.87981838 0.52384108 0
-0.51536828 -0.25352356 -0.090094976 0
-0.5853911 -0.15374371 -0.091292121 0
-0.66719258 -0.037179675 -0.090198226 0
-0.66571271 -0.039288428 -0.062133316 0
-0.66625011 -0.038522687 -0.034781415 0
-0.66070521 -0.046423938 -0.00654619 0
-0.6652351 -0.039968994 0.019892046 0
-0.66811013 -0.035872247 0.046745043 0
-0.65949464 -0.048148956 0.074237742 0
-0.66299003 -0.043168154 0.10100339 0
-1.2997981 0.86425966 0.25940564 0
-1.2458713 0.78741604 0.30369592 0
-1.2407117 0.78006381 0.35372588 0
-1.2398469 0.77883154 0.40466076 0
-1.2410506 0.78054661 0.45645183 0
-1.2378867 0.77603823 0.50730634 0
-0.5412609 -0.25666186 -0.092772193 0
-0.60284764 -0.17345014 -0.090203471 0
-0.69480151 -0.049208488 -0.09124773 0
-0.68654954 -0.060357895 -0.061443422 0
-0.69341469 -0.05108222 -0.035447035 0
-0.69010955 -0.055547919 -0.0074602123 0
-0.69214535 -0.052797224 0.019519525 0
-0.69712275 -0.046072152 0.046340466 0
-0.68879151 -0.057328787 0.074012585 0
-0.69649124 -0.046925452 0.10100387 0
-1.3444108 0.82849866 0.25920099 0
-1.2531056 0.7051335 0.29785615 0
-1.2390352 0.6861226 0.34469938 0
-1.2401317 0.68760401 0.39427847 0
-1.2366053 0.68283933 0.44299167 0
-1.234798 0.68039745 0.49234661 0
-0.55185145 -0.28047684 -0.090103291 0
-0.62716496 -0.18391237 -0.091405563 0
-0.71085835 -0.076603323 -0.089259245 0
-0.71648031 -0.069395036 -0.062977143 0
-0.71283716 -0.074066192 -0.034681488 0
-0.72112024 -0.063445836 -0.0086245369 0
-0.71966499 -0.0653117 0.019052142 0
-0.71210176 -0.075009018 0.046991259 0
-0.7159633 -0.070057899 0.07386601 0
-0.7206648 -0.064029783 0.10100389 0
-1.3971282 0.80331022 0.26002935 0
-1.2511468 0.61613733 0.29112667 0
-1.2406948 0.60273606 0.33705258 0
-1.2403113 0.60224444 0.38473752 0
-1.2441525 0.60716969 0.43383595 0
-1.2439686 0.60693365 0.48237035 0
-0.57300979 -0.29045013 -0.091258772 0
-0.6440776 -0.20392302 -0.090453587 0
-0.73197019 -0.096911162 -0.088821746 0
-0.74654984 -0.079160064 -0.064546578 0
-0.74521786 -0.080781788 -0.036433745 0
-0.74332184 -0.083090276 -0.0084879752 0
-0.75356537 -0.07061848 0.017860705 0
-0.74373019 -0.082593054 0.046346724 0
-0.74266535 -0.083889574 0.073729105 0
-0.74372798 -0.082595736 0.10100389 0
-1.4337984 0.75758523 0.25913489 0
-1.2467794 0.52988416 0.28458196 0
-1.2476147 0.53090113 0.331 0
-1.2353586 0.51597899 0.37483296 0
-1.2397299 0.52130097 0.42235887 0
-1.2433957 0.52576429 0.47036248 0
-0.58818585 -0.30778489 -0.090519778 0
-0.65841365 -0.22654924 -0.088934608 0
-0.75846332 -0.1108174 -0.089879923 0
-0.77359885 -0.093309432 -0.06547562 0
-0.77367967 -0.093215913 -0.037466098 0
-0.77533925 -0.091296226 -0.0098281559 0
-0.77199489 -0.095164806 0.018342735 0
-0.77310133 -0.093884915 0.045867555 0
-0.77378565 -0.093093306 0.073426463 0
-0.77208751 -0.095057636 0.10100415 0
-1.4838958 0.72832257 0.25982803 0
-1.2513654 0.45934442 0.27981961 0
-1.239271 0.44535425 0.32272133 0
-1.2426592 0.4492735 0.36832231 0
-1.2474139 0.45477346 0.4148083 0
-1.249033 0.45664635 0.46108794 0
-0.60618073 -0.32178143 -0.090831675 0
-0.68897307 -0.23075888 -0.092160575 0
-0.7757594 -0.13534525 -0.088749789 0
-0.80786979 -0.10004285 -0.067963339 0
-0.80345255 -0.1048992 -0.03875326 0
-0.80140775 -0.10714725 -0.01033563 0
-0.79823589 -0.11063442 0.017934689 0
-0.80296403 -0.1054363 0.04534746 0
-0.79445773 -0.11478814 0.073484972 0
-0.80383289 -0.10448107 0.10100454 0
-1.2551517 0.39170244 0.27532709 0
-1.2348603 0.36939397 0.31573308 0
-1.2408183 0.37594417 0.36043644 0
-1.2358521 0.37048438 0.4031778 0
-1.2381972 0.37306252 0.44794983 0
-0.61830354 -0.34204331 -0.0894401 0
-0.70495147 -0.25148168 -0.091359444 0
-0.80429393 -0.14765218 -0.090470009 0
-0.82875597 -0.12208524 -0.067700498 0
-0.82694483 -0.12397817 -0.038995747 0
-0.82957023 -0.12123421 -0.011167413 0
-0.8225432 -0.12857863 0.017692769 0
-0.82632583 -0.12462512 0.045258757 0
-0.8256765 -0.12530378 0.073168583 0
-0.82856935 -0.12228033 0.10100465 0
-1.2474703 0.31554142 0.26963592 0
-1.2419466 0.30976823 0.31119987 0
-1.2381206 0.30576935 0.35296294 0
-1.2392105 0.30690852 0.39591086 0
-1.2322797 0.29966465 0.43707657 0
-0.63709521 -0.35523292 -0.090236656 0
-0.72122806 -0.27162883 -0.090798013 0
-0.81744671 -0.17601493 -0.088656671 0
-0.86171216 -0.1320276 -0.069947191 0
-0.85246646 -0.14121523 -0.039646972 0
-0.86301774 -0.13073024 -0.01272147 0
-0.85930026 -0.13442442 0.0161846 0
-0.85541683 -0.1382834 0.044764027 0
-0.85556048 -0.13814065 0.072894961 0
-0.8619684 -0.13177302 0.10100513 0
-1.2756542 0.27931288 0.14291845 0
-1.2700034 0.27369776 0.18448931 0
-1.284445 0.28804865 0.22776105 0
-1.2491162 0.25294176 0.2655701 0
-1.2556167 0.25940147 0.30811545 0
-1.2419524 0.24582306 0.34732416 0
-1.2440369 0.24789444 0.38954079 0
-1.2408634 0.24474087 0.43082255 0
-0.65033334 -0.37394944 -0.089489006 0
-0.74123919 -0.28806332 -0.091350891 0
-0.84268147 -0.19222263 -0.089781649 0
-0.88970679 -0.14779392 -0.071230866 0
-0.88799405 -0.14941213 -0.041962508 0
-0.88315523 -0.15398374 -0.012560984 0
-0.88857269 -0.14886543 0.015417391 0
-0.892084 -0.14554802 0.043773357 0
-0.89289814 -0.14477882 0.072378859 0
-0.88306123 -0.15407255 0.10100511 0
-1.2926265 0.23287693 0.14244938 0
-1.2920704 0.23235157 0.18388687 0
-1.2988914 0.23879591 0.22608881 0
-1.2545613 0.19691363 0.26229367 0
-1.2486023 0.19128361 0.30198327 0
-1.2299353 0.17364755 0.33904889 0
-1.2383823 0.18162802 0.38129109 0
-1.2467977 0.18957868 0.42439279 0
-0.68238926 -0.37554601 -0.094271041 0
-0.74813491 -0.31649813 -0.088677309 0
-0.85773689 -0.21806177 -0.088724203 0
-0.91799313 -0.1639441 -0.072616987 0
-0.91644156 -0.16533759 -0.043146912 0
-0.92343044 -0.15906075 -0.015005065 0
-0.91314965 -0.16829416 0.015073912 0
-0.91278744 -0.16861942 0.043792177 0
-0.91452324 -0.16706046 0.072360054 0
-0.91971129 -0.16240099 0.10100573 0
-1.3245538 0.20119861 0.14249645 0
-1.3237143 0.20044449 0.18396406 0
-1.3315287 0.20746282 0.22628303 0
-1.2528491 0.13679865 0.25837168 0
-1.2553879 0.13907889 0.29843068 0
-1.2321187 0.1181803 0.33399072 0
-1.2435338 0.12843242 0.37598801 0
-1.2379307 0.12340012 0.41471535 0
-0.68820941 -0.40104732 -0.091630749 0
-0.77002811 -0.33121189 -0.08995419 0
-0.88514107 -0.23295853 -0.090500079 0
-0.94764721 -0.17960706 -0.074302472 0
-0.95110285 -0.17665753 -0.045323331 0
-0.95010436 -0.17750981 -0.015743902 0
-0.94774759 -0.17952141 0.013771111 0
-0.95655447 -0.17200437 0.042362899 0
-0.95047802 -0.17719087 0.071886234 0
-0.95385879 -0.17430523 0.10100623 0
-1.4083234 0.21359804 0.1441559 0
-1.3977439 0.20456806 0.18668702 0
-1.4090954 0.21425691 0.23067965 0
-1.2397749 0.069735318 0.25332642 0
-1.2554418 0.08310762 0.29412368 0
-1.2420167 0.071648747 0.33072785 0
-1.2378526 0.068094641 0.36874977 0
-1.2365133 0.066951424 0.40750769 0
-0.69553131 -0.42454299 -0.089632861 0
-0.79103035 -0.34710929 -0.091080226 0
-0.8989743 -0.25958481 -0.089448966 0
-0.98038882 -0.19357124 -0.076584764 0
-0.98329645 -0.19121364 -0.047127876 0
-0.97197837 -0.20039073 -0.015947556 0
-0.97301751 -0.19954816 0.013308438 0
-0.97720343 -0.19615409 0.04234295 0
-0.98069012 -0.19332698 0.071586154 0
-0.98419201 -0.19048753 0.1010066 0
-1.2494069 0.024557386 0.25131914 0
-1.2509828 0.02583519 0.28943938 0
-1.2475355 0.023039971 0.32695323 0
-1.245792 0.021626268 0.36486673 0
-1.2445076 0.020584855 0.40307805 0
-0.71814293 -0.43568787 -0.091935612 0
-0.79965001 -0.37294051 -0.08933764 0
-0.92144388 -0.27917889 -0.090350129 0
-1.0145456 -0.20750549 -0.079137333 0
-1.0050455 -0.21481904 -0.047411967 0
-1.0113206 -0.20998815 -0.018273717 0
-1.0087092 -0.21199855 0.01189013 0
-1.0143549 -0.20765224 0.041317649 0
-1.0105516 -0.2105802 0.071290068 0
-1.0118486 -0.20958182 0.10100689 0
-1.2436448 -0.031135943 0.24767178 0
-1.234802 -0.037943508 0.28333083 0
-1.2398112 -0.034087207 0.32112134 0
-1.2422633 -0.032199468 0.35892472 0
-1.2413802 -0.032879319 0.39637017 0
-0.71932447 -0.46318027 -0.088630147 0
-0.81530207 -0.3930774 -0.089420609 0
-0.93725145 -0.30400458 -0.08998061 0
-1.046672 -0.22408286 -0.081351779 0
-1.0444018 -0.22574112 -0.050326217 0
-1.0457996 -0.22472003 -0.020023553 0
-1.0573716 -0.21626773 0.0093473438 0
-1.0483804 -0.22283503 0.040474381 0
-1.0465627 -0.22416273 0.070809655 0
-1.0374117 -0.23084667 0.1010071 0
-1.2427748 -0.08084777 0.24482092 0
-1.2458544 -0.07859841 0.2815125 0
-1.240986 -0.082154304 0.31719863 0
-1.2354418 -0.086203784 0.35269997 0
-1.2321512 -0.088607341 0.38867897 0
-0.73770148 -0.47782972 -0.090008698 0
-0.83806825 -0.40833524 -0.091249458 0
-0.96354675 -0.3214533 -0.091840409 0
-1.077723 -0.24239704 -0.083416261 0
-1.084301 -0.23784247 -0.053306762 0
-1.0834608 -0.23842421 -0.022146983 0
-1.0749689 -0.24430403 0.0094808433 0
-1.0786552 -0.24175158 0.039836191 0
-1.0810703 -0.24007937 0.070370294 0
-1.0759283 -0.24363968 0.10100779 0
-1.253792 -0.12048599 0.2077532 0
-1.2478765 -0.1245819 0.24284162 0
-1.2494601 -0.12348548 0.27881375 0
-1.2364002 -0.13252816 0.3125681 0
-1.2405854 -0.12963036 0.34925067 0
-1.2472405 -0.12502232 0.38701907 0
-0.76258022 -0.48862436 -0.093112074 0
-0.85509652 -0.42796078 -0.091843449 0
-0.97248912 -0.35098562 -0.090346612 0
-1.1160637 -0.25684276 -0.086750261 0
-1.1145511 -0.25783458 -0.054932956 0
-1.1098796 -0.26089773 -0.023019707 0
-1.1109362 -0.26020488 0.0080167893 0
-1.1130674 -0.25880745 0.038951337 0
-1.1174518 -0.25593254 0.069874778 0
-1.1194921 -0.25459471 0.10100865 0
-1.2574865 -0.16411081 0.20626168 0
-1.2377868 -0.17702803 0.23932242 0
-1.2419524 -0.17429659 0.2747651 0
-1.2389117 -0.17629042 0.30942225 0
-1.243516 -0.17327139 0.34564021 0
-1.2453995 -0.17203638 0.38178077 0
-0.76416653 -0.51474899 -0.090410002 0
-0.86674583 -0.45112893 -0.091346748 0
-0.98997545 -0.37470141 -0.090673663 0
-1.1448717 -0.2786341 -0.088516943 0
-1.1379328 -0.28293762 -0.055659298 0
-1.1398662 -0.28173849 -0.024333572 0
-1.1454148 -0.27829728 0.0066646282 0
-1.1450526 -0.27852193 0.038189378 0
-1.1428301 -0.27990034 0.069676943 0
-1.1482518 -0.27653781 0.101009 0
-1.2548875 -0.21040186 0.1698529 0
-1.2368066 -0.2216157 0.20287794 0
-1.2414606 -0.21872929 0.23751716 0
-1.2397043 -0.21981856 0.27168083 0
-1.2389092 -0.22031161 0.30609357 0
-1.2434626 -0.21748766 0.34172329 0
-1.2404722 -0.21934232 0.37620476 0
-0.77314365 -0.53581768 -0.089731924 0
-0.8745454 -0.47641703 -0.090145595 0
-1.004995 -0.40000024 -0.09064097 0
-1.1729112 -0.30163577 -0.090222798 0
-1.1924466 -0.29019204 -0.060678292 0
-1.1892626 -0.29205713 -0.027785188 0
-1.1875547 -0.29305765 0.0046742801 0
-1.1876822 -0.29298297 0.036837224 0
-1.1917809 -0.29058191 0.068830393 0
-1.1770093 -0.29923508 0.10100937 0
