# .PCD v0.7 - Point Cloud Data file format
VERSION 0.7
FIELDS x y z intensity
SIZE 4 4 4 4
TYPE F F F F
COUNT 1 1 1 1
WIDTH 1327
HEIGHT 1
VIEWPOINT 0 0 0 1 0 0 0
POINTS 1327
DATA ascii
1.0140063 -1.565676 -0.090585463 0
1.1913111 -1.666557 -0.091494851 0
1.4085939 -1.7901841 -0.088307373 0
1.7879524 -2.0060272 -0.090935193 0
3.0089226 -2.7007213 -0.14096817 0
4.5127492 -3.5563519 -0.14069225 0
9.0421133 -6.1334186 -0.14088365 0
0.79584801 -1.4153703 -0.090732567 0
0.89799201 -1.4701228 -0.090726025 0
1.0262873 -1.5388932 -0.090223841 0
1.1996847 -1.6318399 -0.090165742 0
1.4396987 -1.7604952 -0.089811869 0
1.8047799 -1.9561905 -0.090060748 0
3.054904 -2.6262975 -0.14126624 0
4.5858998 -3.4469607 -0.14121081 0
9.1668243 -5.9024839 -0.14082558 0
0.80049878 -1.3922328 -0.089340918 0
0.9132573 -1.4490603 -0.091447167 0
1.0428846 -1.5143892 -0.09078642 0
1.2219813 -1.6046494 -0.091183327 0
1.4546279 -1.7218976 -0.089279063 0
1.8292028 -1.910674 -0.090123601 0
3.0966785 -2.5494502 -0.14137927 0
4.6381583 -3.3263175 -0.14077857 0
9.2839594 -5.6676855 -0.14072375 0
0.8216362 -1.3772382 -0.091980182 0
0.92386734 -1.4255652 -0.091301344 0
1.051492 -1.4858963 -0.090002961 0
1.2365619 -1.5733831 -0.091096781 0
1.4809813 -1.6889259 -0.090356164 0
1.8477728 -1.8623167 -0.089700796 0
3.1217041 -2.4645336 -0.14034669 0
4.70084 -3.2110274 -0.14104594 0
9.4024191 -5.4335718 -0.1408105 0
0.82459968 -1.3535062 -0.090454705 0
0.92503059 -1.3979175 -0.089334451 0
1.0592061 -1.457251 -0.089197673 0
1.2474713 -1.5405034 -0.090569042 0
1.4956756 -1.6502614 -0.090038352 0
1.8828878 -1.8214897 -0.091096528 0
3.1749814 -2.392864 -0.14164992 0
4.7445431 -3.086937 -0.14049329 0
9.5120106 -5.1951489 -0.14082198 0
0.85408014 -1.3410848 -0.095180415 0
0.93897289 -1.3760917 -0.090134405 0
1.0760583 -1.4326211 -0.090154462 0
1.26451 -1.5103323 -0.091105349 0
1.5113168 -1.6121073 -0.089967571 0
1.8964767 -1.7709345 -0.090409033 0
3.2002091 -2.3085501 -0.14095607 0
4.8125834 -2.9734397 -0.14133047 0
9.617281 -4.9547367 -0.14087681 0
0.85054255 -1.314796 -0.092416517 0
0.96706247 -1.3594395 -0.093891911 0
1.0791888 -1.4023995 -0.088796996 0
1.2628514 -1.4727679 -0.088937767 0
1.5197537 -1.5711976 -0.089116938 0
1.9207531 -1.7248366 -0.090924643 0
3.2412162 -2.2307589 -0.14161034 0
4.8573966 -2.8499823 -0.14114515 0
9.7167473 -4.7117939 -0.14093846 0
0.85291374 -1.2912822 -0.091160111 0
0.9703086 -1.3328954 -0.09273576 0
1.0854665 -1.3737159 -0.088134013 0
1.2827991 -1.443665 -0.090153106 0
1.5447925 -1.5365347 -0.090461113 0
1.9335306 -1.6743319 -0.090412654 0
3.2649152 -2.1462722 -0.14112136 0
4.8884811 -2.7217829 -0.14043802 0
9.8145981 -4.4679594 -0.14111167 0
0.85906339 -1.2692996 -0.090892099 0
0.96432835 -1.3036491 -0.089894421 0
1.1009576 -1.3482332 -0.089194976 0
1.291662 -1.4104629 -0.089828856 0
1.5660559 -1.5000017 -0.091438152 0
1.9527363 -1.6261812 -0.090661727 0
3.2789645 -2.0589492 -0.14008422 0
4.938798 -2.6005776 -0.14083764 0
9.8852043 -4.2146635 -0.1407683 0
0.86994231 -1.2487805 -0.09179879 0
0.97192985 -1.2792357 -0.089889847 0
1.1153024 -1.3220491 -0.090162121 0
1.3054861 -1.378841 -0.090358101 0
1.5581806 -1.4542998 -0.088966645 0
1.9651386 -1.5758241 -0.09036503 0
3.3034992 -1.9754808 -0.13998133 0
4.9736876 -2.4742265 -0.14063394 0
9.9660225 -3.9650199 -0.14083104 0
0.86579198 -1.2239455 -0.089503638 0
0.98947155 -1.2575037 -0.091945909 0
1.1212277 -1.2932535 -0.089801826 0
1.3073771 -1.3437619 -0.089262731 0
1.5635536 -1.4132708 -0.08825653 0
1.9656007 -1.5223594 -0.089038946 0
3.334795 -1.8938663 -0.14052206 0
5.0140409 -2.3495002 -0.14084956 0
10.034874 -3.7118154 -0.1407574 0
0.87414527 -1.2027125 -0.090096228 0
0.9843992 -1.2296607 -0.089711286 0
1.130047 -1.2652599 -0.090056725 0
1.3242756 -1.3127332 -0.090473749 0
1.5800419 -1.3752475 -0.089013107 0
1.976092 -1.47205 -0.088814758 0
3.364835 -1.811486 -0.1411178 0
5.0455847 -2.2222943 -0.14079303 0
10.105243 -3.4589741 -0.140874 0
0.88417268 -1.1816854 -0.091166668 0
0.99913871 -1.2067293 -0.091443859 0
1.1304011 -1.2353231 -0.089005567 0
1.3220638 -1.2770743 -0.089042448 0
1.614924 -1.34087 -0.092080824 0
1.9969155 -1.4240818 -0.089700483 0
3.3792486 -1.7252049 -0.14074145 0
5.0795016 -2.0955827 -0.1410033 0
10.153032 -3.2007844 -0.14060494 0
0.893363 -1.1602247 -0.092165954 0
1.0084174 -1.1822628 -0.092232101 0
1.1462568 -1.2086651 -0.090680219 0
1.3321896 -1.2442796 -0.089512534 0
1.6143957 -1.2983347 -0.091023512 0
2.5478663 -1.477136 -0.14107916 0
3.4080653 -1.6419026 -0.1415475 0
5.1034923 -1.9666526 -0.14089401 0
10.208985 -2.9445827 -0.14068513 0
0.88703185 -1.1359398 -0.089933895 0
1.0045404 -1.1553881 -0.09062364 0
1.1531917 -1.1799908 -0.09097416 0
1.3413068 -1.2111249 -0.089955188 0
1.6168888 -1.2567352 -0.090456001 0
2.559109 -1.4126779 -0.14105499 0
3.4140434 -1.5541743 -0.1408812 0
5.1235476 -1.8371068 -0.14075337 0
10.251659 -2.6858377 -0.14060475 0
0.89616662 -1.1143355 -0.091160871 0
1.0086706 -1.1300504 -0.090672873 0
1.1482428 -1.1495464 -0.089415334 0
1.3561107 -1.178582 -0.091322176 0
1.6266363 -1.2163699 -0.090870686 0
2.5694692 -1.3480676 -0.14110138 0
3.4278407 -1.4679676 -0.14092575 0
5.1519737 -1.7087998 -0.14116074 0
10.294729 -2.4271557 -0.14068757 0
0.89693975 -1.0914701 -0.090712272 0
1.0168579 -1.1051458 -0.09161251 0
1.157271 -1.1211587 -0.090300329 0
1.3497103 -1.1431049 -0.089802362 0
1.6413717 -1.1763666 -0.091990955 0
2.5766177 -1.283024 -0.14099935 0
3.4322133 -1.3805978 -0.14046039 0
5.1429734 -1.5756963 -0.13996522 0
10.33387 -2.1676764 -0.14083123 0
0.90539837 -1.0693774 -0.092028014 0
1.0157793 -1.0791514 -0.090916999 0
1.1284339 -1.0891268 -0.085054152 0
1.1291623 -1.0891913 -0.058199499 0
1.6384006 -1.1342834 -0.0911498 0
2.5702651 -1.2167983 -0.13978644 0
3.4491513 -1.2946219 -0.14103289 0
5.1739378 -1.4473486 -0.14079742 0
10.345419 -1.9052736 -0.1404836 0
0.9042604 -1.0463511 -0.091416605 0
1.0250156 -1.0539789 -0.09229321 0
1.128135 -1.0604928 -0.084649213 0
1.1216439 -1.0600828 -0.05683643 0
1.6362296 -1.0925881 -0.090528212 0
2.5979543 -1.1533383 -0.14191575 0
3.4579422 -1.207662 -0.14118594 0
5.1912546 -1.3171518 -0.1411429 0
10.378088 -1.6447934 -0.140783 0
0.89983535 -1.0233309 -0.090230264 0
1.0179831 -1.027805 -0.09072151 0
1.1338491 -1.0321927 -0.085352562 0
1.1418694 -1.0324965 -0.059479836 0
1.6492485 -1.0517101 -0.091806926 0
2.5859363 -1.0871812 -0.14048378 0
3.4518411 -1.1199718 -0.14045066 0
5.1994705 -1.186152 -0.14121726 0
10.393393 -1.3828384 -0.14083114 0
0.90889674 -1.000748 -0.092034794 0
1.0164285 -1.0021049 -0.090306632 0
1.128823 -1.003523 -0.084407829 0
1.1276294 -1.003508 -0.057376299 0
1.1343151 -1.0035923 -0.031497423 0
1.1349335 -1.0036001 -0.0048821624 0
1.1297652 -1.0035349 0.022050994 0
1.1303204 -1.0035418 0.048389897 0
1.1333793 -1.0035805 0.07463938 0
1.1335539 -1.0035827 0.10100273 0
1.1312652 -1.0035537 0.12731683 0
1.1230937 -1.0034506 0.15327865 0
1.1319749 -1.0035627 0.1801092 0
1.1415751 -1.0036839 0.20750864 0
1.1340311 -1.0035887 0.23347062 0
1.1285596 -1.0035197 0.2595135 0
1.1339279 -1.0035874 0.28725412 0
1.1332486 -1.0035788 0.31431931 0
0.90213972 -0.9779219 -0.090598382 0
1.0111775 -0.97654611 -0.089317523 0
1.1337167 -0.97499996 -0.085212179 0
1.1214834 -0.97515434 -0.056512509 0
1.640749 -0.96860248 -0.090690739 0
2.5983117 -0.95652044 -0.14148526 0
3.4621451 -0.94562101 -0.14101733 0
5.187222 -0.92385489 -0.1404928 0
10.393549 -0.85816407 -0.14068082 0
0.91182393 -0.95479977 -0.092780404 0
1.006399 -0.95121837 -0.088538073 0
1.1316644 -0.94647473 -0.084993251 0
1.1360815 -0.94630748 -0.058665846 0
1.649892 -0.9268502 -0.091882192 0
2.5895219 -0.89126778 -0.14081872 0
3.4438117 -0.858917 -0.13988891 0
5.1874084 -0.79288954 -0.14065531 0
10.378793 -0.59629923 -0.14049146 0
0.899315 -0.93254602 -0.090363301 0
1.0058272 -0.92581785 -0.088671856 0
1.119827 -0.91861671 -0.083281063 0
1.130306 -0.9179548 -0.058056179 0
1.6411127 -0.88568819 -0.091100059 0
2.5930941 -0.82555342 -0.14146119 0
3.4453325 -0.77171928 -0.14030264 0
5.1834021 -0.66192895 -0.14077662 0
10.389656 -0.33306059 -0.1410525 0
0.88899958 -0.91065937 -0.088528611 0
1.008432 -0.90008384 -0.089527719 0
1.1628339 -0.88641185 -0.090729959 0
1.3477964 -0.87003374 -0.089045383 0
1.6332213 -0.84475994 -0.090542115 0
2.5725043 -0.76158816 -0.13999626 0
3.4448285 -0.68434542 -0.1407295 0
5.1756811 -0.53108168 -0.1408789 0
10.362616 -0.071788341 -0.140885 0
0.89261127 -0.88760823 -0.089786224 0
1.0174694 -0.87336922 -0.091728441 0
1.1644025 -0.85661262 -0.091479979 0
1.348255 -0.83564574 -0.089596517 0
1.6333175 -0.80313665 -0.091043524 0
2.5775089 -0.69545913 -0.14108306 0
3.4376788 -0.59736359 -0.14084496 0
5.1654162 -0.40032896 -0.14101683 0
10.339025 0.18967965 -0.14095186 0
0.89243925 -0.86476976 -0.090360872 0
1.0027595 -0.84935993 -0.089548714 0
1.1479135 -0.82908434 -0.089360677 0
1.3511062 -0.80070174 -0.090612046 0
1.628069 -0.76201475 -0.091039754 0
2.5644057 -0.63122433 -0.14062415 0
3.4175169 -0.51205915 -0.14019702 0
5.1446805 -0.2708036 -0.14081791 0
10.304431 0.44992605 -0.14091532 0
0.89198577 -0.84182495 -0.091001235 0
0.99975455 -0.82398862 -0.089709975 0
1.1605791 -0.79737127 -0.092204817 0
1.3410208 -0.7675072 -0.089914449 0
1.6194649 -0.72142315 -0.090761162 0
2.5622368 -0.5653891 -0.1413509 0
3.4066155 -0.42563972 -0.14035486 0
5.1306038 -0.14031008 -0.14108635 0
10.246786 0.70644659 -0.14048991 0
0.88484532 -0.81999153 -0.090322502 0
0.99510443 -0.79887199 -0.089679025 0
1.1424469 -0.77064931 -0.090042673 0
1.3331926 -0.73411298 -0.089656062 0
1.3524313 -0.73042792 -0.059850264 0
1.3536546 -0.73019356 -0.027584588 0
1.3432649 -0.73218369 0.0054256935 0
1.3357798 -0.73361742 0.037699293 0
1.348563 -0.73116887 0.06906876 0
1.3441902 -0.73200643 0.10100944 0
0.87994742 -0.79781961 -0.09024749 0
0.9820382 -0.77558047 -0.088147424 0
1.130502 -0.74323958 -0.089022525 0
1.2215743 -0.72340071 -0.074589007 0
1.210649 -0.72578067 -0.04372381 0
1.2087227 -0.72620028 -0.014404973 0
1.2091855 -0.72609943 0.014524208 0
1.2112547 -0.7256487 0.043304857 0
1.1910251 -0.73005545 0.072652303 0
1.2012266 -0.72783315 0.10100546 0
0.88245237 -0.7738418 -0.091913961 0
0.98452359 -0.74889356 -0.089735411 0
1.1228014 -0.71509576 -0.088830866 0
1.2167732 -0.69212723 -0.074921183 0
1.208006 -0.69427007 -0.044252086 0
1.2040018 -0.69524878 -0.014626136 0
1.1983273 -0.69663572 0.014800051 0
1.2116628 -0.6933763 0.042948041 0
1.2088058 -0.69407457 0.072061099 0
1.2064594 -0.69464809 0.10100582 0
0.86507571 -0.75483352 -0.08934588 0
0.98363984 -0.72266322 -0.090807788 0
1.1110369 -0.68809628 -0.088066377 0
1.2074617 -0.66193312 -0.074713446 0
1.2179095 -0.65909827 -0.046399344 0
1.2032248 -0.66308272 -0.015305562 0
1.2059442 -0.66234487 0.013685824 0
1.2127482 -0.66049874 0.042516936 0
1.2052761 -0.66252613 0.071957424 0
1.2114624 -0.6608476 0.1010062 0
0.8565858 -0.7337926 -0.088835828 0
0.97134089 -0.69952488 -0.089774065 0
1.111618 -0.65763581 -0.089530163 0
1.2117112 -0.62774634 -0.076604433 0
1.2078506 -0.62889922 -0.046235848 0
1.2060242 -0.6294446 -0.0164173 0
1.2103404 -0.62815571 0.012735227 0
1.2035353 -0.63018781 0.042542748 0
1.2023065 -0.63055474 0.071820125 0
1.2049994 -0.62975061 0.10100627 0
0.85501814 -0.71060514 -0.089987613 0
0.96909016 -0.67338175 -0.090837874 0
1.1150235 -0.62576157 -0.091626681 0
1.2073139 -0.59564579 -0.077359892 0
1.2114255 -0.59430408 -0.04784048 0
1.195906 -0.59936833 -0.016352987 0
1.2028707 -0.59709567 0.012586148 0
1.2092235 -0.59502268 0.041801747 0
1.2155226 -0.59296715 0.071266174 0
1.2075608 -0.59556526 0.10100663 0
0.85687035 -0.68590003 -0.092052408 0
0.95719725 -0.65033686 -0.090115674 0
1.0962832 -0.60103464 -0.090020128 0
1.2119663 -0.56002808 -0.079591729 0
1.2026007 -0.56334794 -0.048029754 0
1.2129641 -0.55967438 -0.01905421 0
1.1950542 -0.56602293 0.012403572 0
1.2063642 -0.56201386 0.041432627 0
1.2034683 -0.56304038 0.071307324 0
1.2081388 -0.5613848 0.10100696 0
0.84017414 -0.66776121 -0.090056367 0
0.94393891 -0.62800479 -0.089227818 0
1.1036363 -0.56681836 -0.09309978 0
1.2034087 -0.52859151 -0.07999187 0
1.204898 -0.52802098 -0.049710218 0
1.2114748 -0.52550113 -0.020027412 0
1.2126 -0.52507001 0.010262029 0
1.2075039 -0.52702248 0.040819205 0
1.2102108 -0.52598542 0.070862137 0
1.2120994 -0.52526176 0.10100742 0
0.8397184 -0.64342219 -0.091878273 0
0.93939185 -0.60232019 -0.090219773 0
1.0733256 -0.54709035 -0.089668684 0
1.2077116 -0.4916741 -0.082471155 0
1.206392 -0.49221826 -0.051418874 0
1.2108371 -0.49038523 -0.021183414 0
1.206445 -0.49219638 0.009812573 0
1.2072734 -0.49185479 0.040224127 0
1.2076705 -0.49169105 0.070622355 0
1.199088 -0.4952302 0.10100739 0
0.82406962 -0.62531292 -0.090331517 0
0.93452269 -0.57646966 -0.091289304 0
1.0642085 -0.51912159 -0.090096615 0
1.2000892 -0.45903406 -0.0832882 0
1.2054094 -0.4566814 -0.052945051 0
1.2147067 -0.45257011 -0.02290236 0
1.2102499 -0.45454094 0.0085336734 0
1.2110054 -0.45420685 0.039375726 0
1.2031769 -0.45766863 0.070407644 0
1.2111253 -0.45415387 0.10100817 0
0.81561297 -0.60419375 -0.090564035 0
0.91351563 -0.55791295 -0.089144699 0
1.0662491 -0.48571232 -0.092685677 0
1.2260274 -0.41018149 -0.089459233 0
1.4753709 -0.29231098 -0.089630879 0
1.8614687 -0.10979363 -0.091114812 0
3.1289926 0.48939422 -0.1409103 0
4.6953292 1.2298377 -0.14076218 0
9.3976507 3.4527338 -0.1406879 0
0.81037712 -0.58137345 -0.091692261 0
0.90037197 -0.53601831 -0.088729404 0
1.037428 -0.46694556 -0.089782156 0
1.2168926 -0.37649986 -0.090382494 0
1.4575928 -0.25519291 -0.089667104 0
1.8364645 -0.064251035 -0.090882637 0
3.0959697 0.57050818 -0.14132376 0
4.6323056 1.3447831 -0.14047344 0
9.2776575 3.6859243 -0.14055966 0
0.78875601 -0.56701583 -0.089022167 0
0.89070988 -0.51236528 -0.089169808 0
1.0264243 -0.43961802 -0.090249382 0
1.1932576 -0.35018995 -0.089140929 0
1.4406339 -0.21758828 -0.089935876 0
1.8099021 -0.019648578 -0.09060321 0
3.0431435 0.64140874 -0.14033341 0
4.5729456 1.4614322 -0.14052656 0
9.16434 3.9225676 -0.14076003 0
0.77792364 -0.54723227 -0.089040004 0
0.887299 -0.48500112 -0.091099702 0
1.0177774 -0.410763 -0.091298558 0
1.1946985 -0.31010047 -0.092042543 0
1.2071007 -0.30304393 -0.061213274 0
1.2234957 -0.29371575 -0.030317551 0
3.010026 0.72276455 -0.14105693 0
4.5104585 1.5764639 -0.14056955 0
9.0376091 4.1522717 -0.14076318 0
0.7727831 -0.52399564 -0.090593837 0
0.8722983 -0.46400145 -0.090660982 0
0.99906343 -0.38757917 -0.090570562 0
1.1635972 -0.28838751 -0.089813359 0
1.1395296 -0.30289707 -0.054407228 0
1.1981503 -0.26755664 -0.02951034 0
2.9695098 0.80033439 -0.14135395 0
4.4523244 1.6942716 -0.14100648 0
8.9052696 4.3787971 -0.14077036 0
0.76571721 -0.5015325 -0.09183418 0
0.85187346 -0.44658127 -0.089120887 0
0.98530066 -0.36148021 -0.090909131 0
1.1400586 -0.2627742 -0.088899262 0
1.1560235 -0.25259164 -0.059144605 0
1.1808006 -0.23678866 -0.029647788 0
2.9240978 0.87510198 -0.14141092 0
4.3811069 1.8043954 -0.14089102 0
8.762228 4.5987134 -0.14063896 0
0.74446696 -0.48825553 -0.089604132 0
0.8451879 -0.42038009 -0.090774037 0
0.9578023 -0.34448966 -0.088660754 0
1.126087 -0.23108336 -0.089699425 0
1.1477689 -0.21647206 -0.060652692 0
1.1513224 -0.21407738 -0.028509146 0
2.8690495 0.94349235 -0.14081429 0
4.3011746 1.9085958 -0.14043908 0
8.6311474 4.8265471 -0.140995 0
0.73432034 -0.46771315 -0.090316661 0
0.83272803 -0.39772239 -0.091274001 0
0.94759995 -0.31602183 -0.089945711 0
1.1158284 -0.19637236 -0.091291197 0
1.1455821 -0.17521062 -0.063187964 0
1.1547523 -0.16868851 -0.031184306 0
2.8107457 1.0091072 -0.1400744 0
4.2365956 2.0232172 -0.14100501 0
8.4719667 5.0355487 -0.14071843 0
0.71972412 -0.45027813 -0.089997105 0
0.81627506 -0.37787142 -0.090976812 0
0.93811601 -0.28649887 -0.091549061 0
1.0836164 -0.17738345 -0.0892094 0
1.1025077 -0.16321614 -0.059949238 0
1.1013819 -0.1640605 -0.027415996 0
1.0998895 -0.16517958 0.0049428139 0
1.0959505 -0.16813365 0.037252154 0
1.0968807 -0.16743609 0.069121033 0
1.0987871 -0.16600642 0.10100957 0
1.096455 -0.16775528 0.13288562 0
1.0981855 -0.1664575 0.16489717 0
1.0960666 -0.16804656 0.19674245 0
0.7115519 -0.42784569 -0.091529466 0
0.79535848 -0.36162779 -0.089721285 0
0.92111093 -0.26226738 -0.091763847 0
1.0510244 -0.15961924 -0.087102734 0
1.1091713 -0.1136758 -0.064098619 0
1.0972582 -0.12308869 -0.029444044 0
1.0932387 -0.1262646 0.0036515913 0
1.0995628 -0.12126777 0.035787847 0
1.0974569 -0.12293169 0.068479158 0
1.0998863 -0.12101218 0.10101038 0
1.0911456 -0.12791839 0.13335399 0
1.1035188 -0.11814204 0.16646808 0
1.1069988 -0.11539236 0.19959608 0
0.68922293 -0.41669896 -0.089334868 0
0.78335434 -0.33838567 -0.090722255 0
0.90580577 -0.23651138 -0.092476062 0
1.0279948 -0.13485542 -0.08678063 0
1.0990051 -0.075777858 -0.065965451 0
1.100982 -0.074133188 -0.032592211 0
1.1009399 -0.074168175 0.00093939365 0
1.0965112 -0.077852696 0.034625139 0
1.1058512 -0.070082217 0.067553587 0
1.1065772 -0.069478184 0.10101146 0
1.099102 -0.075697213 0.13426468 0
1.0997078 -0.075193256 0.16759102 0
1.1114576 -0.065417916 0.20204076 0
0.67842883 -0.39612576 -0.090428837 0
0.77755785 -0.30933025 -0.093444906 0
0.8742044 -0.22470829 -0.089784808 0
0.99649638 -0.11763176 -0.084984981 0
1.0998703 -0.027119543 -0.069734611 0
1.1025116 -0.024806824 -0.035690088 0
1.0982953 -0.028498497 -0.00099289208 0
1.0966789 -0.029913928 0.033170212 0
1.1092299 -0.018924441 0.066721581 0
1.1024915 -0.024824467 0.10101219 0
1.0961242 -0.030399587 0.13489737 0
1.1001378 -0.026885297 0.16906822 0
1.1034957 -0.023945119 0.20350099 0
1.0946358 -0.031702723 0.23673752 0
1.0846598 -0.040437486 0.37235287 0
0.66848022 -0.374401 -0.09194126 0
0.7420994 -0.30658475 -0.088821255 0
0.8549124 -0.20266393 -0.089846738 0
0.96497267 -0.10127887 -0.083224453 0
1.0627304 -0.01122668 -0.067746185 0
1.1003432 0.023421321 -0.038547684 0
1.1085552 0.030985985 -0.00430548 0
1.1018634 0.024821673 0.031287801 0
1.0952941 0.018770132 0.066376999 0
1.0967405 0.020102534 0.10101293 0
1.1034662 0.02629808 0.13590775 0
1.1001327 0.023227368 0.17062896 0
1.0964801 0.019862685 0.205184 0
1.1054691 0.028143201 0.2412255 0
1.0307508 -0.040685739 0.3647643 0
0.64480406 -0.36545739 -0.089588441 0
0.73332626 -0.27968433 -0.091099866 0
0.83936757 -0.1769363 -0.090893589 0
0.84403634 -0.17241254 -0.06400355 0
0.84519607 -0.17128882 -0.036416162 0
0.84102869 -0.17532673 -0.008211134 0
0.84552014 -0.17097482 0.018759126 0
0.84233952 -0.17405662 0.046429783 0
0.84349436 -0.17293766 0.073694192 0
0.8349359 -0.18123034 0.10100355 0
0.84777737 -0.16878769 0.12845261 0
0.84571934 -0.17078176 0.15579741 0
0.84787595 -0.16869214 0.18347865 0
1.0960692 0.071793109 0.24338727 0
1.0074857 -0.014039245 0.29801041 0
1.0043381 -0.017089095 0.33066934 0
0.99398232 -0.027123298 0.36148334 0
0.6331948 -0.34499308 -0.090904273 0
0.71722114 -0.25936142 -0.091646351 0
0.82351899 -0.15103272 -0.092046894 0
0.84111875 -0.13309667 -0.067607589 0
0.83826786 -0.13600203 -0.038748924 0
0.83395666 -0.14039561 -0.010041272 0
0.83469588 -0.13964221 0.01775183 0
0.84100246 -0.13321522 0.045133617 0
0.83153784 -0.14286062 0.073398441 0
0.83660859 -0.13769296 0.10100446 0
0.84354132 -0.13062784 0.12900956 0
0.84014308 -0.13409099 0.15681861 0
0.83455938 -0.13978133 0.18424363 0
0.83933258 -0.13491699 0.21276745 0
1.1003023 0.13103858 0.28450629 0
0.94619066 -0.026017334 0.29071 0
0.95003319 -0.022101369 0.32375482 0
0.95376843 -0.018294778 0.35728106 0
0.62315202 -0.3223705 -0.09290316 0
0.69705367 -0.2431542 -0.091225959 0
0.79883063 -0.13405797 -0.091257505 0
0.83819616 -0.091861457 -0.071511097 0
0.84260428 -0.087136298 -0.043226186 0
0.84451103 -0.085092455 -0.014452463 0
0.84214467 -0.08762899 0.014764259 0
0.8425656 -0.087177724 0.043534581 0
0.8467052 -0.082740456 0.072144561 0
0.83478105 -0.095522135 0.10100529 0
0.83558416 -0.094661266 0.12948708 0
0.8395409 -0.090419978 0.15827014 0
0.83789212 -0.092187315 0.18681112 0
0.84352475 -0.086149603 0.21632946 0
1.0992091 0.18792215 0.28922427 0
0.92946374 0.0059697363 0.29233375 0
0.92694908 0.003274176 0.32414556 0
0.92524272 0.0014451478 0.35625273 0
0.59745997 -0.31665799 -0.090126537 0
0.6726442 -0.23187563 -0.089703746 0
0.77472138 -0.11676708 -0.090693511 0
0.85385299 -0.027533319 -0.079679944 0
0.84176672 -0.041162577 -0.047135431 0
0.84655625 -0.035761561 -0.017987465 0
0.83874792 -0.044566717 0.012696872 0
0.83938563 -0.043847587 0.042141829 0
0.83278972 -0.051285531 0.07182122 0
0.83972138 -0.043468978 0.10100649 0
0.83753252 -0.045937326 0.1303578 0
0.84115368 -0.041853871 0.15999548 0
0.83740848 -0.046077158 0.18917513 0
0.84204113 -0.04085305 0.21936607 0
1.0946594 0.24401501 0.29371876 0
1.1034861 0.25396839 0.33459288 0
0.58614802 -0.29488114 -0.092055939 0
0.65423697 -0.21408167 -0.089971788 0
0.72807115 -0.12646452 -0.084473141 0
0.84628314 0.013814721 -0.083380394 0
0.84310156 0.010039244 -0.05176482 0
0.84383255 0.010906611 -0.021116784 0
0.84259474 0.0094377734 0.0096646417 0
0.83502239 0.00045183641 0.040714398 0
0.83668882 0.0024293994 0.070817061 0
0.84612751 0.013630066 0.10100784 0
0.84223938 0.0090161301 0.13139859 0
0.83383799 -0.00095364114 0.16121478 0
0.84288973 0.0097878315 0.19238311 0
0.8459667 0.013439212 0.22344223 0
0.84375179 0.010810886 0.25389922 0
1.0932075 0.30683365 0.3392708 0
0.56707937 -0.2820389 -0.091592766 0
0.64033419 -0.1905193 -0.091739394 0
0.72425801 -0.085670561 -0.089256741 0
0.8459025 0.06630376 -0.089047186 0
0.85395563 0.076364785 -0.058560688 0
0.84394246 0.063855082 -0.024942746 0
0.84164464 0.060984407 0.0069218744 0
0.84256929 0.062139545 0.038271952 0
0.84389675 0.063797981 0.069607988 0
0.84792399 0.068829328 0.10100909 0
0.84002018 0.058954868 0.13226527 0
0.83915049 0.057868276 0.16349089 0
0.83823138 0.056720052 0.19471395 0
0.84011114 0.059068475 0.22638862 0
0.84235597 0.061872993 0.25840998 0
1.1026804 0.38710466 0.34883791 0
1.097144 0.38018778 0.38937119 0
0.5506472 -0.26588455 -0.09215235 0
0.6238482 -0.16954687 -0.092944659 0
0.70125884 -0.067669123 -0.089264996 0
0.73658848 -0.021172907 -0.069904022 0
0.73199213 -0.027221944 -0.040246535 0
0.72857034 -0.031725314 -0.011283955 0
0.73553509 -0.022559192 0.016090082 0
0.73249274 -0.026563134 0.04468032 0
0.73357397 -0.025140192 0.072816305 0
0.7246322 -0.036908116 0.10100454 0
0.7279678 -0.032518294 0.12897769 0
0.72447932 -0.037109341 0.15671228 0
0.73001325 -0.02982631 0.18528178 0
0.72850138 -0.031816091 0.21328337 0
0.72999781 -0.029846635 0.24187182 0
0.72755104 -0.033066776 0.26981544 0
0.72507536 -0.036324944 0.29774582 0
0.72527027 -0.036068466 0.32653126 0
0.52472848 -0.26263955 -0.089429013 0
0.59581828 -0.1640102 -0.090641908 0
0.68422514 -0.0413551 -0.09107589 0
0.72595346 0.016538415 -0.073275052 0
0.95684987 0.33688238 -0.090089314 0
0.84748906 0.18515602 -0.03416102 0
0.84410787 0.18046501 0.00016482384 0
0.84012496 0.17493919 0.034158241 0
0.84277695 0.17861846 0.067497447 0
0.84169334 0.17711511 0.10101145 0
0.83956558 0.17416301 0.13439758 0
0.84179312 0.17725351 0.16799766 0
0.84137857 0.17667845 0.20153213 0
0.83295906 0.16499713 0.23386431 0
0.83408058 0.16655317 0.26757354 0
0.84109998 0.17629185 0.30297443 0
1.1017686 0.53794152 0.41048902 0
0.51151693 -0.24191305 -0.091422237 0
0.58022875 -0.14132646 -0.092452578 0
0.65047884 -0.038487878 -0.08827541 0
0.76740003 0.1326721 -0.089981653 0
0.91961008 0.35549119 -0.089369349 0
1.1530803 0.6972664 -0.089677773 0
0.85084343 0.25482419 -0.0043611806 0
0.83824664 0.23638383 0.031866807 0
0.83942741 0.23811248 0.066409826 0
0.83977389 0.2386196 0.10101285 0
0.8383466 0.23653021 0.13557123 0
0.83898532 0.23746529 0.17021997 0
0.83886468 0.23728862 0.20490257 0
0.83765912 0.23552385 0.23950873 0
0.84115875 0.24064687 0.27514136 0
0.83923888 0.23783639 0.30990735 0
1.1018866 0.62232429 0.42185709 0
1.1028099 0.62367576 0.46900761 0
0.49087822 -0.23177305 -0.090788491 0
0.5525561 -0.13640293 -0.090339221 0
0.62602514 -0.022800591 -0.088197581 0
0.74509615 0.16131416 -0.091598652 0
0.88977373 0.3850235 -0.090313338 0
1.1124682 0.7293672 -0.090074487 0
1.4801006 1.2978227 -0.089444079 0
0.85003394 0.32357541 0.028182315 0
0.84203446 0.31120613 0.064960875 0
0.83916855 0.30677465 0.10101446 0
0.84224778 0.31153598 0.13707756 0
0.83511585 0.30050817 0.17256747 0
0.84102434 0.30964425 0.20920251 0
0.83881795 0.3062326 0.24506883 0
0.84343225 0.31336752 0.28237051 0
0.84020883 0.30838314 0.31824335 0
0.83821571 0.30530134 0.35444698 0
1.1035302 0.71554667 0.48349884 0
0.47177076 -0.21938941 -0.09085428 0
0.53372723 -0.11807081 -0.091373928 0
0.60205019 -0.0063408879 -0.088389598 0
0.71064174 0.17124107 -0.09020149 0
0.85202956 0.40245536 -0.089689232 0
1.0617797 0.74546403 -0.08882723 0
1.4285572 1.3452625 -0.090333007 0
0.85403693 0.40573815 0.024844984 0
0.84376556 0.3889412 0.06340941 0
0.84268272 0.38717034 0.10101645 0
0.84276652 0.38730744 0.13857904 0
0.84074569 0.38400272 0.17600185 0
0.83788043 0.37931708 0.21321215 0
0.83775419 0.3791106 0.25077811 0
0.83888811 0.38096491 0.28877893 0
0.83562911 0.37563542 0.32590482 0
0.84080273 0.38409606 0.36564022 0
1.102872 0.81266302 0.49892274 0
0.45573124 -0.20163175 -0.092357419 0
0.50857168 -0.1101096 -0.090242274 0
0.58485067 0.022009287 -0.090951078 0
0.67935282 0.18569139 -0.089700721 0
0.82243425 0.43351522 -0.091042809 0
1.027757 0.78914398 -0.090709828 0
1.3619528 1.3679867 -0.089319758 0
1.3738486 1.3885906 -0.026856771 0
0.85334951 0.48706189 0.061334249 0
0.840352 0.46454957 0.10101832 0
0.83717656 0.45904961 0.13995004 0
0.84196788 0.46734837 0.17937087 0
0.84111172 0.46586552 0.21853369 0
0.8422398 0.46781936 0.25811508 0
0.83830005 0.46099547 0.29678908 0
0.83956361 0.46318403 0.33676943 0
0.83870041 0.46168891 0.37643108 0
0.84303528 0.46919718 0.41827554 0
0.42918518 -0.20240423 -0.089454494 0
0.48542339 -0.09905985 -0.089925431 0
0.55231166 0.023855243 -0.088600256 0
0.65127778 0.20571724 -0.090226106 0
0.78359652 0.44886842 -0.090388156 0
0.97756636 0.80531102 -0.089734979 0
1.2963041 1.3910291 -0.088480406 0
1.2945006 1.3877149 -0.02501457 0
1.2928438 1.3846705 0.038131248 0
0.85000461 0.57090122 0.1010211 0
0.84035933 0.55317694 0.14190011 0
0.84047401 0.55338758 0.18283525 0
0.84005809 0.55262321 0.22379284 0
0.84158576 0.55543059 0.26522326 0
0.83780777 0.54848808 0.30568543 0
0.84556001 0.56273371 0.34939092 0
0.84220564 0.55656964 0.39032075 0
0.83706933 0.54713112 0.43053472 0
0.40799761 -0.19418934 -0.088895999 0
0.46414435 -0.084509104 -0.090477906 0
0.52798796 0.040206704 -0.089110427 0
0.62165016 0.22317186 -0.090451442 0
0.74700654 0.46805015 -0.090374134 0
0.93762177 0.8404091 -0.090891488 0
1.2432712 1.4374821 -0.089621432 0
1.2441361 1.4391718 -0.026038429 0
1.2464455 1.4436831 0.037421484 0
1.242967 1.436888 0.10104821 0
0.84440225 0.65830868 0.1441112 0
0.83873832 0.64724451 0.18666658 0
0.83806652 0.64593202 0.22950158 0
0.84181297 0.65325063 0.27331316 0
0.83988512 0.64948469 0.31624326 0
0.84050971 0.6507048 0.35999769 0
0.84186202 0.65334648 0.40436605 0
0.83535385 0.64063305 0.44596395 0
0.39231664 -0.17478654 -0.091109522 0
0.43985632 -0.075841576 -0.089907296 0
0.50384068 0.057329807 -0.089867823 0
0.58851618 0.23356596 -0.089690559 0
0.71062571 0.48771408 -0.090543307 0
0.88870394 0.85835057 -0.090362467 0
1.1809745 1.4666567 -0.089513056 0
1.777086 2.707351 -0.089959003 0
4.4983244 8.3710985 -0.14047973 0
0.85061783 0.7790814 0.1924181 0
0.84142232 0.75994271 0.23675245 0
0.84006387 0.75711542 0.28193143 0
0.84584707 0.7691521 0.32908922 0
0.84045964 0.75793904 0.37350139 0
0.83482879 0.74621958 0.41753179 0
0.83956987 0.75608724 0.46580517 0
0.36779618 -0.17372087 -0.089116983 0
0.41352901 -0.072041065 -0.088465326 0
0.47571817 0.06622687 -0.089244731 0
0.55626702 0.24531475 -0.089276634 0
0.66931355 0.49665609 -0.089454927 0
0.84057266 0.87742406 -0.090082385 0
1.1176461 1.4934535 -0.089344881 0
1.6893692 2.764591 -0.090653427 0
4.2662139 8.493804 -0.14079106 0
1.0690382 1.3853812 0.22233894 0
0.85160267 0.90194768 0.24606268 0
0.84060967 0.87750632 0.29214948 0
0.83910209 0.87415451 0.33989066 0
0.84226865 0.88119489 0.38932291 0
0.84176767 0.880081 0.43797037 0
0.83804613 0.8718068 0.4854553 0
0.35103273 -0.15536055 -0.091275834 0
0.40095377 -0.036435451 -0.093671896 0
0.44912148 0.078312784 -0.089323826 0
0.52462333 0.25817803 -0.089161672 0
0.63696367 0.52580255 -0.091071866 0
0.79674494 0.90644377 -0.090935759 0
1.0631922 1.5411913 -0.090888076 0
1.5932779 2.8039956 -0.090552442 0
4.0252647 8.5976305 -0.14077164 0
0.99470913 1.3780465 0.22064407 0
0.84562325 1.0228846 0.25365663 0
0.84237456 1.0151455 0.30400568 0
0.84058577 1.010884 0.35462356 0
0.84523296 1.0219548 0.4076398 0
0.8402105 1.0099901 0.45745766 0
0.84081823 1.0114379 0.50979251 0
0.3268227 -0.15462604 -0.089488603 0
0.3747074 -0.03196856 -0.092595898 0
0.42447221 0.095504791 -0.090422072 0
0.4939405 0.27344909 -0.089532189 0
0.59455323 0.53117019 -0.089792557 0
0.74699521 0.92165309 -0.090508379 0
0.99485707 1.5565553 -0.090090208 0
1.4994798 2.8491547 -0.090861864 0
3.779289 8.6889248 -0.14059217 0
0.92740637 1.3837793 0.21971405 0
0.85034114 1.1863751 0.26438376 0
0.84109658 1.1626952 0.31673491 0
0.84465998 1.1718228 0.3722463 0
0.84057021 1.1613469 0.42555949 0
0.83833218 1.1556141 0.47953463 0
0.83905172 1.1574571 0.53516912 0
0.3072471 -0.14227971 -0.090481006 0
0.34767672 -0.030469622 -0.091068529 0
0.39516154 0.10085192 -0.089549489 0
0.43326622 0.20623234 -0.077688672 0
0.43323743 0.20615271 -0.04759853 0
0.43607518 0.21400061 -0.018462455 0
0.93519658 1.5943453 -0.091095574 0
1.3991693 2.8774846 -0.090453111 0
3.5350444 8.7843523 -0.14067075 0
0.85463727 1.3715546 0.21798699 0
0.85185331 1.3638556 0.27604547 0
0.83956981 1.3298848 0.33130237 0
0.83927244 1.3290625 0.3892363 0
0.83884323 1.3278754 0.44739112 0
0.84058815 1.332701 0.5069201 0
0.84036648 1.3320882 0.56605673 0
0.28750765 -0.12963441 -0.091643281 0
0.32227069 -0.025338259 -0.090411149 0
0.36876723 0.11416069 -0.090192221 0
0.40765688 0.23083749 -0.079774208 0
0.40344915 0.21821347 -0.04778761 0
0.40590301 0.22557548 -0.018558873 0
0.86619085 1.6065316 -0.090317212 0
1.3047923 2.9224238 -0.09098763 0
3.2855551 8.8651114 -0.14054091 0
0.79144251 1.3822715 0.21749221 0
0.85098577 1.5609133 0.28905061 0
0.83774775 1.5211966 0.34812656 0
0.8420046 1.533968 0.41197601 0
0.84234989 1.5350039 0.47506335 0
0.84028572 1.528811 0.53736323 0
0.84001487 1.5279984 0.60090524 0
0.26205239 -0.1347048 -0.088970326 0
0.29866901 -0.014847603 -0.090941124 0
0.34097874 0.12364498 -0.090287738 0
0.38456258 0.26630798 -0.083535738 0
0.37981689 0.25077394 -0.050572697 0
0.38281289 0.26058081 -0.021015955 0
0.72582972 1.3833783 -0.07246954 0
0.72676224 1.3864305 -0.014676725 0
0.7278524 1.3899992 0.043126859 0
0.72748053 1.388782 0.10104138 0
0.726448 1.3854022 0.15884402 0
0.72655505 1.3857524 0.21672662 0
0.84346294 1.7684274 0.30272251 0
0.83700454 1.747287 0.36822256 0
0.83567488 1.7429347 0.43502927 0
0.83675581 1.7464728 0.5031482 0
0.83506536 1.7409396 0.57032782 0
0.24060327 -0.12768468 -0.089125864 0
0.27207905 -0.014510598 -0.089599229 0
0.31383702 0.13563398 -0.090929948 0
0.364683 0.31845525 -0.089788936 0
0.4406004 0.59142309 -0.090784915 0
0.54958534 0.98328835 -0.090139233 0
0.66213137 1.3879576 -0.07152956 0
0.66120267 1.3846185 -0.013740821 0
0.66026258 1.3812382 0.043762598 0
0.6582334 1.3739421 0.10104042 0
0.65940863 1.3781679 0.15824448 0
0.66322571 1.3918924 0.21617453 0
0.81288797 1.9300165 0.31297752 0
0.81494015 1.9373953 0.38469177 0
0.8144446 1.9356134 0.45596406 0
0.81227273 1.9278042 0.52665955 0
0.81398404 1.9339576 0.59982336 0
0.2229213 -0.10545233 -0.092733376 0
0.24896009 -0.00176039 -0.090807207 0
0.28358001 0.13610342 -0.08973255 0
0.33157098 0.32721367 -0.089788653 0
0.39474103 0.57877022 -0.087984212 0
0.49984986 0.99733573 -0.090219431 0
0.59737158 1.3856878 -0.070218094 0
0.59867185 1.3908658 -0.013277372 0
0.59804565 1.3883722 0.043972261 0
0.59833616 1.389529 0.10104042 0
0.59692979 1.3839285 0.1580018 0
0.59748745 1.3861494 0.21513192 0
0.76678783 2.060339 0.32096812 0
0.76752025 2.0632558 0.3949239 0
0.7697193 2.0720129 0.47004637 0
0.7678566 2.0645952 0.54365581 0
0.19775319 -0.11259636 -0.090018399 0
0.22325753 0.0010313723 -0.090198986 0
0.25755298 0.15382567 -0.091576986 0
0.29758263 0.33216706 -0.089361034 0
0.35824662 0.60243922 -0.089689083 0
0.44862828 1.0051105 -0.089819573 0
0.54968685 1.4553499 -0.074185319 0
0.55285639 1.469471 -0.016344486 0
0.55295211 1.4698975 0.042370535 0
0.55111694 1.4617214 0.10104211 0
0.55537313 1.4806836 0.15997189 0
0.55203462 1.4658098 0.21825455 0
0.7152397 2.1929266 0.32915974 0
0.7138927 2.1869252 0.40500343 0
0.7129283 2.1826286 0.48109496 0
0.71207225 2.1788146 0.55746585 0
0.17649326 -0.10325316 -0.091027625 0
0.2008927 0.019917879 -0.092809059 0
0.22857226 0.15964738 -0.091528706 0
0.26483902 0.34272602 -0.089861892 0
0.31976104 0.61997849 -0.090765141 0
0.39850977 1.0175107 -0.089985169 0
0.41710919 1.1114025 -0.048741717 0
0.41775715 1.1146736 0.0011176562 0
0.41553026 1.1034319 0.051368136 0
0.41676727 1.1096766 0.10103148 0
0.41606653 1.1061389 0.15075886 0
0.4150534 1.1010246 0.20029731 0
0.41796467 1.115721 0.25111338 0
0.41682774 1.1099818 0.30084822 0
0.41398805 1.0956466 0.34950215 0
0.40641287 1.0574064 0.39431322 0
0.29497427 0.49485198 0.34972009 0
0.27052474 0.37142804 0.36232567 0
0.15455317 -0.09636578 -0.091618799 0
0.17171709 0.0034273004 -0.08875481 0
0.19694674 0.15011552 -0.089042492 0
0.23289615 0.35912982 -0.091312163 0
0.27921429 0.62842935 -0.090874232 0
0.34715465 1.0234427 -0.089657538 0
0.36968678 1.1544473 -0.051097769 0
0.88056755 4.1247706 -0.14060888 0
1.7633336 9.2572794 -0.14076507 0
0.5820958 2.3894191 0.26077092 0
0.58023626 2.3786077 0.34007159 0
0.58079249 2.3818417 0.42045051 0
0.26048476 0.51953357 0.27998975 0
0.27159774 0.58414572 0.32543275 0
0.27326646 0.59384781 0.36507627 0
0.23622794 0.37850133 0.36246052 0
0.13076918 -0.10102645 -0.089846246 0
0.14747654 0.013312254 -0.08987654 0
0.1692501 0.16232207 -0.090308927 0
0.19954833 0.36967137 -0.092039235 0
0.2387379 0.63786954 -0.091220893 0
0.2959514 1.0294166 -0.089457564 0
0.39428705 1.7023873 -0.089201696 0
0.75119144 4.1449022 -0.14058849 0
1.5029086 9.289361 -0.14055073 0
0.50788903 2.4798353 0.26439011 0
0.50648606 2.4702337 0.34559283 0
0.50598156 2.4667811 0.42718834 0
0.22179134 0.52189392 0.27955168 0
0.27609134 0.89350218 0.36848894 0
0.20121412 0.38107136 0.36190259 0
0.1082843 -0.098297685 -0.08978986 0
0.12218195 0.017094407 -0.089953355 0
0.13967839 0.16236714 -0.089674212 0
0.16479027 0.37087074 -0.091561042 0
0.19582655 0.62856477 -0.089480348 0
0.24677683 1.0516045 -0.090904288 0
0.32759869 1.7226679 -0.089991309 0
0.62073147 4.1565475 -0.14032359 0
1.2433808 9.3263988 -0.14060728 0
0.42561957 2.5365345 0.26650345 0
0.42543927 2.5350375 0.34933847 0
0.42288181 2.513803 0.43051669 0
0.42296204 2.5144689 0.51363009 0
0.23173068 0.92667657 0.37228864 0
0.1668483 0.38795856 0.3623336 0
0.085747421 -0.096106261 -0.089740224 0
0.098236084 0.035476599 -0.092913263 0
0.11137506 0.17391136 -0.091062836 0
0.12819928 0.35117438 -0.088258229 0
0.15637539 0.64804322 -0.091250382 0
0.19498417 1.0548325 -0.090686373 0
0.25868809 1.7260292 -0.089709245 0
0.49178478 4.1819797 -0.14085828 0
0.98279637 9.3553696 -0.14062849 0
0.34170842 2.6007469 0.26906088 0
0.3406786 2.5898964 0.3525202 0
0.33950379 2.5775187 0.43560025 0
0.3401638 2.5844727 0.52073294 0
0.33961514 2.5786917 0.60485786 0
0.173149 0.82477313 0.40056118 0
0.13042203 0.37459365 0.3590951 0
0.063299358 -0.092598885 -0.090092398 0
0.071121261 0.019937549 -0.089577667 0
0.080555812 0.15567592 -0.087660678 0
0.095601335 0.37214115 -0.090819798 0
0.11479062 0.64822406 -0.090873279 0
0.14205284 1.0404553 -0.08894404 0
0.19113158 1.7465684 -0.090753503 0
0.20975804 2.014554 -0.03921001 0
0.21886922 2.1456399 0.027905973 0
0.22508161 2.2350197 0.10106267 0
0.25411025 2.6526651 0.27113843 0
0.25202876 2.6227183 0.35430095 0
0.1321456 0.89791638 0.27765703 0
0.13286364 0.90824693 0.32338721 0
0.13386081 0.92259377 0.37041649 0
0.12473363 0.79127783 0.39442018 0
0.095698066 0.37353292 0.3583599 0
0.040932588 -0.08503142 -0.091428675 0
0.045587298 0.020304952 -0.08937382 0
0.051737633 0.15948763 -0.088017397 0
0.061548844 0.38151625 -0.091863729 0
0.073695377 0.65639359 -0.091554038 0
0.090934485 1.0465159 -0.0892381 0
0.12222029 1.7545166 -0.091034912 0
0.22987966 4.1908584 -0.14042504 0
0.13559809 2.0572577 0.030067625 0
0.13977009 2.15167 0.10106015 0
0.16308956 2.6793919 0.27214152 0
0.16302125 2.677846 0.35779873 0
0.086853959 0.95417339 0.28266323 0
0.085902467 0.93264109 0.32592365 0
0.086653635 0.9496401 0.37383652 0
0.077029362 0.73184198 0.38421819 0
0.061354186 0.37711111 0.35866585 0
0.01807549 -0.085842758 -0.091103055 0
0.020374918 0.03563479 -0.092110224 0
0.022919582 0.17006806 -0.089606188 0
0.026878497 0.37921539 -0.091386832 0
0.031987406 0.64911658 -0.090550162 0
0.039458375 1.0438037 -0.088833489 0
0.052839372 1.7507148 -0.090616249 0
0.058623441 2.0562842 -0.040840764 0
0.19798993 9.4189415 -0.14106904 0
0.071062766 2.7134473 0.27359295 0
0.070688896 2.6936958 0.35870346 0
0.070820324 2.700639 0.44566411 0
0.070880912 2.7038398 0.53289008 0
0.032566067 0.67968673 0.37541637 0
0.026867636 0.37864164 0.35874915 0
-0.0046218233 -0.10203686 -0.08763016 0
-0.0053862059 0.019155774 -0.088975571 0
-0.0063657113 0.17445603 -0.090297021 0
-0.0077219158 0.38948181 -0.092799015 0
-0.0093716085 0.65104014 -0.090744488 0
-0.01188542 1.0496042 -0.089344703 0
-0.016377104 1.7617595 -0.091357894 0
-0.031706732 4.1922679 -0.14026012 0
-0.064606033 9.4084415 -0.14078635 0
-0.022457717 2.7258387 0.27414307 0
-0.022456504 2.7256467 0.36089796 0
-0.022404684 2.7174304 0.44717753 0
-0.022451384 2.7248347 0.53527629 0
-0.0093422532 0.64638585 0.36989757 0
-0.0076617589 0.379944 0.35895348 0
-0.027359918 -0.091254801 -0.090013243 0
-0.030964803 0.023000274 -0.089790799 0
-0.035537411 0.16792682 -0.089314781 0
-0.042244017 0.3804895 -0.091627233 0
-0.050747935 0.65001708 -0.090716444 0
-0.063682184 1.0599613 -0.090402849 0
-0.085724056 1.7585678 -0.091226541 0
-0.11863603 2.8016968 -0.075605623 0
-0.11866099 2.8024879 0.012765946 0
-0.11904623 2.8146977 0.10107905 0
-0.11925115 2.8211925 0.18982776 0
-0.11673377 2.7414057 0.27495176 0
-0.11635049 2.7292581 0.36127493 0
-0.11656387 2.736021 0.44908011 0
-0.11643439 2.7319167 0.53631228 0
-0.050699472 0.64848107 0.37037069 0
-0.042324062 0.38302639 0.35965776 0
-0.050751429 -0.079197437 -0.092793398 0
-0.056682341 0.025154863 -0.090410091 0
-0.065203317 0.17507842 -0.090704344 0
-0.075806886 0.36164442 -0.089189447 0
-0.091421939 0.63638562 -0.089334585 0
-0.11512627 1.0534549 -0.090008058 0
-0.154615 1.7482452 -0.090718158 0
-0.21396124 2.7924213 -0.075370111 0
-0.21436751 2.7995694 0.012735503 0
-0.2138461 2.7903955 0.10107847 0
-0.21429758 2.7983391 0.18939337 0
-0.21096973 2.7397866 0.27507028 0
-0.2116632 2.7519879 0.36315826 0
-0.21119085 2.7436774 0.45018473 0
-0.077674001 0.39449564 0.2630395 0
-0.076845162 0.37991253 0.29378152 0
-0.076540239 0.37454739 0.32556114 0
-0.076824099 0.3795419 0.35928881 0
-0.07353244 -0.082801074 -0.092364959 0
-0.081698082 0.016546879 -0.089119248 0
-0.092994161 0.15398148 -0.087561809 0
-0.11082943 0.37097564 -0.090839036 0
-0.13294986 0.64010555 -0.090104885 0
-0.16731514 1.0582135 -0.090788953 0
-0.22335282 1.74 -0.090476297 0
-0.42513171 4.1949587 -0.14119446 0
-0.85050362 9.3702793 -0.14070646 0
-0.30610791 2.746846 0.27570605 0
-0.30531347 2.7371805 0.36257899 0
-0.30468145 2.729491 0.44946828 0
-0.30495954 2.7328742 0.53767538 0
-0.11289304 0.39608255 0.29640105 0
-0.11380304 0.40715435 0.33133438 0
-0.11208519 0.38625386 0.36101115 0
-0.095783539 -0.090513557 -0.091179691 0
-0.10706055 0.014238033 -0.089137696 0
-0.12321717 0.16431621 -0.089722238 0
-0.14504179 0.36704424 -0.090743281 0
-0.1740911 0.63688201 -0.09018413 0
-0.21761277 1.0411527 -0.089647137 0
-0.29038072 1.7170908 -0.089324526 0
-0.55590326 4.1835184 -0.14123946 0
-1.1117576 9.3468256 -0.14073752 0
-0.39866009 2.7228932 0.27500212 0
-0.39832339 2.7197657 0.3619808 0
-0.39783141 2.7151957 0.44896108 0
-0.39905488 2.7265604 0.53798002 0
-0.15048638 0.41761878 0.29991502 0
-0.14967769 0.41010693 0.33237502 0
-0.14660108 0.38152853 0.36073923 0
-0.11912475 -0.088025838 -0.092298038 0
-0.13422266 0.02527431 -0.091813408 0
-0.15264694 0.16353694 -0.090173475 0
-0.17930315 0.36357477 -0.090834938 0
-0.21575457 0.63711947 -0.090793975 0
-0.27232376 1.061635 -0.09215606 0
-0.35949832 1.7158246 -0.089814447 0
-0.68511164 4.1593456 -0.14084142 0
-1.3706719 9.304039 -0.14046966 0
-0.4922041 2.7116971 0.27500534 0
-0.49016583 2.6964011 0.36112607 0
-0.24266109 0.83903581 0.27324194 0
-0.24114117 0.82762975 0.31530324 0
-0.18702111 0.42149308 0.30107009 0
-0.18581176 0.4124178 0.33346266 0
-0.18306391 0.39179698 0.3634817 0
-0.14249378 -0.087146014 -0.093201362 0
-0.16097377 0.029058609 -0.093247317 0
-0.18078688 0.15364602 -0.08923357 0
-0.21384807 0.36153927 -0.091253839 0
-0.25866759 0.64337045 -0.092242129 0
-0.32031986 1.0310483 -0.089978628 0
-0.4285554 1.7116477 -0.090223558 0
-0.81496835 4.1414647 -0.14089179 0
-1.632821 9.2842321 -0.14089526 0
-0.5816192 2.6741335 0.27387536 0
-0.57985449 2.6630368 0.35972339 0
-0.27838746 0.76737171 0.26710093 0
-0.27923656 0.77271086 0.30959257 0
-0.277888 0.76423103 0.35060132 0
-0.21710275 0.38200524 0.3625834 0
-0.16375595 -0.098913044 -0.091502272 0
-0.18324755 0.0064404937 -0.089759655 0
-0.20922653 0.14685884 -0.088926487 0
-0.24767333 0.35466674 -0.091107719 0
-0.29571748 0.61434895 -0.08963313 0
-0.37067878 1.0195203 -0.089714922 0
-0.49612167 1.6975489 -0.090052821 0
-0.94477522 4.1225557 -0.14104857 0
-1.8905739 9.2346697 -0.14077537 0
-0.67174733 2.6468189 0.27333263 0
-0.66770852 2.6249886 0.3581416 0
-0.66747946 2.6237504 0.44414788 0
-0.66822809 2.6277971 0.53109866 0
-0.29031736 0.58516079 0.36421916 0
-0.25158885 0.37583044 0.36253819 0
-0.18629944 -0.1027337 -0.091636784 0
-0.2078374 -0.00077232381 -0.08932694 0
-0.23826639 0.14327934 -0.089276828 0
-0.28050569 0.34324113 -0.090429164 0
-0.33848187 0.61770207 -0.090988852 0
-0.41993377 1.0032973 -0.089122824 0
-0.56223828 1.6769707 -0.089539744 0
-0.61815119 1.941664 -0.038490299 0
-0.61699831 1.9362061 0.031450275 0
-0.61650527 1.933872 0.10105569 0
-0.75472271 2.5881972 0.27140364 0
-0.75132686 2.5721214 0.3556498 0
-0.75260347 2.5781648 0.4415161 0
-0.75197917 2.5752091 0.52696931 0
-0.28651935 0.37170997 0.36305553 0
-0.20431846 -0.1257861 -0.087694161 0
-0.23406607 -0.00066116115 -0.090429388 0
-0.26859015 0.14455464 -0.090572916 0
-0.31441644 0.33731011 -0.090659596 0
-0.37387356 0.58739978 -0.088438965 0
-0.4748373 1.0120754 -0.091044776 0
-0.52391803 1.2185197 -0.05767851 0
-0.61642027 1.6076045 -0.02329695 0
-0.61892068 1.6181219 0.038657129 0
-0.61802316 1.6143467 0.1010468 0
-0.83516681 2.5277007 0.26947325 0
-0.83189785 2.5139503 0.35291293 0
-0.83269495 2.5173032 0.43760768 0
-0.83243561 2.5162125 0.52229822 0
-0.83546501 2.5289547 0.60939777 0
-0.2293222 -0.11883578 -0.090421714 0
-0.25798076 -0.010514405 -0.089726396 0
-0.29449463 0.12749794 -0.088890798 0
-0.34766573 0.3284699 -0.09059269 0
-0.4131965 0.57615799 -0.088283964 0
-0.52017307 0.98049957 -0.089216702 0
-0.57858402 1.2012768 -0.057440136 0
-0.64802706 1.4637523 -0.017159505 0
-0.64437193 1.4499369 0.042305917 0
-0.64883405 1.4668024 0.10104293 0
-0.91417873 2.4697316 0.26774943 0
-0.9084475 2.4480691 0.34974644 0
-0.91075349 2.4567852 0.43390092 0
-0.90900677 2.4501829 0.51699007 0
-0.91042703 2.4555511 0.60195476 0
-0.25302619 -0.11870316 -0.091799043 0
-0.28416252 -0.011983003 -0.090781309 0
-0.32539377 0.12933758 -0.090542935 0
-0.34498113 0.19647339 -0.072618388 0
-0.4598192 0.59008211 -0.091312088 0
-0.57043719 0.96922642 -0.089460067 0
-0.71461391 1.4633937 -0.077644236 0
-0.71572453 1.4672005 -0.01815871 0
-0.71384394 1.4607546 0.041630745 0
-0.71225393 1.4553049 0.1010431 0
-0.98279297 2.3825803 0.2646924 0
-0.98052621 2.3748109 0.34615922 0
-0.98174191 2.3789778 0.42867571 0
-0.9822107 2.3805847 0.51144254 0
-0.98265398 2.3821039 0.5947265 0
-0.27540359 -0.12384698 -0.092143126 0
-0.30825785 -0.020967629 -0.090488844 0
-0.34982339 0.10919014 -0.08854907 0
-0.37973294 0.20284846 -0.074902304 0
-0.39570102 0.25285068 -0.051425863 0
-0.39420894 0.24817839 -0.020282386 0
-0.39842021 0.26136544 0.0091875214 0
-0.39632186 0.25479475 0.040170718 0
-0.39333445 0.24544004 0.070833988 0
-0.39793342 0.25984123 0.10100783 0
-0.39385143 0.24705878 0.13122046 0
-0.39362255 0.24634209 0.16143121 0
-0.40165719 0.27150169 0.19357309 0
-0.39950752 0.2647703 0.22392476 0
-0.39576942 0.25306478 0.25346842 0
-0.397953 0.25990239 0.28533643 0
-0.3954449 0.25204864 0.31521344 0
-0.39719963 0.25754336 0.3475748 0
-0.29087919 -0.14915183 -0.088080116 0
-0.33300513 -0.027886476 -0.090726443 0
-0.37728965 0.099592596 -0.088480033 0
-0.43251196 0.25855771 -0.084675841 0
-0.42908916 0.24870458 -0.052200127 0
-0.43203577 0.25718692 -0.022196716 0
-0.42920643 0.2490423 0.0093242843 0
-0.43110913 0.25451949 0.039670736 0
-0.43301666 0.26001051 0.070220806 0
-0.4329569 0.25983849 0.10100815 0
-0.43203136 0.25717428 0.13172556 0
-0.43082741 0.25370839 0.16230538 0
-0.43016207 0.25179318 0.19289549 0
-0.43147093 0.2555609 0.22405274 0
-0.43076071 0.25351647 0.25481242 0
-0.43025532 0.25206164 0.28572673 0
-0.43068498 0.25329843 0.31724057 0
-0.43565211 0.26759711 0.35166302 0
-0.31760541 -0.14182898 -0.091475956 0
-0.35770294 -0.035164263 -0.091019206 0
-0.40664643 0.095031768 -0.089415841 0
-0.47814679 0.28523198 -0.09038236 0
-0.48508155 0.30367938 -0.060468245 0
-0.51178682 0.37471893 -0.035045762 0
-0.51617056 0.38638023 -0.0017730126 0
-0.51413345 0.38096121 0.032820191 0
-0.51193953 0.37512508 0.067079604 0
-0.51022232 0.37055722 0.10101187 0
-1.2029908 2.2134116 0.18071789 0
-1.1949744 2.1920872 0.25939229 0
-1.1628602 2.1066589 0.3323842 0
-1.161958 2.104259 0.40964276 0
-1.1583406 2.0946362 0.48621607 0
-1.1637881 2.1091273 0.56634939 0
-0.33893001 -0.15002897 -0.091500692 0
-0.38011947 -0.048327293 -0.090245061 0
-0.43297115 0.082169682 -0.089020006 0
-0.51037347 0.27328506 -0.090465374 0
-0.51306665 0.27993479 -0.059072454 0
-0.51426202 0.28288642 -0.027144348 0
-0.50716197 0.2653555 0.0063381363 0
-0.51341176 0.28078702 0.037177023 0
-0.51150239 0.27607253 0.069228806 0
-0.50878894 0.26937261 0.10100917 0
-1.276356 2.1645858 0.25957766 0
-1.1997602 1.9754617 0.32477155 0
-1.1990353 1.9736717 0.39953977 0
-1.1984415 1.9722059 0.47458464 0
-1.1999357 1.9758952 0.55074728 0
-0.35672429 -0.16640171 -0.089755557 0
-0.40170991 -0.0629116 -0.089286081 0
-0.46836174 0.090421826 -0.092522107 0
-0.51157528 0.18983522 -0.079716362 0
-0.51136655 0.18935505 -0.04923353 0
-0.51245713 0.19186392 -0.019244647 0
-0.51415515 0.19577029 0.010634759 0
-0.5112893 0.18917742 0.041148033 0
-0.51139277 0.18941537 0.071087725 0
-0.51032996 0.18697038 0.10100701 0
-1.353598 2.1269207 0.25935239 0
-1.2236964 1.8280804 0.31591097 0
-1.2266546 1.8348858 0.38858533 0
-1.2268803 1.8354049 0.46112111 0
-1.2257118 1.8327167 0.53358763 0
-1.2256883 1.8326626 0.60686535 0
-0.37995088 -0.17014471 -0.091055207 0
-0.42912236 -0.064405531 -0.09114749 0
-0.49068275 0.067974955 -0.090662204 0
-0.51318002 0.11635342 -0.070390143 0
-0.50886965 0.1070843 -0.040344004 0
-0.51541603 0.12116173 -0.01333884 0
-0.51491004 0.12007371 0.015439713 0
-0.50934213 0.10810032 0.044627849 0
-0.51435256 0.11887482 0.072555386 0
-0.51296794 0.11589733 0.1010052 0
-1.4321736 2.0925725 0.25939459 0
-1.2485284 1.6976588 0.30830085 0
-1.2358009 1.6702893 0.37491447 0
-1.2420037 1.6836278 0.44565955 0
-1.2371336 1.6731553 0.51378566 0
-1.2416469 1.6828609 0.58547831 0
-0.39745876 -0.18614206 -0.089601748 0
-0.45058265 -0.079056293 -0.090410627 0
-0.5086748 0.038044248 -0.087508611 0
-0.51327497 0.047317181 -0.06165022 0
