# .PCD v0.7 - Point Cloud Data file format
VERSION 0.7
FIELDS x y z intensity
SIZE 4 4 4 4
TYPE F F F F
COUNT 1 1 1 1
WIDTH 1331
HEIGHT 1
VIEWPOINT 0 0 0 1 0 0 0
POINTS 1331
DATA ascii
0.44942251 -2.0576146 -0.089451633 0
0.52498156 -2.2376161 -0.089291744 0
0.63423395 -2.4978843 -0.090247594 0
0.79787886 -2.8877296 -0.09120921 0
1.0608165 -3.5141165 -0.090458952 0
1.6001123 -4.7988615 -0.091374479 0
4.0256653 -10.57717 -0.14079572 0
0.36887085 -1.8072532 -0.089673884 0
0.41931862 -1.919416 -0.091123782 0
0.48248789 -2.0598631 -0.091957159 0
0.55643946 -2.2242827 -0.089335717 0
0.67063349 -2.4781754 -0.089831002 0
0.84293461 -2.8612602 -0.090619855 0
1.1247588 -3.4878523 -0.090557121 0
1.6912655 -4.7473912 -0.090868644 0
4.269093 -10.47879 -0.14095429 0
0.39015695 -1.7993032 -0.090049498 0
0.44042867 -1.9039344 -0.09015622 0
0.50624681 -2.0409224 -0.090780951 0
0.59067708 -2.2166481 -0.090391777 0
0.70970887 -2.4643905 -0.090295888 0
0.88967264 -2.8389513 -0.090571247 0
1.1877345 -3.4593112 -0.090604298 0
1.7867652 -4.7060814 -0.090999506 0
4.5039062 -10.3613 -0.14077941 0
0.4121803 -1.7925661 -0.090847112 0
0.46393824 -1.8936729 -0.090392716 0
0.53233302 -2.0272791 -0.090677582 0
0.62145835 -2.2013819 -0.090392299 0
0.74552053 -2.443732 -0.089993007 0
0.93637413 -2.8165565 -0.090635918 0
1.2534505 -3.4359517 -0.091183133 0
1.8789929 -4.6579223 -0.090899177 0
4.735671 -10.238323 -0.14061272 0
0.43383497 -1.7847251 -0.091522254 0
0.48630974 -1.8811537 -0.090274699 0
0.55912691 -2.0149639 -0.090943597 0
0.65446919 -2.1901665 -0.091164403 0
0.78109729 -2.4228606 -0.089777075 0
0.98362345 -2.7950263 -0.090917803 0
1.3094451 -3.3937619 -0.090402372 0
1.9694232 -4.6065493 -0.090749674 0
4.9707823 -10.121902 -0.14077112 0
0.45190963 -1.7703338 -0.090732761 0
0.51061118 -1.8720076 -0.091010548 0
0.58550495 -2.0017271 -0.091166146 0
0.67266405 -2.1526909 -0.087820731 0
0.81929344 -2.4066598 -0.090308644 0
1.0323321 -2.7756526 -0.091563873 0
1.3681686 -3.3573375 -0.090188853 0
2.5933902 -5.4794793 -0.14040728 0
5.195478 -9.9864178 -0.14057828 0
0.47044444 -1.7570263 -0.090313889 0
0.52624238 -1.8482738 -0.088671617 0
0.61250347 -1.9893384 -0.091682769 0
0.71054125 -2.1496615 -0.090174414 0
0.85388553 -2.3840752 -0.09010502 0
1.0694844 -2.7366481 -0.090205722 0
1.4261441 -3.319901 -0.090009652 0
2.7073882 -5.4151454 -0.14054397 0
5.4298325 -9.8672132 -0.1409795 0
0.49233142 -1.7490587 -0.091357313 0
0.5569281 -1.848942 -0.091855593 0
0.64134705 -1.9794757 -0.092834659 0
0.73147452 -2.1188364 -0.088073559 0
0.88677895 -2.3589776 -0.089668818 0
1.1157247 -2.7129872 -0.090634219 0
1.4915532 -3.2941163 -0.090918429 0
2.8223684 -5.3519034 -0.14090173 0
5.6424947 -9.712554 -0.14056811 0
0.50987965 -1.7342747 -0.09080524 0
0.57226801 -1.8256047 -0.08979436 0
0.66424477 -1.9602487 -0.0922864 0
0.76751 -2.1114178 -0.090009056 0
0.91844797 -2.3323746 -0.089128561 0
1.1567495 -2.6812222 -0.090284921 0
1.5472596 -3.2528868 -0.090674005 0
2.9294949 -5.2763295 -0.14073266 0
5.8680964 -9.578125 -0.14086908 0
0.52454734 -1.7156937 -0.08936315 0
0.59191006 -1.8091522 -0.089382984 0
0.6835286 -1.9362632 -0.090880103 0
0.7917136 -2.0863583 -0.089080192 0
0.96531743 -2.327215 -0.091781802 0
1.1983073 -2.6504633 -0.090163074 0
1.6010115 -3.209172 -0.09033104 0
3.0392647 -5.2045937 -0.14093457 0
6.0803251 -9.4237385 -0.14076537 0
0.54845154 -1.7098105 -0.091380931 0
0.61692756 -1.7999297 -0.090790085 0
0.71181989 -1.9248146 -0.092133947 0
0.83096039 -2.0816119 -0.091825493 0
0.98914301 -2.2897911 -0.089922555 0
1.2424606 -2.6231747 -0.090567522 0
1.6547543 -3.1657817 -0.090127952 0
3.1413426 -5.1222353 -0.14067979 0
6.2941351 -9.2715292 -0.1408782 0
0.56360739 -1.6922081 -0.090411745 0
0.63437718 -1.7806231 -0.089943893 0
0.73297673 -1.9038067 -0.091549806 0
0.85568124 -2.0571053 -0.091246344 0
1.02336 -2.2665918 -0.090244003 0
1.2854413 -2.5940185 -0.090888895 0
1.7170312 -3.1332178 -0.091010459 0
3.2459564 -5.0433536 -0.14077929 0
6.4965897 -9.1044741 -0.14071035 0
0.58031148 -1.6767775 -0.090130694 0
0.66040313 -1.7718203 -0.091774084 0
0.75495279 -1.88402 -0.091329195 0
0.87667114 -2.02846 -0.090007611 0
1.0568928 -2.2423246 -0.090539761 0
1.3187134 -2.5530205 -0.089902781 0
1.7684677 -3.0867329 -0.090781488 0
3.3466437 -4.9595151 -0.14073826 0
6.7014637 -8.9405966 -0.1407893 0
0.59185332 -1.6556044 -0.088330321 0
0.66608059 -1.7393076 -0.08784049 0
0.7806257 -1.8684758 -0.092156075 0
0.90947723 -2.0137768 -0.091461845 0
1.0772836 -2.2030056 -0.088621803 0
1.3723949 -2.5357914 -0.091963299 0
1.8208323 -3.0414772 -0.090782203 0
3.4404871 -4.8679008 -0.14036891 0
6.9025717 -8.7719622 -0.14088118 0
0.61227018 -1.6445498 -0.089512326 0
0.69403869 -1.7321987 -0.090393476 0
0.79256964 -1.8378155 -0.089749046 0
0.92685103 -1.9817538 -0.089775465 0
1.1145872 -2.182991 -0.089825056 0
1.4010165 -2.4900188 -0.09060023 0
1.86511 -2.9874878 -0.090072863 0
3.5353627 -4.7778573 -0.14023989 0
7.086617 -8.5845003 -0.14053617 0
0.6368106 -1.6372765 -0.092001654 0
0.70809829 -1.7099262 -0.089192994 0
0.81336015 -1.8171991 -0.089663051 0
0.9520002 -1.9584879 -0.089856349 0
1.1454924 -2.1556768 -0.090015553 0
1.4417322 -2.4575763 -0.091039576 0
1.9136785 -2.9385393 -0.089947648 0
3.6414943 -4.6993656 -0.14101543 0
7.2832603 -8.4107084 -0.14077735 0
0.64980137 -1.6179694 -0.091067515 0
0.73965836 -1.7050358 -0.092760541 0
0.84346163 -1.8056153 -0.091830499 0
0.984231 -1.9420129 -0.091437437 0
1.1753595 -2.1272056 -0.090146132 0
1.482324 -2.4246371 -0.091560014 0
1.9630767 -2.8904593 -0.090028025 0
3.7289515 -4.6014929 -0.14069179 0
7.4635191 -8.2200794 -0.14062609 0
0.66773349 -1.6034958 -0.091725446 0
0.75204384 -1.6811606 -0.091367893 0
0.858868 -1.7795646 -0.09073063 0
1.0042622 -1.9134984 -0.090731628 0
1.2071977 -2.1004379 -0.090702496 0
1.51456 -2.3835731 -0.091114871 0
2.5521357 -3.3393643 -0.14151822 0
3.8230512 -4.5101027 -0.1409543 0
7.6396418 -8.0258589 -0.14050147 0
0.68666261 -1.5896683 -0.092755102 0
0.77088612 -1.6634128 -0.09177468 0
0.88031739 -1.7592288 -0.091120161 0
1.0299727 -1.8902642 -0.091238074 0
1.2257371 -2.0616717 -0.08928705 0
1.5339987 -2.3315799 -0.089221857 0
2.6070411 -3.271116 -0.14118584 0
3.9107985 -4.4126616 -0.14096238 0
7.8208137 -7.8361974 -0.14068888 0
0.69104457 -1.5634012 -0.089838557 0
0.77987152 -1.6373014 -0.089868911 0
0.90086496 -1.7379627 -0.091419749 0
1.0519733 -1.8636785 -0.091164179 0
1.2421596 -2.0219052 -0.087729506 0
1.5527593 -2.2803109 -0.087446861 0
2.6606686 -3.202044 -0.14090253 0
3.9895034 -4.3075771 -0.14057325 0
7.9938946 -7.6390591 -0.14077407 0
0.71463507 -1.5531752 -0.092364721 0
0.80099976 -1.6214142 -0.091075473 0
0.91769832 -1.7136209 -0.091049023 0
1.0701398 -1.834069 -0.090526439 0
1.2709999 -1.9927741 -0.088203438 0
1.5976501 -2.2508693 -0.088970892 0
2.7144053 -3.1332481 -0.14079146 0
4.0737624 -4.2073126 -0.14068036 0
8.1580458 -7.4344153 -0.14074191 0
0.72405213 -1.5315523 -0.091147028 0
0.8136434 -1.5987397 -0.090357237 0
0.93011302 -1.6860842 -0.089904971 0
1.0829583 -1.8007078 -0.089093812 0
1.3105397 -1.9713786 -0.090339981 0
1.6261983 -2.2081013 -0.088647209 0
2.7738216 -3.068742 -0.14133203 0
4.1497536 -4.1005988 -0.14045307 0
8.321331 -7.2290015 -0.14083681 0
0.72873592 -1.5068998 -0.088860027 0
0.83333063 -1.5812908 -0.091413282 0
0.95019114 -1.6644058 -0.09046831 0
1.1093336 -1.777593 -0.090171121 0
1.3269538 -1.9323715 -0.089200102 0
1.665017 -2.1728127 -0.089630462 0
2.8165593 -2.9918268 -0.14057313 0
4.2293572 -3.996654 -0.1405915 0
8.4705505 -7.0131259 -0.14067802 0
0.74800473 -1.4927132 -0.090510942 0
0.84292793 -1.5566816 -0.090260737 0
0.96840948 -1.6412431 -0.090762965 0
1.1379803 -1.7555163 -0.091714971 0
1.3471789 -1.8964944 -0.088756509 0
1.6914936 -2.1285267 -0.089309119 0
2.8712606 -2.9235671 -0.1410007 0
4.2983627 -3.8852856 -0.14028122 0
8.6257439 -6.8014898 -0.1408435 0
0.77486777 -1.4828885 -0.094141178 0
0.85660189 -1.5350193 -0.090177231 0
0.98177099 -1.6148533 -0.09022107 0
1.1612498 -1.7293264 -0.092431538 0
1.3713562 -1.8633342 -0.088994406 0
1.7268752 -2.0900872 -0.090103544 0
2.9094839 -2.8443656 -0.14019914 0
4.3817229 -3.7833729 -0.14092502 0
8.7650909 -6.5791235 -0.14071789 0
0.77626532 -1.4566883 -0.091458134 0
0.86914182 -1.5126803 -0.089966781 0
0.99862415 -1.5907407 -0.090486266 0
1.1666268 -1.6920236 -0.090310507 0
1.4141361 -1.8412384 -0.091882519 0
1.7662858 -2.0535371 -0.091431685 0
2.9615419 -2.7741153 -0.14070351 0
4.4392815 -3.6649933 -0.14029749 0
8.8966379 -6.3521771 -0.140536 0
0.79066944 -1.4386044 -0.092157088 0
0.87929672 -1.4890305 -0.089365579 0
1.0166981 -1.5672076 -0.091094457 0
1.2005609 -1.6718198 -0.092990436 0
1.4191594 -1.7961955 -0.08972808 0
1.7877946 -2.0059373 -0.090918235 0
3.0022902 -2.6969478 -0.14043471 0
4.5167947 -3.5586536 -0.14090893 0
9.0423203 -6.1335363 -0.14088921 0
0.80098486 -1.4181238 -0.09197145 0
0.89979196 -1.4710877 -0.091110684 0
1.0285118 -1.5400857 -0.090638645 0
1.2049351 -1.6346543 -0.091002919 0
1.4507943 -1.7664428 -0.09128321 0
1.8094426 -1.9586898 -0.090554543 0
3.0544999 -2.6260808 -0.14123419 0
4.5805569 -3.4440968 -0.14092858 0
9.1630898 -5.9004822 -0.14072706 0
0.80292553 -1.3934559 -0.089918561 0
0.91459876 -1.4497364 -0.09173011 0
1.0387101 -1.5122854 -0.090018131 0
1.2253647 -1.6063546 -0.091715775 0
1.4506344 -1.7198849 -0.088756405 0
1.8270253 -1.9095765 -0.089896001 0
3.0851924 -2.5436614 -0.14048006 0
4.6316638 -3.3230445 -0.14043999 0
9.2796202 -5.6654983 -0.14061077 0
0.8135373 -1.3734096 -0.090075992 0
0.91679245 -1.4222207 -0.089827381 0
1.0541111 -1.4871345 -0.090479098 0
1.2392055 -1.5746329 -0.091507711 0
1.492552 -1.6943957 -0.091851957 0
1.8575803 -1.8669529 -0.090713345 0
3.1257844 -2.4664624 -0.14066222 0
4.6901498 -3.2059741 -0.14049548 0
9.3962698 -5.430665 -0.14065237 0
0.82652891 -1.3543593 -0.090903096 0
0.931059 -1.4005834 -0.090575986 0
1.0553793 -1.4555588 -0.088509969 0
1.2471774 -1.5403734 -0.090523876 0
1.514495 -1.6585834 -0.09244328 0
1.8734078 -1.8172976 -0.090128995 0
3.1626225 -2.3873987 -0.1407052 0
4.749599 -3.0891726 -0.14075065 0
9.5056829 -5.1923509 -0.14066112 0
0.83815277 -1.3345169 -0.09151829 0
0.94495791 -1.3785598 -0.091353796 0
1.0702661 -1.4302326 -0.089124747 0
1.2509409 -1.5047369 -0.089042641 0
1.5115312 -1.6121957 -0.089994676 0
1.9029478 -1.7736028 -0.091062389 0
3.1959741 -2.3068039 -0.14063582 0
4.7970405 -2.9670303 -0.14054777 0
9.6137552 -4.9532828 -0.14078815 0
0.84230518 -1.3116399 -0.090541445 0
0.95413446 -1.3544862 -0.091284297 0
1.0815619 -1.4033087 -0.08921466 0
1.264101 -1.4732468 -0.089125849 0
1.5213499 -1.5718092 -0.089316703 0
1.9155469 -1.7228419 -0.090404235 0
3.2300842 -2.2264936 -0.14077695 0
4.842721 -2.8443594 -0.14041351 0
9.7228298 -4.7141247 -0.14108992 0
0.84843409 -1.2896942 -0.090149857 0
0.96826625 -1.3321714 -0.092327632 0
1.1021285 -1.3796221 -0.091039397 0
1.2779988 -1.4419634 -0.089437358 0
1.5443621 -1.5363821 -0.090407737 0
1.938659 -1.6761497 -0.09092053 0
3.2650588 -2.146323 -0.141132 0
4.8892779 -2.7220652 -0.14047737 0
9.8022461 -4.4635806 -0.14080696 0
0.85713643 -1.2686708 -0.090461247 0
0.96287727 -1.3031756 -0.089606933 0
1.1056967 -1.3497796 -0.090014271 0
1.289046 -1.4096093 -0.089442156 0
1.5662484 -1.5000645 -0.091461815 0
1.9532601 -1.6263522 -0.090713151 0
3.2940593 -2.063875 -0.14119425 0
4.9257307 -2.5963135 -0.14019772 0
9.8838711 -4.2142282 -0.14073569 0
0.86273098 -1.2466271 -0.090199061 0
0.97204334 -1.2792696 -0.089912154 0
1.1066952 -1.3194789 -0.088685788 0
1.2994742 -1.3770459 -0.089476369 0
1.5577905 -1.4541833 -0.088919066 0
1.9515929 -1.5717793 -0.089045502 0
3.3161559 -1.9792602 -0.14090475 0
4.9718208 -2.4736691 -0.14054324 0
9.9575157 -3.9624798 -0.14062463 0
0.87065995 -1.2252663 -0.090575792 0
0.98391414 -1.2559959 -0.090861328 0
1.1289402 -1.2953461 -0.091115199 0
1.3064774 -1.3435178 -0.08913172 0
1.5698726 -1.4149854 -0.089021765 0
1.9524195 -1.5187829 -0.087764122 0
3.3320737 -1.8931279 -0.14032494 0
5.0187373 -2.3507745 -0.1410761 0
10.023941 -3.7088487 -0.140494 0
0.8713783 -1.2020363 -0.089490749 0
1.0002532 -1.2335358 -0.092785306 0
1.1236202 -1.263689 -0.088969372 0
1.3240564 -1.3126796 -0.090442039 0
1.5865338 -1.3768343 -0.089794181 0
1.9738955 -1.471513 -0.088603698 0
3.355422 -1.8091854 -0.14044037 0
5.0439978 -2.2219064 -0.14071697 0
10.096903 -3.4569356 -0.14067437 0
0.8819024 -1.181191 -0.090672784 0
0.99558473 -1.2059551 -0.090758763 0
1.1458555 -1.2386897 -0.09160509 0
1.3275018 -1.2782589 -0.08982458 0
1.6066177 -1.3390605 -0.091087274 0
1.9829144 -1.421032 -0.088362984 0
3.3760729 -1.7245132 -0.14051422 0
5.0836945 -2.0964959 -0.14120306 0
10.15804 -3.2018754 -0.14072412 0
0.89709938 -1.1609404 -0.092974611 0
0.99401855 -1.1795048 -0.089470766 0
1.149012 -1.2091929 -0.091141276 0
1.3251482 -1.2429309 -0.088505007 0
1.6171948 -1.2988708 -0.091356613 0
2.5573378 -1.4789503 -0.14197928 0
3.3906603 -1.6385688 -0.14030862 0
5.0944262 -1.9649161 -0.14046426 0
10.209752 -2.9447296 -0.14070328 0
0.88800687 -1.1361012 -0.090143971 0
1.0089523 -1.1561183 -0.091465928 0
1.14645 -1.178875 -0.089851089 0
1.3343648 -1.2099758 -0.088966317 0
1.6157725 -1.2565504 -0.090323754 0
2.563766 -1.4134487 -0.14149559 0
3.4121697 -1.5538642 -0.14074843 0
5.1102033 -1.8348982 -0.1401237 0
10.265415 -2.6881146 -0.14092897 0
0.89300245 -1.1138936 -0.090481751 0
1.0127624 -1.130622 -0.091451071 0
1.1546241 -1.1504377 -0.0904743 0
1.3555077 -1.1784978 -0.091236614 0
1.6178868 -1.2151476 -0.08983817 0
2.57039 -1.3481963 -0.14118816 0
3.4237092 -1.4673905 -0.14063412 0
5.1409664 -1.7072623 -0.14064331 0
10.298846 -2.4277308 -0.14078423 0
0.90629011 -1.0925364 -0.092712678 0
1.0091484 -1.1042665 -0.090151004 0
1.1544973 -1.1208425 -0.089841507 0
1.3474993 -1.1428528 -0.089489602 0
1.6316786 -1.1752611 -0.090850748 0
2.562886 -1.2814579 -0.13970931 0
3.4366996 -1.3811094 -0.14077605 0
5.1590023 -1.5775243 -0.14071627 0
10.331842 -2.1674454 -0.14078379 0
0.90638477 -1.0694648 -0.092238508 0
1.0236194 -1.0798457 -0.092399485 0
1.1239415 -1.088729 -0.084312938 0
1.1210403 -1.0884721 -0.0570536 0
1.6468354 -1.1350303 -0.092139475 0
2.5788183 -1.2175556 -0.14058793 0
3.4465122 -1.2943883 -0.14084767 0
5.1797791 -1.4478658 -0.14107041 0
10.3578 -1.9063699 -0.1407726 0
0.89810723 -1.0459625 -0.090106063 0
1.0180721 -1.0535403 -0.090982802 0
1.1377004 -1.061097 -0.086224444 0
1.1295741 -1.0605837 -0.057953108 0
1.6351209 -1.0925181 -0.090398364 0
2.5853708 -1.1525434 -0.14073886 0
3.4480309 -1.2070359 -0.14049168 0
5.1886301 -1.316986 -0.14102048 0
10.381982 -1.6450393 -0.14087372 0
0.89555275 -1.0231688 -0.089319296 0
1.0124276 -1.0275947 -0.089674376 0
1.1228275 -1.0317754 -0.083539851 0
1.1421605 -1.0325074 -0.059520785 0
1.6402479 -1.0513693 -0.090754263 0
2.5777063 -1.0868695 -0.13971506 0
3.4613965 -1.1203336 -0.14111912 0
5.2005992 -1.1861947 -0.14126985 0
10.390058 -1.382712 -0.14075355 0
0.89514047 -1.0005745 -0.089110486 0
1.0215592 -1.0021696 -0.091273077 0
1.138557 -1.0036458 -0.086007737 0
1.1365738 -1.0036207 -0.058633406 0
1.1292375 -1.0035282 -0.030903956 0
1.1314119 -1.0035557 -0.0045534354 0
1.1272279 -1.0035028 0.022228377 0
1.1422385 -1.0036923 0.047835007 0
1.129024 -1.0035255 0.074740648 0
1.1383945 -1.0036438 0.10100287 0
1.1336241 -1.0035836 0.12737182 0
1.1294311 -1.0035306 0.15357408 0
1.1326317 -1.003571 0.18015516 0
1.1387758 -1.0036485 0.20724717 0
1.1278069 -1.0035101 0.23274276 0
1.1352793 -1.0036044 0.26045832 0
1.1176691 -1.0033822 0.2845808 0
1.1319292 -1.0035622 0.31407067 0
0.89695567 -0.97798729 -0.089496367 0
1.0187006 -0.97645122 -0.090734608 0
1.1356279 -0.97497588 -0.08552631 0
1.1351936 -0.97498137 -0.058439422 0
1.6386031 -0.9686296 -0.090439923 0
2.5857513 -0.95667893 -0.14031278 0
3.4538045 -0.94572628 -0.14043421 0
5.1997089 -0.92369735 -0.14107417 0
10.400496 -0.85807639 -0.14084236 0
0.89881349 -0.95529246 -0.090012901 0
1.0206151 -0.95068002 -0.0912176 0
1.1298146 -0.94654477 -0.084689014 0
1.1289107 -0.94657904 -0.05765738 0
1.6344901 -0.92743343 -0.090080835 0
2.5866861 -0.89137512 -0.14055382 0
3.4584877 -0.85836124 -0.14091563 0
5.1941195 -0.79263538 -0.14096797 0
10.389731 -0.59588498 -0.14074597 0
0.90037078 -0.93247932 -0.09058816 0
1.0121263 -0.92541993 -0.089860685 0
1.1308432 -0.91792083 -0.085095204 0
1.1279495 -0.91810364 -0.05772436 0
1.6452831 -0.88542473 -0.091588445 0
2.5849013 -0.82607096 -0.14069496 0
3.454504 -0.77113992 -0.14094509 0
5.1850281 -0.66182625 -0.14085245 0
10.375179 -0.33397505 -0.14071524 0
0.90001434 -0.909684 -0.09087909 0
1.0124002 -0.89973247 -0.090278052 0
1.1555535 -0.88705653 -0.089528717 0
1.34958 -0.86987585 -0.089297034 0
1.6327689 -0.8448 -0.090489037 0
2.5842178 -0.76055092 -0.14109388 0
3.445508 -0.68428528 -0.14077719 0
5.164835 -0.53204209 -0.14037199 0
10.356252 -0.072351843 -0.14073646 0
0.88873017 -0.88805085 -0.088955916 0
1.0122098 -0.87396902 -0.09073136 0
1.1601293 -0.85709995 -0.090773128 0
1.3557425 -0.83479184 -0.090655573 0
1.635493 -0.80288851 -0.091299437 0
2.5727613 -0.69600052 -0.14063706 0
3.4405985 -0.59703064 -0.14105038 0
5.1571484 -0.40127185 -0.14062941 0
10.323109 0.18786469 -0.14057942 0
0.90423411 -0.86312222 -0.092892356 0
1.011222 -0.84817785 -0.091158099 0
1.1485041 -0.82900184 -0.089458711 0
1.3437047 -0.80173564 -0.089561783 0
1.6314191 -0.76154679 -0.091435082 0
2.5577531 -0.63215357 -0.13999718 0
3.4185483 -0.51191509 -0.14026983 0
5.1467795 -0.27051041 -0.14091657 0
10.290676 0.44800463 -0.1405924 0
0.88246995 -0.84339988 -0.088951014 0
1.0041871 -0.82325506 -0.090556182 0
1.1479357 -0.79946381 -0.090098597 0
1.3404099 -0.76760828 -0.089827426 0
1.6337624 -0.71905684 -0.092454888 0
2.5491741 -0.56755108 -0.14011504 0
3.413615 -0.42448124 -0.14085084 0
5.1175919 -0.14246359 -0.14047237 0
10.265941 0.70961684 -0.14094134 0
0.89127183 -0.81876057 -0.091713376 0
0.99786478 -0.79834324 -0.090208389 0
1.1418536 -0.77076298 -0.089943402 0
1.3323903 -0.73426664 -0.089541264 0
1.3464133 -0.73158062 -0.059134144 0
1.3546103 -0.73001051 -0.027675411 0
1.3379438 -0.73320287 0.0058044512 0
1.3380024 -0.73319167 0.037593942 0
1.3356535 -0.73364162 0.069374368 0
1.3428401 -0.73226506 0.1010094 0
0.88233221 -0.7973001 -0.090766288 0
0.98833716 -0.77420831 -0.08936166 0
1.1447746 -0.74013054 -0.091423251 0
1.2020537 -0.72765303 -0.071781345 0
1.2128665 -0.72529757 -0.043989066 0
1.2103186 -0.72585261 -0.014557427 0
1.2035472 -0.72732764 0.01492762 0
1.2101282 -0.72589409 0.043358531 0
1.202739 -0.72750372 0.072373562 0
1.2012856 -0.72782034 0.10100546 0
0.86741823 -0.77751642 -0.088624217 0
0.98643064 -0.74842745 -0.090105183 0
1.1283387 -0.71374232 -0.089767702 0
1.2092663 -0.69396204 -0.073835157 0
1.196268 -0.69713908 -0.042839844 0
1.1999415 -0.6962412 -0.014235994 0
1.2154014 -0.6924625 0.013571279 0
1.2058234 -0.69480354 0.043227892 0
1.2041144 -0.69522125 0.072173387 0
1.2082673 -0.69420618 0.10100587 0
0.86699361 -0.75431317 -0.089768283 0
0.97697866 -0.72447062 -0.089507796 0
1.1230276 -0.68484282 -0.090108328 0
1.2120124 -0.66069835 -0.075376101 0
1.197606 -0.66460729 -0.043940607 0
1.2052509 -0.66253299 -0.015501505 0
1.2056929 -0.662413 0.013704019 0
1.2124995 -0.66056615 0.042528931 0
1.1985257 -0.66435772 0.072120056 0
1.2010126 -0.66368294 0.1010059 0
0.86338341 -0.73176277 -0.090343796 0
0.97988433 -0.69697362 -0.091453455 0
1.1143953 -0.65680647 -0.090006523 0
1.2012396 -0.63087332 -0.0750686 0
1.2058623 -0.62949294 -0.045993332 0
1.2126877 -0.62745476 -0.017066425 0
1.2067198 -0.62923688 0.012999387 0
1.2145382 -0.62690216 0.042008162 0
1.2002219 -0.63117725 0.071870707 0
1.205621 -0.629565 0.10100629 0
0.85615224 -0.71023506 -0.090241186 0
0.97035444 -0.67296916 -0.091088347 0
1.0988765 -0.63103056 -0.088835187 0
1.2059717 -0.59608376 -0.077161483 0
1.2088895 -0.5951317 -0.047528688 0
1.2073752 -0.59562582 -0.01747906 0
1.2100551 -0.5947513 0.012057828 0
1.2073174 -0.59564465 0.041895092 0
1.2086025 -0.59522533 0.071435422 0
1.2119989 -0.59411699 0.10100676 0
0.85268003 -0.68738538 -0.091107391 0
0.95073742 -0.65262669 -0.088824771 0
1.0987754 -0.60015118 -0.090454705 0
1.2008092 -0.56398296 -0.077928178 0
1.2052283 -0.56241649 -0.048355583 0
1.2076006 -0.56157559 -0.01852305 0
1.2140437 -0.55929166 0.010995084 0
1.211522 -0.56018555 0.041177869 0
1.2013062 -0.56380677 0.071360655 0
1.2016999 -0.56366724 0.10100677 0
0.84280533 -0.66675311 -0.09065529 0
0.95164448 -0.62505251 -0.090782054 0
1.0956546 -0.56987649 -0.091695003 0
1.2067808 -0.52729958 -0.080499344 0
1.2151995 -0.52407402 -0.050999541 0
1.2045966 -0.52813637 -0.019339895 0
1.2023411 -0.52900058 0.011030057 0
1.2202549 -0.52213711 0.040183514 0
1.2013583 -0.5293771 0.071082547 0
1.199062 -0.53025693 0.10100702 0
0.83125085 -0.64691395 -0.089931361 0
0.94676286 -0.5992806 -0.091721527 0
1.0850391 -0.54226011 -0.091751061 0
1.2158628 -0.48831287 -0.083710246 0
1.2100819 -0.49069667 -0.051885355 0
1.2117369 -0.49001417 -0.021274274 0
1.2097706 -0.49082503 0.0095610935 0
1.2107327 -0.4904283 0.040049929 0
1.207199 -0.49188548 0.070634209 0
1.2099288 -0.49075982 0.10100773 0
0.82558459 -0.62464297 -0.090683617 0
0.93482304 -0.57633686 -0.091351159 0
1.0811311 -0.51163822 -0.093137689 0
1.2063184 -0.45627943 -0.084245391 0
1.2009332 -0.45866081 -0.05237304 0
1.2120852 -0.4537293 -0.022634825 0
1.2046525 -0.45701614 0.0089615379 0
1.2015263 -0.45839855 0.039858248 0
1.197625 -0.46012375 0.070548788 0
1.2061396 -0.45635858 0.10100801 0
0.82453984 -0.59997386 -0.092662863 0
0.92418814 -0.55286783 -0.091368161 0
1.057824 -0.48969507 -0.091154061 0
1.2306989 -0.40797308 -0.090185411 0
1.474718 -0.29261968 -0.089546464 0
1.8587675 -0.1110706 -0.090835921 0
3.1329539 0.49126688 -0.14121661 0
4.696641 1.2304578 -0.14082971 0
9.4028387 3.4551861 -0.14082131 0
0.8078112 -0.58266664 -0.091081508 0
0.92038298 -0.52593327 -0.092950098 0
1.0507436 -0.46023479 -0.092232816 0
1.210093 -0.37992665 -0.089312427 0
1.4537737 -0.25711766 -0.089167275 0
1.8392065 -0.062869161 -0.091169231 0
3.0818183 0.56337637 -0.14021592 0
4.6398206 1.3485706 -0.14086522 0
9.2848692 3.6895587 -0.14074741 0
0.78897005 -0.56690115 -0.089073785 0
0.8982358 -0.50833112 -0.09077812 0
1.0273691 -0.43911156 -0.090425573 0
1.2086549 -0.3419365 -0.09159606 0
1.4421811 -0.21675894 -0.090141036 0
1.8192461 -0.01463994 -0.091592781 0
3.0500903 0.64513248 -0.14088443 0
4.5762053 1.4631796 -0.14069875 0
9.1583347 3.9193485 -0.14060162 0
0.78204912 -0.54488504 -0.090048917 0
0.89324027 -0.48162076 -0.092387192 0
1.0077609 -0.41646215 -0.089404501 0
1.1791857 -0.31892666 -0.089534305 0
1.2103586 -0.30119029 -0.061651353 0
1.2167019 -0.29758117 -0.029587945 0
3.0110891 0.72336942 -0.14114243 0
4.5180516 1.5807841 -0.14097625 0
9.0348864 4.1507225 -0.14069036 0
0.76688999 -0.52754843 -0.089131154 0
0.86971599 -0.4655582 -0.090093054 0
1.0083257 -0.38199529 -0.092348062 0
1.1646533 -0.28775081 -0.089986645 0
1.1488994 -0.29724827 -0.055685926 0
1.1936628 -0.27026203 -0.029021254 0
2.963762 0.79686934 -0.14088476 0
4.4456511 1.6902485 -0.14064373 0
8.9009514 4.376194 -0.14065312 0
0.76465082 -0.50221258 -0.091565318 0
0.86886752 -0.43574229 -0.092917375 0
0.98581916 -0.36114952 -0.091010205 0
1.1414572 -0.26188222 -0.089132376 0
1.1440197 -0.26024786 -0.057480607 0
1.1748052 -0.2406126 -0.028984046 0
2.9125001 0.86770481 -0.14044924 0
4.3766727 1.8015673 -0.14064617 0
8.7784452 4.6090565 -0.14108618 0
0.75089747 -0.48392203 -0.091252424 0
0.84531075 -0.42029729 -0.090801947 0
0.96691483 -0.33834878 -0.090466745 0
1.1321214 -0.22701678 -0.090722077 0
1.1381173 -0.22297618 -0.059292469 0
1.1633912 -0.20594415 -0.02986758 0
2.8719101 0.94541997 -0.14105543 0
4.3137174 1.9170485 -0.14114322 0
8.6258354 4.8229675 -0.14084607 0
0.7350384 -0.4672024 -0.090503983 0
0.82641131 -0.40221503 -0.089814015 0
0.94503796 -0.317844 -0.089429013 0
1.1202385 -0.19323573 -0.092051737 0
1.14807 -0.1734412 -0.063544773 0
1.1431782 -0.17692032 -0.02985861 0
2.82143 1.0167062 -0.14099099 0
4.2272129 2.0165441 -0.14046898 0
8.4746923 5.0374875 -0.1407962 0
0.72356337 -0.44739899 -0.091017149 0
0.81289124 -0.38040903 -0.090180166 0
0.93172306 -0.29129317 -0.090235732 0
1.0899423 -0.17263934 -0.090320639 0
1.0959088 -0.16816494 -0.058985207 0
1.0905392 -0.17219171 -0.026150962 0
1.0981388 -0.16649249 0.0050958041 0
1.099575 -0.16541544 0.037041228 0
1.1003996 -0.1647971 0.069018766 0
1.0942949 -0.16937521 0.10100941 0
1.0948092 -0.16898951 0.13283767 0
1.0960996 -0.16802177 0.16477565 0
1.1043584 -0.16182819 0.19746763 0
0.70613188 -0.43212816 -0.090061136 0
0.80000192 -0.35795888 -0.090835951 0
0.91540104 -0.26677892 -0.090567835 0
1.0588859 -0.15340766 -0.088510789 0
1.093345 -0.12618056 -0.061741237 0
1.0984535 -0.12214419 -0.029586231 0
1.0968392 -0.12341973 0.0033307916 0
1.1051095 -0.11688522 0.03545874 0
1.091217 -0.12786201 0.068664059 0
1.1050423 -0.11693826 0.10101057 0
1.1064417 -0.1158326 0.13380836 0
1.0932926 -0.12622198 0.16586058 0
1.0925831 -0.12678269 0.19831061 0
0.69156092 -0.41475388 -0.089981325 0
0.77718794 -0.3435159 -0.089211397 0
0.89943814 -0.24180898 -0.091114707 0
1.0255182 -0.13691583 -0.086327888 0
1.0894648 -0.083714992 -0.064515017 0
1.1000217 -0.074932069 -0.032475609 0
1.1002809 -0.074716479 0.00099932612 0
1.0973674 -0.077140361 0.03457329 0
1.0981643 -0.076477379 0.067786083 0
1.1085137 -0.06786713 0.10101153 0
1.1005485 -0.074493796 0.13430853 0
1.1064752 -0.069563001 0.16800135 0
1.0928495 -0.08089909 0.20034716 0
0.67757499 -0.39687333 -0.090187602 0
0.76802224 -0.31767944 -0.09105771 0
0.87918413 -0.22034821 -0.090872608 0
0.9939701 -0.11984369 -0.084513091 0
1.1065739 -0.021249976 -0.070775978 0
1.1018256 -0.02540746 -0.035604987 0
1.102622 -0.024710204 -0.0013949105 0
1.097012 -0.029622164 0.033149589 0
1.098134 -0.02863976 0.067064479 0
1.0998186 -0.027164783 0.1010121 0
1.0975097 -0.029186334 0.13494028 0
1.1021689 -0.025106933 0.16919406 0
1.0973313 -0.029342677 0.20292771 0
1.0996342 -0.027326312 0.237358 0
1.0844076 -0.040658381 0.37228972 0
0.66906881 -0.37385878 -0.092111357 0
0.75118029 -0.29821959 -0.091146745 0
0.85799408 -0.19982514 -0.09053535 0
0.9666332 -0.099749297 -0.083541729 0
1.0627087 -0.011246767 -0.067742728 0
1.0991482 0.022320423 -0.038396019 0
1.0974627 0.020767722 -0.0032511258 0
1.102567 0.025469813 0.031243259 0
1.0995705 0.022709522 0.066241816 0
1.0976053 0.02089921 0.10101296 0
1.1024942 0.025402818 0.13587695 0
1.0974901 0.020792995 0.17046149 0
1.1045512 0.02729753 0.20595178 0
1.0990993 0.022275362 0.24041662 0
1.0391484 -0.032949951 0.36691552 0
0.65024203 -0.36018834 -0.09119793 0
0.73517448 -0.27789351 -0.091584586 0
0.83449215 -0.18166032 -0.08977785 0
0.8394075 -0.17689762 -0.063097768 0
0.83254272 -0.1835492 -0.034356985 0
0.84274638 -0.17366239 -0.0084343832 0
0.84665895 -0.16987136 0.018648269 0
0.84528607 -0.17120162 0.046238773 0
0.84097606 -0.17537776 0.073775724 0
0.84106743 -0.17528918 0.10100379 0
0.84181589 -0.17456403 0.12825915 0
0.83992743 -0.17639384 0.1554215 0
0.83237749 -0.18370929 0.18196873 0
1.1051098 0.080552965 0.24456298 0
1.0065758 -0.014920916 0.29783228 0
1.0056462 -0.015821721 0.3309688 0
0.99316835 -0.027911987 0.3612698 0
0.63807982 -0.34001467 -0.092386849 0
0.71129441 -0.26540133 -0.090052508 0
0.81658739 -0.1580967 -0.090420328 0
0.84151375 -0.1326941 -0.067686848 0
0.8422761 -0.13191721 -0.039417792 0
0.83856994 -0.13569418 -0.010656087 0
0.83533043 -0.13899556 0.017688492 0
0.8379612 -0.13631454 0.04533577 0
0.84181422 -0.13238791 0.073057301 0
0.83751869 -0.13676551 0.1010045 0
0.83643866 -0.13786617 0.1287732 0
0.83805466 -0.13621929 0.15667963 0
0.83429533 -0.14005044 0.18421724 0
0.84036976 -0.13385996 0.21290576 0
1.0919797 0.12255707 0.28311682 0
0.93925726 -0.033083167 0.28931823 0
0.94689471 -0.025299814 0.32301807 0
0.95481461 -0.01722857 0.35756251 0
0.61522233 -0.33087048 -0.090432219 0
0.69309288 -0.24739984 -0.090132318 0
0.79524374 -0.13790277 -0.090393327 0
0.84039217 -0.08950749 -0.071963511 0
0.84585613 -0.083650559 -0.043783326 0
0.84806806 -0.081279546 -0.01493918 0
0.84230155 -0.087460846 0.014748188 0
0.8366552 -0.093513221 0.043937948 0
0.84453511 -0.085066646 0.072218522 0
0.84033823 -0.089565307 0.10100552 0
0.84346271 -0.086216122 0.12975627 0
0.8400346 -0.089890748 0.15830387 0
0.83865052 -0.091374367 0.1868889 0
0.84118992 -0.088652402 0.21600977 0
1.1064471 0.19568077 0.290465 0
0.92664164 0.002944622 0.2917521 0
0.93330222 0.010084186 0.32567674 0
0.92572218 0.0019590592 0.35638514 0
0.59510463 -0.31931403 -0.089371942 0
0.6713233 -0.23336509 -0.089328788 0
0.77255273 -0.11921254 -0.090156324 0
0.85383606 -0.027552392 -0.079676352 0
0.83660245 -0.04698607 -0.046225745 0
0.84372646 -0.038952615 -0.017589366 0
0.84233308 -0.040523913 0.012319112 0
0.84027833 -0.042840924 0.042079192 0
0.84885424 -0.03317019 0.071258269 0
0.83915788 -0.044104423 0.10100646 0
0.84004807 -0.043100562 0.13044618 0
0.83744085 -0.046040621 0.15973465 0
0.83908761 -0.044183698 0.1893522 0
0.84043628 -0.042662825 0.21914016 0
1.1004966 0.25059739 0.2947475 0
1.1008039 0.25094369 0.33402449 0
0.58618283 -0.29483989 -0.092067413 0
0.6598776 -0.20738813 -0.091620468 0
0.73377031 -0.11970147 -0.085926674 0
0.85035533 0.018647108 -0.084268473 0
0.8418476 0.0085512139 -0.051537383 0
0.84308821 0.010023389 -0.021008966 0
0.83843666 0.0045035216 0.010115745 0
0.83571017 0.0012680624 0.040664706 0
0.83631939 0.0019910072 0.07083039 0
0.83777249 0.0037153696 0.10100747 0
0.84348959 0.010499749 0.1314438 0
0.84255606 0.0093918778 0.1618454 0
0.83875132 0.0048768851 0.19193378 0
0.83414149 -0.00059345027 0.22172831 0
0.84665996 0.014261875 0.25442693 0
1.1009938 0.31607345 0.34096962 0
0.55771583 -0.29373708 -0.088407703 0
0.63637048 -0.19547132 -0.090544693 0
0.7304107 -0.077983826 -0.090874933 0
0.85160106 0.073423177 -0.090328746 0
0.85458809 0.077155024 -0.058678988 0
0.83373678 0.051104818 -0.023418343 0
0.83528572 0.053039942 0.0076332632 0
0.83919567 0.057924781 0.03852329 0
0.83874631 0.057363305 0.069799617 0
0.83347607 0.050779138 0.10100843 0
0.84298307 0.062656552 0.13237579 0
0.83513868 0.05285624 0.16319165 0
0.83733916 0.055605326 0.19461405 0
0.84620535 0.06668213 0.22729945 0
0.8433038 0.063057214 0.25858733 0
1.0993966 0.38300219 0.34809908 0
1.1028566 0.38732484 0.39087418 0
0.54705983 -0.27060577 -0.090891965 0
0.61852789 -0.17654881 -0.091288321 0
0.70451117 -0.063388854 -0.090148501 0
0.73305994 -0.025816645 -0.069084384 0
0.72987723 -0.030005362 -0.039837975 0
0.73425281 -0.024246778 -0.01216065 0
0.7299251 -0.02994236 0.016738335 0
0.72739911 -0.033266749 0.045072272 0
0.72660869 -0.034306969 0.073083989 0
0.73218578 -0.026967134 0.1010049 0
0.72906017 -0.031080689 0.12901977 0
0.73215729 -0.027004626 0.15730383 0
0.72795469 -0.032535579 0.18504372 0
0.7290625 -0.03107753 0.21337 0
0.72905105 -0.03109261 0.24168883 0
0.72641063 -0.03456768 0.26955041 0
0.7352125 -0.022983756 0.3005006 0
0.7307449 -0.028863456 0.32823616 0
0.52915698 -0.25649551 -0.09103889 0
0.59912133 -0.15942755 -0.091705896 0
0.6833334 -0.042592313 -0.090825237 0
0.73023874 0.02248374 -0.07430499 0
0.95213896 0.33034649 -0.089147709 0
0.8530606 0.19288591 -0.035050426 0
0.83810097 0.17213109 0.00088300765 0
0.84857839 0.18666735 0.033485193 0
0.84016079 0.17498878 0.067601472 0
0.84817642 0.18610969 0.10101176 0
0.84851098 0.18657377 0.13475415 0
0.84576166 0.18275943 0.16831401 0
0.83624005 0.16954926 0.20091726 0
0.83590668 0.16908672 0.23433514 0
0.84243488 0.17814389 0.26924422 0
0.8459475 0.18301728 0.30414 0
1.1024568 0.53889626 0.4106825 0
0.51082748 -0.2429224 -0.091162421 0
0.57608205 -0.14739671 -0.091067933 0
0.6576761 -0.027951863 -0.090372466 0
0.76844853 0.13420704 -0.090242885 0
0.9156388 0.34967759 -0.088546492 0
1.1559153 0.70141643 -0.090146877 0
0.8483603 0.25118914 -0.0040534269 0
0.83922511 0.23781624 0.031786051 0
0.84326649 0.24373236 0.066251583 0
0.84228438 0.2422947 0.10101297 0
0.84807438 0.2507706 0.13597319 0
0.83564782 0.2325795 0.16994418 0
0.83510244 0.23178104 0.20443591 0
0.83435082 0.23068073 0.23896095 0
0.84164882 0.24136427 0.27524295 0
0.83762681 0.23547652 0.30950555 0
1.0994983 0.61882788 0.42116094 0
1.104077 0.62553066 0.46943086 0
0.48961964 -0.23371908 -0.090295874 0
0.55363703 -0.13473156 -0.090714119 0
0.6363135 -0.0068921116 -0.091311298 0
0.73858941 0.15125313 -0.089914806 0
0.88913184 0.38403097 -0.090175204 0
1.1079756 0.72242051 -0.089302294 0
1.4845796 1.3047483 -0.090020679 0
0.85487092 0.3310546 0.027767653 0
0.83914161 0.30673304 0.065084733 0
0.83803916 0.30502835 0.1010144 0
0.83956558 0.30738857 0.13696243 0
0.83834428 0.30550006 0.17284457 0
0.83875364 0.30613306 0.20890996 0
0.83925295 0.30690518 0.24514364 0
0.84302443 0.31273678 0.28228268 0
0.84147769 0.3103452 0.31857184 0
0.83775526 0.30458942 0.35430759 0
1.1012815 0.71206969 0.48271868 0
0.4729467 -0.21746638 -0.091333412 0
0.53300786 -0.11924717 -0.091114216 0
0.60871547 0.0045590731 -0.09048941 0
0.70604116 0.16371766 -0.08896216 0
0.85456067 0.40659454 -0.090256266 0
1.0705094 0.75973994 -0.090389125 0
1.4257876 1.3407333 -0.089961879 0
0.84924257 0.39789787 0.025272818 0
0.84945035 0.39823762 0.063156053 0
0.83848399 0.38030401 0.10101623 0
0.83664888 0.37730303 0.13830572 0
0.84029704 0.38326898 0.17596175 0
0.8371886 0.37818566 0.21311937 0
0.8421827 0.38635269 0.25157094 0
0.83945024 0.38188425 0.28890494 0
0.84065849 0.38386002 0.3272602 0
0.84156114 0.38533619 0.36587921 0
1.100436 0.8086794 0.498043 0
0.45348006 -0.20553085 -0.091400392 0
0.51450783 -0.099827856 -0.092478432 0
0.5819248 0.016941462 -0.089989342 0
0.68522537 0.19586304 -0.091351323 0
0.81405592 0.41900364 -0.089084409 0
1.0315849 0.79577392 -0.091424398 0
1.3672718 1.3771996 -0.090063475 0
1.3689942 1.3801827 -0.026404789 0
0.84700096 0.4760659 0.061629463 0
0.84269881 0.46861437 0.10101846 0
0.84140629 0.46637562 0.14014719 0
0.8372364 0.45915321 0.17892978 0
0.83714288 0.4589912 0.21797831 0
0.83941889 0.46293333 0.25758815 0
0.83741677 0.45946565 0.29658252 0
0.846551 0.47528663 0.33873421 0
0.83631301 0.45755389 0.37564605 0
0.8457734 0.47393981 0.41930729 0
0.43535516 -0.19106612 -0.092198275 0
0.48855424 -0.093306571 -0.091159128 0
0.5533545 0.025771651 -0.088958822 0
0.64758295 0.19892743 -0.089139767 0
0.78197581 0.44589022 -0.089991875 0
0.98311245 0.81550258 -0.09081801 0
1.2912796 1.3817959 -0.087745525 0
1.2882135 1.3761616 -0.024402222 0
1.2882615 1.37625 0.03835414 0
0.84526634 0.56219417 0.10102082 0
0.84066689 0.55374199 0.1419151 0
0.84180182 0.55582768 0.18296474 0
0.84216291 0.5564912 0.22410095 0
0.83987367 0.55228442 0.26488873 0
0.84281296 0.55768579 0.30690986 0
0.8385002 0.54976052 0.34731439 0
0.84422934 0.56028837 0.39101681 0
0.84455615 0.56088907 0.43348581 0
0.41422379 -0.18202683 -0.091800354 0
0.4650726 -0.082695812 -0.090861596 0
0.53387475 0.051706348 -0.091233663 0
0.62042087 0.22077051 -0.090072326 0
0.75057721 0.47502533 -0.09128996 0
0.93508863 0.83546072 -0.0903726 0
1.241504 1.4340301 -0.089350305 0
1.2402344 1.4315498 -0.025639808 0
1.2466655 1.4441128 0.037410263 0
1.2473303 1.4454114 0.10104848 0
0.84821618 0.66575903 0.14430627 0
0.8414132 0.65246969 0.18694019 0
0.8397153 0.64915293 0.22975475 0
0.84345078 0.65645009 0.27364889 0
0.83886361 0.64748913 0.31598112 0
0.83965528 0.64903575 0.35973406 0
0.83818805 0.64616948 0.40304047 0
0.83839279 0.64656943 0.44722047 0
0.39399153 -0.17130062 -0.091931589 0
0.44474414 -0.065668494 -0.092033096 0
0.50391495 0.057484422 -0.089896016 0
0.58662361 0.22962704 -0.089076422 0
0.71005905 0.48653474 -0.090390392 0
0.89227951 0.86579245 -0.091133125 0
1.1818905 1.4685631 -0.08966092 0
1.7842603 2.7222829 -0.090730228 0
4.5060101 8.3870955 -0.14089236 0
0.84748191 0.7725547 0.19208057 0
0.83919102 0.75529867 0.23639196 0
0.83801675 0.75285465 0.28148994 0
0.83828026 0.75340313 0.32704613 0
0.84053463 0.75809509 0.37352574 0
0.83403468 0.74456674 0.41723031 0
0.8370598 0.75086302 0.46471313 0
0.37301683 -0.16211358 -0.091822334 0
0.41675138 -0.064876586 -0.089944966 0
0.4789885 0.073497921 -0.090555049 0
0.56199986 0.25806072 -0.091240726 0
0.6754927 0.51039451 -0.091215514 0
0.84426481 0.88563293 -0.090922542 0
1.1167206 1.491396 -0.089187153 0
1.6933299 2.7733967 -0.09110295 0
4.267138 8.4958591 -0.14084347 0
1.0678933 1.3828359 0.22220884 0
0.84726638 0.89230651 0.24532303 0
0.8400327 0.8762235 0.29201812 0
0.84127462 0.87898475 0.34050995 0
0.84171283 0.87995905 0.38913238 0
0.84231263 0.88129264 0.43818879 0
0.84213609 0.88090008 0.48733392 0
0.35481799 -0.14634314 -0.09335462 0
0.39595789 -0.048336949 -0.091240756 0
0.45061702 0.081875592 -0.089958869 0
0.52639824 0.26240638 -0.089806132 0
0.63741946 0.52688831 -0.091209494 0
0.79634917 0.90550095 -0.090840317 0
1.0602072 1.5340803 -0.090348922 0
1.5966642 2.8120625 -0.090959735 0
4.0230079 8.5922546 -0.14063607 0
0.99513435 1.3790598 0.2206953 0
0.85690701 1.0497656 0.25569639 0
0.84252208 1.015497 0.3040413 0
0.84105712 1.012007 0.35476598 0
0.83983487 1.0090952 0.40567902 0
0.84253037 1.0155168 0.45844308 0
0.8396982 1.0087695 0.5092473 0
0.32994685 -0.14662346 -0.091314681 0
0.37593928 -0.028813031 -0.093233921 0
0.42456725 0.095748335 -0.090465017 0
0.49323428 0.27164009 -0.089259274 0
0.59688103 0.53713292 -0.09054067 0
0.74781144 0.92374378 -0.090717874 0
1.0021319 1.5751896 -0.091488682 0
1.4974784 2.844028 -0.090605654 0
3.7851131 8.7038441 -0.14096454 0
0.92467457 1.3767817 0.2193639 0
0.84568119 1.1744387 0.26348722 0
0.84165478 1.164125 0.31687826 0
0.84212643 1.1653333 0.37143168 0
0.84073621 1.161772 0.42562366 0
0.83877045 1.1567369 0.47973275 0
0.83947146 1.1585324 0.53538662 0
0.30908102 -0.13720796 -0.091627382 0
0.34602317 -0.03504261 -0.090152614 0
0.39210671 0.09240368 -0.088073038 0
0.43469602 0.21018651 -0.078279592 0
0.43945155 0.22333816 -0.049734328 0
0.43259522 0.20437661 -0.017507231 0
0.93664283 1.598345 -0.091392912 0
1.401515 2.8839719 -0.09077426 0
3.5385346 8.7940044 -0.14090937 0
0.86164099 1.3909237 0.21894704 0
0.8517313 1.363518 0.27602035 0
0.84036881 1.3320944 0.33152184 0
0.84044176 1.3322964 0.38963839 0
0.84080881 1.3333113 0.4482038 0
0.84118599 1.3343544 0.50720918 0
0.83839929 1.3266478 0.56496674 0
0.28364187 -0.14123252 -0.089044638 0
0.32294238 -0.023323085 -0.090811245 0
0.36696798 0.10876253 -0.089257039 0
0.40623716 0.22657803 -0.079143234 0
0.40418115 0.22040954 -0.048058171 0
0.40262249 0.2157332 -0.017590506 0
0.86915547 1.6154261 -0.09097264 0
1.3010185 2.9111021 -0.09043204 0
3.2889838 8.8753986 -0.14079304 0
0.79007506 1.3781691 0.21729064 0
0.84915787 1.5554292 0.28864613 0
0.84134084 1.5319767 0.34918785 0
0.83865726 1.5239253 0.4107382 0
0.83894682 1.5247941 0.47355026 0
0.83801103 1.5219865 0.5361805 0
0.83918798 1.5255175 0.60041255 0
0.26382491 -0.12890276 -0.090259887 0
0.29782879 -0.01759788 -0.090399466 0
0.33706412 0.11083129 -0.088085704 0
0.3818593 0.25745931 -0.082235463 0
0.3845512 0.26627079 -0.052466486 0
0.38231447 0.25894931 -0.020856721 0
0.72603142 1.3840387 -0.07251782 0
0.72476745 1.3799012 -0.014358884 0
0.72463334 1.3794622 0.043383025 0
0.72544575 1.3821213 0.10104118 0
0.72383332 1.3768435 0.15863545 0
0.72445154 1.3788671 0.21639103 0
0.84525472 1.7742922 0.30315158 0
0.83779281 1.7498674 0.36847457 0
0.83754307 1.7490497 0.43577695 0
0.8342703 1.7383368 0.50195217 0
0.83488977 1.7403648 0.57022899 0
0.24274553 -0.11998197 -0.090825312 0
0.27304435 -0.01103976 -0.090277769 0
0.31365758 0.1349887 -0.090819873 0
0.36633214 0.32438484 -0.090653874 0
0.44071886 0.59184903 -0.090836577 0
0.5525682 0.99401337 -0.091178305 0
0.66133541 1.3850956 -0.071321897 0
0.66201204 1.3875287 -0.013881443 0
0.66131192 1.3850112 0.043671545 0
0.66143191 1.3854425 0.10104077 0
0.66273445 1.390126 0.15853377 0
0.66021198 1.3810561 0.21565028 0
0.81136656 1.9245462 0.31258026 0
0.81200862 1.9268548 0.38366994 0
0.81308776 1.9307349 0.45537195 0
0.81321597 1.9311957 0.52715445 0
0.81168216 1.9256811 0.59841096 0
0.218988 -0.1211156 -0.08930061 0
0.25065723 0.0049980613 -0.092119686 0
0.28299782 0.13378504 -0.089339681 0
0.33205801 0.32915309 -0.090069659 0
0.39803991 0.59190696 -0.089567237 0
0.49996543 0.997796 -0.090263717 0
0.59744936 1.3859975 -0.070240416 0
0.59627992 1.3813405 -0.01282016 0
0.59583849 1.3795826 0.04418296 0
0.59624958 1.3812199 0.10104017 0
0.59346342 1.3701246 0.15767008 0
0.59405941 1.372498 0.21447586 0
0.77063912 2.075676 0.3220745 0
0.76928747 2.0702932 0.39560157 0
0.76847857 2.0670719 0.46945068 0
0.76877463 2.0682509 0.54418576 0
0.19868046 -0.10846516 -0.090918384 0
0.22233531 -0.0030772949 -0.089405842 0
0.2573483 0.15291372 -0.09142337 0
0.29908594 0.33886471 -0.090325721 0
0.35992104 0.6098991 -0.090582632 0
0.4528161 1.0237682 -0.091604419 0
0.55240071 1.4674408 -0.075051628 0
0.55184042 1.4649446 -0.016128516 0
0.55385685 1.4739282 0.042274486 0
0.5508551 1.4605546 0.10104208 0
0.55058038 1.4593308 0.15946183 0
0.55260253 1.4683399 0.21837544 0
0.71249491 2.1806977 0.32828283 0
0.71155477 2.1765094 0.40400639 0
0.71639186 2.1980596 0.48294422 0
0.71451575 2.1897011 0.55903447 0
0.17772628 -0.097028702 -0.092376418 0
0.19747525 0.0026662683 -0.089496545 0
0.22686684 0.1510382 -0.090086289 0
0.26510367 0.34406188 -0.090053283 0
0.31788909 0.61052853 -0.089639254 0
0.39998031 1.0249341 -0.090691529 0
0.41541505 1.1028504 -0.048132215 0
0.41505501 1.1010327 0.0017650372 0
0.41565198 1.1040463 0.051353574 0
0.41713345 1.1115251 0.10103153 0
0.41610247 1.1063204 0.15076317 0
0.41326126 1.0919778 0.19986741 0
0.41427183 1.0970793 0.24978375 0
0.41492778 1.1003904 0.29993501 0
0.41498417 1.1006751 0.35010156 0
0.40599477 1.0552957 0.39401069 0
0.27192241 0.37848368 0.36368084 0
0.15403537 -0.099376291 -0.090969466 0
0.17299859 0.01087812 -0.09017878 0
0.19646226 0.14729872 -0.088572748 0
0.23276423 0.35836282 -0.091202788 0
0.2806668 0.63687438 -0.091875724 0
0.34837884 1.0305605 -0.090331666 0
0.36848336 1.1474504 -0.050601456 0
0.88153487 4.1303949 -0.14087455 0
1.764989 9.2669048 -0.14099216 0
0.58197802 2.3887343 0.26073852 0
0.58060682 2.3807621 0.34022456 0
0.57840109 2.3679376 0.41913283 0
0.26202905 0.52851218 0.28105506 0
0.2696946 0.57308072 0.32385427 0
0.27249417 0.58935767 0.36432722 0
0.23632647 0.37907413 0.36257002 0
0.13204679 -0.092282921 -0.091724522 0
0.14819887 0.018255744 -0.090817533 0
0.16704457 0.14722815 -0.087801881 0
0.19754435 0.35595694 -0.0900914 0
0.23848853 0.63616294 -0.09101931 0
0.29569501 1.0276618 -0.089292042 0
0.39542556 1.7101791 -0.08975219 0
0.75343698 4.1602697 -0.14131153 0
1.505173 9.3048582 -0.14091487 0
0.50708586 2.4743385 0.26413119 0
0.50499606 2.4600368 0.34487179 0
0.50575984 2.4652638 0.42704514 0
0.22269355 0.52806824 0.28028131 0
0.27729133 0.90171438 0.36965576 0
0.20183463 0.38531795 0.36271119 0
0.10961884 -0.087217122 -0.092162199 0
0.12232845 0.0183107 -0.090184115 0
0.13954838 0.16128758 -0.089495517 0
0.16338739 0.35922256 -0.089912243 0
0.19798064 0.64645022 -0.091585778 0
0.2470413 1.0538003 -0.091110714 0
0.32817847 1.7274816 -0.090330265 0
0.62128353 4.1611314 -0.14053854 0
1.2437854 9.3297586 -0.14068596 0
0.42634127 2.5425267 0.26678479 0
0.4237313 2.5208561 0.34833908 0
0.4241522 2.5243511 0.43150896 0
0.42430764 2.5256417 0.51494598 0
0.23136659 0.92365354 0.37186053 0
0.16669421 0.3866792 0.3620908 0
0.08637619 -0.089481443 -0.091154747 0
0.097134806 0.023873363 -0.090717949 0
0.11102278 0.17019954 -0.090450056 0
0.13034894 0.37382355 -0.091455542 0
0.15748407 0.65972441 -0.092621736 0
0.1947833 1.052716 -0.09048792 0
0.2590988 1.7303565 -0.090013139 0
0.49127564 4.1766152 -0.14060742 0
0.98405957 9.368679 -0.14093933 0
0.34163871 2.6000125 0.26902649 0
0.33985215 2.5811892 0.35190821 0
0.33967078 2.5792778 0.4357653 0
0.3401601 2.5844336 0.52072835 0
0.3407003 2.5901251 0.60647255 0
0.17299341 0.82313377 0.40029046 0
0.13065994 0.37710038 0.35956952 0
0.063408822 -0.091024011 -0.090427972 0
0.07085932 0.016169105 -0.088866137 0
0.081364252 0.16730717 -0.089576907 0
0.09525466 0.36715344 -0.090117164 0
0.11471859 0.64718789 -0.090751894 0
0.14216702 1.0420978 -0.089097731 0
0.19079752 1.7417624 -0.090416707 0
0.36169672 4.2005501 -0.1412238 0
0.72249728 9.3915157 -0.14097032 0
0.25336325 2.6419177 0.27063626 0
0.25327656 2.6406703 0.35556003 0
0.13320576 0.91316921 0.27908507 0
0.13343377 0.91644973 0.32434869 0
0.13374482 0.92092496 0.37018129 0
0.124386 0.78627628 0.3935959 0
0.096303895 0.38224915 0.36000612 0
0.041270141 -0.077392668 -0.093053989 0
0.045741819 0.023801837 -0.090033107 0
0.051956613 0.16444317 -0.088832639 0
0.061183356 0.37324515 -0.090700231 0
0.073591493 0.65404266 -0.091279022 0
0.091005728 1.0481284 -0.089388736 0
0.12177511 1.7444422 -0.090329938 0
0.23044659 4.2036877 -0.14102291 0
0.45976526 9.3931904 -0.14066252 0
0.16311161 2.6798909 0.27216479 0
0.16281465 2.6731703 0.35747126 0
0.086538248 0.94702882 0.28199527 0
0.085459515 0.92261714 0.32475039 0
0.086772449 0.95232886 0.37421492 0
0.07627508 0.7147724 0.38140908 0
0.061535731 0.38121954 0.35944065 0
0.018100923 -0.08449921 -0.091388695 0
0.020196065 0.026186023 -0.090330221 0
0.02295891 0.17214575 -0.089947708 0
0.026565449 0.36267725 -0.089062236 0
0.031905137 0.64477032 -0.090042107 0
0.039593983 1.0509677 -0.089502297 0
0.05297092 1.7576644 -0.09110219 0
0.098905541 4.1843662 -0.13993064 0
0.19782597 9.4102802 -0.14086761 0
0.071028508 2.7116373 0.27350855 0
0.071133666 2.7171929 0.36034778 0
0.070675425 2.6929841 0.44494903 0
0.07081829 2.7005317 0.53250319 0
0.032485481 0.6754294 0.37471631 0
0.026881382 0.37936774 0.35888597 0
-0.0046856981 -0.091909558 -0.089782871 0
-0.0053416011 0.012083683 -0.087643512 0
-0.0063192872 0.16709557 -0.0890873 0
-0.0076016625 0.37041584 -0.090119533 0
-0.0093751345 0.65159923 -0.09080983 0
-0.011856574 1.0450306 -0.088917784 0
-0.016339334 1.7557709 -0.090939231 0
-0.031791247 4.2056675 -0.14088397 0
-0.064643748 9.4144211 -0.14092539 0
-0.022485396 2.7302275 0.27434763 0
-0.02249057 2.7310476 0.36127588 0
-0.022459721 2.7261565 0.44799256 0
-0.022455981 2.7255635 0.53536153 0
-0.0093529047 0.64807481 0.37017524 0
-0.0076945946 0.38514999 0.35993436 0
-0.027137091 -0.098317116 -0.088511311 0
-0.031216566 0.030979786 -0.09129449 0
-0.035433248 0.16462544 -0.088771917 0
-0.042228434 0.3799955 -0.091557778 0
-0.050850622 0.65327162 -0.091097005 0
-0.063731201 1.0615151 -0.090547927 0
-0.085400924 1.7483265 -0.090510212 0
-0.11900382 2.8133535 -0.076148562 0
-0.11871559 2.8042185 0.012725683 0
-0.11838794 2.7938333 0.10107845 0
-0.11867271 2.8028593 0.18940024 0
-0.1170693 2.7520399 0.2754477 0
-0.11665598 2.7389402 0.36195272 0
-0.11613642 2.7224727 0.44781411 0
-0.11652099 2.7346618 0.53663343 0
-0.050573993 0.64450401 0.3697165 0
-0.042023096 0.3734875 0.35785964 0
-0.050302073 -0.087103695 -0.091110118 0
-0.056459803 0.021239433 -0.089671411 0
-0.064722605 0.1666204 -0.089312024 0
-0.076653145 0.37653401 -0.091285326 0
-0.092853665 0.66157633 -0.092283465 0
-0.11572193 1.0639355 -0.090987884 0
-0.15467833 1.7493596 -0.09079618 0
-0.21445021 2.8010244 -0.075771265 0
-0.2137991 2.7895684 0.0129684 0
-0.21451344 2.8021369 0.10107881 0
-0.21364306 2.7868228 0.18912452 0
-0.21020524 2.7263358 0.27444229 0
-0.21081921 2.7371385 0.36211762 0
-0.21109159 2.741931 0.45002136 0
-0.077534288 0.3920373 0.26275158 0
-0.076747574 0.37819555 0.29353973 0
-0.076689415 0.37717214 0.32599336 0
-0.077201478 0.38618174 0.36054185 0
-0.073531576 -0.082811564 -0.092362724 0
-0.081972927 0.019890819 -0.089751221 0
-0.094490722 0.1721895 -0.090564422 0
-0.11161949 0.38058785 -0.092194445 0
-0.13285995 0.63901168 -0.089976601 0
-0.16765562 1.0623558 -0.09117692 0
-0.22401176 1.7480173 -0.091038652 0
-0.42418393 4.1834273 -0.14065582 0
-0.85125703 9.3794451 -0.1409203 0
-0.30569592 2.7418334 0.27547163 0
-0.30449647 2.7272403 0.36188117 0
-0.30504042 2.7338581 0.44987756 0
-0.30506834 2.7341981 0.53783071 0
-0.11398005 0.40930787 0.29826671 0
