# .PCD v0.7 - Point Cloud Data file format
VERSION 0.7
FIELDS x y z intensity
SIZE 4 4 4 4
TYPE F F F F
COUNT 1 1 1 1
WIDTH 1322
HEIGHT 1
VIEWPOINT 0 0 0 1 0 0 0
POINTS 1322
DATA ascii
3.35818 -1.8098595 -0.14063887 0
5.0508699 -2.2235861 -0.14104633 0
10.103482 -3.4585438 -0.14083184 0
0.89714336 -1.1845109 -0.093988411 0
0.99354112 -1.20551 -0.090364821 0
1.1402026 -1.2374582 -0.090654217 0
1.330301 -1.2788687 -0.090227209 0
1.6009711 -1.3378305 -0.090411864 0
1.9825281 -1.4209478 -0.088326074 0
3.3781118 -1.7249573 -0.14066011 0
5.0776992 -2.09519 -0.14091741 0
10.162756 -3.2029028 -0.14083634 0
0.88577002 -1.1587703 -0.090522639 0
0.99192727 -1.1791042 -0.089069717 0
1.1475888 -1.2089204 -0.090903141 0
1.3205582 -1.2420516 -0.087848224 0
1.6106982 -1.2976264 -0.090583526 0
2.550087 -1.4775614 -0.14129019 0
3.3925111 -1.6389233 -0.14044036 0
5.1017509 -1.9663191 -0.14081147 0
10.223101 -2.9472866 -0.14101928 0
0.88884091 -1.1362392 -0.090323664 0
1.0047324 -1.1554199 -0.090660281 0
1.1490258 -1.1793013 -0.090280198 0
1.3450671 -1.2117472 -0.09049084 0
1.6240937 -1.2579277 -0.09130951 0
2.5589418 -1.4126502 -0.14103918 0
3.4118781 -1.553816 -0.14072776 0
5.1307282 -1.8382953 -0.14109224 0
10.251456 -2.6858041 -0.14059997 0
0.88923043 -1.1133667 -0.089672185 0
1.0192729 -1.1315315 -0.092689224 0
1.1495814 -1.1497333 -0.089637466 0
1.3448566 -1.1770099 -0.089725234 0
1.6274784 -1.2164874 -0.090970047 0
2.5728123 -1.3485346 -0.14141645 0
3.4251564 -1.4675926 -0.14073628 0
5.1442332 -1.7077186 -0.14079688 0
10.286648 -2.4260268 -0.14049786 0
0.89280385 -1.0909984 -0.089827441 0
1.0105094 -1.1044217 -0.090409018 0
1.1614079 -1.1216305 -0.09098465 0
1.347156 -1.1428137 -0.089441054 0
1.6276249 -1.1747988 -0.090373896 0
2.5815797 -1.2835898 -0.1414655 0
3.4367261 -1.3811125 -0.14077792 0
5.1698256 -1.5787586 -0.14122342 0
10.331648 -2.1674232 -0.14077924 0
0.90325719 -1.0691879 -0.0915711 0
1.013613 -1.0789596 -0.090507381 0
1.1278721 -1.0890771 -0.084961466 0
1.1263852 -1.0889454 -0.057807688 0
1.6402875 -1.1344504 -0.091371201 0
2.5810661 -1.2177547 -0.14079855 0
3.4508274 -1.2947704 -0.14115052 0
5.1774139 -1.4476564 -0.14095987 0
10.355678 -1.9061821 -0.14072306 0
0.90034586 -1.0461038 -0.090582855 0
1.0154667 -1.0533757 -0.090491079 0
1.1188148 -1.0599041 -0.083114378 0
1.1380234 -1.0611174 -0.059142891 0
1.6421045 -1.0929592 -0.091216199 0
2.6015718 -1.1535667 -0.14225408 0
3.4396353 -1.2065055 -0.13990356 0
5.1871438 -1.316892 -0.14095114 0
10.376448 -1.6446897 -0.14074478 0
0.89559716 -1.0231705 -0.089328744 0
1.0279694 -1.0281832 -0.09260378 0
1.1376901 -1.0323381 -0.085984282 0
1.1345098 -1.0322177 -0.058444817 0
1.6502384 -1.0517477 -0.091922708 0
2.5934501 -1.0874656 -0.14118564 0
3.4507287 -1.1199296 -0.14037283 0
5.1860862 -1.1856451 -0.14059372 0
10.395997 -1.382937 -0.14089173 0
0.90045744 -1.0006416 -0.090240769 0
1.0226588 -1.0021834 -0.091480203 0
1.1361337 -1.0036153 -0.085609429 0
1.1162636 -1.0033646 -0.055778895 0
1.1380843 -1.0036398 -0.03193799 0
1.1297417 -1.0035346 -0.0043975245 0
1.1387367 -1.003648 0.021423744 0
1.1273911 -1.0035049 0.048526283 0
1.1368268 -1.003624 0.074559219 0
1.135142 -1.0036027 0.10100278 0
1.1364787 -1.0036196 0.12743835 0
1.1356549 -1.0036092 0.1538642 0
1.1316026 -1.003558 0.18008316 0
1.1254575 -1.0034806 0.20600317 0
1.1290528 -1.0035259 0.23288845 0
1.1230936 -1.0034506 0.25874496 0
1.1356331 -1.0036089 0.28753451 0
1.1278876 -1.0035112 0.31330916 0
0.89173681 -0.97805315 -0.088386945 0
1.0092392 -0.97657055 -0.0889524 0
1.128052 -0.97507143 -0.084281094 0
1.135543 -0.97497696 -0.058488522 0
1.6367365 -0.96865314 -0.090221755 0
2.5868876 -0.95666462 -0.14041884 0
3.4615617 -0.9456284 -0.14097655 0
5.1959229 -0.9237451 -0.1408979 0
10.39349 -0.85816479 -0.14067945 0
0.90481085 -0.95506537 -0.091288634 0
1.0148141 -0.95089966 -0.090124212 0
1.133263 -0.94641417 -0.085256167 0
1.1302326 -0.94652897 -0.057843287 0
1.6397913 -0.92723268 -0.090700842 0
2.5884519 -0.89130831 -0.14071876 0
3.4588885 -0.8583461 -0.14094368 0
5.1925921 -0.7926932 -0.14089681 0
10.384271 -0.59609181 -0.14061889 0
0.90529454 -0.9321683 -0.091636859 0
1.0110427 -0.92548841 -0.089656152 0
1.13636 -0.91757238 -0.086003713 0
1.1437093 -0.91710812 -0.059943561 0
1.6252048 -0.886693 -0.089237131 0
2.5883985 -0.82585007 -0.14102203 0
3.4507518 -0.77137697 -0.14068227 0
5.1820855 -0.66201216 -0.1407152 0
10.373145 -0.33410355 -0.14066784 0
0.90572524 -0.90917832 -0.092097767 0
1.0100251 -0.89994276 -0.089828961 0
1.1659603 -0.88613498 -0.091245793 0
1.352989 -0.86957395 -0.089777969 0
1.6332433 -0.84475797 -0.090544708 0
2.5783522 -0.76107031 -0.14054424 0
3.4472296 -0.68413281 -0.14089802 0
5.1704597 -0.53154403 -0.14063486 0
10.363376 -0.071721047 -0.14090274 0
0.88700879 -0.88824719 -0.088587634 0
1.0124187 -0.87394518 -0.090770982 0
1.1646175 -0.85658813 -0.091515549 0
1.3555942 -0.83480877 -0.090634592 0
1.6312236 -0.80337542 -0.090797208 0
2.5652063 -0.69686216 -0.1399273 0
3.4389422 -0.59721953 -0.14093386 0
5.1557946 -0.40142623 -0.14056599 0
10.343349 0.19017282 -0.14105304 0
0.89340019 -0.86463553 -0.090567119 0
0.99864018 -0.84993529 -0.088765316 0
1.1409491 -0.83005714 -0.088204972 0
1.3464662 -0.80134988 -0.089953639 0
1.6290619 -0.76187605 -0.091156922 0
2.5720167 -0.63016117 -0.14134148 0
3.4240384 -0.51114815 -0.14065737 0
5.1502895 -0.2700201 -0.14108157 0
10.283689 0.44702879 -0.14042839 0
0.88938373 -0.84225559 -0.090440623 0
0.99951255 -0.82402867 -0.089663766 0
1.145126 -0.79992884 -0.089630522 0
1.3408993 -0.76752728 -0.089897148 0
1.6142187 -0.72229141 -0.09013968 0
2.5532498 -0.56687647 -0.14050065 0
3.4100788 -0.4250665 -0.14060026 0
5.1217446 -0.14177635 -0.1406683 0
10.25623 0.70800966 -0.14071248 0
0.87903136 -0.82110518 -0.089064218 0
1.0027993 -0.79739809 -0.091154687 0
1.1388692 -0.77133459 -0.089443989 0
1.3350109 -0.73376471 -0.089916237 0
1.3331244 -0.73412603 -0.057552803 0
1.3503381 -0.73082882 -0.027269384 0
1.3404425 -0.73272425 0.0056265835 0
1.3406123 -0.73269176 0.037470233 0
1.3599827 -0.72898149 0.068798415 0
1.3548439 -0.72996581 0.10100975 0
0.88894457 -0.79585969 -0.092204772 0
1.0003142 -0.77159929 -0.091670461 0
1.1385055 -0.74149615 -0.090368755 0
1.2112092 -0.7256586 -0.07309819 0
1.2095392 -0.72602236 -0.043591071 0
1.2129531 -0.72527874 -0.0148091 0
1.2069576 -0.72658479 0.014683614 0
1.2046157 -0.72709489 0.043621182 0
1.2096775 -0.72599226 0.072208457 0
1.2 -0.72810036 0.10100543 0
0.88588947 -0.77300167 -0.092666067 0
0.98558015 -0.74863529 -0.089940257 0
1.1323274 -0.71276742 -0.090442546 0
1.2057205 -0.69482869 -0.073322199 0
1.197885 -0.69674385 -0.043034393 0
1.2055875 -0.69486117 -0.0147785 0
1.1969979 -0.69696069 0.014895732 0
1.2039958 -0.69525021 0.043315481 0
1.2015729 -0.69584244 0.072234221 0
1.2000688 -0.69621003 0.10100564 0
0.87862331 -0.75115764 -0.092329718 0
0.98847634 -0.72135091 -0.091751687 0
1.111123 -0.68807292 -0.088081039 0
1.2078056 -0.66183978 -0.074763529 0
1.2039788 -0.66287816 -0.044712353 0
1.2032832 -0.66306686 -0.015311217 0
1.2098718 -0.6612792 0.013401324 0
1.1991563 -0.66418666 0.043172579 0
1.2105116 -0.66110557 0.071831301 0
1.197099 -0.66474485 0.10100578 0
0.87038749 -0.72967124 -0.091897555 0
0.97812068 -0.69750029 -0.091106765 0
1.1191156 -0.65539694 -0.090816148 0
1.2131636 -0.62731266 -0.07681746 0
1.2150142 -0.62676001 -0.047109623 0
1.2070881 -0.62912685 -0.016520953 0
1.2214127 -0.62484932 0.01192739 0
1.2072611 -0.62907523 0.042361725 0
1.2030197 -0.63034177 0.071802817 0
1.2071378 -0.62911206 0.10100634 0
0.84257507 -0.71466547 -0.087205432 0
0.9689973 -0.67341202 -0.090819471 0
1.1045676 -0.6291734 -0.089819096 0
1.2105131 -0.59460187 -0.077832825 0
1.207104 -0.59571427 -0.047309194 0
1.1962408 -0.59925914 -0.016385837 0
1.2147288 -0.59322619 0.01171414 0
1.1978623 -0.59873003 0.042358112 0
1.2081301 -0.59537941 0.071446978 0
1.2133011 -0.59369212 0.10100681 0
0.84987098 -0.68838114 -0.090473898 0
0.96304995 -0.6482622 -0.091285236 0
1.0930482 -0.60218132 -0.089456044 0
1.1980687 -0.5649544 -0.077519573 0
1.2201303 -0.55713415 -0.050203402 0
1.2117643 -0.5600996 -0.018935403 0
1.2085693 -0.56123221 0.011401141 0
1.2099046 -0.56075889 0.041257758 0
1.2081954 -0.56136471 0.071190715 0
1.2090629 -0.56105721 0.10100699 0
0.85390514 -0.66250038 -0.09318193 0
0.95128685 -0.62518948 -0.090709917 0
1.0896624 -0.57217228 -0.090640374 0
1.2040898 -0.52833062 -0.080094345 0
1.208956 -0.52646619 -0.050218124 0
1.2038434 -0.52842498 -0.019264607 0
1.1956071 -0.53158069 0.011534201 0
1.2110127 -0.52567816 0.040644277 0
1.2035528 -0.52853632 0.071027912 0
1.2073433 -0.52708405 0.10100728 0
0.82940251 -0.64767611 -0.089506395 0
0.94797152 -0.59878218 -0.091967769 0
1.0837473 -0.5427928 -0.091521405 0
1.2042115 -0.49311745 -0.081939079 0
1.2066737 -0.49210206 -0.051454503 0
1.2081747 -0.49148312 -0.020914612 0
1.2080436 -0.49153718 0.0096916948 0
1.204196 -0.4931238 0.0403791 0
1.2083527 -0.49140975 0.070605196 0
1.214628 -0.48882201 0.10100788 0
0.83300436 -0.62136191 -0.092408098 0
0.9245376 -0.58088517 -0.089232929 0
1.0628724 -0.51971239 -0.089856528 0
1.2070291 -0.45596513 -0.084354617 0
1.2035682 -0.4574956 -0.052709777 0
1.2066879 -0.45611605 -0.022083981 0
1.206145 -0.45635614 0.0088474471 0
1.1947718 -0.46138546 0.04020207 0
1.2139668 -0.45289728 0.070133343 0
1.1922143 -0.4625164 0.10100758 0
0.81285006 -0.60549986 -0.089914419 0
0.91701162 -0.55626029 -0.089873038 0
1.0607444 -0.48831454 -0.091684975 0
1.2292074 -0.4086782 -0.089953549 0
1.4701074 -0.29479918 -0.088950448 0
1.8587583 -0.11107495 -0.090834983 0
3.1314895 0.49057451 -0.14110337 0
4.6976891 1.2309532 -0.1408837 0
9.405652 3.4565156 -0.14089365 0
0.80559266 -0.5837847 -0.090553425 0
0.91597992 -0.52815229 -0.092021413 0
1.0393375 -0.46598312 -0.090133615 0
1.2184867 -0.37569645 -0.09063337 0
1.4573553 -0.25531265 -0.08963602 0
1.8386385 -0.063155383 -0.091109864 0
3.0804074 0.56266528 -0.14010546 0
4.6400423 1.3486824 -0.14087678 0
9.2808294 3.6875231 -0.14064226 0
0.79487377 -0.5637365 -0.090497606 0
0.8959198 -0.50957257 -0.090283178 0
1.0298129 -0.43780163 -0.090881281 0
1.1880976 -0.35295591 -0.088318147 0
1.4341911 -0.22104183 -0.089081518 0
1.8150814 -0.016872313 -0.091151722 0
3.0511186 0.64568371 -0.140966 0
4.583147 1.4669006 -0.14106542 0
9.1648064 3.9228179 -0.14077236 0
0.7925781 -0.53889436 -0.092623882 0
0.88439161 -0.48665538 -0.090469651 0
1.0197004 -0.40966889 -0.091662176 0
1.1809534 -0.31792101 -0.089820109 0
1.2069602 -0.30312392 -0.061194379 0
1.215749 -0.29812333 -0.029485619 0
2.9986687 0.71630257 -0.14014342 0
4.5142021 1.578594 -0.14077008 0
9.0408201 4.154099 -0.14084908 0
0.77478135 -0.52279103 -0.091089793 0
0.87292928 -0.46362105 -0.090799756 0
0.99173975 -0.39199433 -0.089165099 0
1.1570609 -0.29232803 -0.088740759 0
1.1407689 -0.30214992 -0.054576356 0
1.2050378 -0.2634044 -0.030261016 0
2.9638159 0.79690176 -0.14088915 0
4.4603343 1.6991005 -0.14144191 0
8.9016199 4.3765965 -0.14067125 0
0.76077491 -0.50468475 -0.09058813 0
0.84869426 -0.44860896 -0.088410668 0
1.0002958 -0.35191622 -0.093832187 0
1.1420754 -0.26148793 -0.089235418 0
1.1407598 -0.26232705 -0.057028715 0
1.1787686 -0.23808464 -0.02942284 0
2.9236159 0.87479454 -0.14137095 0
4.3885355 1.8091333 -0.1413012 0
8.7602596 4.5974579 -0.14058468 0
0.74377424 -0.48872235 -0.08942657 0
0.85207987 -0.41573563 -0.092339389 0
0.95988113 -0.34308878 -0.089072756 0
1.1284811 -0.22946993 -0.090105183 0
1.1490399 -0.21561548 -0.060831834 0
1.1528989 -0.21301493 -0.028686589 0
2.8720815 0.9455356 -0.1410699 0
4.3087039 1.9136696 -0.14086173 0
8.6271706 4.8238678 -0.14088352 0
0.7434603 -0.46121249 -0.092700757 0
0.82324332 -0.40446821 -0.089081787 0
0.94764906 -0.31598684 -0.08995562 0
1.10439 -0.2045078 -0.089318581 0
1.1501256 -0.17197916 -0.063839592 0
1.1389952 -0.17989543 -0.029379478 0
2.8238528 1.0184293 -0.14119883 0
4.2247925 2.0148225 -0.1403307 0
8.4731989 5.0364251 -0.14075358 0
0.72378808 -0.44723043 -0.091076873 0
0.81236446 -0.38080409 -0.090056144 0
0.93122029 -0.29167017 -0.090132453 0
1.0861279 -0.17549995 -0.089650594 0
1.1023591 -0.1633276 -0.059927527 0
1.097867 -0.1666964 -0.027005902 0
1.0968912 -0.16742817 0.0052048285 0
1.1083623 -0.15882561 0.036529895 0
1.0939941 -0.16960075 0.069204919 0
1.1058631 -0.16069981 0.10100982 0
1.0996468 -0.16536161 0.1329786 0
1.0978246 -0.16672823 0.16487615 0
1.0991498 -0.16573438 0.1970121 0
0.70513725 -0.43291405 -0.089791708 0
0.79592597 -0.36117944 -0.089857511 0
0.91266638 -0.26893964 -0.089995019 0
1.0633291 -0.14989701 -0.0893066 0
1.1010671 -0.12007925 -0.062891461 0
1.1012201 -0.11995825 -0.029915353 0
1.09945 -0.12135687 0.0030981696 0
1.1042495 -0.11756465 0.035509761 0
1.0955696 -0.12442294 0.068535082 0
1.1000372 -0.12089291 0.10101038 0
1.0981191 -0.12240848 0.13356113 0
1.1070956 -0.11531588 0.16668056 0
1.1045949 -0.11729172 0.19938172 0
0.69002634 -0.41603062 -0.089557 0
0.78857499 -0.33404234 -0.092001371 0
0.90061665 -0.24082848 -0.091366656 0
1.020739 -0.14089188 -0.085454188 0
1.1041789 -0.071473509 -0.066752039 0
1.1004745 -0.074555367 -0.032530595 0
1.1084301 -0.067936629 0.00025822432 0
1.0954397 -0.078744084 0.034690034 0
1.1013474 -0.073829204 0.067689806 0
1.0992916 -0.0755395 0.10101119 0
1.0974277 -0.077090174 0.13421392 0
1.0965523 -0.077818543 0.16739969 0
1.1011628 -0.073982805 0.20110378 0
0.67483747 -0.39927027 -0.089414172 0
0.7683025 -0.31743404 -0.091127865 0
0.87682086 -0.22241738 -0.090356357 0
0.99973267 -0.1147981 -0.085589491 0
1.1038051 -0.023674276 -0.070345856 0
1.1017834 -0.025444414 -0.035599742 0
1.0954006 -0.031033125 -0.00072390377 0
1.0984824 -0.028334823 0.03305861 0
1.1042895 -0.023250069 0.066874251 0
1.104147 -0.023374941 0.10101226 0
1.1037747 -0.023700919 0.13513437 0
1.0963333 -0.030216541 0.16883251 0
1.0938587 -0.03238311 0.20260479 0
1.1075442 -0.020400431 0.23833996 0
1.0909435 -0.034935679 0.37392646 0
0.66870159 -0.3741971 -0.09200523 0
0.74612582 -0.30287567 -0.08985237 0
0.85667437 -0.20104083 -0.090240471 0
0.9690181 -0.097552389 -0.083997421 0
1.0599558 -0.013782647 -0.067305289 0
1.0997037 0.022832189 -0.038466517 0
1.101034 0.02405766 -0.0035905966 0
1.0965354 0.019913707 0.031625044 0
1.1065234 0.029114399 0.066022024 0
1.0988055 0.022004876 0.10101301 0
1.099031 0.022212539 0.13576721 0
1.0968513 0.020204697 0.17042102 0
1.1012398 0.024247203 0.20563677 0
1.1112671 0.033484135 0.24196175 0
1.0441988 -0.028297748 0.36820924 0
0.64412773 -0.36611274 -0.089388244 0
0.73941338 -0.27378628 -0.092696302 0
0.84819448 -0.16838351 -0.092913605 0
0.84028721 -0.17604521 -0.063269906 0
0.83974218 -0.17657331 -0.035528604 0
0.83948636 -0.1768212 -0.0080106761 0
0.83874643 -0.17753819 0.01941851 0
0.84226018 -0.17413351 0.046434928 0
0.83585483 -0.18033996 0.073941521 0
0.84310538 -0.17331454 0.10100387 0
0.83451205 -0.18164101 0.1280221 0
0.84495968 -0.17151782 0.15574811 0
0.84208369 -0.17430457 0.18291435 0
1.1055778 0.081006438 0.24462385 0
1.0000751 -0.021219756 0.29655966 0
0.99953902 -0.021739151 0.32957071 0
0.98906016 -0.031892564 0.36019203 0
0.63278401 -0.34541169 -0.090779595 0
0.71451873 -0.26211545 -0.090919606 0
0.81337959 -0.16136578 -0.089667596 0
0.83927006 -0.13498065 -0.067236654 0
0.83050907 -0.14390907 -0.037454221 0
0.83395624 -0.14039603 -0.010041213 0
0.83367854 -0.14067903 0.017853381 0
0.85120785 -0.1228148 0.04445526 0
0.8373661 -0.13692102 0.073204964 0
0.84364605 -0.13052109 0.10100474 0
0.83862901 -0.13563398 0.12884608 0
0.83870298 -0.13555858 0.15672277 0
0.8391968 -0.13505533 0.1847069 0
0.84591931 -0.12820438 0.21364582 0
1.0967187 0.12738648 0.28390801 0
0.95349699 -0.018571403 0.29217666 0
0.94234002 -0.029941585 0.32194889 0
0.9583897 -0.013585236 0.35852423 0
0.61625016 -0.32976875 -0.09075249 0
0.69887602 -0.24120083 -0.091729127 0
0.79843128 -0.13448599 -0.091161303 0
0.84497803 -0.084591836 -0.072908275 0
0.83433759 -0.095997483 -0.041809861 0
0.84996486 -0.079246372 -0.015198721 0
0.83886808 -0.091141194 0.015100056 0
0.83932143 -0.090655237 0.043755986 0
0.84556681 -0.083960742 0.072183363 0
0.84402066 -0.085618049 0.10100568 0
0.83804566 -0.092022747 0.12957118 0
0.84835553 -0.08097145 0.15887244 0
0.83946359 -0.090502828 0.18697229 0
0.83107668 -0.099492878 0.21462511 0
1.0983942 0.1870487 0.28908461 0
0.93117166 0.0078003737 0.29268575 0
0.9307344 0.0073317024 0.32505786 0
0.92638093 0.0026651954 0.35656711 0
0.59694487 -0.31723884 -0.089961506 0
0.67071426 -0.23405191 -0.08915589 0
0.77350807 -0.11813524 -0.09039297 0
0.84671807 -0.035579052 -0.078168683 0
0.83519238 -0.048576143 -0.045977358 0
0.83889526 -0.044400599 -0.016909702 0
0.8456133 -0.036824908 0.011973487 0
0.83859915 -0.044734444 0.042197011 0
0.83819252 -0.045193043 0.071631894 0
0.84309286 -0.039667096 0.10100663 0
0.84023881 -0.042885508 0.13045287 0
0.83923936 -0.044012573 0.159861 0
0.84658569 -0.035728361 0.19014288 0
0.83922422 -0.04402962 0.21896954 0
1.0980297 0.24781552 0.29431272 0
1.090385 0.23919466 0.33181673 0
0.58012766 -0.30202535 -0.090070061 0
0.65581822 -0.21220526 -0.090433963 0
0.72775656 -0.12683788 -0.084392883 0
0.84922415 0.017304692 -0.084021784 0
0.84339577 0.010388348 -0.051818166 0
0.8474074 0.015148792 -0.021634592 0
0.83992684 0.0062718722 0.0099540818 0
0.84020108 0.0065973136 0.04034026 0
0.83521903 0.00068518857 0.070870094 0
0.83439666 -0.00029065865 0.10100732 0
0.83959705 0.0058805081 0.13130301 0
0.83398461 -0.00077965518 0.16122539 0
0.8383773 0.0044330689 0.19189318 0
0.84277362 0.0096500255 0.22297943 0
0.84268582 0.0095458366 0.2537058 0
1.0965052 0.31074694 0.33999029 0
0.56078458 -0.28990319 -0.089451559 0
0.63750744 -0.19405088 -0.09088739 0
0.72799581 -0.081000835 -0.090239801 0
0.84830815 0.069309264 -0.089588188 0
0.85085624 0.072492748 -0.057981033 0
0.84324884 0.062988549 -0.024839154 0
0.83880359 0.05743495 0.0072397087 0
0.83855659 0.057126317 0.0385709 0
0.83776295 0.056134854 0.069836207 0
0.84287888 0.062526256 0.10100886 0
0.84443641 0.064472228 0.13243 0
0.84466439 0.064757019 0.16390218 0
0.83608711 0.054041181 0.19447386 0
0.83411181 0.05157331 0.22549194 0
0.84147084 0.060767207 0.25824434 0
1.1000018 0.38375822 0.34823525 0
1.1041921 0.38899341 0.39122555 0
0.54555374 -0.27258793 -0.09036281 0
0.61535537 -0.18072405 -0.090300642 0
0.70421129 -0.063783497 -0.090067036 0
0.72523564 -0.036114004 -0.067266889 0
0.72757369 -0.033036973 -0.039392982 0
0.73123753 -0.028215077 -0.01169545 0
0.72700268 -0.033788469 0.017076025 0
0.72615713 -0.034901228 0.045167841 0
0.72622055 -0.034817781 0.073098905 0
0.73295408 -0.025956001 0.10100494 0
0.72787124 -0.032645371 0.12897396 0
0.72855633 -0.031743731 0.15702638 0
0.72182202 -0.040606525 0.1843345 0
0.7329281 -0.025990214 0.21396674 0
0.73195112 -0.027276006 0.24224934 0
0.72962469 -0.030337717 0.27029732 0
0.73272443 -0.026258256 0.29982448 0
0.73206151 -0.027130689 0.32864618 0
0.53042316 -0.2547389 -0.091499172 0
0.5931018 -0.167779 -0.089766867 0
0.67612308 -0.05259588 -0.088798575 0
0.7323069 0.025353108 -0.074802063 0
0.95276606 0.33121648 -0.089273043 0
0.84994966 0.18856981 -0.03455383 0
0.83843899 0.17260006 0.00084259571 0
0.83973151 0.17439333 0.034189571 0
0.83695513 0.17054132 0.067728937 0
0.83546305 0.16847125 0.10101114 0
0.8471725 0.18471685 0.1347008 0
0.84198427 0.17751876 0.16801289 0
0.8385334 0.17273095 0.20119168 0
0.84587538 0.18291715 0.23592745 0
0.83736086 0.17110422 0.26822951 0
0.8451547 0.18191734 0.30394939 0
1.1012138 0.53717178 0.41033301 0
0.50868291 -0.24606183 -0.090354256 0
0.57899415 -0.14313367 -0.092040338 0
0.65405762 -0.033248868 -0.089318164 0
0.77010375 0.13663009 -0.09065529 0
0.92304569 0.36052051 -0.090081193 0
1.1568842 0.70283478 -0.090307213 0
0.85367852 0.25897446 -0.00471255 0
0.84306526 0.2434378 0.031469103 0
0.83932918 0.23796859 0.066413879 0
0.84079331 0.24011186 0.1010129 0
0.8412655 0.24080315 0.13569184 0
0.83777052 0.23568693 0.17011958 0
0.84085423 0.24020115 0.20514937 0
0.84219879 0.24216941 0.24026041 0
0.84574294 0.24735764 0.27609167 0
0.8377499 0.23565665 0.30953622 0
1.09899 0.61808389 0.42101279 0
1.1011361 0.62122554 0.46844852 0
0.49290365 -0.22864118 -0.091581307 0
0.55264956 -0.13625839 -0.090371646 0
0.63025194 -0.016264882 -0.089476787 0
0.73544216 0.14638653 -0.089100324 0
0.88787574 0.38208869 -0.089904867 0
1.1153829 0.73387414 -0.090575479 0
1.4829279 1.3021946 -0.089808054 0
0.84431773 0.31473663 0.028672354 0
0.84711391 0.31906024 0.064743407 0
0.8468051 0.3185828 0.10101486 0
0.83467001 0.29981878 0.13675231 0
0.84004873 0.30813566 0.17299087 0
0.84107727 0.30972603 0.20920934 0
0.84013718 0.30827251 0.24529572 0
0.83626366 0.30228296 0.28082696 0
0.84283477 0.31244364 0.31892321 0
0.83866894 0.30600217 0.35458422 0
1.0981085 0.70716339 0.48161781 0
0.46990177 -0.22244582 -0.090092771 0
0.53405505 -0.11753467 -0.091492288 0
0.60436386 -0.0025571848 -0.089118503 0
0.70456797 0.16130856 -0.088565327 0
0.84960163 0.39848498 -0.08914531 0
1.0646271 0.75012022 -0.089336656 0
1.4260945 1.3412352 -0.090003006 0
0.84736413 0.39482597 0.025440449 0
0.85240263 0.40306547 0.063024484 0
0.84254396 0.38694337 0.10101645 0
0.83684856 0.37762967 0.13831463 0
0.83793837 0.37941185 0.17575102 0
0.83732957 0.37841621 0.21313827 0
0.84221965 0.38641313 0.25157756 0
0.83746415 0.37863639 0.28845978 0
0.83706534 0.37798408 0.32629186 0
0.8380233 0.37955073 0.3647643 0
1.0972999 0.80355078 0.49691036 0
0.45301512 -0.20633617 -0.091202743 0
0.50967729 -0.10819468 -0.090658747 0
0.58521438 0.022639189 -0.09107063 0
0.68041623 0.18753329 -0.089999609 0
0.82135475 0.43164554 -0.090790473 0
1.0305986 0.79406577 -0.091240294 0
1.3674102 1.3774393 -0.090082817 0
1.3721193 1.3855956 -0.026695779 0
0.84731591 0.47661141 0.061614815 0
0.8420344 0.46746364 0.10101842 0
0.8409884 0.4656519 0.14012772 0
0.83778602 0.46010521 0.17898101 0
0.8401832 0.46425727 0.21840376 0
0.83937705 0.46286097 0.25758034 0
0.83802044 0.46051124 0.29672369 0
0.83911192 0.46240166 0.33664241 0
0.84066403 0.46509007 0.37707675 0
0.84152222 0.46657649 0.41770539 0
0.43073007 -0.19956526 -0.090141512 0
0.48993817 -0.09076342 -0.091704465 0
0.55723774 0.032907519 -0.090294026 0
0.65045458 0.20420447 -0.089984082 0
0.78115898 0.44438925 -0.089792155 0
0.97728729 0.80479819 -0.089680485 0
1.2876183 1.3750679 -0.087210052 0
1.2936127 1.3860834 -0.024928084 0
1.2947718 1.3882132 0.038037468 0
0.85103738 0.57279915 0.10102117 0
0.83841044 0.54959553 0.14180508 0
0.84317511 0.55835122 0.18309866 0
0.83792788 0.54870886 0.22348103 0
0.83925253 0.55114299 0.26476735 0
0.84428984 0.56039959 0.30727115 0
0.84317291 0.55834717 0.34868878 0
0.84388113 0.55964857 0.39089707 0
0.83698159 0.54696983 0.43050012 0
0.41347182 -0.18349573 -0.091449581 0
0.46385568 -0.085073024 -0.090358593 0
0.53118438 0.046450768 -0.0902633 0
0.62658912 0.23281994 -0.091974668 0
0.74863797 0.47123721 -0.090792574 0
0.94159806 0.84817654 -0.091705985 0
1.2492449 1.4491515 -0.090537913 0
1.2400466 1.4311831 -0.025620615 0
1.2438195 1.4385533 0.037555482 0
1.2485728 1.4478385 0.10104856 0
0.85041702 0.67005831 0.14441885 0
0.84211171 0.65383416 0.18701164 0
0.84049594 0.65067786 0.22987461 0
0.83976489 0.64924973 0.2728934 0
0.84373653 0.65700823 0.31723157 0
0.84078807 0.65124851 0.36008355 0
0.84019482 0.65008956 0.40376452 0
0.84117478 0.65200394 0.44837075 0
0.39204818 -0.17534533 -0.090977751 0
0.44305575 -0.069182605 -0.091298781 0
0.50790721 0.065793663 -0.091411091 0
0.58892566 0.23441818 -0.089823432 0
0.71657318 0.50009269 -0.092148356 0
0.89201516 0.86524218 -0.091076143 0
1.1847454 1.4745052 -0.090121798 0
1.7843043 2.7223744 -0.090734966 0
4.4981074 8.3706474 -0.14046806 0
0.85162497 0.78117758 0.19252649 0
0.84091222 0.75888103 0.23667003 0
0.8424626 0.76210791 0.28244874 0
0.83987653 0.75672549 0.32747716 0
0.84059852 0.75822812 0.37354648 0
0.83872265 0.75432378 0.41901001 0
0.83904922 0.75500363 0.46557865 0
0.37118027 -0.16619685 -0.090870626 0
0.4161354 -0.066246182 -0.089662112 0
0.47603559 0.066932589 -0.089371927 0
0.5595457 0.2526044 -0.090399928 0
0.67153674 0.50159901 -0.09008836 0
0.84397006 0.88497764 -0.090855472 0
1.1192682 1.4970601 -0.089621343 0
1.6901355 2.7662947 -0.090740405 0
4.2631631 8.4870214 -0.14061815 0
1.0683397 1.3838284 0.22225958 0
0.85262364 0.90421754 0.24623683 0
0.8381322 0.87199813 0.29158539 0
0.83724999 0.87003654 0.33936268 0
0.83785099 0.87137288 0.38780874 0
0.83960521 0.87527305 0.43710363 0
0.84008265 0.87633461 0.48639071 0
0.34474689 -0.17033508 -0.087823756 0
0.39807686 -0.043288972 -0.092271917 0
0.45450148 0.091129333 -0.091608293 0
0.52597606 0.26140073 -0.089652844 0
0.63776284 0.52770633 -0.091313176 0
0.79762638 0.90854353 -0.091148324 0
1.0623693 1.5392311 -0.090739436 0
1.594779 2.8075714 -0.090732984 0
4.0217514 8.5892611 -0.14056058 0
0.99908102 1.3884616 0.22117059 0
0.85206121 1.0382216 0.25482041 0
0.8422004 1.0147305 0.30396366 0
0.83944577 1.0081683 0.35427916 0
0.84379286 1.0185242 0.40711671 0
0.8401227 1.0097809 0.45742035 0
0.84116828 1.0122716 0.50996292 0
0.32936931 -0.14810285 -0.090977095 0
0.37183627 -0.039322939 -0.091108866 0
0.42569035 0.098625213 -0.090972595 0
0.49630925 0.27951661 -0.090447567 0
0.59743345 0.53854805 -0.090718217 0
0.74782968 0.92379051 -0.090722568 0
0.99277329 1.5512176 -0.089689635 0
1.4927931 2.8320267 -0.090005867 0
3.7760298 8.6805763 -0.14038379 0
0.92396885 1.3749738 0.21927345 0
0.84814477 1.1807492 0.2639612 0
0.8389737 1.1572573 0.31618971 0
0.83760738 1.1537576 0.36997864 0
0.83966959 1.15904 0.42521131 0
0.84010369 1.160152 0.4803355 0
0.83768708 1.1539617 0.53446215 0
0.30881923 -0.13793191 -0.091463737 0
0.34758472 -0.030724075 -0.091017567 0
0.40012771 0.11458614 -0.091949768 0
0.43664411 0.21557406 -0.079084702 0
0.43230841 0.20358339 -0.047279213 0
0.43583241 0.21332923 -0.018395824 0
0.93635243 1.597542 -0.091333203 0
1.4026338 2.8870656 -0.090927415 0
3.5378718 8.7921724 -0.14086407 0
0.85928506 1.3844085 0.2186241 0
0.85149282 1.3628585 0.27597129 0
0.84136587 1.334852 0.33179569 0
0.84104693 1.3339698 0.38984647 0
0.83656687 1.3215799 0.44644994 0
0.83697921 1.3227205 0.50517523 0
0.83685225 1.3223693 0.56410956 0
0.2860724 -0.13394049 -0.090678476 0
0.32111999 -0.028790619 -0.08972574 0
0.36959684 0.11664966 -0.090623401 0
0.40654206 0.22749272 -0.07927873 0
0.40269685 0.21595636 -0.047509555 0
0.40211931 0.21422365 -0.017441986 0
0.86911863 1.6153154 -0.090964504 0
1.3027455 2.9162831 -0.090686299 0
3.2868781 8.8690815 -0.14063819 0
0.79068649 1.3800032 0.21738076 0
0.85145247 1.5623136 0.28915387 0
0.83688873 1.5186193 0.34787282 0
0.83982211 1.52742 0.41116893 0
0.84465986 1.5419343 0.4760904 0
0.83991277 1.5276921 0.53716934 0
0.84015942 1.5284321 0.60099137 0
0.26478106 -0.1257731 -0.090955488 0
0.29812515 -0.016627815 -0.090590514 0
0.33980626 0.11980703 -0.089628197 0
0.37997946 0.25130609 -0.081331261 0
0.38174251 0.25707701 -0.051342968 0
0.38029957 0.25235382 -0.020213014 0
0.72703332 1.3873181 -0.07275755 0
0.72217584 1.371418 -0.01394592 0
0.72432059 1.3784385 0.043407913 0
0.72682285 1.3866291 0.10104132 0
0.72707337 1.387449 0.15889391 0
0.72497416 1.3805778 0.2164744 0
0.84019774 1.7577393 0.30194056 0
0.8369267 1.7470322 0.36819768 0
0.83490783 1.7404239 0.4347223 0
0.8367964 1.7466059 0.50316775 0
0.83819497 1.7511837 0.5720889 0
0.24222907 -0.1218389 -0.090415604 0
0.27547103 -0.0023143555 -0.091983579 0
0.31149015 0.12719551 -0.089490436 0
0.36497486 0.31950465 -0.089942001 0
0.43635583 0.57616132 -0.08893352 0
0.55266893 0.99437565 -0.091213398 0
0.66103798 1.3840261 -0.071244277 0
0.66066903 1.3826995 -0.013648106 0
0.65812624 1.3735569 0.043947972 0
0.66079253 1.3831437 0.1010407 0
0.66366041 1.3934553 0.15861432 0
0.6627391 1.3901427 0.21608987 0
0.8130613 1.9306397 0.31302279 0
0.81491959 1.9373214 0.38468459 0
0.81188101 1.9263959 0.45484534 0
0.80920607 1.9167778 0.52505046 0
0.81179726 1.9260948 0.5984816 0
0.21979205 -0.11791363 -0.090002351 0
0.24794343 -0.0058089164 -0.090020977 0
0.28376082 0.13682356 -0.089854576 0
0.33172163 0.32781366 -0.089875586 0
0.39750093 0.58976072 -0.089308597 0
0.49672168 0.98487872 -0.089020588 0
0.59550595 1.3782585 -0.069682591 0
0.59385055 1.3716664 -0.012355803 0
0.59794188 1.3879588 0.043982167 0
0.59472245 1.3751385 0.10103999 0
0.59858388 1.3905153 0.15816009 0
0.59610265 1.3806348 0.21486689 0
0.76699609 2.0611684 0.32102796 0
0.7693243 2.0704401 0.3956157 0
0.7694034 2.0707548 0.46989468 0
0.76791793 2.0648394 0.54369122 0
0.19748135 -0.11380753 -0.089754544 0
0.22442469 0.006231341 -0.091202773 0
0.25881714 0.15945771 -0.092525654 0
0.30070418 0.34607425 -0.091364108 0
0.3559722 0.5923062 -0.088475339 0
0.44737652 0.99953371 -0.089286081 0
0.55189502 1.4651878 -0.074890204 0
0.55195796 1.4654684 -0.016153505 0
0.55188054 1.4651232 0.042484302 0
0.55221862 1.4666295 0.10104226 0
0.55031967 1.4581692 0.15943408 0
0.54993409 1.4564514 0.2178075 0
0.71602905 2.1964433 0.32941189 0
0.71432316 2.188843 0.40518701 0
0.71338707 2.1846724 0.4813399 0
0.71243691 2.1804392 0.55769992 0
0.17572796 -0.10711643 -0.090190478 0
0.20016022 0.016220246 -0.092099078 0
0.22477213 0.14046386 -0.0883146 0
0.26608357 0.34900859 -0.090761967 0
0.31769291 0.60953826 -0.089521252 0
0.3983568 1.0167384 -0.089911692 0
0.41740814 1.1129117 -0.048849259 0
0.4163436 1.1075377 0.0014563224 0
0.41518617 1.1016948 0.051409308 0
0.41455197 1.0984933 0.10103115 0
0.41552442 1.1034026 0.15069383 0
0.41702247 1.1109648 0.20076963 0
0.41591433 1.1053708 0.25037515 0
0.41715172 1.1116171 0.30100393 0
0.41448185 1.0981395 0.34979931 0
0.40541017 1.0523446 0.39358771 0
0.29723662 0.50627273 0.35163423 0
0.27076015 0.37261656 0.36255395 0
0.15291861 -0.10586932 -0.08956904 0
0.17254713 0.0082533099 -0.089677148 0
0.19694759 0.15012053 -0.089043312 0
0.23279272 0.35852841 -0.091226406 0
0.27911389 0.62784547 -0.090805002 0
0.34768414 1.0265212 -0.089949109 0
0.36816129 1.1455779 -0.050468627 0
0.88085437 4.1264381 -0.14068766 0
1.7643275 9.2630587 -0.14090142 0
0.58222795 2.3901877 0.26080728 0
0.58056247 2.3805041 0.34020624 0
0.57847363 2.3683596 0.41917282 0
0.26190436 0.52778727 0.28096902 0
0.27203074 0.58666319 0.3257919 0
0.27065778 0.57868069 0.36254603 0
0.23717801 0.38402513 0.36351654 0
0.13140386 -0.096682876 -0.090779327 0
0.14831755 0.019067798 -0.090972118 0
0.16750346 0.15036872 -0.088323511 0
0.19798736 0.35898867 -0.090521999 0
0.23860165 0.6369372 -0.091110758 0
0.29697666 1.036433 -0.090119429 0
0.39451301 1.7039337 -0.089310952 0
0.75230658 4.152534 -0.14094755 0
1.503225 9.2915268 -0.14060162 0
0.50602996 2.4671125 0.26379079 0
0.50512964 2.4609509 0.34493643 0
0.50495368 2.4597468 0.4265244 0
0.22249565 0.52671391 0.28012127 0
0.27717078 0.90088922 0.36953855 0
0.19983199 0.37161258 0.36010152 0
0.10929412 -0.089913219 -0.091584958 0
0.12201395 0.015699301 -0.089688711 0
0.13950573 0.16093352 -0.089436896 0
0.16382237 0.36283424 -0.090423472 0
0.19687937 0.63730639 -0.090509392 0
0.24630752 1.0477078 -0.090537928 0
0.32806972 1.726579 -0.090266697 0
0.62223721 4.1690497 -0.14090985 0
1.244398 9.3348455 -0.14080508 0
0.42609572 2.540488 0.26668906 0
0.42380616 2.5214777 0.34838289 0
0.42321754 2.5165906 0.43077892 0
0.42438394 2.5262752 0.51502055 0
0.23124556 0.92264849 0.37171823 0
0.16554487 0.37713626 0.36027983 0
0.085424796 -0.099505514 -0.089014433 0
0.096505322 0.017241035 -0.089463122 0
0.11121505 0.17222551 -0.090784512 0
0.12937142 0.36352435 -0.09000162 0
0.15623967 0.6466133 -0.091082506 0
0.19493136 1.054276 -0.09063419 0
0.25829157 1.7218513 -0.089415871 0
0.4921912 4.1862621 -0.14105853 0
0.98410112 9.3691177 -0.14094955 0
0.34140399 2.5975394 0.26891068 0
0.34017548 2.5845954 0.35214764 0
0.34134418 2.596909 0.43741941 0
0.34045026 2.5874906 0.52108741 0
0.33995798 2.582304 0.60536802 0
0.17192566 0.81188375 0.39843252 0
0.13079719 0.37854663 0.35984322 0
0.063488573 -0.089876562 -0.090672471 0
0.071724065 0.028610382 -0.091215141 0
0.080684379 0.15752557 -0.087965421 0
0.095166817 0.36588958 -0.089939125 0
0.11426689 0.64068907 -0.089990519 0
0.14230712 1.0441136 -0.08928632 0
0.19137296 1.7500415 -0.090996884 0
0.36113879 4.192523 -0.14084923 0
0.72200918 9.3844929 -0.14080665 0
0.25354302 2.6445043 0.27075711 0
0.25278118 2.6335433 0.35506016 0
0.13364913 0.91954809 0.27968228 0
0.13391212 0.92333192 0.32515538 0
0.13409579 0.92597443 0.37089291 0
0.12522733 0.79838091 0.39559081 0
0.096142434 0.37992612 0.35956737 0
0.04047076 -0.095482677 -0.089204974 0
0.046367437 0.037959609 -0.092702337 0
0.051924299 0.16371194 -0.088712342 0
0.061048679 0.37019745 -0.090271495 0
0.073554672 0.65320939 -0.091181539 0
0.091258831 1.0538561 -0.089923896 0
0.12239891 1.7585592 -0.091317795 0
0.22936988 4.1793218 -0.13988744 0
0.46002868 9.3991518 -0.14080127 0
0.16320486 2.6820011 0.27226326 0
0.16268826 2.6703105 0.35727096 0
0.086902462 0.95527107 0.28276584 0
0.085655235 0.92704624 0.32526881 0
0.086882345 0.95481592 0.37456492 0
0.076820031 0.72710484 0.38343859 0
0.061391398 0.37795332 0.35882467 0
0.017979607 -0.0909082 -0.090026133 0
0.020427352 0.038404856 -0.092632048 0
0.022842828 0.16601315 -0.088939629 0
0.02687313 0.37893191 -0.091346987 0
0.031961624 0.64775425 -0.090390928 0
0.039560888 1.0492194 -0.08933907 0
0.052962825 1.7572365 -0.091072269 0
0.099321082 4.2063193 -0.14095281 0
0.19769716 9.4034758 -0.14070937 0
0.070892088 2.7044301 0.27317256 0
0.070536442 2.685642 0.35813984 0
0.070678927 2.6931694 0.44496632 0
0.070604272 2.6892252 0.53118086 0
0.032814164 0.69279355 0.37757164 0
0.026744708 0.37214747 0.35752535 0
-0.0046347026 -0.099994868 -0.088064201 0
-0.005386746 0.019241367 -0.088991694 0
-0.0063183284 0.16694358 -0.089062311 0
-0.0076541305 0.3787345 -0.091288634 0
-0.0093857022 0.65327471 -0.091005661 0
-0.011897627 1.0515397 -0.089525349 0
-0.016389519 1.7637279 -0.091495506 0
-0.031803593 4.2076249 -0.14097509 0
-0.064600371 9.4075441 -0.14076549 0
-0.02255005 2.7404783 0.27482545 0
-0.022446617 2.7240791 0.36078829 0
-0.022392444 2.7154899 0.44699627 0
-0.022409113 2.7181327 0.53449261 0
-0.0094587924 0.66486317 0.3729355 0
-0.007667236 0.38081244 0.35911709 0
-0.027342007 -0.091822475 -0.089892529 0
-0.031075191 0.026498947 -0.090450101 0
-0.035732847 0.17412117 -0.090333335 0
-0.042058565 0.37461165 -0.090800785 0
-0.050852954 0.65334553 -0.091105647 0
-0.063913368 1.0672886 -0.09108711 0
-0.085341714 1.7464499 -0.090378948 0
-0.11860029 2.8005641 -0.075552858 0
-0.11919393 2.8193791 0.012373017 0
-0.11883023 2.8078518 0.10107885 0
-0.1187947 2.806726 0.18949041 0
-0.11692958 2.7476115 0.27524117 0
-0.11646424 2.7328632 0.36152729 0
-0.11652312 2.7347288 0.44895938 0
-0.11672595 2.7411578 0.53739339 0
-0.050869461 0.65386873 0.37125692 0
-0.042297978 0.38219979 0.35950193 0
-0.050249953 -0.088020712 -0.090914883 0
-0.056817044 0.027524982 -0.090857215 0
-0.065458849 0.17957428 -0.09144444 0
-0.076573007 0.37512401 -0.091086857 0
-0.092090622 0.64815098 -0.090711854 0
-0.11592078 1.0674343 -0.091314979 0
-0.15464313 1.7487404 -0.090752818 0
-0.21405545 2.7940786 -0.075447388 0
-0.21451516 2.8021672 0.012675004 0
-0.21385999 2.7906396 0.10107848 0
-0.21318145 2.7787011 0.18893492 0
-0.21100171 2.7403493 0.27509654 0
-0.21133561 2.7462242 0.36275434 0
-0.21061389 2.7335258 0.44923505 0
-0.077778332 0.39633122 0.26325446 0
-0.07722304 0.38656119 0.29471779 0
-0.076744497 0.37814131 0.32615298 0
-0.077531591 0.39198986 0.36163792 0
-0.083276868 0.035755191 -0.09274938 0
-0.093640126 0.16184059 -0.088857837 0
-0.11073794 0.36986259 -0.090682097 0
-0.1339622 0.65242225 -0.091549225 0
-0.16633213 1.0462534 -0.089668848 0
-0.22394601 1.7472172 -0.090982534 0
-0.42569193 4.2017746 -0.14151284 0
-0.85043764 9.3694763 -0.14068773 0
-0.30643517 2.7508276 0.27589229 0
-0.30500504 2.733428 0.36231557 0
-0.30422181 2.7238989 0.44894424 0
-0.30537623 2.7379439 0.53827024 0
-0.11321273 0.39997223 0.29694977 0
-0.11323769 0.40027598 0.33019969 0
-0.1120164 0.38541701 0.36085293 0
-0.094534427 -0.1021165 -0.088699095 0
-0.10892352 0.031543169 -0.092415966 0
-0.12264832 0.15903226 -0.088848792 0
-0.14524116 0.36889616 -0.09100505 0
-0.17561039 0.6509946 -0.091843046 0
-0.21789901 1.0438118 -0.089896746 0
-0.29098958 1.7227466 -0.089722209 0
-0.55351901 4.1613712 -0.14020246 0
-1.1106937 9.3369427 -0.14050642 0
-0.39882088 2.7243867 0.27507213 0
-0.39866808 2.7229676 0.36220613 0
-0.39918643 2.7277825 0.45014346 0
-0.39827436 2.71931 0.53712732 0
-0.14885117 0.40242937 0.29776713 0
-0.14932723 0.40685144 0.3318367 0
-0.14602242 0.37615326 0.35972062 0
-0.11742265 -0.10079905 -0.089558937 0
-0.13334405 0.018681083 -0.090560578 0
-0.15279846 0.16467395 -0.090361975 0
-0.17959613 0.36577335 -0.091146655 0
-0.21625988 0.64091152 -0.091241084 0
-0.26940072 1.0396996 -0.090090476 0
-0.35809022 1.7052579 -0.089069195 0
-0.68494844 4.1581211 -0.14078389 0
-1.3707187 9.3043909 -0.1404779 0
-0.49166778 2.7076721 0.2748161 0
-0.49009252 2.6958511 0.36108726 0
-0.2416466 0.83142275 0.2725246 0
-0.24134362 0.82914895 0.31548244 0
-0.18387616 0.39789227 0.29772264 0
-0.18397334 0.39862159 0.33117437 0
-0.18166609 0.38130715 0.36148787 0
-0.14014404 -0.10192153 -0.090021186 0
-0.16014144 0.023824725 -0.092249118 0
-0.18179046 0.15995672 -0.090283774 0
-0.21427706 0.36423686 -0.091637708 0
-0.2562308 0.62804753 -0.090428777 0
-0.32146066 1.0382216 -0.090656601 0
-0.42752367 1.7051601 -0.089764319 0
-0.81357616 4.1327105 -0.14047912 0
-1.6322093 9.280386 -0.14080469 0
-0.58038503 2.6663728 0.27350906 0
-0.57931387 2.6596375 0.35948256 0
-0.27906293 0.77161902 0.26750261 0
-0.27905166 0.77154821 0.30945492 0
-0.27872422 0.76948923 0.35134986 0
-0.21623662 0.37655881 0.36154437 0
-0.1631749 -0.10205373 -0.09082336 0
-0.1826701 0.0033193564 -0.089161806 0
-0.20833462 0.14203802 -0.088120721 0
-0.24870752 0.36025658 -0.09190663 0
-0.29666218 0.61945504 -0.090240039 0
-0.37038448 1.0179298 -0.089563929 0
-0.49475032 1.6901364 -0.089525826 0
-0.9434638 4.1154671 -0.14071296 0
-1.889165 9.2270546 -0.14059532 0
-0.66867405 2.6302075 0.27254522 0
-0.66787678 2.6258984 0.35820633 0
-0.6677016 2.6249514 0.44426194 0
-0.66535294 2.6122565 0.52925068 0
-0.28801498 0.5727163 0.36213842 0
-0.25297907 0.38334456 0.36397797 0
-0.18750414 -0.09703061 -0.092875786 0
-0.20882951 0.0039242837 -0.090231068 0
-0.23613256 0.13317767 -0.087579973 0
-0.27950847 0.33852044 -0.089751102 0
-0.33757153 0.61339241 -0.090474062 0
-0.42197275 1.0129499 -0.090043701 0
-0.56688863 1.6989856 -0.091112755 0
-0.61918807 1.9465728 -0.03872386 0
-0.61892688 1.9453361 0.031233313 0
-0.61902225 1.9457877 0.10105604 0
-0.75404531 2.5849905 0.27125087 0
-0.75339544 2.5819139 0.35635006 0
-0.75227225 2.5765967 0.4413664 0
-0.75220525 2.5762794 0.52709723 0
-0.28550148 0.36689129 0.36212763 0
-0.20626549 -0.11759648 -0.089483492 0
-0.23569842 0.0062048766 -0.091758646 0
-0.2674675 0.13983253 -0.089775197 0
-0.31284374 0.33069506 -0.089704044 0
-0.37436584 0.58947045 -0.088687725 0
-0.47117105 0.99665445 -0.089565255 0
-0.52515668 1.2237298 -0.058052901 0
-0.61989623 1.622225 -0.023996582 0
-0.61831504 1.6155744 0.038718008 0
-0.6179657 1.6141047 0.10104679 0
-0.83685881 2.5348175 0.26981425 0
-0.83399075 2.5227537 0.35354602 0
-0.83311796 2.5190825 0.43777847 0
-0.83236831 2.5159292 0.52226418 0
-0.83458585 2.5252566 0.60886335 0
-0.23046422 -0.11451921 -0.091370828 0
-0.26032618 -0.0016494062 -0.091453575 0
-0.29696608 0.1368393 -0.09047889 0
-0.34644011 0.32383731 -0.089919262 0
-0.41501495 0.58303124 -0.089114912 0
-0.52541262 1.0003037 -0.091128834 0
-0.57893282 1.2025952 -0.057535473 0
-0.64934832 1.4687462 -0.017400002 0
-0.64907414 1.46771 0.041878469 0
-0.64574867 1.4551406 0.10104258 0
-0.91486204 2.4723144 0.26787394 0
-0.91228926 2.46259 0.35079738 0
-0.90826446 2.4473772 0.43299201 0
-0.91252583 2.463484 0.51859885 0
-0.91087979 2.4572625 0.60220361 0
-0.25105956 -0.12544379 -0.090306513 0
-0.28298765 -0.016009953 -0.089991219 0
-0.32424 0.12538293 -0.089865901 0
-0.34472701 0.19560233 -0.072490878 0
-0.4580664 0.58407432 -0.090580679 0
-0.57114452 0.9716509 -0.089695804 0
-0.71248704 1.4561038 -0.077113353 0
-0.71237093 1.4557059 -0.01760128 0
-0.71139258 1.4523525 0.041834243 0
-0.71467096 1.4635894 0.10104334 0
-0.98440641 2.3881104 0.26496091 0
-0.98112452 2.3768618 0.34630868 0
-0.98223054 2.3806527 0.42883867 0
-0.98128676 2.3774178 0.51105684 0
-0.98216277 2.3804204 0.59447992 0
-0.27139428 -0.13640162 -0.089341708 0
-0.30948815 -0.017115023 -0.091250591 0
-0.34836853 0.10463443 -0.087763079 0
-0.3787843 0.19987789 -0.07446406 0
-0.39065474 0.23704877 -0.049487162 0
-0.39836165 0.2611821 -0.021556554 0
-0.39830786 0.26101366 0.0092133377 0
-0.39773339 0.25921479 0.039954707 0
-0.39717799 0.25747564 0.070540234 0
-0.39518312 0.25122884 0.10100757 0
-0.39564279 0.25266829 0.13135771 0
-0.39622289 0.2544848 0.16182965 0
-0.39454544 0.24923208 0.19193743 0
-0.39756384 0.25868383 0.22332801 0
-0.39670771 0.25600293 0.25382906 0
-0.39542183 0.2519764 0.28416666 0
-0.3959502 0.25363091 0.31548652 0
-0.39552948 0.25231341 0.34654042 0
-0.29390296 -0.14044753 -0.090038784 0
-0.33422431 -0.024376895 -0.091426231 0
-0.38345489 0.11734012 -0.091567837 0
-0.42921737 0.24907377 -0.083264895 0
-0.42562482 0.23873213 -0.050966281 0
-0.43378165 0.26221266 -0.022693312 0
-0.43358365 0.26164261 0.0083917547 0
-0.43331406 0.26086667 0.039357923 0
-0.42976823 0.2506595 0.070450969 0
-0.43248889 0.25849131 0.10100811 0
-0.43018746 0.25186637 0.1315946 0
-0.43175101 0.25636724 0.16243657 0
-0.43092486 0.25398901 0.19305813 0
-0.43022591 0.251977 0.22369839 0
-0.43641895 0.26980451 0.25682864 0
-0.43112835 0.25457481 0.28610075 0
-0.42973247 0.2505565 0.31676334 0
-0.43096793 0.25411299 0.34897357 0
-0.31351519 -0.15270945 -0.089005165 0
-0.35121295 -0.05242851 -0.087545283 0
-0.40676722 0.095353037 -0.089472242 0
-0.47648454 0.28081027 -0.089718498 0
-0.4882696 0.31216004 -0.061527122 0
-0.51110888 0.37291554 -0.03486592 0
-0.51418477 0.38109782 -0.001378482 0
-0.50945807 0.3685241 0.033438761 0
-0.51401693 0.38065127 0.066942342 0
-0.51342893 0.37908712 0.10101213 0
-1.2009059 2.2078657 0.1805798 0
-1.1941143 2.1897991 0.25927833 0
-1.1577725 2.0931253 0.33137262 0
-1.1623555 2.1053166 0.40974829 0
-1.161334 2.1025991 0.48721081 0
-1.1610825 2.1019301 0.56526834 0
-0.33829677 -0.15159252 -0.091142125 0
-0.37897417 -0.051155236 -0.089670397 0
-0.43852448 0.095881492 -0.091451384 0
-0.50852191 0.26871338 -0.089772202 0
-0.51263988 0.2788811 -0.05893958 0
-0.50682777 0.26453033 -0.025295814 0
-0.51189971 0.27705351 0.0054558162 0
-0.50993258 0.27219644 0.037608508 0
-0.51506901 0.28487888 0.069007903 0
-0.51378816 0.28171638 0.10100955 0
-1.2751182 2.1615295 0.25942397 0
-1.1998448 1.9756708 0.32478735 0
-1.1973498 1.9695101 0.39912042 0
-1.1982541 1.9717431 0.47452626 0
-1.1983364 1.971946 0.55014825 0
-0.36124912 -0.15599224 -0.092168204 0
-0.40746453 -0.049673047 -0.092004977 0
-0.46134919 0.074289352 -0.089631058 0
-0.51731002 0.20302811 -0.081738003 0
-0.51427597 0.19604829 -0.050086487 0
-0.50668782 0.17859152 -0.017893812 0
-0.51475972 0.19716111 0.010528738 0
-0.51376539 0.1948736 0.040858876 0
-0.51371026 0.19474676 0.070952564 0
-0.51187229 0.19051853 0.10100713 0
-1.3511506 2.1212907 0.25906622 0
-1.2262077 1.8338575 0.31635171 0
-1.2293445 1.8410738 0.3892155 0
-1.2275888 1.8370347 0.46132892 0
-1.2226934 1.825773 0.53252316 0
-1.2266421 1.834857 0.60725874 0
-0.3763158 -0.17796162 -0.089222752 0
-0.42904469 -0.064572543 -0.0911128 0
-0.49011156 0.066746622 -0.090439565 0
-0.5111419 0.11197057 -0.069710858 0
-0.51363212 0.11732557 -0.041664023 0
-0.51633835 0.12314513 -0.013543 0
-0.51375824 0.11759678 0.015630679 0
-0.50906152 0.10749689 0.044658832 0
-0.5136326 0.11732665 0.072595082 0
-0.51068372 0.11098531 0.10100504 0
-1.4312032 2.0904858 0.2592873 0
-1.2494535 1.6996481 0.30845436 0
-1.2348412 1.6682258 0.37470192 0
-1.2397519 1.6787858 0.44503516 0
-1.2408961 1.6812463 0.51504016 0
-1.2366259 1.6720634 0.58352059 0
-0.40182179 -0.17734715 -0.091688611 0
-0.44687721 -0.086525649 -0.088840179 0
-0.51391613 0.048609648 -0.089446984 0
-0.50848579 0.037663255 -0.060135741 0
-0.50741959 0.035514031 -0.032730434 0
-0.51250923 0.04577354 -0.006878173 0
-0.50691235 0.034491573 0.021075139 0
-0.51278549 0.046330485 0.047150649 0
-0.51173991 0.044222746 0.074146301 0
-0.51468247 0.050154243 0.10100352 0
-1.2505963 1.5335891 0.29801559 0
-1.2419986 1.5162582 0.36219701 0
-1.2388462 1.5099037 0.42718819 0
-1.241334 1.5149188 0.49398732 0
-1.2384642 1.5091341 0.55950463 0
-0.42328939 -0.18566671 -0.092193834 0
-0.47252324 -0.092409581 -0.090054877 0
-0.53413326 0.024289999 -0.087403022 0
-0.53307325 0.022282157 -0.05978613 0
-0.5358817 0.027601752 -0.033423129 0
-0.52887052 0.01432148 -0.0049606618 0
-0.52874476 0.0140833 0.02164969 0
-0.53810817 0.031819139 0.047214817 0
-0.53157198 0.019438419 0.074449152 0
-0.53328955 0.022691879 0.10100307 0
-1.2487154 1.3778272 0.2882539 0
-1.2374403 1.3564703 0.34871751 0
-1.2423506 1.3657711 0.41237155 0
-1.2449859 1.3707628 0.476179 0
-1.2416807 1.3645024 0.5385772 0
-1.2380279 1.3575833 0.60098368 0
-0.43822077 -0.20591965 -0.089929335 0
-0.49510542 -0.10445699 -0.090094812 0
-0.56189191 0.014667068 -0.088194571 0
-0.55263686 -0.0018406775 -0.05812243 0
-0.55875051 0.0090639926 -0.032797579 0
-0.56420809 0.018798385 -0.0069044735 0
-0.55814832 0.007989917 0.021041268 0
-0.56696725 0.023719702 0.046903808 0
-0.5586859 0.0089487173 0.074362047 0
-0.55835736 0.0083626844 0.10100305 0
-1.2929063 1.3185451 0.1626375 0
-1.2997959 1.3308339 0.22495264 0
-1.2461401 1.2351305 0.27939743 0
-1.2396996 1.2236428 0.3379207 0
-1.2379475 1.2205176 0.3972055 0
-1.2467337 1.2361894 0.45967638 0
-1.2383711 1.2212734 0.51763147 0
-1.2426355 1.2288795 0.58009744 0
-0.4572984 -0.2181721 -0.089701422 0
-0.51659518 -0.11839536 -0.089845009 0
-0.58620298 -0.0012685921 -0.08792416 0
-0.58445591 -0.0042084125 -0.060070235 0
-0.57921749 -0.013022806 -0.031757984 0
-0.58953249 0.0043338868 -0.0069171097 0
-0.58676118 -0.00032934206 0.020544747 0
-0.583682 -0.0055106548 0.047693294 0
-0.59086668 0.0065787765 0.07403563 0
-0.58274209 -0.0070921448 0.10100301 0
-1.3524948 1.2881455 0.16271833 0
-1.3534113 1.2896876 0.2245412 0
-1.2504756 1.1164813 0.27235922 0
-1.2406029 1.0998685 0.32795057 0
-1.2441845 1.1058953 0.38596195 0
-1.2404654 1.0996373 0.44260821 0
-1.2364488 1.0928786 0.49919066 0
-1.244324 1.1061299 0.56022608 0
-0.48284823 -0.22005984 -0.092192538 0
-0.53612489 -0.13535503 -0.089038737 0
-0.6082207 -0.020729449 -0.087083213 0
-0.6114819 -0.015544381 -0.060692582 0
-0.60542411 -0.025175657 -0.032144133 0
-0.60899782 -0.019493844 -0.0059674513 0
-0.61435932 -0.010969546 0.020172792 0
-0.61364114 -0.012111332 0.047227796 0
-0.60848403 -0.020310726 0.074355341 0
-0.6096999 -0.018377569 0.10100314 0
-1.2509586 1.0011637 0.26549286 0
-1.2370495 0.97904962 0.31814969 0
-1.2350127 0.97581142 0.37242445 0
-1.2361969 0.97769409 0.4276675 0
-1.2417901 0.98658663 0.48473871 0
-1.2360787 0.97750622 0.53873903 0
-0.49683449 -0.24043706 -0.090169735 0
-0.5628348 -0.14115259 -0.090853937 0
-0.63278955 -0.035919394 -0.087179713 0
-0.63753718 -0.028777506 -0.061119486 0
-0.63325465 -0.035219755 -0.032924835 0
-0.63603055 -0.031043973 -0.0064324643 0
-0.63637722 -0.030522492 0.02048474 0
-0.63932252 -0.026091781 0.047125049 0
-0.63731712 -0.02910861 0.074163042 0
-0.63880301 -0.026873376 0.10100339 0
-1.2499454 0.89247018 0.25906798 0
-1.2380426 0.87456483 0.31000504 0
-1.2411191 0.87919289 0.36332479 0
-1.2363709 0.87205011 0.41520786 0
-1.2391386 0.87621361 0.46926317 0
-1.2362078 0.87180477 0.52202809 0
-0.52274448 -0.24301282 -0.092824422 0
-0.58522058 -0.15398672 -0.091236211 0
-0.6646418 -0.040814426 -0.089468442 0
-0.6681875 -0.035761919 -0.062738784 0
-0.67026263 -0.032804932 -0.035597805 0
-0.6610415 -0.045944717 -0.0066008326 0
