# .PCD v0.7 - Point Cloud Data file format
VERSION 0.7
FIELDS x y z intensity
SIZE 4 4 4 4
TYPE F F F F
COUNT 1 1 1 1
WIDTH 1319
HEIGHT 1
VIEWPOINT 0 0 0 1 0 0 0
POINTS 1319
DATA ascii
1.137933 -1.0036379 0.15397039 0
1.120976 -1.0034239 0.17933957 0
1.1296908 -1.003534 0.20639858 0
1.1268859 -1.0034986 0.23263505 0
1.1354594 -1.0036067 0.26048365 0
1.1318047 -1.0035605 0.28690499 0
1.1237977 -1.0034596 0.3125385 0
0.89222312 -0.97804701 -0.088490315 0
1.0091343 -0.97657192 -0.088932641 0
1.1370789 -0.97495753 -0.085764788 0
1.1340309 -0.97499603 -0.058276016 0
1.6392064 -0.96862197 -0.090510435 0
2.5992129 -0.95650905 -0.14156941 0
3.4638278 -0.94559979 -0.14113498 0
5.1917915 -0.92379725 -0.14070554 0
10.391459 -0.85819042 -0.14063223 0
0.9002226 -0.95523912 -0.090312637 0
1.0198733 -0.95070809 -0.091077767 0
1.1232568 -0.94679314 -0.083610453 0
1.1347915 -0.9463563 -0.058484424 0
1.6394293 -0.92724639 -0.090658508 0
2.5828986 -0.89151859 -0.14020005 0
3.4615126 -0.85824674 -0.14112726 0
5.1947374 -0.79261196 -0.14099677 0
10.387692 -0.59596217 -0.14069852 0
0.89506596 -0.93281442 -0.089458309 0
1.0180342 -0.92504674 -0.09097565 0
1.1344719 -0.91769165 -0.085692771 0
1.1409515 -0.91728234 -0.059555221 0
1.6375027 -0.88591623 -0.090677299 0
2.5862427 -0.82598621 -0.14082041 0
3.4485769 -0.77151436 -0.14052992 0
5.1801038 -0.66213733 -0.14062274 0
10.382029 -0.33354238 -0.14087482 0
0.90104932 -0.90959239 -0.091099955 0
1.0141593 -0.89957672 -0.09061069 0
1.1590497 -0.88674694 -0.090105586 0
1.361056 -0.86885965 -0.090916105 0
1.6249549 -0.84549189 -0.089572228 0
2.5787592 -0.76103425 -0.14058238 0
3.4411223 -0.68467361 -0.14046939 0
5.1886725 -0.52993131 -0.14148606 0
10.354896 -0.072471946 -0.14070481 0
0.8985486 -0.88693118 -0.091056459 0
1.0082878 -0.87441629 -0.089987867 0
1.1396139 -0.85943961 -0.087379552 0
1.3500096 -0.83544564 -0.089844681 0
1.6288218 -0.80364931 -0.090514697 0
2.5697405 -0.69634503 -0.14035326 0
3.4322619 -0.59798133 -0.14046381 0
5.1558967 -0.4014146 -0.14057077 0
10.323131 0.18786719 -0.14057994 0
0.89022833 -0.86507863 -0.089886345 0
1.0034697 -0.84926069 -0.089683793 0
1.1560998 -0.82794088 -0.090719186 0
1.3355479 -0.80287498 -0.088404335 0
1.6264575 -0.76223987 -0.090849571 0
2.5640204 -0.63127816 -0.14058784 0
3.4233761 -0.51124072 -0.14061061 0
5.1380672 -0.27172735 -0.14050706 0
10.297271 0.448926 -0.14074725 0
0.90042222 -0.84042871 -0.092818908 0
1.0132565 -0.82175398 -0.092287667 0
1.144377 -0.80005282 -0.089505769 0
1.3430294 -0.76717478 -0.090200566 0
1.6243662 -0.72061193 -0.091341786 0
2.552345 -0.56702626 -0.14041504 0
3.420507 -0.42334065 -0.1413392 0
5.1332994 -0.13986394 -0.14121355 0
10.251793 0.70727521 -0.14060789 0
0.88449872 -0.82005793 -0.090247504 0
1.0021117 -0.79752976 -0.091022812 0
1.138589 -0.77138829 -0.08939711 0
1.335106 -0.73374647 -0.089929856 0
1.3478978 -0.73129624 -0.059310798 0
1.3536268 -0.73019892 -0.027581936 0
1.3419549 -0.73243457 0.00551893 0
1.3592719 -0.72911763 0.036585744 0
1.349196 -0.73104763 0.069053777 0
1.3413612 -0.73254836 0.10100936 0
0.88273942 -0.79721141 -0.090854876 0
0.98939568 -0.77397776 -0.089565717 0
1.1362592 -0.7419855 -0.089990906 0
1.2104576 -0.72582233 -0.072990067 0
1.2108928 -0.72572756 -0.043752972 0
1.1989176 -0.72833616 -0.013468316 0
1.2024708 -0.72756213 0.015004637 0
1.2001175 -0.72807479 0.04383551 0
1.207878 -0.72638428 0.072251275 0
1.2045301 -0.72711354 0.10100556 0
0.87085998 -0.77667516 -0.089377336 0
0.99562627 -0.74617982 -0.091888167 0
1.1207731 -0.71559149 -0.088487692 0
1.2051328 -0.69497234 -0.073237173 0
1.199363 -0.69638258 -0.043212209 0
1.2042916 -0.69517797 -0.014653986 0
1.2028633 -0.69552702 0.014473611 0
1.2204994 -0.69121647 0.042524546 0
1.1958333 -0.6972453 0.072371595 0
1.2087101 -0.694098 0.10100589 0
0.8733201 -0.75259656 -0.091161676 0
0.9892031 -0.72115374 -0.091893531 0
1.1265621 -0.68388379 -0.090710245 0
1.2031156 -0.66311234 -0.074080594 0
1.2113148 -0.66088766 -0.045600731 0
1.1933434 -0.66576385 -0.014349883 0
1.2037402 -0.66294283 0.013845468 0
1.199839 -0.66400141 0.043139648 0
1.2005291 -0.66381413 0.072071791 0
1.2081552 -0.66174495 0.10100611 0
0.86487705 -0.73131675 -0.090675138 0
0.97373569 -0.69880974 -0.090244822 0
1.1066266 -0.65912634 -0.088674031 0
1.2118011 -0.62771952 -0.076617636 0
1.2086344 -0.62866515 -0.046331469 0
1.1883558 -0.63472068 -0.014696172 0
1.1993057 -0.63145083 0.013540322 0
1.2110562 -0.62794191 0.042177338 0
1.2116759 -0.62775689 0.071592778 0
1.1972294 -0.63207084 0.10100604 0
0.85380876 -0.71099973 -0.089717202 0
0.96719182 -0.67400116 -0.090461753 0
1.1037471 -0.62944114 -0.089677237 0
1.2047528 -0.5964815 -0.076981299 0
1.2036893 -0.59682858 -0.046889398 0
1.1999828 -0.59803808 -0.01675324 0
1.1990052 -0.59835708 0.01287041 0
1.2051512 -0.59635156 0.042001169 0
1.2073339 -0.59563923 0.071466446 0
1.2034771 -0.59689778 0.10100651 0
0.83887154 -0.69228017 -0.087993287 0
0.95221078 -0.65210444 -0.089119203 0
1.0992602 -0.59997934 -0.090539239 0
1.2055571 -0.56229991 -0.078636117 0
1.2061452 -0.56209153 -0.048469264 0
1.2078794 -0.56147671 -0.01855067 0
1.1967711 -0.56541437 0.012276227 0
1.2169706 -0.55825418 0.040908746 0
1.2217507 -0.55655974 0.070856333 0
1.2087041 -0.56118441 0.10100698 0
0.83833838 -0.6684646 -0.089638479 0
0.95881903 -0.62230361 -0.09222918 0
1.08908 -0.57239544 -0.090537868 0
1.2039145 -0.52839774 -0.080067985 0
1.2113943 -0.52553195 -0.050523285 0
1.2136364 -0.52467293 -0.020243486 0
1.1997113 -0.53000814 0.011226939 0
1.2012907 -0.52940303 0.041128967 0
1.2168628 -0.52343678 0.07069651 0
1.2114112 -0.52552545 0.1010074 0
0.83180016 -0.64668739 -0.090057679 0
0.94344491 -0.60064882 -0.091045536 0
1.0929372 -0.53900319 -0.093155153 0
1.209749 -0.49083394 -0.082780875 0
1.2070588 -0.49194327 -0.05150317 0
1.2045631 -0.4929724 -0.020549966 0
1.2048023 -0.49287379 0.0099367965 0
1.2020756 -0.4939982 0.040485878 0
1.2112951 -0.49019635 0.070531189 0
1.203668 -0.49334154 0.10100754 0
0.82479894 -0.6249904 -0.090501018 0
0.92563689 -0.58039904 -0.089459322 0
1.0697211 -0.51668388 -0.091087259 0
1.2056166 -0.45658979 -0.084137551 0
1.2031474 -0.45768169 -0.052655999 0
1.1993111 -0.45937809 -0.021331115 0
1.2089953 -0.45509568 0.0086295698 0
1.2134607 -0.4531211 0.039250743 0
1.2107395 -0.45432445 0.070215389 0
1.2226831 -0.44904289 0.10100853 0
0.82217675 -0.60109091 -0.092107274 0
0.92632955 -0.5518555 -0.091814302 0
1.0542209 -0.4913983 -0.090499081 0
1.2321764 -0.40727463 -0.090415083 0
1.4839125 -0.28827319 -0.090735085 0
1.8626373 -0.10924122 -0.091235451 0
3.12238 0.48626831 -0.14039896 0
4.6934509 1.22895 -0.14066547 0
9.3951483 3.4515502 -0.14062352 0
0.80777866 -0.58268303 -0.091073759 0
0.91001129 -0.53116035 -0.090762503 0
1.041572 -0.46485701 -0.090544842 0
1.2211065 -0.37437615 -0.091045655 0
1.4551365 -0.25643083 -0.089345627 0
1.8302422 -0.067386955 -0.090232246 0
3.0822337 0.5635857 -0.14024843 0
4.6437054 1.3505285 -0.14106774 0
9.284483 3.6893647 -0.14073737 0
0.79942834 -0.56129515 -0.09159606 0
0.89443278 -0.51036972 -0.089965396 0
1.0320036 -0.4366273 -0.091289796 0
1.1951808 -0.34915909 -0.08944758 0
1.4339892 -0.22115007 -0.089054741 0
1.805933 -0.021776166 -0.090182863 0
3.0473635 0.64367086 -0.14066814 0
4.5705428 1.460144 -0.14039963 0
9.1701317 3.9256718 -0.14091282 0
0.79217458 -0.53912395 -0.092525192 0
0.88677204 -0.48530099 -0.090985514 0
1.0195309 -0.40976533 -0.091630124 0
1.1782959 -0.319433 -0.089390419 0
1.2148051 -0.29866037 -0.062249262 0
1.2168281 -0.2975094 -0.029601505 0
3.0098233 0.72264928 -0.14104062 0
4.5097408 1.5760555 -0.14053111 0
9.0333214 4.1498322 -0.1406485 0
0.76404566 -0.52926314 -0.088425182 0
0.8669762 -0.46720991 -0.089490496 0
0.99742365 -0.38856772 -0.090255879 0
1.1598514 -0.29064569 -0.089198671 0
1.1452807 -0.29942992 -0.055192072 0
1.1914769 -0.27157983 -0.028783014 0
2.9596517 0.79439121 -0.14054921 0
4.4551392 1.6959686 -0.1411595 0
8.8954411 4.3728719 -0.14050353 0
0.75840038 -0.50619918 -0.089989491 0
0.86342704 -0.43921229 -0.091701977 0
0.98853475 -0.35941747 -0.091539569 0
1.1370817 -0.26467291 -0.088403054 0
1.1386613 -0.26366553 -0.056737814 0
1.1809568 -0.236689 -0.029665088 0
2.9247432 0.87551349 -0.14146443 0
4.372056 1.7986224 -0.14039123 0
8.7721663 4.6050515 -0.14091301 0
0.7503593 -0.48428473 -0.091114469 0
0.84392303 -0.42123249 -0.090486743 0
0.96683735 -0.33840099 -0.090451382 0
1.1174761 -0.23688617 -0.088240169 0
1.1338567 -0.22584739 -0.058691997 0
1.1644681 -0.20521852 -0.029988786 0
2.8687565 0.94329494 -0.14078958 0
4.3094125 1.9141474 -0.14090154 0
8.6193571 4.8186021 -0.14066444 0
0.74699652 -0.45869741 -0.093623154 0
0.83844709 -0.39365485 -0.092595853 0
0.95636493 -0.3097879 -0.091713451 0
1.1091709 -0.20110741 -0.090143062 0
1.1523592 -0.17039046 -0.064159952 0
1.1355026 -0.18237945 -0.028979441 0
2.8221869 1.0172446 -0.14105591 0
4.2352748 2.0222778 -0.14092955 0
8.4752035 5.0378513 -0.14081079 0
0.72783786 -0.44419339 -0.092152871 0
0.80901814 -0.38331363 -0.089268319 0
0.93757904 -0.28690156 -0.091438748 0
1.0885408 -0.17369041 -0.090074442 0
1.0957136 -0.16831133 -0.058956701 0
1.0980262 -0.16657701 -0.027024483 0
1.0930933 -0.17027631 0.0055366997 0
1.0979737 -0.16661635 0.03713442 0
1.1045688 -0.16167042 0.068897597 0
1.0951045 -0.16876814 0.10100944 0
1.0980933 -0.16652671 0.13293335 0
1.1054434 -0.16101459 0.16532004 0
1.0984619 -0.16625026 0.19695194 0
0.70196146 -0.43542334 -0.088931344 0
0.80281615 -0.35573527 -0.091511495 0
0.9226957 -0.26101521 -0.0920958 0
1.0527961 -0.15821943 -0.087420054 0
1.095574 -0.12441936 -0.062073264 0
1.096267 -0.12387189 -0.029326117 0
1.1036391 -0.11804697 0.0027249327 0
1.1014507 -0.1197761 0.035675827 0
1.1045232 -0.1173484 0.068269767 0
1.0952423 -0.12468156 0.10101021 0
1.1054875 -0.1165866 0.13378002 0
1.0988427 -0.12183669 0.1661903 0
1.0980861 -0.12243453 0.19880132 0
0.69484621 -0.41202065 -0.09088973 0
0.7882188 -0.33433869 -0.091914095 0
0.89341551 -0.24681953 -0.089827113 0
1.0334477 -0.13031879 -0.087777488 0
1.0980189 -0.076598376 -0.065815516 0
1.1129847 -0.064147502 -0.034049559 0
1.0954485 -0.078736752 0.0014387837 0
1.1020501 -0.073244542 0.034289706 0
1.1132109 -0.063959271 0.067331001 0
1.1023669 -0.07298103 0.1010113 0
1.1014199 -0.073768824 0.13433495 0
1.0901635 -0.083133727 0.1670123 0
1.0972602 -0.07722953 0.20074859 0
0.67661244 -0.39771613 -0.089915656 0
0.76712275 -0.31846699 -0.090832524 0
0.87787831 -0.22149155 -0.090587355 0
1.0018312 -0.11296079 -0.085981466 0
1.1077172 -0.020248976 -0.070953555 0
1.0956147 -0.030845668 -0.034834433 0
1.0982741 -0.028517153 -0.00099091022 0
1.1062913 -0.021497395 0.032575402 0
1.0935998 -0.032609846 0.067204602 0
1.0976259 -0.029084709 0.10101201 0
1.0922643 -0.03377923 0.13477778 0
1.1027025 -0.024639752 0.16922711 0
1.1042135 -0.023316707 0.20356774 0
1.0935684 -0.032637265 0.23660502 0
1.0943834 -0.031923737 0.3747879 0
0.67244065 -0.37075278 -0.093085818 0
0.74863452 -0.30056474 -0.090494804 0
0.85720736 -0.20054987 -0.090359561 0
0.96902454 -0.097546428 -0.083998658 0
1.0590099 -0.014654007 -0.067154981 0
1.0999188 0.023030434 -0.038493831 0
1.1072981 0.029827986 -0.0041860025 0
1.096416 0.019803558 0.031632606 0
1.0975571 0.020854745 0.066305466 0
1.0987654 0.021967802 0.101013 0
1.109637 0.031982455 0.13610332 0
1.1016762 0.024649177 0.17072678 0
1.098245 0.021488462 0.20535189 0
1.0973464 0.020660672 0.24019402 0
1.038681 -0.033380534 0.36679578 0
0.65245831 -0.3580409 -0.091853909 0
0.74179971 -0.27147409 -0.09332215 0
0.83636785 -0.17984286 -0.090207107 0
0.8402828 -0.1760495 -0.063269041 0
0.83856368 -0.17771521 -0.035336826 0
0.84448397 -0.1719788 -0.0086602103 0
0.83695221 -0.17927667 0.019593166 0
0.84044611 -0.17589125 0.04655252 0
0.83352184 -0.18260047 0.074017048 0
0.84009951 -0.17622712 0.10100375 0
0.83978236 -0.17653438 0.12819315 0
0.84086758 -0.17548284 0.15548252 0
0.84123379 -0.17512807 0.18283154 0
1.0967604 0.072462827 0.24347714 0
1.0141879 -0.0075452593 0.29932246 0
1.006526 -0.014969196 0.3311702 0
0.98609906 -0.034761693 0.3594152 0
0.63561094 -0.34253076 -0.091637559 0
0.72134733 -0.25515637 -0.092755981 0
0.82138675 -0.15320566 -0.091546558 0
0.84142768 -0.13278183 -0.067669578 0
0.83923918 -0.13501212 -0.038911019 0
0.84099442 -0.13322338 -0.010979196 0
0.84334928 -0.13082352 0.016888084 0
0.83876812 -0.13549224 0.045282133 0
0.8362965 -0.13801101 0.073240466 0
0.82885623 -0.14559349 0.10100414 0
0.83387572 -0.1404781 0.1286879 0
0.83590132 -0.13841376 0.15653631 0
0.83843344 -0.13583329 0.18463063 0
0.83623403 -0.13807473 0.21235426 0
1.108676 0.13957217 0.28590429 0
0.94766468 -0.024515118 0.29100591 0
0.94648552 -0.025716808 0.32292202 0
0.95475405 -0.01729032 0.35754621 0
0.61665642 -0.32933328 -0.09087909 0
0.6968472 -0.24337551 -0.091168948 0
0.79847997 -0.13443384 -0.09117303 0
0.83928967 -0.090689331 -0.071736373 0
0.83694285 -0.093204886 -0.04225621 0
0.83666497 -0.09350273 -0.013378887 0
0.83915323 -0.090835541 0.015070835 0
0.84052533 -0.089364737 0.043673821 0
0.84716839 -0.082243949 0.072128773 0
0.84377009 -0.085886627 0.10100567 0
0.84153765 -0.088279575 0.1296905 0
0.83466095 -0.095650882 0.15793668 0
0.83944005 -0.090528041 0.18696988 0
0.84155512 -0.088260919 0.21605977 0
1.0981178 0.18675247 0.28903723 0
0.92632949 0.0026100015 0.29168779 0
0.92742586 0.0037852263 0.32426044 0
0.92768848 0.0040667984 0.35692826 0
0.59337491 -0.32126454 -0.088817798 0
0.68052447 -0.22298929 -0.091940813 0
0.77696365 -0.11423853 -0.091248952 0
0.85532957 -0.025868203 -0.079992704 0
0.84061337 -0.04246309 -0.046932269 0
0.84632218 -0.036025491 -0.017954534 0
0.83975482 -0.043431249 0.012590775 0
0.83392948 -0.050000276 0.042524669 0
0.83634794 -0.047273066 0.071696527 0
0.83486533 -0.048944917 0.10100628 0
0.8379876 -0.04542407 0.13037379 0
0.84061116 -0.042465594 0.15995736 0
0.83835936 -0.045004871 0.1892754 0
0.83814067 -0.045251515 0.21881703 0
1.0951996 0.24462405 0.29381394 0
1.0992709 0.24921504 0.33369967 0
0.58323914 -0.29833302 -0.091096424 0
0.66258949 -0.20417002 -0.092413135 0
0.72614855 -0.128746 -0.083982788 0
0.84986866 0.018069539 -0.084162347 0
0.84205669 0.0087992884 -0.051575307 0
0.84534478 0.012701187 -0.021335831 0
0.83754581 0.0034463143 0.010212393 0
0.83782274 0.0037749743 0.040512085 0
0.83993429 0.0062806937 0.07069996 0
0.84321666 0.010175858 0.10100771 0
0.84391707 0.011006985 0.13145927 0
0.8463245 0.013863835 0.16211799 0
0.84437078 0.011545334 0.19254392 0
0.83502513 0.00045517427 0.22185639 0
0.84796017 0.015804801 0.25466287 0
1.1010135 0.31609693 0.34097391 0
0.57108045 -0.27704021 -0.092953749 0
0.62965989 -0.20385507 -0.088522054 0
0.72940147 -0.079244703 -0.090609498 0
0.84699661 0.067670733 -0.089293234 0
0.85513484 0.077838093 -0.05878124 0
0.84255373 0.062120114 -0.024735307 0
0.84000748 0.058939014 0.0071050245 0
0.84101325 0.060195599 0.038387876 0
0.84019315 0.059170876 0.069745786 0
0.84005153 0.058993969 0.10100873 0
0.84262156 0.062204871 0.13236231 0
0.83894014 0.057605539 0.1634752 0
0.83959728 0.058426533 0.19486688 0
0.8402974 0.059301171 0.22641645 0
0.83813727 0.056602512 0.25762057 0
1.1027149 0.38714781 0.34884566 0
1.0971824 0.38023582 0.38938129 0
0.54234248 -0.27681413 -0.089234553 0
0.61825049 -0.17691389 -0.091201954 0
0.70265794 -0.065827817 -0.089645065 0
0.72485495 -0.036614981 -0.067178465 0
0.73410141 -0.024446037 -0.040653992 0
0.72781348 -0.032721367 -0.011167197 0
0.7305156 -0.029165234 0.016670095 0
0.72568011 -0.035529044 0.04520455 0
0.72496217 -0.036473896 0.07314726 0
0.72647429 -0.034483876 0.10100463 0
0.72576219 -0.03542104 0.12889272 0
0.72157621 -0.040930059 0.15648861 0
0.72953546 -0.030455139 0.18522653 0
0.73460215 -0.023786988 0.21422519 0
0.73094279 -0.028603043 0.24205445 0
0.73273039 -0.026250329 0.27101904 0
0.7335164 -0.02521595 0.30003968 0
0.72948158 -0.030526068 0.32784274 0
0.52559054 -0.26144359 -0.089742385 0
0.59825075 -0.16063538 -0.091425456 0
0.67784512 -0.050206687 -0.08928261 0
0.72722697 0.018305335 -0.073581137 0
0.95532149 0.33476189 -0.089783825 0
0.84887123 0.18707362 -0.034381662 0
0.83644283 0.16983059 0.0010812527 0
0.84025532 0.17512003 0.034147862 0
0.84070015 0.17573717 0.067580022 0
0.83904934 0.1734468 0.10101131 0
0.84007567 0.17487076 0.13441792 0
0.83833939 0.17246178 0.16772233 0
0.8364051 0.16977826 0.200937 0
0.84257287 0.17833534 0.23539993 0
0.83697003 0.17056206 0.26815137 0
0.83973372 0.17439631 0.30264592 0
1.1059023 0.54367667 0.41165134 0
0.50896043 -0.24565551 -0.090458848 0
0.57874972 -0.14349154 -0.091958709 0
0.66219461 -0.021337237 -0.091689028 0
0.7719723 0.13936535 -0.091120817 0
0.92389148 0.36175862 -0.09025643 0
1.1507715 0.69388634 -0.089295693 0
0.8424902 0.24259594 -0.0033258924 0
0.83983618 0.23871079 0.031735618 0
0.83470207 0.231195 0.066604607 0
0.84391129 0.24467626 0.10101306 0
0.84193408 0.24178186 0.13571946 0
0.84116399 0.2406545 0.17040001 0
0.84115255 0.24063781 0.20518635 0
0.84231168 0.24233463 0.24027911 0
0.84442133 0.24542299 0.27581769 0
0.83939409 0.2380636 0.30994603 0
1.0969164 0.61504847 0.42040843 0
1.0999683 0.61951596 0.46805847 0
0.49426249 -0.22654006 -0.092113174 0
0.55430412 -0.1337001 -0.09094549 0
0.6307978 -0.01542088 -0.089641996 0
0.74001551 0.15345815 -0.090283848 0
0.88534677 0.37817827 -0.089360587 0
1.113806 0.73143572 -0.090304427 0
1.4837469 1.3034608 -0.08991348 0
0.84657133 0.31822124 0.028479161 0
0.83469254 0.29985359 0.065275215 0
0.84082305 0.309333 0.10101455 0
0.83862823 0.30593923 0.1369222 0
0.84614897 0.31756821 0.17351449 0
0.84279048 0.3123751 0.20943007 0
0.83976287 0.30769363 0.24523135 0
0.83776921 0.304611 0.28115112 0
0.84547693 0.31652907 0.31960723 0
0.84120387 0.30992189 0.35535166 0
1.1016359 0.7126177 0.48284164 0
0.47373599 -0.21617565 -0.091655008 0
0.53692442 -0.11284229 -0.092528261 0
0.60739559 0.0024006104 -0.090073593 0
0.70766193 0.16636816 -0.089398779 0
0.85323828 0.40443209 -0.089960016 0
1.0684243 0.75633019 -0.090016074 0
1.4279003 1.3441882 -0.090244986 0
0.85375953 0.40528455 0.024869734 0
0.84785044 0.39562121 0.063227363 0
0.83464909 0.37403277 0.10101601 0
0.83974367 0.38236406 0.13844399 0
0.84069031 0.38391212 0.1759969 0
0.83633202 0.37678495 0.21300448 0
0.83585656 0.37600735 0.25043836 0
0.83982384 0.38249519 0.28898868 0
0.83712715 0.37808517 0.32630852 0
0.8400479 0.38286152 0.36540234 0
1.096681 0.80253869 0.49668685 0
0.45095295 -0.20990798 -0.090326048 0
0.50407523 -0.1178976 -0.088548459 0
0.57892829 0.011751447 -0.08900439 0
0.67866403 0.18449846 -0.08950714 0
0.819996 0.42929199 -0.09047287 0
1.0290005 0.79129773 -0.090941958 0
1.3667202 1.3762441 -0.089986347 0
1.3697971 1.3815734 -0.026479563 0
0.85043609 0.48201576 0.061469723 0
0.83823746 0.4608871 0.10101821 0
0.84104538 0.4657506 0.14013037 0
0.83681309 0.45842007 0.17889032 0
0.83988231 0.46373609 0.21836166 0
0.83855379 0.46143499 0.25742656 0
0.83897394 0.46216276 0.29694667 0
0.84537756 0.47325411 0.33840424 0
0.83950287 0.46307889 0.37669495 0
0.84145129 0.46645358 0.41767862 0
0.43105471 -0.19896868 -0.09028589 0
0.49091858 -0.08896181 -0.092090793 0
0.55566388 0.030015383 -0.08975289 0
0.65370125 0.21017054 -0.09093862 0
0.78362375 0.44891849 -0.090394802 0
0.98078394 0.81122369 -0.090363301 0
1.298159 1.3944378 -0.088751711 0
1.2959012 1.3902886 -0.025150975 0
1.2902415 1.3798883 0.038257834 0
0.84612483 0.56377167 0.10102087 0
0.84363836 0.55920249 0.14206 0
0.83962482 0.55182713 0.18275245 0
0.84268492 0.55745047 0.22417736 0
0.84223896 0.55663091 0.26535091 0
0.8387419 0.55020458 0.30591395 0
0.84153789 0.55534261 0.34820789 0
0.83818483 0.54918092 0.38893774 0
0.8467558 0.56493109 0.43435284 0
0.41184828 -0.18666723 -0.090692244 0
0.46356985 -0.085631341 -0.090240456 0
0.52437419 0.033147369 -0.087807037 0
0.62245452 0.22474316 -0.090699501 0
0.747118 0.46826795 -0.09040273 0
0.93656433 0.83834344 -0.090674885 0
1.2425507 1.4360747 -0.08951091 0
1.2448456 1.4405577 -0.026110908 0
1.242684 1.4363353 0.037613411 0
1.2457194 1.4422648 0.10104838 0
0.84884018 0.66697806 0.14433819 0
0.84070414 0.6510846 0.18686765 0
0.84007812 0.64986163 0.22981045 0
0.83539718 0.64071769 0.27199817 0
0.84189081 0.65340275 0.31675795 0
0.84001803 0.64974433 0.35984597 0
0.84114826 0.65195209 0.40410852 0
0.83672839 0.64331812 0.44653228 0
0.39307797 -0.17320195 -0.091483198 0
0.44335189 -0.068566233 -0.091427587 0
0.50267184 0.054897223 -0.08942426 0
0.58417737 0.22453561 -0.088282593 0
0.71442378 0.49561897 -0.091568284 0
0.88936597 0.8597284 -0.09050516 0
1.1832138 1.4713175 -0.089874543 0
1.7867582 2.7274818 -0.090998761 0
4.5040531 8.3830223 -0.14078729 0
0.84719515 0.77195781 0.19204971 0
0.83935547 0.75564104 0.23641853 0
0.84061474 0.75826186 0.28205022 0
0.83816028 0.75315338 0.32701376 0
0.84090769 0.75887161 0.37364686 0
0.83877504 0.75443286 0.41902989 0
0.84037298 0.7577588 0.46615458 0
0.3685663 -0.17200866 -0.089516066 0
0.41678232 -0.064807802 -0.089959167 0
0.47705469 0.0691984 -0.089780249 0
0.56224877 0.25861409 -0.091326006 0
0.67677855 0.51325339 -0.091581888 0
0.84668809 0.89102083 -0.091473974 0
1.1205779 1.4999721 -0.089844577 0
1.6919432 2.7703137 -0.090945564 0
4.2646565 8.4903421 -0.1407028 0
1.0703927 1.3883929 0.22249287 0
0.84931511 0.89686149 0.24567248 0
0.83613908 0.86756665 0.29113156 0
0.84373313 0.88445097 0.34121081 0
0.83838892 0.87256891 0.38799313 0
0.83573645 0.86667162 0.43555301 0
0.83845353 0.87271255 0.48564243 0
0.35163864 -0.1539171 -0.091608576 0
0.39551792 -0.049385097 -0.091026641 0
0.45179224 0.084675223 -0.090457879 0
0.52649176 0.2626293 -0.089840092 0
0.63383585 0.51835126 -0.090127386 0
0.7997517 0.91360658 -0.091660865 0
1.0602683 1.5342257 -0.090359934 0
1.5996965 2.8192861 -0.091324471 0
4.0242715 8.5952644 -0.14071198 0
0.99722946 1.3840506 0.22094761 0
0.85355878 1.0417893 0.25509113 0
0.83739626 1.0032858 0.30280438 0
0.84028518 1.010168 0.35453275 0
0.84041262 1.0104716 0.40588889 0
0.83959037 1.0085127 0.45719424 0
0.83730185 1.0030609 0.50808078 0
0.32625672 -0.15607581 -0.089157782 0
0.37440702 -0.032737996 -0.092440315 0
0.42462847 0.095905095 -0.090492688 0
0.49172264 0.26776794 -0.088675119 0
0.59584272 0.53447336 -0.090206973 0
0.74600273 0.91911072 -0.090253644 0
0.99755627 1.5634694 -0.090609096 0
1.4970499 2.8429308 -0.090550818 0
3.779902 8.6904955 -0.14063136 0
0.92465901 1.3767416 0.2193619 0
0.84916121 1.1833529 0.26415676 0
0.83724385 1.1528263 0.31574544 0
0.84119272 1.1629415 0.37113148 0
0.83863616 1.1563928 0.42481175 0
0.83919805 1.1578321 0.47992608 0
0.83945435 1.1584885 0.53537774 0
0.30772161 -0.1409674 -0.090777628 0
0.34836358 -0.028570082 -0.091448985 0
0.39376011 0.096976191 -0.088872157 0
0.43667534 0.21566036 -0.079097591 0
0.43563285 0.21277741 -0.048421834 0
0.43501627 0.21107224 -0.0181718 0
0.93414992 1.5914507 -0.090880387 0
1.3998584 2.8793902 -0.09054745 0
3.534487 8.7828112 -0.14063261 0
0.85828704 1.3816483 0.21848729 0
0.853899 1.369513 0.27646637 0
0.8438431 1.3417029 0.33247611 0
0.84035391 1.3320534 0.38960817 0
0.8399542 1.3309479 0.44785047 0
0.83673441 1.3220434 0.50505686 0
0.84141207 1.3349798 0.56663603 0
0.28667897 -0.13212064 -0.091086216 0
0.32503256 -0.01705214 -0.092056267 0
0.36903766 0.11497203 -0.090332769 0
0.40657905 0.2276037 -0.079295181 0
0.40124139 0.21158972 -0.046971608 0
0.40482876 0.22235253 -0.018241776 0
0.86845249 1.613317 -0.090817221 0
1.3020991 2.9143441 -0.09059114 0
3.284996 8.8634348 -0.1404998 0
0.79092807 1.380728 0.21741638 0
0.85210335 1.5642664 0.28929788 0
0.83751225 1.5204902 0.348057 0
0.84511441 1.543298 0.41312599 0
0.83969188 1.5270295 0.47388154 0
0.83765018 1.5209038 0.53599292 0
0.84090173 1.5306592 0.60143363 0
0.26372415 -0.12923262 -0.090186588 0
0.29611012 -0.023223545 -0.08929152 0
0.33785716 0.11342707 -0.0885318 0
0.37911844 0.24848762 -0.080917098 0
0.38221103 0.25861064 -0.05153038 0
0.38018143 0.2519671 -0.020175276 0
0.72532564 1.3817282 -0.072348945 0
0.72644669 1.3853979 -0.014626456 0
0.72582185 1.3833525 0.043288447 0
0.72429579 1.3783572 0.10104107 0
0.72553015 1.3823977 0.1587708 0
0.72614402 1.384407 0.21666104 0
0.84175217 1.7628274 0.30231282 0
0.8384831 1.7521267 0.3686952 0
0.83401525 1.7375021 0.43436506 0
0.83721668 1.7479815 0.50336999 0
0.83516759 1.7412741 0.57038534 0
0.24481264 -0.11254951 -0.09246514 0
0.27406007 -0.007387605 -0.090991758 0
0.31394064 0.1360065 -0.090993501 0
0.36508697 0.3199077 -0.090000801 0
0.43981388 0.58859509 -0.09044186 0
0.55011863 0.98520571 -0.090324976 0
0.65959889 1.3788519 -0.070868827 0
0.65764993 1.3718443 -0.01312354 0
0.66214287 1.3879991 0.043599442 0
0.65808517 1.373409 0.10104041 0
0.66182798 1.3868668 0.15845492 0
0.6627298 1.3901093 0.21608827 0
0.81263411 1.9291039 0.31291124 0
0.81051582 1.9214873 0.38314959 0
0.81473321 1.9366512 0.45609 0
0.808424 1.9139659 0.52464014 0
0.81302506 1.9305093 0.59923494 0
0.21994381 -0.11730936 -0.090134777 0
0.25139913 0.0079524852 -0.092693426 0
0.2824519 0.13161114 -0.088971309 0
0.33408746 0.33723488 -0.091240697 0
0.39662257 0.58626288 -0.088887103 0
0.50013769 0.99848181 -0.090329729 0
0.59707403 1.3845029 -0.07013268 0
0.59746051 1.3860419 -0.013045823 0
0.59755236 1.3864076 0.044019353 0
0.59452355 1.3743463 0.10103997 0
0.59743124 1.3859253 0.15804979 0
0.59724015 1.3851645 0.2150846 0
0.77083123 2.0764408 0.3221297 0
0.7681765 2.0658691 0.39517552 0
0.76744407 2.0629523 0.468954 0
0.76857227 2.0674453 0.54406893 0
0.19884399 -0.10773662 -0.091077097 0
0.22306012 0.00015178662 -0.090029188 0
0.25693071 0.15105334 -0.091109999 0
0.29664579 0.32799318 -0.088759892 0
0.35604966 0.59265131 -0.088516675 0
0.4489415 1.006506 -0.089953072 0
0.55135119 1.462765 -0.074716605 0
0.55246639 1.4677336 -0.016261583 0
0.5504908 1.4589317 0.042631838 0
0.55245805 1.4676962 0.10104229 0
0.55153835 1.463599 0.15956378 0
0.55258054 1.4682422 0.21837077 0
0.71362132 2.1857162 0.3286427 0
0.71460032 2.1900778 0.40530521 0
0.7116828 2.1770794 0.48042995 0
0.7144205 2.1892767 0.55897331 0
0.17623587 -0.10455254 -0.090746053 0
0.1985544 0.0081139542 -0.090542562 0
0.22746654 0.15406552 -0.090593494 0
0.26570141 0.34707955 -0.090485595 0
0.31957284 0.61902839 -0.090651952 0
0.39775839 1.0137177 -0.089624248 0
0.41678905 1.1097865 -0.048626531 0
0.41609433 1.1062794 0.0015160388 0
0.4147003 1.0992422 0.051467441 0
0.41538063 1.1026766 0.10103128 0
0.41917402 1.1218259 0.15113159 0
0.41424873 1.0969627 0.20010428 0
0.41566774 1.104126 0.25028637 0
0.41636813 1.1076615 0.30062732 0
0.41468796 1.09918 0.34992331 0
0.40891567 1.0700407 0.39612404 0
0.29552057 0.49760988 0.35018229 0
0.27094963 0.37357309 0.36273766 0
0.15435152 -0.097538263 -0.091365911 0
0.17376456 0.01533154 -0.09102992 0
0.19568086 0.14275554 -0.087815098 0
0.2333028 0.36149409 -0.091649301 0
0.280516 0.63599747 -0.091771744 0
0.3477675 1.0270059 -0.089995019 0
0.36890194 1.1498842 -0.050774086 0
0.8803314 4.1233978 -0.14054403 0
1.7624302 9.2520275 -0.14064117 0
0.58201861 2.3889704 0.2607497 0
0.57961285 2.3749831 0.33981428 0
0.58043224 2.3797472 0.420252 0
0.26236579 0.53047007 0.28128734 0
0.27004024 0.57509023 0.32414094 0
0.27282891 0.59130388 0.36465189 0
0.23846976 0.39153555 0.36495236 0
0.13185671 -0.093583792 -0.091445066 0
0.14823034 0.018471036 -0.090858527 0
0.16711414 0.14770439 -0.087880962 0
0.1997993 0.37138894 -0.092283152 0
0.2389525 0.6393382 -0.091394372 0
0.29668632 1.034446 -0.089932002 0
0.39552695 1.7108729 -0.0898012 0
0.75043142 4.1397009 -0.14034379 0
1.5056902 9.3083973 -0.14099804 0
0.5072096 2.4751856 0.26417109 0
0.50427669 2.4551139 0.3445237 0
0.50256073 2.4433703 0.42497861 0
0.22220221 0.52470571 0.27988395 0
0.27428541 0.88114303 0.36673287 0
0.20144227 0.38263276 0.36219987 0
0.10934269 -0.089509994 -0.091671295 0
0.12192146 0.014931474 -0.089543037 0
0.14052998 0.1694378 -0.090844698 0
0.16426899 0.36654261 -0.090948381 0
0.1970465 0.63869399 -0.090672739 0
0.24562597 1.0420489 -0.090005912 0
0.3272047 1.7193968 -0.089760967 0
0.62092417 4.1581473 -0.14039864 0
1.2424904 9.3190069 -0.14043416 0
0.4263567 2.542655 0.26679081 0
0.42534521 2.5342565 0.34928343 0
0.42413297 2.5241911 0.43149394 0
0.42367506 2.5203893 0.51432735 0
0.22992633 0.91169494 0.37016711 0
0.16603361 0.38119414 0.36104989 0
0.085910693 -0.094386011 -0.090107538 0
0.097269647 0.025294099 -0.090986736 0
0.11020205 0.16155234 -0.08902248 0
0.13000582 0.37020853 -0.090945207 0
0.15632597 0.64752239 -0.091189243 0
0.1953278 1.0584531 -0.091025837 0
0.25842214 1.7232268 -0.08951246 0
0.49203709 4.184638 -0.1409826 0
0.98324364 9.3600826 -0.14073855 0
0.34081388 2.5913217 0.26861957 0
0.3404882 2.5878906 0.3523792 0
0.34061533 2.5892298 0.43669897 0
0.34060496 2.5891209 0.52127886 0
0.34000498 2.5827992 0.60543799 0
0.17288341 0.82197469 0.40009904 0
0.13061908 0.37666991 0.35948804 0
0.06418775 -0.079817265 -0.092815839 0
0.071714088 0.028466854 -0.091188036 0
0.081504732 0.16932836 -0.089909889 0
0.095373191 0.36885872 -0.0903574 0
0.11454052 0.64462584 -0.09045174 0
0.14247039 1.0464628 -0.089506112 0
0.19153027 1.7523048 -0.091155492 0
0.36089775 4.189055 -0.14068738 0
0.7214669 9.3766918 -0.14062481 0
0.25253081 2.6299412 0.27007666 0
0.25272986 2.6328049 0.35500839 0
0.13237634 0.90123612 0.27796784 0
0.13359319 0.91874319 0.32461751 0
0.13398607 0.92439586 0.37067044 0
0.12470757 0.79090291 0.3943584 0
0.096636698 0.38703719 0.36091042 0
0.040713932 -0.089979678 -0.090375848 0
0.046605643 0.043350253 -0.093718655 0
0.051684286 0.1582804 -0.087818794 0
0.060763046 0.36373356 -0.089362212 0
0.073177643 0.64467722 -0.090183385 0
0.090494476 1.0365586 -0.088307761 0
0.12221988 1.7545073 -0.091034271 0
0.23042648 4.2032328 -0.1410017 0
0.45998406 9.3981419 -0.14077777 0
0.1633976 2.6863627 0.27246675 0
0.16270453 2.6706786 0.35729674 0
0.086894386 0.9550882 0.28274876 0
0.085717104 0.92844635 0.32543266 0
0.086518109 0.94657308 0.37340489 0
0.07725247 0.73689085 0.3850491 0
0.061429761 0.3788214 0.35898837 0
0.018052738 -0.087044805 -0.0908475 0
0.020239256 0.028467808 -0.090760075 0
0.023110565 0.18015757 -0.091264702 0
0.026755337 0.37270895 -0.090472288 0
0.031860188 0.64239556 -0.089764513 0
0.039463494 1.0440741 -0.088858731 0
0.052845553 1.7510412 -0.090639077 0
0.099224843 4.2012353 -0.14071609 0
0.19768327 9.4027414 -0.14069229 0
0.071062572 2.7134371 0.27359247 0
0.071041919 2.7123456 0.36000857 0
0.070714444 2.6950455 0.44514158 0
0.070695393 2.6940391 0.53174382 0
0.032687843 0.68612009 0.37647426 0
0.026989382 0.38507333 0.35996115 0
-0.0047183731 -0.08672896 -0.090884097 0
-0.0054388097 0.027496014 -0.090546511 0
-0.0063432674 0.17089751 -0.08971218 0
-0.0076345764 0.37563422 -0.090852909 0
-0.0093529383 0.64807993 -0.090398513 0
-0.011900211 1.0519493 -0.089563586 0
-0.016399764 1.765352 -0.091609053 0
-0.0318093 4.2085295 -0.1410172 0
-0.064542361 9.3983459 -0.14055163 0
-0.022493249 2.7314725 0.27440566 0
-0.022426495 2.7208889 0.36056507 0
-0.022469265 2.7276697 0.44813389 0
-0.02243886 2.7228489 0.53504407 0
-0.0093685044 0.65054816 0.37058192 0
-0.0077510513 0.39410117 0.3616209 0
-0.027323784 -0.092400044 -0.089769684 0
-0.031152744 0.028957043 -0.090913303 0
-0.035321772 0.16109231 -0.08819095 0
-0.042108085 0.37618116 -0.091021456 0
-0.050956715 0.65663415 -0.091490187 0
-0.063826039 1.0645208 -0.090828635 0
-0.085645765 1.7560863 -0.091052972 0
-0.11888746 2.8096662 -0.075976811 0
-0.1188234 2.8076355 0.0126462 0
-0.11921711 2.8201139 0.1010792 0
-0.11849748 2.7973056 0.18927072 0
-0.11683466 2.7446034 0.27510089 0
-0.11662242 2.7378762 0.36187825 0
-0.11701857 2.750432 0.45042676 0
-0.11671546 2.7408252 0.53735453 0
-0.05011696 0.63001853 0.36733377 0
-0.042376909 0.3847014 0.35997352 0
-0.04976083 -0.096626729 -0.089082621 0
-0.057126224 0.03296474 -0.091883473 0
-0.065225437 0.17546752 -0.090768404 0
-0.075905778 0.3633844 -0.089434363 0
-0.091895916 0.64472514 -0.090310834 0
-0.11546531 1.0594203 -0.090565763 0
-0.15542026 1.7624135 -0.091710247 0
-0.21394661 2.7921638 -0.0753581 0
-0.21405531 2.7940764 0.012863422 0
-0.21394175 2.7920783 0.10107853 0
-0.21369907 2.7878084 0.18914753 0
-0.21087624 2.7381418 0.27499348 0
-0.21095881 2.7395947 0.36228976 0
-0.21057102 2.7327716 0.44916451 0
-0.077494897 0.39134434 0.26267043 0
-0.076395109 0.37199393 0.29266644 0
-0.076729305 0.37787405 0.32610896 0
-0.076889396 0.38069072 0.35950559 0
-0.073507622 -0.083102971 -0.092300572 0
-0.082765527 0.029534016 -0.091573648 0
-0.092925251 0.15314308 -0.087423556 0
-0.11011847 0.3623257 -0.089619331 0
-0.13402076 0.65313488 -0.091632791 0
-0.16704491 1.0549257 -0.090481035 0
-0.22342752 1.7409089 -0.090540044 0
-0.42513964 4.195055 -0.14119896 0
-0.84969395 9.3604279 -0.14047664 0
-0.30544424 2.7387712 0.2753284 0
-0.30480075 2.7309422 0.36214104 0
-0.3041636 2.7231905 0.44887787 0
-0.30428833 2.7247081 0.5367173 0
-0.11281876 0.39517882 0.29627359 0
-0.11444721 0.41499165 0.33262727 0
-0.11143211 0.37830809 0.35950902 0
-0.094165698 -0.10554162 -0.087966837 0
-0.10744251 0.017786179 -0.089809842 0
-0.12415849 0.17306021 -0.091167621 0
-0.14477217 0.36453965 -0.090389274 0
-0.17447907 0.64048582 -0.090607755 0
-0.21748766 1.0399907 -0.08953803 0
-0.29203355 1.732444 -0.090404056 0
-0.55456513 4.1710882 -0.14065745 0
-1.1112639 9.3422384 -0.14063028 0
-0.39921239 2.7280235 0.27524263 0
-0.39891529 2.7252638 0.36236772 0
-0.39879811 2.7241752 0.4498046 0
-0.39922094 2.7281029 0.53816146 0
-0.14846298 0.39882353 0.29725724 0
-0.14891686 0.4030396 0.33120635 0
-0.14815037 0.39591971 0.36346635 0
-0.11797777 -0.096633285 -0.090452246 0
-0.1343358 0.026123438 -0.091974773 0
-0.15272959 0.16415706 -0.090276293 0
-0.17823435 0.35555413 -0.089697801 0
-0.21572931 0.63692993 -0.090771623 0
-0.27034593 1.0467927 -0.090758406 0
-0.3596049 1.7166245 -0.089870863 0
-0.68493241 4.1580009 -0.14077824 0
-1.3706106 9.3035793 -0.14045887 0
-0.49120694 2.7042141 0.27465346 0
-0.48970568 2.6929481 0.36088234 0
-0.24133252 0.82906562 0.27230251 0
-0.24020542 0.8206076 0.31447485 0
-0.18648535 0.41747263 0.30049983 0
-0.18553776 0.41036156 0.3331216 0
-0.18108632 0.37695625 0.36066085 0
-0.1401843 -0.10166833 -0.090075679 0
-0.15845528 0.013222013 -0.090226986 0
-0.1806756 0.15294638 -0.089117132 0
-0.21390045 0.36186865 -0.091300718 0
-0.25768217 0.63717407 -0.091508828 0
-0.31836993 1.0187867 -0.08881975 0
-0.42777961 1.7067695 -0.089878239 0
-0.81452143 4.1386547 -0.14075932 0
-1.6332753 9.2870884 -0.14096251 0
-0.58038676 2.666384 0.27350959 0
-0.57977939 2.6625648 0.35968995 0
-0.27757117 0.76223868 0.26661548 0
-0.2789498 0.77090758 0.30937907 0
-0.27789262 0.76425999 0.35060543 0
-0.21629599 0.37693217 0.3616156 0
-0.16478993 -0.093324393 -0.092710368 0
-0.18526611 0.017350946 -0.091849513 0
-0.2093244 0.14738789 -0.089014895 0
-0.24741824 0.35328797 -0.090910666 0
-0.29715681 0.62212867 -0.090557806 0
-0.36932281 1.0121913 -0.089019202 0
-0.49522862 1.6927218 -0.089709632 0
-0.9458133 4.1281662 -0.14131421 0
-1.8893454 9.2280293 -0.14061837 0
-0.66973281 2.6359303 0.27281648 0
-0.66771513 2.6250243 0.35814413 0
-0.66893977 2.6316438 0.44489762 0
-0.66866565 2.630162 0.53137988 0
-0.29076666 0.58758932 0.36462519 0
-0.25190264 0.37752643 0.36286315 0
-0.18587124 -0.10476074 -0.091196395 0
-0.21044621 0.011577759 -0.091704436 0
-0.23849209 0.1443477 -0.089456297 0
-0.27743682 0.32871309 -0.088342436 0
-0.33686838 0.61006373 -0.090076439 0
-0.42049199 1.0059401 -0.089374952 0
-0.56246823 1.6780593 -0.089617528 0
-0.62008119 1.9508007 -0.038925026 0
-0.61668015 1.9347 0.031486068 0
-0.61822796 1.9420276 0.10105593 0
-0.75549674 2.5918615 0.27157822 0
-0.7521233 2.5758915 0.35591939 0
-0.75455058 2.5873823 0.44239599 0
-0.75174832 2.5741165 0.52683872 0
-0.28753835 0.37653401 0.3639845 0
-0.20727859 -0.11333516 -0.090414532 0
-0.2378214 0.015134607 -0.093487464 0
-0.2676855 0.14074948 -0.089930095 0
-0.31558731 0.34223512 -0.091371022 0
-0.37240207 0.58121043 -0.087695427 0
-0.47340342 1.0060443 -0.090466134 0
-0.52400726 1.218895 -0.057705481 0
-0.62066072 1.6254408 -0.024150467 0
-0.61774361 1.6131706 0.038775451 0
-0.61938375 1.6200695 0.10104696 0
-0.83635002 2.5326774 0.2697117 0
-0.83342475 2.5203731 0.35337484 0
-0.83212221 2.5148942 0.43737638 0
-0.83095109 2.509968 0.52154773 0
-0.83413655 2.5233669 0.60859025 0
-0.22866397 -0.12132373 -0.089874677 0
-0.25930288 -0.0055171517 -0.090700008 0
-0.29437444 0.12704363 -0.088813566 0
-0.34426358 0.31561068 -0.088723354 0
-0.41391566 0.5788762 -0.088612594 0
-0.52209747 0.98777336 -0.089918993 0
-0.58065724 1.2091129 -0.058006797 0
-0.64743018 1.4614961 -0.01705086 0
-0.64740801 1.4614124 0.042029928 0
-0.64669591 1.4587207 0.10104269 0
-0.91415566 2.4696443 0.26774523 0
-0.91157806 2.4599018 0.35060281 0
-0.91247106 2.4632771 0.43452811 0
-0.90935087 2.4514837 0.51714736 0
-0.91166478 2.4602296 0.60263515 0
-0.2524882 -0.12054721 -0.091390736 0
-0.2828531 -0.016471114 -0.089900725 0
-0.32359388 0.12316838 -0.089486755 0
-0.3442826 0.19407919 -0.072267897 0
-0.46003565 0.59082407 -0.091402419 0
-0.57207972 0.9748562 -0.090007462 0
-0.71243286 1.4559183 -0.077099837 0
-0.71293038 1.4576235 -0.01769427 0
-0.71142381 1.4524596 0.04183165 0
-0.71145064 1.4525514 0.10104302 0
-0.98515385 2.3906722 0.26508531 0
-0.98215783 2.3804033 0.3465668 0
-0.98383725 2.3861597 0.42937446 0
-0.9843275 2.38784 0.5123263 0
-0.98167264 2.3787403 0.59423387 0
-0.27284476 -0.13185957 -0.09035521 0
-0.30918503 -0.018064287 -0.091062896 0
-0.35199258 0.11598268 -0.089720972 0
-0.37794042 0.19723538 -0.074074216 0
-0.39901114 0.26321581 -0.052697558 0
-0.39981115 0.26572111 -0.022001302 0
-0.39911413 0.26353839 0.0090280566 0
-0.39787921 0.25967148 0.039932389 0
-0.39506379 0.25085524 0.070701815 0
-0.39473876 0.24983743 0.10100753 0
-0.39568236 0.25279227 0.13136074 0
-0.39772442 0.25918666 0.16205971 0
-0.39820907 0.26070431 0.19278005 0
-0.39675778 0.25615969 0.22308055 0
-0.39485633 0.25020555 0.25311744 0
-0.39847571 0.26153925 0.28557801 0
-0.39344347 0.24578133 0.31413177 0
-0.39832973 0.2610822 0.34827474 0
-0.29865843 -0.12675825 -0.093119167 0
-0.33438805 -0.023905542 -0.091520213 0
-0.37778366 0.10101476 -0.088727452 0
-0.43332413 0.26089564 -0.085023664 0
-0.42752838 0.24421182 -0.051644254 0
-0.43185988 0.25668052 -0.02214667 0
-0.43020797 0.25192538 0.0091109145 0
-0.42918375 0.24897698 0.039943893 0
-0.43132418 0.25513855 0.070340723 0
-0.43372947 0.26206246 0.10100821 0
-0.42947873 0.2498261 0.13154425 0
-0.43009743 0.25160721 0.1622017 0
-0.42834157 0.24655262 0.19250733 0
-0.43287173 0.25959328 0.22445144 0
-0.43199781 0.2570776 0.25525323 0
-0.43332422 0.26089588 0.28704154 0
-0.4312973 0.25506118 0.31754735 0
-0.43596137 0.26848724 0.35184056 0
-0.31827146 -0.14005718 -0.091878317 0
-0.35796925 -0.034455862 -0.09116175 0
-0.40831524 0.099471003 -0.090195276 0
-0.47758541 0.28373864 -0.090158157 0
-0.48521778 0.30404177 -0.060513485 0
-0.5108586 0.37224975 -0.034799535 0
-0.50986582 0.36960879 -0.00052041351 0
-0.51269859 0.37714425 0.033010032 0
-0.51134753 0.37355033 0.067118719 0
-0.51455998 0.38209584 0.10101222 0
-1.2028089 2.2129278 0.18070583 0
-1.1920879 2.1844084 0.2590099 0
-1.1593125 2.0972216 0.33167881 0
-1.1595055 2.0977352 0.40899178 0
-1.1563637 2.0893776 0.48555917 0
-1.1581814 2.0942128 0.56410921 0
-0.33609217 -0.15703586 -0.089893781 0
-0.37925741 -0.050455894 -0.08981251 0
-0.43346831 0.08339718 -0.089237668 0
-0.50492936 0.2598429 -0.088427238 0
-0.50944239 0.27098599 -0.057944063 0
-0.51448882 0.28344634 -0.027200749 0
-0.51610678 0.28744128 0.0046723057 0
-0.51176375 0.27671781 0.037381407 0
-0.51006794 0.2725307 0.069317654 0
-0.50858438 0.26886764 0.10100915 0
-1.273869 2.1584451 0.25926885 0
-1.2000701 1.976227 0.32482934 0
-1.2008717 1.9782062 0.3999967 0
-1.1982012 1.9716122 0.47450975 0
-1.1961626 1.9665787 0.54933417 0
-0.35926121 -0.16056547 -0.091108255 0
-0.4041293 -0.057345834 -0.090429164 0
-0.45950678 0.070050865 -0.088871486 0
-0.51572615 0.19938436 -0.081179641 0
-0.51140749 0.18944922 -0.049245525 0
-0.51257628 0.19213811 -0.019272542 0
-0.50998276 0.18617156 0.011366459 0
-0.51207948 0.19099525 0.041055754 0
-0.51332033 0.19384983 0.070975304 0
-0.51178056 0.19030753 0.10100712 0
-1.3492768 2.1169798 0.25884712 0
-1.2271634 1.8360565 0.31651947 0
-1.2247622 1.8305323 0.38814196 0
-1.2253971 1.8319929 0.46068609 0
-1.2255982 1.8324554 0.53354758 0
-1.2228523 1.8261385 0.60569578 0
-0.38039005 -0.16920033 -0.091276579 0
-0.43169287 -0.058877911 -0.092295699 0
-0.48962021 0.065689951 -0.090248056 0
-0.50718105 0.10345319 -0.068390764 0
-0.51033503 0.11023548 -0.040750165 0
-0.51044279 0.11046723 -0.012237957 0
-0.51244748 0.11477807 0.015847998 0
-0.50852621 0.10634568 0.044717938 0
-0.51097697 0.11161593 0.072741508 0
-0.50799161 0.10519627 0.10100485 0
-1.4280276 2.083657 0.25893629 0
-1.2498869 1.7005801 0.30852628 0
-1.2410972 1.6816788 0.37608761 0
-1.2436187 1.6871011 0.44610745 0
-1.2367624 1.6723568 0.51366186 0
-1.2431996 1.6861994 0.58608365 0
-0.39764208 -0.18577251 -0.089689441 0
-0.44846818 -0.083318621 -0.089514472 0
-0.51368505 0.048143778 -0.089361526 0
-0.51126218 0.043259773 -0.061013717 0
-0.51344013 0.047650013 -0.034313742 0
-0.50600064 0.032653842 -0.0055111554 0
-0.51080215 0.042332444 0.020463238 0
-0.51737142 0.055574689 0.046670243 0
-0.51093519 0.042600665 0.074188404 0
-0.51519543 0.051188383 0.10100356 0
-1.2494826 1.5313444 0.29784027 0
-1.2377422 1.5076783 0.3613025 0
-1.2414697 1.5151925 0.4278785 0
-1.2396241 1.511472 0.49344638 0
-1.2418375 1.5159338 0.56075251 0
-0.42226174 -0.18761322 -0.091725953 0
-0.47351116 -0.090538353 -0.090453438 0
-0.53585535 0.027551923 -0.088009231 0
-0.52885795 0.014297638 -0.058517251 0
-0.5348354 0.025620017 -0.033161212 0
-0.52923477 0.015011463 -0.0050334837 0
-0.53207374 0.020388875 0.021151209 0
-0.53259075 0.021368179 0.047765002 0
-0.53702635 0.029769931 0.074177526 0
-0.53031617 0.017059837 0.10100289 0
-1.2491676 1.3786836 0.28832164 0
-1.2354115 1.3526273 0.34831166 0
-1.2415112 1.3641813 0.41216132 0
-1.239548 1.3604624 0.47454143 0
-1.2433681 1.3676987 0.53917146 0
-1.2349584 1.351769 0.59974498 0
-0.43560511 -0.21058509 -0.088792421 0
-0.49733004 -0.10048905 -0.090951629 0
-0.55922139 0.0099038817 -0.087297089 0
-0.56318474 0.016973052 -0.06115358 0
-0.55479562 0.0020098423 -0.031852413 0
-0.55662644 0.0052753421 -0.0054573845 0
-0.55784798 0.0074541303 0.021084206 0
-0.56094581 0.012979541 0.047477033 0
-0.55637217 0.0048218104 0.074472047 0
-0.5570997 0.0061194631 0.10100298 0
-1.296164 1.3243558 0.16279277 0
-1.293146 1.3189728 0.2243188 0
-1.24912 1.2404456 0.27982378 0
-1.2392261 1.2227983 0.33783025 0
-1.2428437 1.2292509 0.39837626 0
-1.2404896 1.2250519 0.45788127 0
-1.2397622 1.2237544 0.51809913 0
-1.2426734 1.2289472 0.58011198 0
-0.46052679 -0.2127398 -0.091044642 0
-0.51988977 -0.11285171 -0.091059648 0
-0.58203161 -0.0082876347 -0.086582236 0
-0.58125865 -0.0095882677 -0.059190739 0
-0.58813649 0.001984868 -0.033798356 0
-0.58408624 -0.0048304466 -0.0059220623 0
-0.58717901 0.00037375433 0.020487571 0
-0.58575994 -0.0020141269 0.047503941 0
-0.58521587 -0.0029295946 0.074292801 0
-0.58708042 0.00020775538 0.10100326 0
-1.3507386 1.2851903 0.1626382 0
-1.3593138 1.2996197 0.22507973 0
-1.2524149 1.1197443 0.27262479 0
-1.241612 1.1015663 0.32813504 0
-1.2393419 1.0977466 0.38485357 0
-1.2412081 1.1008868 0.44281256 0
-1.2405698 1.099813 0.50051689 0
-1.2398566 1.0986128 0.55857849 0
-0.47659174 -0.23000714 -0.089694671 0
-0.53577024 -0.13591889 -0.088913269 0
-0.60999721 -0.017904844 -0.087631635 0
-0.6160838 -0.0082278512 -0.061907295 0
-0.61009181 -0.017754462 -0.033168767 0
-0.61362576 -0.01213583 -0.006778812 0
-0.61620033 -0.0080425404 0.019931057 0
-0.60992938 -0.018012729 0.047552362 0
-0.61455441 -0.010659363 0.07409025 0
-0.6143896 -0.010921445 0.10100339 0
-1.2475618 0.99576336 0.26504648 0
-1.2416039 0.98629075 0.31894863 0
-1.2384237 0.98123461 0.37317362 0
-1.2407809 0.98498243 0.42887801 0
-1.2416372 0.9863438 0.48469153 0
-1.2408115 0.98503083 0.54041386 0
-0.49860486 -0.23777387 -0.090849496 0
-0.56065089 -0.14443788 -0.090110891 0
-0.63469625 -0.033051159 -0.087745763 0
-0.63675165 -0.029959168 -0.060920078 0
-0.63822883 -0.027737048 -0.033974964 0
-0.63750529 -0.028825488 -0.00668112 0
-0.63813317 -0.027880933 0.020262988 0
-0.6360544 -0.03100815 0.047399886 0
-0.63618064 -0.03081819 0.07421077 0
-0.64055359 -0.024239864 0.10100348 0
-1.2492748 0.89146167 0.25898325 0
-1.233861 0.86827451 0.30929956 0
-1.247743 0.88915724 0.36472389 0
-1.2349808 0.86995906 0.41485488 0
-1.2411921 0.87930268 0.46987301 0
-1.2451087 0.88519448 0.52505738 0
-0.51484835 -0.25426444 -0.089902572 0
-0.58627224 -0.15248814 -0.091581039 0
-0.6588313 -0.049094167 -0.087806009 0
-0.66494238 -0.040386166 -0.061944861 0
-0.65934938 -0.048355963 -0.033377413 0
-0.66124535 -0.045654263 -0.0066339653 0
-0.66055393 -0.046639469 0.020461747 0
-0.66325265 -0.042793896 0.04713871 0
-0.66270739 -0.043570902 0.074107707 0
-0.66265583 -0.043644335 0.10100338 0
-1.2956836 0.85839659 0.25890449 0
-1.252298 0.7965737 0.30474082 0
-1.2368686 0.77458745 0.35294357 0
-1.2345495 0.77128285 0.40336421 0
-1.2350832 0.77204329 0.45474392 0
-1.2435181 0.78406268 0.50915337 0
-0.5340969 -0.26634142 -0.090212457 0
-0.59769619 -0.18041041 -0.088572495 0
-0.68714017 -0.059559908 -0.089131184 0
-0.69335699 -0.051160183 -0.063051544 0
-0.69209766 -0.052861717 -0.035188306 0
-0.68936682 -0.056551423 -0.0073436704 0
-0.68807352 -0.058298852 0.019998023 0
-0.68876618 -0.057363 0.046994414 0
-0.69342649 -0.051066246 0.073831432 0
-0.68206358 -0.066419035 0.10100318 0
-1.3450962 0.8294248 0.25928161 0
-1.2496754 0.70049876 0.29731762 0
-1.2373158 0.68379933 0.34436139 0
-1.2425345 0.69085044 0.39484632 0
-1.2363318 0.68246979 0.4429161 0
-1.2398145 0.68717533 0.49393535 0
-0.55739188 -0.27337316 -0.092018224 0
-0.62338012 -0.18876508 -0.090246417 0
-0.71163177 -0.075611681 -0.089465924 0
-0.71569806 -0.070398003 -0.062798388 0
-0.72262001 -0.061522868 -0.036540616 0
-0.71975285 -0.065199107 -0.0084169935 0
-0.71767318 -0.067865521 0.019278558 0
-0.72426623 -0.059412148 0.046070419 0
-0.71809787 -0.067321032 0.073785305 0
-0.72134131 -0.063162357 0.10100393 0
-1.3927187 0.79765636 0.25952768 0
-1.2550873 0.62118977 0.2917251 0
-1.244386 0.6074689 0.3377544 0
-1.2334474 0.59344381 0.3831684 0
-1.2451726 0.60847753 0.43410864 0
-1.2416819 0.60400182 0.48166981 0
-0.56338042 -0.30217412 -0.088033877 0
-0.63916892 -0.20989946 -0.08899691 0
-0.73544252 -0.092683524 -0.089720882 0
-0.74571729 -0.080173701 -0.064362235 0
-0.7419529 -0.084757 -0.035832528 0
-0.75414318 -0.069914967 -0.010079397 0
-0.74521953 -0.080779761 0.018779973 0
-0.75625557 -0.067343086 0.045427997 0
-0.7409358 -0.085995287 0.073792465 0
-0.74659818 -0.079101235 0.10100402 0
-1.4382311 0.76298195 0.25962353 0
-1.2569932 0.54231972 0.28608495 0
-1.244643 0.52728289 0.3304525 0
-1.2375708 0.51867229 0.37532297 0
-1.2366797 0.51758736 0.42156875 0
-1.2377536 0.51889497 0.46868765 0
-0.5871262 -0.3090106 -0.090175383 0
-0.66429847 -0.21974203 -0.090629451 0
-0.75313145 -0.11698499 -0.08854001 0
-0.7741093 -0.092718989 -0.065585308 0
-0.78210098 -0.083474666 -0.03897104 0
-0.77280891 -0.094223231 -0.0094670113 0
-0.77817118 -0.088020414 0.017682509 0
-0.77202529 -0.095129639 0.045944154 0
-0.77029306 -0.097133368 0.073550627 0
-0.77562255 -0.090968519 0.1010043 0
-1.4769084 0.72023994 0.25908047 0
-1.2510257 0.45895138 0.27977106 0
-1.2399794 0.4461737 0.32284799 0
-1.2460225 0.45316389 0.36904532 0
-1.2367572 0.44244638 0.41212928 0
-1.2349827 0.44039372 0.45704016 0
-0.606538 -0.32138863 -0.090944536 0
-0.68828154 -0.23151913 -0.091967009 0
-0.78213596 -0.12833485 -0.090307288 0
-0.80729336 -0.10067657 -0.067842953 0
-0.80942559 -0.098332435 -0.039790753 0
-0.79965895 -0.10906991 -0.010093046 0
-0.79918969 -0.10958585 0.017835597 0
-0.79663545 -0.11239401 0.045785319 0
