# .PCD v0.7 - Point Cloud Data file format
VERSION 0.7
FIELDS x y z intensity
SIZE 4 4 4 4
TYPE F F F F
COUNT 1 1 1 1
WIDTH 1316
HEIGHT 1
VIEWPOINT 0 0 0 1 0 0 0
POINTS 1316
DATA ascii
0.97795826 -0.69754881 -0.091074847 0
1.1096958 -0.65820986 -0.089200445 0
1.2024744 -0.63050461 -0.075249709 0
1.2073724 -0.62904197 -0.04617754 0
1.2114869 -0.62781334 -0.016949451 0
1.2073922 -0.62903607 0.012950325 0
1.209553 -0.62839085 0.042250376 0
1.1957132 -0.6325236 0.071980111 0
1.2098938 -0.62828904 0.10100642 0
0.86274552 -0.70808357 -0.091715403 0
0.97085828 -0.67280477 -0.09118817 0
1.0977997 -0.63138193 -0.088649042 0
1.2064607 -0.5959242 -0.077233754 0
1.2030393 -0.59704065 -0.046809483 0
1.2137454 -0.59354717 -0.018104514 0
1.2021499 -0.59733087 0.012639159 0
1.2026517 -0.59716713 0.042123571 0
1.2089274 -0.5951193 0.071427479 0
1.2085133 -0.59525442 0.10100666 0
0.84660894 -0.68953747 -0.089738227 0
0.97603488 -0.64365941 -0.09388008 0
1.0983514 -0.6003015 -0.09038078 0
1.2155817 -0.55874652 -0.080130793 0
1.2137214 -0.55940592 -0.049408708 0
1.1967968 -0.56540525 -0.01745314 0
1.2099148 -0.56075525 0.011301333 0
1.2074766 -0.56161952 0.041377679 0
1.2134155 -0.55951434 0.071061946 0
1.2125598 -0.55981767 0.1010071 0
0.84928882 -0.66426903 -0.092131115 0
0.96503413 -0.61992234 -0.093482785 0
1.0903322 -0.57191569 -0.090758242 0
1.2059226 -0.52762836 -0.080370195 0
1.2070253 -0.52720588 -0.049976487 0
1.21047 -0.52588606 -0.019926986 0
1.2072581 -0.52711672 0.010661947 0
1.2063123 -0.52747905 0.040878613 0
1.2057393 -0.52769864 0.070973471 0
1.205207 -0.5279026 0.10100722 0
0.83341455 -0.64602166 -0.090428866 0
0.95339924 -0.59654397 -0.093073599 0
1.0756598 -0.54612786 -0.090083621 0
1.2170039 -0.48784223 -0.08388374 0
1.2036389 -0.49335352 -0.051070828 0
1.2118396 -0.48997185 -0.021284631 0
1.2109283 -0.49034762 0.0094735492 0
1.214257 -0.48897502 0.039872453 0
1.198895 -0.49530977 0.070843048 0
1.2038448 -0.49326861 0.10100754 0
0.823071 -0.62575448 -0.090099417 0
0.92670041 -0.57992876 -0.08967834 0
1.0611655 -0.52046728 -0.089549772 0
1.2115048 -0.45398596 -0.085042365 0
1.2101477 -0.45458612 -0.05355056 0
1.2122855 -0.45364073 -0.022655277 0
1.2039982 -0.45730546 0.0090115536 0
1.2048523 -0.45692775 0.039688941 0
1.2149823 -0.45244822 0.070107527 0
1.2141844 -0.45280102 0.10100827 0
0.81279552 -0.60552567 -0.089901589 0
0.92053646 -0.55459404 -0.090607397 0
1.0536362 -0.49167475 -0.090392776 0
1.2346218 -0.40611866 -0.090795197 0
1.4770659 -0.29150972 -0.089850001 0
1.8505172 -0.11497071 -0.089984126 0
3.1283195 0.48907605 -0.14085825 0
4.6942692 1.2293365 -0.1407076 0
9.3947153 3.4513462 -0.14061241 0
0.81372821 -0.57968456 -0.092489935 0
0.90805739 -0.53214502 -0.090350397 0
1.045951 -0.46265015 -0.091350771 0
1.2210218 -0.37441882 -0.091032319 0
1.454121 -0.25694266 -0.089212723 0
1.8472677 -0.058806505 -0.092011817 0
3.0896389 0.56731766 -0.14082816 0
4.6358156 1.3465521 -0.14065644 0
9.298089 3.6962216 -0.14109161 0
0.78195232 -0.57066286 -0.087381296 0
0.89935678 -0.50773025 -0.091017671 0
1.032885 -0.43615487 -0.091454141 0
1.1894044 -0.35225537 -0.088526525 0
1.4378016 -0.21910647 -0.089560293 0
1.8119259 -0.018563714 -0.090817548 0
3.0513778 0.64582258 -0.14098655 0
4.5742345 1.4621232 -0.14059465 0
9.1611681 3.9208677 -0.14067636 0
0.79048449 -0.54008555 -0.092111863 0
0.89035863 -0.4832603 -0.091762729 0
1.0096803 -0.41537008 -0.089767434 0
1.1908762 -0.3122752 -0.091424517 0
1.2041756 -0.30470827 -0.060819943 0
1.2159541 -0.29800668 -0.029507643 0
3.0092447 0.72232002 -0.14099409 0
4.5185084 1.581044 -0.14100072 0
9.0359077 4.1513038 -0.14071767 0
0.78087658 -0.51911634 -0.092602663 0
0.87487715 -0.46244672 -0.091228165 0
0.99598545 -0.38943473 -0.08997988 0
1.166393 -0.28670201 -0.090272136 0
1.1429358 -0.30084357 -0.05487207 0
1.2021847 -0.26512447 -0.029950058 0
2.9706187 0.8010028 -0.14144446 0
4.4454494 1.6901269 -0.14063276 0
8.9028025 4.3773098 -0.14070337 0
0.76137578 -0.50430149 -0.09073963 0
0.8514874 -0.4468275 -0.089034639 0
0.98064947 -0.36444679 -0.090002455 0
1.1481763 -0.2575967 -0.090252362 0
1.1367347 -0.26489428 -0.056470755 0
1.1949221 -0.2277818 -0.031211188 0
2.9170525 0.87060827 -0.14082672 0
4.380734 1.8041573 -0.14087041 0
8.7721539 4.6050439 -0.14091267 0
0.74755234 -0.48617634 -0.090394981 0
0.85173279 -0.41596952 -0.092260577 0
0.97328007 -0.33405927 -0.091728248 0
1.1230054 -0.23316005 -0.089177199 0
1.1422187 -0.22021225 -0.059870485 0
1.1653477 -0.2046257 -0.03008779 0
2.8586745 0.93650073 -0.13993967 0
4.3097315 1.9143622 -0.14091945 0
8.6336527 4.8282356 -0.14106524 0
0.74294943 -0.46157578 -0.092567511 0
0.82960349 -0.39994469 -0.090551816 0
0.95690536 -0.30940351 -0.091822438 0
1.1031481 -0.20539102 -0.089104421 0
1.1353952 -0.18245587 -0.061726976 0
1.1368982 -0.18138686 -0.029139286 0
2.8207347 1.0162117 -0.14093134 0
4.2396445 2.0253856 -0.14117919 0
8.4754219 5.0380063 -0.14081702 0
0.72376907 -0.44724467 -0.091071822 0
0.82117945 -0.37419346 -0.092131458 0
0.93653637 -0.28768352 -0.091224544 0
1.0779935 -0.18160018 -0.088221692 0
1.0937061 -0.16981676 -0.058663446 0
1.0926648 -0.17059764 -0.026398977 0
1.0963415 -0.16784039 0.0052528549 0
1.0955883 -0.16840526 0.037273232 0
1.1046996 -0.16157237 0.068893798 0
1.1044495 -0.16175994 0.10100977 0
1.10291 -0.16291448 0.13307367 0
1.1047536 -0.16153184 0.16527987 0
1.0968376 -0.16746828 0.19680989 0
0.70872396 -0.43008009 -0.090763353 0
0.79661238 -0.36063704 -0.090022288 0
0.91212386 -0.26936832 -0.089881383 0
1.0604861 -0.15214339 -0.088797383 0
1.1035801 -0.11809358 -0.063265778 0
1.0966482 -0.12357059 -0.029371476 0
1.1031582 -0.11842689 0.002767781 0
1.1012465 -0.11993745 0.035687942 0
1.0959779 -0.1241003 0.068522982 0
1.0999074 -0.12099549 0.10101038 0
1.1057423 -0.11638513 0.13378759 0
1.0980502 -0.12246284 0.16614322 0
1.1021414 -0.11923036 0.19916293 0
0.68973637 -0.41627184 -0.089476831 0
0.79656482 -0.32739517 -0.093958981 0
0.89910913 -0.24208269 -0.091044359 0
1.0265832 -0.13602975 -0.086522587 0
1.1003201 -0.074683815 -0.06616538 0
1.1009082 -0.07419458 -0.03258324 0
1.1089431 -0.06750986 0.00021158368 0
1.1041913 -0.071463197 0.034160044 0
1.1061541 -0.069830209 0.06754443 0
1.0997509 -0.075157434 0.1010112 0
1.0990325 -0.07575509 0.13426258 0
1.098452 -0.076238066 0.16751488 0
1.1013931 -0.073791116 0.20112474 0
0.67616379 -0.39810899 -0.089788891 0
0.77079827 -0.31524882 -0.091752671 0
0.88153452 -0.21829018 -0.091386043 0
0.99343652 -0.12031093 -0.084413417 0
1.0925629 -0.033517744 -0.06859947 0
1.1077974 -0.020178702 -0.036345858 0
1.0981259 -0.028646853 -0.00097714155 0
1.0944117 -0.031899001 0.033310492 0
1.0987656 -0.028086808 0.067044958 0
1.0995406 -0.027408149 0.10101208 0
1.1010821 -0.026058521 0.13505095 0
1.1023359 -0.024960663 0.1692044 0
1.1072644 -0.020645406 0.20385146 0
1.1020131 -0.025243308 0.23765333 0
1.0938743 -0.032369521 0.37466043 0
0.66302288 -0.37942818 -0.090364061 0
0.74160075 -0.30704406 -0.088693567 0
0.85125935 -0.20602903 -0.089030437 0
0.96467084 -0.10155699 -0.083166771 0
1.0609235 -0.012891259 -0.067459054 0
1.1030219 0.025888834 -0.038887639 0
1.097154 0.020483408 -0.0032217929 0
1.1034489 0.026282106 0.031187447 0
1.0979764 0.021241102 0.066292204 0
1.1025383 0.025443349 0.10101315 0
1.0978158 0.021093044 0.1357287 0
1.1008584 0.023895893 0.17067496 0
1.1031917 0.026045356 0.20582247 0
1.0947373 0.018257175 0.2398627 0
1.0371829 -0.034760501 0.36641204 0
0.65197289 -0.35851118 -0.091710247 0
0.72727847 -0.28554437 -0.089513741 0
0.8448351 -0.17163852 -0.092144825 0
0.84880048 -0.16779634 -0.064935826 0
0.84588003 -0.17062613 -0.036527459 0
0.84177887 -0.17459992 -0.0083086323 0
0.83209836 -0.18397972 0.020065652 0
0.84109384 -0.17526367 0.046510532 0
0.83620381 -0.18000183 0.073930219 0
0.84525812 -0.17122868 0.10100396 0
0.83902669 -0.17726657 0.12816863 0
0.83512443 -0.18104765 0.15510976 0
0.84160924 -0.17476425 0.18286812 0
1.0979327 0.073598772 0.2436296 0
1.0060867 -0.015394833 0.29773653 0
1.006 -0.015478875 0.3310498 0
0.98790205 -0.033014741 0.3598882 0
0.63333476 -0.34485045 -0.090946741 0
0.71697116 -0.25961611 -0.091579132 0
0.81971592 -0.15490845 -0.091154464 0
0.83915234 -0.13510063 -0.067213021 0
0.84627068 -0.12784633 -0.040084366 0
0.84640712 -0.12770727 -0.011700546 0
0.84048283 -0.13374475 0.017174201 0
0.84088236 -0.13333759 0.0451416 0
0.8431291 -0.13104787 0.073013648 0
0.84206563 -0.13213173 0.10100468 0
0.84457076 -0.12957868 0.12904382 0
0.84424788 -0.12990776 0.1570918 0
0.84102201 -0.13319525 0.18488923 0
0.84318143 -0.13099459 0.21328071 0
1.101211 0.13196459 0.28465798 0
0.94330919 -0.028953876 0.2901316 0
0.94540644 -0.026816513 0.3226687 0
0.95526356 -0.016771104 0.35768327 0
0.61454242 -0.33159932 -0.090220354 0
0.70142007 -0.2384738 -0.092431568 0
0.79123819 -0.14219639 -0.089428268 0
0.8408953 -0.088968188 -0.072067149 0
0.84271407 -0.087018639 -0.043244991 0
0.84539539 -0.084144443 -0.014573483 0
0.84764785 -0.081730038 0.014200279 0
0.83383495 -0.096536249 0.044130418 0
0.83785021 -0.092232257 0.072446369 0
0.8368094 -0.093347937 0.10100538 0
0.83702594 -0.093115777 0.12953635 0
0.84008765 -0.089833885 0.15830749 0
0.84265321 -0.087083846 0.18729945 0
0.83813179 -0.091930419 0.21559106 0
1.1041232 0.19318989 0.29006666 0
0.93163234 0.0082942583 0.2927807 0
0.93053383 0.0071167084 0.32500952 0
0.92393243 4.0623956e-05 0.35589084 0
0.60599083 -0.30703804 -0.092859574 0
0.67437583 -0.22992286 -0.090195335 0
0.77433568 -0.11720195 -0.09059798 0
0.84740049 -0.034809556 -0.078313224 0
0.83560824 -0.048107233 -0.046050612 0
0.84123397 -0.041763272 -0.017238727 0
0.836541 -0.04705539 0.012929412 0
0.84434074 -0.03825989 0.041794144 0
0.84754717 -0.034644093 0.071304075 0
0.84276909 -0.040032174 0.10100662 0
0.8436169 -0.039076116 0.13057154 0
0.8373996 -0.046087172 0.15973175 0
0.84227246 -0.04059222 0.18968804 0
0.84153062 -0.041428771 0.21929421 0
1.1032355 0.25368586 0.29523015 0
1.1019152 0.25219706 0.33426002 0
0.57718122 -0.30552182 -0.089098148 0
0.6536327 -0.21479878 -0.08979515 0
0.73059696 -0.12346724 -0.085117318 0
0.85262901 0.021345172 -0.084764339 0
0.83731097 0.0031676625 -0.050714571 0
0.8370114 0.0028121804 -0.02012874 0
0.83722544 0.0030661558 0.01024715 0
0.83644974 0.0021456813 0.040611275 0
0.84184444 0.0085474588 0.070631042 0
0.83762687 0.0035425161 0.10100746 0
0.84012413 0.0065059992 0.13132207 0
0.83484304 0.00023904782 0.16128749 0
0.84022516 0.0066258642 0.1920938 0
0.83858579 0.0046804878 0.22237246 0
0.83990115 0.0062414142 0.2532005 0
1.0931137 0.30672231 0.33925036 0
0.56349617 -0.28651556 -0.090373911 0
0.63849348 -0.19281897 -0.091184594 0
0.72129345 -0.089374274 -0.088477053 0
0.85027349 0.071764618 -0.090030186 0
0.85594451 0.078849703 -0.058932681 0
0.83601266 0.053948198 -0.023758283 0
0.84089369 0.06004623 0.0070058797 0
0.8390795 0.057779584 0.038531944 0
0.84218681 0.061661635 0.069671609 0
0.83601856 0.053955469 0.10100855 0
0.8392067 0.057938609 0.13223493 0
0.83468199 0.052285705 0.16315758 0
0.83785218 0.056246314 0.19467148 0
0.84135121 0.060617719 0.22657394 0
0.84094208 0.060106669 0.25814539 0
1.1036437 0.38830808 0.3490546 0
1.1002147 0.38402429 0.3901791 0
0.5496164 -0.26724115 -0.091790177 0
0.61560547 -0.18039492 -0.090378501 0
0.70467675 -0.06317094 -0.090193473 0
0.7266286 -0.034280743 -0.067590468 0
0.72459102 -0.036962356 -0.038816798 0
0.72715461 -0.033588495 -0.011065533 0
0.72879237 -0.031433072 0.016869219 0
0.73297632 -0.025926735 0.044643108 0
0.72450572 -0.037074652 0.073164806 0
0.72426713 -0.037388649 0.10100453 0
0.73585767 -0.022134688 0.12928164 0
0.73469323 -0.023667183 0.15749919 0
0.73916417 -0.017783131 0.18634006 0
0.72351962 -0.038372423 0.2125143 0
0.73000795 -0.029833283 0.24187377 0
0.72812366 -0.032313135 0.26994851 0
0.72777516 -0.032771792 0.2984795 0
0.73135281 -0.028063383 0.32842547 0
0.53237551 -0.25203016 -0.092208914 0
0.59823823 -0.16065273 -0.091421433 0
0.68305725 -0.042975452 -0.090747617 0
0.72281897 0.01218966 -0.072521679 0
0.95556676 0.33510223 -0.08983285 0
0.85421389 0.19448605 -0.03523453 0
0.84287244 0.1787509 0.00031252415 0
0.83600456 0.1692225 0.034486305 0
0.83889955 0.17323902 0.067651622 0
0.84254187 0.17829242 0.10101148 0
0.84149921 0.1768457 0.13447466 0
0.83793771 0.17190459 0.16769031 0
0.84288716 0.17877141 0.20171264 0
0.83631104 0.16964772 0.23439974 0
0.83924508 0.17371836 0.26860633 0
0.84253591 0.17828408 0.30331969 0
1.0995609 0.53487855 0.40986827 0
0.50710338 -0.24837402 -0.089759044 0
0.57664615 -0.14657095 -0.091256298 0
0.6550796 -0.031752851 -0.089615934 0
0.76391339 0.12756804 -0.089112975 0
0.9253366 0.36387423 -0.090555869 0
1.1584878 0.70518225 -0.090572573 0
0.85362726 0.25889948 -0.0047062095 0
0.84370893 0.24438015 0.031415973 0
0.83993512 0.23885563 0.066388898 0
0.8392393 0.23783699 0.10101283 0
0.83904111 0.23754683 0.13559993 0
0.83750772 0.23530224 0.17009787 0
0.8411566 0.24064365 0.20518686 0
0.833049 0.22877505 0.23874539 0
0.84230667 0.24232724 0.27537933 0
0.83919531 0.23777261 0.3098965 0
1.1051098 0.62704259 0.42279655 0
1.1004034 0.62015301 0.46820381 0
0.48894572 -0.23476115 -0.090032078 0
0.55303061 -0.1356692 -0.090503789 0
0.63378018 -0.010809328 -0.090544589 0
0.74129182 0.15543178 -0.090614147 0
0.8877579 0.38190642 -0.089879505 0
1.111977 0.72860759 -0.089990057 0
1.4839348 1.3037512 -0.089937665 0
0.84627587 0.31776443 0.028504485 0
0.83614308 0.30209652 0.065213114 0
0.83731365 0.30390647 0.10101436 0
0.8403675 0.30862859 0.13699685 0
0.84744138 0.31956664 0.17362541 0
0.83777541 0.30462053 0.20878392 0
0.8448512 0.31556156 0.24610648 0
0.83659828 0.30280033 0.28089899 0
0.83772123 0.30453673 0.31759933 0
0.84338576 0.31329551 0.35601223 0
1.0970964 0.70559841 0.48126665 0
0.47424126 -0.21534935 -0.091860883 0
0.53092641 -0.12265095 -0.090362735 0
0.60061842 -0.0086822771 -0.08793854 0
0.7065925 0.16461936 -0.089110695 0
0.85702044 0.41061702 -0.090807311 0
1.0666063 0.75335687 -0.089690767 0
1.4228443 1.3359201 -0.08956746 0
0.85581732 0.40864959 0.024686107 0
0.85123938 0.40116325 0.063076325 0
0.84102166 0.38445392 0.10101636 0
0.84053606 0.38365987 0.13847938 0
0.8402192 0.38314167 0.1759548 0
0.84128773 0.38488916 0.21366912 0
0.83854979 0.38041165 0.25092053 0
0.84978795 0.39878967 0.29122201 0
0.83872813 0.38070336 0.32674 0
0.84716225 0.39449576 0.3676444 0
1.1023607 0.81182677 0.49873808 0
0.45568553 -0.20171091 -0.092337988 0
0.5100264 -0.10758993 -0.090790264 0
0.57584292 0.0064074132 -0.087990217 0
0.67589629 0.17970458 -0.08872921 0
0.81265497 0.41657701 -0.088756926 0
1.0278276 0.78926605 -0.090722986 0
1.3634045 1.370501 -0.089522742 0
1.3700417 1.3819971 -0.026502332 0
0.8505069 0.48213843 0.061466429 0
0.83964783 0.46332994 0.10101828 0
0.84058255 0.46494892 0.14010881 0
0.84111309 0.46586791 0.17929117 0
0.84013051 0.46416596 0.2183964 0
0.8421849 0.46772435 0.25810483 0
0.84548247 0.47343579 0.29846877 0
0.83340323 0.45251408 0.33503723 0
0.84108782 0.46582404 0.3772161 0
0.84321374 0.46950629 0.41834277 0
0.43100148 -0.19906655 -0.090262212 0
0.48773465 -0.094812602 -0.090836175 0
0.55826735 0.034799609 -0.090648048 0
0.65299499 0.20887282 -0.090730987 0
0.78094506 0.4439961 -0.089739852 0
0.98290735 0.81512576 -0.090777956 0
1.2849584 1.3701799 -0.086821012 0
1.2952999 1.3891835 -0.025092414 0
1.2880841 1.3759239 0.038362775 0
0.85002989 0.57094771 0.10102111 0
0.83853918 0.54983205 0.14181136 0
0.84210175 0.55637878 0.18299398 0
0.84062052 0.55365676 0.22387516 0
0.84222406 0.55660349 0.26534799 0
0.83977479 0.55210274 0.30616662 0
0.83935338 0.55132836 0.34756535 0
0.83758777 0.54808384 0.38873237 0
0.83543742 0.54413217 0.42989147 0
0.41122106 -0.18789253 -0.090399645 0
0.46227494 -0.088160962 -0.089705192 0
0.52992231 0.0439854 -0.089808114 0
0.62195808 0.22377327 -0.090546407 0
0.75049758 0.47486988 -0.091269545 0
0.93676388 0.83873326 -0.090715759 0
1.2471478 1.445055 -0.090216182 0
1.2443212 1.4395332 -0.026057338 0
1.247694 1.4461219 0.037357789 0
1.2424183 1.435816 0.10104817 0
0.84489304 0.65926737 0.14413629 0
0.8427484 0.65507787 0.18707676 0
0.84329885 0.65615326 0.23030499 0
0.83726233 0.64436108 0.27238044 0
0.84019524 0.6500904 0.31632283 0
0.83550429 0.6409269 0.35845333 0
0.83763689 0.6450929 0.4028416 0
0.83511561 0.64016765 0.44586545 0
0.39037082 -0.17883638 -0.090154462 0
0.43900266 -0.077618331 -0.089536019 0
0.50314575 0.05588356 -0.089604117 0
0.58417565 0.22453192 -0.088282026 0
0.71575826 0.49839655 -0.09192843 0
0.89195973 0.86512691 -0.091064192 0
1.1835194 1.4719532 -0.089923866 0
1.7880615 2.7301943 -0.091138847 0
4.5025339 8.3798599 -0.14070572 0
0.84714329 0.77184993 0.19204414 0
0.84233648 0.76184541 0.23690015 0
0.83826417 0.75336963 0.28154328 0
0.8396008 0.75615162 0.32740271 0
0.84094453 0.75894827 0.37365881 0
0.84099936 0.75906235 0.41987434 0
0.83918285 0.75528175 0.46563679 0
0.37161067 -0.1652399 -0.091093667 0
0.41752404 -0.063158721 -0.090299748 0
0.48155779 0.079210311 -0.091584496 0
0.54988909 0.23113444 -0.087091513 0
0.67656034 0.51276833 -0.091519706 0
0.84743446 0.89268023 -0.091643803 0
1.1188121 1.4960461 -0.089543618 0
1.6914527 2.7692235 -0.090889908 0
4.2656355 8.4925184 -0.14075828 0
1.0670671 1.3809991 0.22211497 0
0.8532207 0.90554506 0.24633867 0
0.84188026 0.88033134 0.29243881 0
0.83678931 0.86901242 0.33923137 0
0.84128994 0.87901884 0.38898745 0
0.83800513 0.87171561 0.43646231 0
0.84194463 0.88047439 0.48724598 0
0.34778741 -0.16309175 -0.08949355 0
0.3928543 -0.055730548 -0.089730449 0
0.44825989 0.076260239 -0.088957958 0
0.52542937 0.26009837 -0.08945436 0
0.6377362 0.52764291 -0.091305129 0
0.79647177 0.90579301 -0.090869896 0
1.0642561 1.5437257 -0.091080226 0
1.5928814 2.8030508 -0.090504743 0
4.0248537 8.5966511 -0.14074694 0
0.99722308 1.3840353 0.22094683 0
0.84672153 1.025501 0.25385517 0
0.839239 1.0076756 0.30324906 0
0.8444398 1.0200653 0.3557879 0
0.83919895 1.0075803 0.40544802 0
0.83891463 1.0069031 0.45690721 0
0.8414048 1.0128353 0.51007801 0
0.3277204 -0.15232655 -0.090013318 0
0.37173462 -0.039583351 -0.09105622 0
0.41718307 0.076833636 -0.087127872 0
0.49319372 0.27153614 -0.089243598 0
0.59588659 0.53458565 -0.09022107 0
0.74791878 0.9240188 -0.090745442 0
1.0003847 1.5707145 -0.091152824 0
1.4985094 2.8466692 -0.090737648 0
3.7811399 8.6936655 -0.1407105 0
0.92860848 1.3868582 0.21986812 0
0.84781337 1.1799004 0.26389745 0
0.83945942 1.1585016 0.31631446 0
0.83868515 1.1565185 0.37032521 0
0.84076744 1.1618521 0.42563573 0
0.83951861 1.158653 0.48007098 0
0.83661777 1.1512227 0.53390819 0
0.30733114 -0.14204732 -0.090533532 0
0.34854367 -0.028072026 -0.091548719 0
0.39288998 0.094569832 -0.088451587 0
0.43702009 0.21661392 -0.079240091 0
0.43523237 0.21166983 -0.048284192 0
0.43876094 0.2214283 -0.01919969 0
0.93585289 1.5961604 -0.091230489 0
1.4034883 2.8894289 -0.091044404 0
3.5377247 8.7917652 -0.140854 0
0.85809422 1.381115 0.21846086 0
0.84945601 1.3572257 0.27555218 0
0.84069216 1.3329887 0.33161065 0
0.84137219 1.3348694 0.38995832 0
0.83907372 1.3285129 0.44748643 0
0.84125817 1.3345542 0.50724411 0
0.83935547 1.3292921 0.56549656 0
0.28609234 -0.13388065 -0.090691887 0
0.32386208 -0.020563807 -0.091359057 0
0.36654601 0.10749653 -0.089037724 0
0.40394869 0.21971217 -0.078126155 0
0.40556711 0.2245678 -0.048570428 0
0.40486136 0.22245041 -0.018251395 0
0.86256486 1.5956528 -0.089515559 0
1.3003547 2.9091103 -0.090334304 0
3.2914276 8.8827305 -0.14097272 0
0.79297531 1.3868701 0.21771815 0
0.85242867 1.5652423 0.28936988 0
0.84296751 1.5368571 0.34966832 0
0.84025347 1.5287142 0.41132846 0
0.8366524 1.5179102 0.47253013 0
0.84158361 1.5327051 0.53803807 0
0.84119266 1.531532 0.60160702 0
0.26779407 -0.1159105 -0.093147554 0
0.29932722 -0.012693014 -0.091365449 0
0.33998823 0.12040272 -0.089730553 0
0.38189113 0.2575635 -0.082250766 0
0.38374549 0.2636334 -0.052144188 0
0.38003436 0.25148574 -0.020128286 0
0.72387463 1.3769786 -0.072001733 0
0.72660398 1.3859127 -0.014651513 0
0.727431 1.3886197 0.043160394 0
0.72867107 1.392679 0.1010415 0
0.7250194 1.3807259 0.15873006 0
0.72667778 1.3861542 0.21674618 0
0.84518641 1.7740688 0.30313522 0
0.83574939 1.7431784 0.36782134 0
0.83660942 1.7459936 0.43540329 0
0.83633 1.745079 0.50294334 0
0.83581203 1.7433836 0.57074797 0
0.24156754 -0.12421754 -0.089890815 0
0.27558362 -0.0019095804 -0.092062719 0
0.31288478 0.13221005 -0.090345852 0
0.36495814 0.31944445 -0.089933224 0
0.43990371 0.58891815 -0.090481035 0
0.55248398 0.99371058 -0.091148965 0
0.65891743 1.3764014 -0.070691012 0
0.65860176 1.3752666 -0.013288921 0
0.66048038 1.3820214 0.0437437 0
0.66208696 1.3877981 0.10104083 0
0.66265219 1.3898301 0.15852661 0
0.66456562 1.3967102 0.21640761 0
0.81303787 1.9305553 0.31301665 0
0.81250399 1.9286358 0.38384259 0
0.81308597 1.9307284 0.45537117 0
0.80812591 1.912894 0.52448368 0
0.81001526 1.9196873 0.59738815 0
0.22210203 -0.10871479 -0.092018373 0
0.24730524 -0.0083503388 -0.089527436 0
0.28131264 0.12707439 -0.088202529 0
0.33214897 0.32951537 -0.090122156 0
0.3975313 0.5898816 -0.08932317 0
0.49990606 0.99755961 -0.090240978 0
0.59506685 1.3765099 -0.069556542 0
0.59856749 1.3904502 -0.01325742 0
0.5953337 1.3775725 0.044231147 0
0.5957104 1.3790727 0.10104011 0
0.59817672 1.3888938 0.15812112 0
0.59538567 1.3777795 0.21472968 0
0.76870775 2.0679846 0.32151967 0
0.77103102 2.0772364 0.39627019 0
0.76895052 2.0689514 0.46967727 0
0.76750273 2.0631862 0.54345155 0
0.19863252 -0.10867873 -0.090871863 0
0.22457568 0.0069040391 -0.091332622 0
0.25824571 0.15691188 -0.092096828 0
0.29937202 0.34013918 -0.090509288 0
0.35884359 0.6050989 -0.090007655 0
0.44836468 1.0039361 -0.089707218 0
0.55353647 1.4725008 -0.075414173 0
0.5525794 1.4682369 -0.016285604 0
0.55342031 1.4719834 0.042320829 0
0.55281824 1.469301 0.10104233 0
0.55050129 1.4589784 0.15945342 0
0.55376923 1.4735379 0.21862374 0
0.7130816 2.1833117 0.32847026 0
0.71357566 2.1855128 0.40486822 0
0.71250486 2.1807423 0.48086888 0
0.71554071 2.1942675 0.5596925 0
0.17404173 -0.11562875 -0.088345923 0
0.19791065 0.0048641893 -0.089918576 0
0.22431862 0.13817456 -0.087931044 0
0.26575375 0.34734371 -0.090523444 0
0.31867006 0.61447114 -0.090108983 0
0.39893365 1.0196505 -0.090188779 0
0.4154563 1.1030586 -0.048147041 0
0.41542038 1.1028771 0.0016775003 0
0.41527113 1.102124 0.051399138 0
0.41439748 1.0977135 0.10103113 0
0.41765627 1.1141644 0.15094954 0
0.41600811 1.1058443 0.20052631 0
0.41439316 1.0976918 0.24982743 0
0.41663435 1.1090055 0.30075526 0
0.41554043 1.1034832 0.35043627 0
0.4074066 1.0624228 0.3950322 0
0.29439133 0.49190941 0.34922686 0
0.27150831 0.37639323 0.36327934 0
0.15404864 -0.099299163 -0.09098611 0
0.1729621 0.010665987 -0.090138249 0
0.19761083 0.15397671 -0.089686386 0
0.23111901 0.34879735 -0.089838766 0
0.28082711 0.63780636 -0.091986246 0
0.34626964 1.0182972 -0.089170195 0
0.36941132 1.1528459 -0.050984163 0
0.88167506 4.1312099 -0.14091307 0
1.7620634 9.2498941 -0.14059086 0
0.58305162 2.3949766 0.26103377 0
0.57933062 2.373342 0.33969778 0
0.58096862 2.3828657 0.42054754 0
0.2627753 0.53285104 0.28156984 0
0.27138636 0.5829168 0.32525745 0
0.27107829 0.58112556 0.3629539 0
0.23541754 0.37378958 0.36155975 0
0.13019069 -0.10498539 -0.088995792 0
0.14752908 0.013671789 -0.089944996 0
0.16861038 0.15794399 -0.08958175 0
0.19678381 0.35075203 -0.089352168 0
0.23808135 0.6333763 -0.090690188 0
0.29662779 1.0340455 -0.089894213 0
0.39600801 1.7141652 -0.090033807 0
0.75251865 4.1539855 -0.14101584 0
1.5035884 9.2940149 -0.14066008 0
0.50685292 2.4727445 0.26405609 0
0.5051102 2.4608178 0.34492704 0
0.50631511 2.4690638 0.42740381 0
0.22222792 0.52488154 0.27990475 0
0.27759328 0.90378076 0.36994937 0
0.20035407 0.37518552 0.36078185 0
0.10930461 -0.089826196 -0.091603599 0
0.12427138 0.034442816 -0.093244575 0
0.13807476 0.14905217 -0.087470077 0
0.16380452 0.36268607 -0.090402491 0
0.19773662 0.64442414 -0.091347285 0
0.2478167 1.0602386 -0.091715999 0
0.32803094 1.7262568 -0.090244018 0
0.62166613 4.1643081 -0.14068751 0
1.2451956 9.3414679 -0.14096017 0
0.42578006 2.5378671 0.26656601 0
0.42476821 2.5294657 0.34894583 0
0.42500547 2.5314357 0.43217546 0
0.42444789 2.5268061 0.51508313 0
0.23056763 0.91701978 0.37092113 0
0.16585256 0.37969092 0.36076462 0
0.085830241 -0.095233649 -0.089926548 0
0.097522385 0.027956996 -0.091490544 0
0.11188175 0.17924991 -0.09194418 0
0.1298729 0.36880806 -0.090747498 0
0.15556057 0.639458 -0.090242498 0
0.19527882 1.0579369 -0.090977438 0
0.25844049 1.7234204 -0.08952605 0
0.49189839 4.183177 -0.14091426 0
0.98409069 9.3690071 -0.14094698 0
0.34219325 2.605855 0.26930004 0
0.34067202 2.5898271 0.35251531 0
0.3399446 2.5821631 0.43603599 0
0.34012142 2.5840261 0.52068049 0
0.34061864 2.5892646 0.60635108 0
0.17323294 0.82565755 0.40070724 0
0.13095619 0.38022175 0.36016026 0
0.063035853 -0.096389979 -0.089284621 0
0.071311288 0.022671614 -0.090093859 0
0.081519738 0.16954425 -0.089945458 0
0.095680654 0.37328222 -0.090980567 0
0.1154111 0.6571514 -0.091919161 0
0.14185677 1.0376344 -0.088680096 0
0.19090301 1.7432799 -0.090523057 0
0.36096033 4.1899552 -0.1407294 0
0.72262335 9.3933296 -0.14101258 0
0.25360632 2.6454148 0.27079967 0
0.25179458 2.6193488 0.35406461 0
0.1333946 0.9158861 0.27933943 0
0.13415815 0.92687172 0.32557029 0
0.13446596 0.93130034 0.37164351 0
0.12531838 0.79969078 0.3958067 0
0.096461922 0.38452271 0.36043549 0
0.040593404 -0.092707247 -0.089795507 0
0.045809656 0.025337014 -0.090322532 0
0.051519018 0.15454045 -0.087203525 0
0.060914598 0.36716321 -0.089844666 0
0.07367707 0.65597934 -0.09150558 0
0.091288179 1.0545201 -0.089985929 0
0.12229358 1.7561755 -0.091150992 0
0.23018058 4.1976681 -0.14074238 0
0.4600727 9.4001484 -0.14082445 0
0.16338465 2.6860697 0.2724531 0
0.16281222 2.6731157 0.35746744 0
0.086983867 0.95711333 0.28293806 0
0.085678548 0.92757374 0.32533053 0
0.086272314 0.94101077 0.3726221 0
0.077247262 0.73677307 0.38502973 0
0.061511621 0.38067392 0.35933778 0
0.018157082 -0.081532389 -0.092019431 0
0.020160107 0.024286423 -0.089972354 0
0.02320721 0.18526331 -0.092103995 0
0.026826439 0.37646523 -0.091000266 0
0.032026559 0.65118486 -0.090791933 0
0.039386638 1.040014 -0.088479675 0
0.052682061 1.742404 -0.090035148 0
0.09941633 4.2113509 -0.14118712 0
0.19781387 9.4096403 -0.14085273 0
0.071163148 2.7187502 0.27384019 0
0.070723981 2.6955495 0.35883316 0
0.070506588 2.6840646 0.44411582 0
0.070780806 2.6985514 0.53227156 0
0.032707792 0.68717402 0.37664759 0
0.02694881 0.38292995 0.35955724 0
-0.004688723 -0.091429919 -0.089884825 0
-0.0054208254 0.024644647 -0.090009443 0
-0.0062619764 0.15800896 -0.087593876 0
-0.0075687626 0.36519948 -0.089386441 0
-0.0093911607 0.65414017 -0.09110681 0
-0.011871956 1.0474694 -0.089145429 0
-0.016355835 1.7583873 -0.091122143 0
-0.031819586 4.2101603 -0.14109312 0
-0.064540192 9.3980026 -0.14054364 0
-0.022481915 2.7296753 0.27432188 0
-0.022392973 2.7155738 0.36019319 0
-0.022402139 2.7170269 0.44713986 0
-0.022432651 2.7218647 0.53492904 0
-0.0093731415 0.6512832 0.37070277 0
-0.0076974537 0.38560334 0.3600198 0
-0.027405011 -0.08982566 -0.090317182 0
-0.031153679 0.028986607 -0.090918876 0
-0.035325624 0.16121438 -0.088211037 0
-0.041991819 0.37249616 -0.090503328 0
-0.050830524 0.65263456 -0.091022514 0
-0.063810319 1.0640228 -0.090782113 0
-0.085502118 1.7515335 -0.090734534 0
-0.11873149 2.8047225 -0.075746544 0
-0.11885438 2.8086176 0.012623357 0
-0.11851147 2.7977486 0.10107856 0
-0.11886258 2.8088772 0.18954057 0
-0.11637138 2.7299197 0.27441612 0
-0.11679929 2.7434821 0.36227065 0
-0.11645331 2.7325165 0.44875264 0
-0.11633776 2.7288544 0.53595406 0
-0.051050328 0.65960127 0.37219986 0
-0.042420141 0.38607171 0.36023182 0
-0.050222777 -0.08849892 -0.090813063 0
-0.057084281 0.032226834 -0.091744252 0
-0.065213174 0.17525175 -0.090732895 0
-0.076589331 0.37541118 -0.091127284 0
-0.091550782 0.63865262 -0.08959996 0
-0.11545414 1.0592237 -0.090547375 0
-0.15514506 1.7575717 -0.091371201 0
-0.2139603 2.7924049 -0.075369336 0
-0.21385778 2.790601 0.012944357 0
-0.21396835 2.7925463 0.10107854 0
-0.21414889 2.795723 0.18933229 0
-0.21155453 2.7500761 0.27555066 0
-0.20991772 2.721277 0.36100605 0
-0.21123683 2.7444861 0.4502604 0
-0.077991314 0.40007856 0.26369336 0
-0.07640487 0.37216571 0.29269063 0
-0.076293014 0.37019756 0.32484484 0
-0.076733217 0.37794283 0.35898703 0
-0.072944023 -0.089960068 -0.090838097 0
-0.082889736 0.031045232 -0.091859244 0
-0.093477026 0.15985623 -0.088530608 0
-0.11132675 0.37702635 -0.091692232 0
-0.13374186 0.64974147 -0.091234855 0
-0.166796 1.0518973 -0.090197422 0
-0.22370805 1.7443221 -0.090779446 0
-0.42440391 4.1861038 -0.14078084 0
-0.85041368 9.3691835 -0.14068092 0
-0.30547559 2.7391527 0.27534625 0
-0.30406085 2.7219405 0.36150911 0
-0.30414864 2.7230084 0.44886082 0
-0.30445442 2.7267287 0.53695434 0
-0.113768 0.40672794 0.29790276 0
-0.11357126 0.40433434 0.33086917 0
-0.11221439 0.38782576 0.36130828 0
-0.095590197 -0.092309505 -0.090795748 0
-0.10833672 0.026092324 -0.09138336 0
-0.12225988 0.15542391 -0.088252343 0
-0.14521931 0.36869326 -0.090976365 0
-0.17429698 0.63879436 -0.090408929 0
-0.21704124 1.0358438 -0.089148737 0
-0.29049417 1.7181447 -0.08939863 0
-0.55528313 4.1777577 -0.14096974 0
-1.1134831 9.3628531 -0.14111233 0
-0.39892727 2.7253749 0.27511847 0
-0.39812714 2.7179427 0.36185253 0
-0.39802793 2.7170212 0.44913256 0
-0.39933211 2.7291355 0.53828287 0
-0.14846976 0.39888647 0.29726616 0
-0.14917102 0.40540043 0.33159676 0
-0.14692867 0.38457134 0.36131585 0
-0.11831532 -0.094100147 -0.090995468 0
-0.13345188 0.019490156 -0.090714328 0
-0.15263556 0.16345158 -0.090159304 0
-0.17924003 0.36310115 -0.090767793 0
-0.21598881 0.63887733 -0.091001235 0
-0.26912943 1.0376637 -0.089898787 0
-0.36049804 1.7233269 -0.090343572 0
-0.68425423 4.1529112 -0.14053921 0
-1.3711926 9.3079472 -0.14056131 0
-0.49114749 2.703768 0.27463248 0
-0.48933569 2.6901715 0.36068636 0
-0.24023984 0.82086581 0.27152988 0
-0.24158606 0.83096844 0.31569707 0
-0.18322052 0.39297214 0.29702479 0
-0.18481204 0.40491548 0.33221829 0
-0.18220058 0.38531819 0.36225024 0
-0.14151323 -0.093311876 -0.091874264 0
-0.16016874 0.023996506 -0.092281871 0
-0.17963754 0.14641896 -0.088030852 0
-0.21316652 0.3572537 -0.090643995 0
-0.25747803 0.63589019 -0.091356896 0
-0.32142884 1.0380216 -0.090637691 0
-0.42637637 1.6979458 -0.089253627 0
-0.81516093 4.1426759 -0.14094888 0
-1.6312326 9.2742443 -0.14066011 0
-0.58094043 2.6698654 0.27367389 0
-0.58221 2.6778488 0.36077276 0
-0.27967876 0.77549142 0.26786882 0
-0.27916023 0.77223092 0.30953574 0
-0.27771357 0.76313406 0.35044515 0
-0.21707124 0.381807 0.36254558 0
-0.16301525 -0.10291663 -0.090636812 0
-0.1836113 0.008406613 -0.090136267 0
-0.20775697 0.13891569 -0.087598853 0
-0.24724644 0.35235944 -0.090777971 0
-0.29433137 0.60685688 -0.088742651 0
-0.36956063 1.0134768 -0.089141227 0
-0.49435273 1.6879876 -0.089373045 0
-0.94552159 4.1265898 -0.14123955 0
-1.8907728 9.2357445 -0.1408008 0
-0.66812736 2.6272523 0.27240512 0
-0.66719514 2.6222141 0.35794416 0
-0.66864276 2.6300385 0.44474512 0
-0.66815639 2.6274095 0.53105259 0
-0.2874701 0.56977123 0.36164603 0
-0.25302699 0.3836036 0.36402759 0
-0.18639047 -0.1023027 -0.091730408 0
-0.21116076 0.014960561 -0.092355631 0
-0.23660375 0.13540831 -0.087954678 0
-0.27901033 0.33616212 -0.089412369 0
-0.33881751 0.61929089 -0.091178633 0
-0.42079803 1.0073889 -0.08951316 0
-0.56155646 1.673743 -0.089309134 0
-0.61781788 1.9400859 -0.038415212 0
-0.61773455 1.9396915 0.031367447 0
-0.61744863 1.938338 0.10105582 0
-0.75339454 2.5819097 0.2711041 0
-0.75305301 2.5802929 0.35623413 0
-0.75370383 2.5833738 0.44201335 0
-0.75483555 2.5887315 0.52858537 0
-0.28800109 0.3787246 0.36440632 0
-0.20840763 -0.10858622 -0.091452114 0
-0.23748839 0.013733897 -0.093216278 0
-0.26793522 0.14179984 -0.090107538 0
-0.3123228 0.32850376 -0.089387514 0
-0.37451047 0.59007877 -0.088760801 0
-0.47058183 0.99417609 -0.089327462 0
-0.52475715 1.2220495 -0.057932142 0
-0.61757785 1.6124735 -0.023529952 0
-0.61950308 1.6205714 0.038598582 0
-0.61931461 1.6197786 0.10104696 0
-0.83428681 2.523999 0.26929593 0
-0.83235842 2.5158877 0.35305226 0
-0.83116645 2.510874 0.43699047 0
-0.83193058 2.5140882 0.52204293 0
-0.83421093 2.52368 0.60863549 0
-0.23143415 -0.11085317 -0.092176907 0
-0.25899044 -0.0066980985 -0.090469934 0
-0.30034584 0.14961377 -0.09265063 0
-0.34577203 0.32131222 -0.089552186 0
-0.41473067 0.58195668 -0.088985004 0
-0.52115482 0.98421043 -0.089574985 0
-0.58053613 1.2086551 -0.057973702 0
-0.64510775 1.452718 -0.016628137 0
-0.64737099 1.4612725 0.042033296 0
-0.64800382 1.4636643 0.10104284 0
-0.91337746 2.4667032 0.2676034 0
-0.91079271 2.4569333 0.35038796 0
-0.91015923 2.4545391 0.43368393 0
-0.90799648 2.4463644 0.51652819 0
-0.90832728 2.4476147 0.60080057 0
-0.25097013 -0.12575033 -0.090238638 0
-0.28377208 -0.013321307 -0.090518735 0
-0.32453775 0.12640348 -0.090040617 0
-0.34351835 0.19145969 -0.071884416 0
-0.45595896 0.57685107 -0.089701273 0
-0.57234836 0.97577709 -0.090097003 0
-0.71272206 1.4569094 -0.077172019 0
-0.716838 1.4710166 -0.01834379 0
-0.71562696 1.466866 0.041482728 0
-0.71390206 1.460954 0.10104326 0
-0.98504221 2.3902895 0.26506671 0
-0.98519742 2.3908217 0.34732613 0
-0.98352426 2.385087 0.42927009 0
-0.98237324 2.3811417 0.51151037 0
-0.98114717 2.3769393 0.59397012 0
-0.2743113 -0.12726733 -0.091379918 0
-0.30931216 -0.017666128 -0.091141619 0
-0.35156253 0.11463609 -0.089488648 0
-0.37451062 0.18649533 -0.072489791 0
-0.39459419 0.24938479 -0.051000644 0
-0.40136543 0.27058807 -0.022478191 0
-0.39751056 0.25851694 0.0093965624 0
-0.39621419 0.2544575 0.040187195 0
-0.39574257 0.25298074 0.070649937 0
-0.39573601 0.25296023 0.10100763 0
-0.39653036 0.25544754 0.13142571 0
-0.39462215 0.24947229 0.16158438 0
-0.39795637 0.259913 0.19272192 0
-0.39538732 0.25186828 0.22265978 0
-0.39749271 0.25846115 0.25413081 0
-0.39432457 0.24854043 0.28365955 0
-0.39962628 0.26514211 0.31747323 0
-0.39838427 0.26125291 0.3483085 0
-0.29368502 -0.14107487 -0.08989761 0
-0.33451888 -0.02352896 -0.0915953 0
-0.37941408 0.10570803 -0.089544021 0
-0.43024909 0.25204375 -0.083706744 0
-0.42768744 0.24466959 -0.051700894 0
-0.42928892 0.24927977 -0.021415381 0
-0.4311482 0.25463191 0.0089106057 0
-0.42931575 0.2493569 0.039925165 0
-0.42719501 0.24325219 0.070633292 0
-0.43161026 0.25596204 0.10100803 0
-0.43182302 0.25657454 0.13171077 0
-0.42722937 0.24335101 0.1617943 0
-0.43320471 0.26055184 0.19354422 0
-0.43052775 0.25284591 0.2237843 0
-0.4286671 0.24748972 0.25406638 0
-0.43365189 0.26183918 0.28718194 0
-0.43170327 0.25622979 0.31775075 0
-0.43152028 0.255703 0.3492907 0
-0.31612712 -0.1457614 -0.090582974 0
-0.35776401 -0.03500184 -0.091051884 0
-0.41168642 0.10843876 -0.091769837 0
-0.47837305 0.28583398 -0.090472735 0
-0.48362601 0.29980746 -0.059984792 0
-0.50970274 0.36917487 -0.034492914 0
-0.51315087 0.37834743 -0.0011730695 0
-0.51325607 0.37862733 0.032936271 0
-0.51088524 0.37232056 0.067149267 0
-0.50876921 0.36669174 0.10101175 0
-1.204043 2.2162108 0.18078758 0
-1.1928694 2.1864877 0.25911346 0
-1.1590381 2.0964916 0.33162424 0
-1.1580427 2.0938439 0.40860352 0
-1.1574064 2.0921514 0.48590565 0
-1.1626526 2.106107 0.56589568 0
-0.34191325 -0.14266291 -0.093189977 0
-0.38069478 -0.046906855 -0.090533711 0
-0.43953776 0.098383337 -0.091895007 0
-0.50749677 0.26618209 -0.089388408 0
-0.51303661 0.27986076 -0.059063111 0
-0.51081866 0.27438429 -0.026288142 0
-0.51565981 0.28633764 0.0047555584 0
-0.50940859 0.27090266 0.037673499 0
-0.51317668 0.28020659 0.069125101 0
-0.5113281 0.27564207 0.10100936 0
-1.2735915 2.1577599 0.2592344 0
-1.1952461 1.9643159 0.32393017 0
-1.2019659 1.9809082 0.40026897 0
-1.1984309 1.9721797 0.47458133 0
-1.1983217 1.97191 0.55014282 0
-0.35678458 -0.16626301 -0.089787699 0
-0.4085097 -0.047268596 -0.092498772 0
-0.46116695 0.073870093 -0.089555927 0
-0.51222908 0.1913394 -0.079946838 0
-0.50993067 0.18605176 -0.048812557 0
-0.5084691 0.18268946 -0.01831088 0
-0.51724821 0.2028859 0.01009235 0
-0.50743842 0.18031827 0.041597746 0
-0.51025373 0.18679491 0.071154155 0
-0.50873995 0.18331245 0.1010069 0
-1.351647 2.1224327 0.25912428 0
-1.2272789 1.8363218 0.31653973 0
-1.2251265 1.8313701 0.38822728 0
-1.2273892 1.8365757 0.46127039 0
-1.2221297 1.8244762 0.53232437 0
-1.2305285 1.8437974 0.60886151 0
-0.37911248 -0.17194757 -0.090632565 0
-0.42829388 -0.066187114 -0.09077742 0
-0.48904827 0.064460069 -0.090025134 0
-0.51150775 0.11275735 -0.069832794 0
-0.51562041 0.12160125 -0.042215127 0
-0.51191175 0.11362603 -0.012563122 0
-0.51171505 0.11320308 0.015969427 0
-0.51051992 0.11063316 0.04449781 0
-0.51505017 0.12037495 0.072516918 0
-0.51345038 0.11693481 0.10100523 0
-1.4326683 2.0936363 0.25944927 0
-1.2500329 1.7008941 0.30855051 0
-1.2383429 1.6757557 0.37547752 0
-1.2416224 1.6828079 0.44555384 0
-1.2413317 1.6821828 0.51518542 0
-1.2409405 1.6813414 0.58520281 0
-0.39661205 -0.18784884 -0.089196764 0
-0.45412755 -0.07191065 -0.091913037 0
-0.50785714 0.03639606 -0.087206237 0
-0.507797 0.036274824 -0.059917931 0
-0.51498848 0.050771151 -0.034720946 0
-0.51098943 0.04270998 -0.0065589603 0
-0.50938046 0.039466772 0.020686874 0
-0.51187378 0.044492755 0.047246154 0
-0.50943452 0.03957561 0.074266911 0
-0.51294076 0.04664341 0.10100341 0
-1.2528969 1.5382268 0.29837781 0
-1.2414556 1.5151637 0.3620829 0
-1.2371053 1.5063946 0.42673013 0
-1.2400347 1.5122995 0.49357626 0
-1.2376353 1.507463 0.5591979 0
-0.42474642 -0.18290684 -0.092857204 0
-0.47044036 -0.096354932 -0.089214571 0
-0.53174716 0.019770298 -0.086563043 0
-0.53178525 0.01984242 -0.059398416 0
-0.53248847 0.021174464 -0.032573689 0
-0.5322516 0.020725761 -0.0056366306 0
-0.5342837 0.024574909 0.020820284 0
-0.52868283 0.013965998 0.048154682 0
-0.53519368 0.026298676 0.074268788 0
-0.53147417 0.019253287 0.10100295 0
-1.2443452 1.3695493 0.28759897 0
-1.2366252 1.3549263 0.34855446 0
-1.2414733 1.3641095 0.41215184 0
-1.238597 1.3586614 0.47425508 0
-1.2377696 1.357094 0.53719985 0
-1.2432047 1.367389 0.60307282 0
-0.43677726 -0.2084944 -0.089301907 0
-0.49860179 -0.098220676 -0.091441445 0
-0.55955964 0.01050714 -0.087410755 0
-0.5611127 0.013277326 -0.060558144 0
-0.55482554 0.0020631885 -0.031859551 0
-0.56173939 0.014395151 -0.0064332839 0
-0.56081194 0.012740884 0.020660492 0
-0.56158531 0.014120255 0.047416151 0
-0.55774796 0.0072757336 0.074406639 0
-0.56078303 0.012689266 0.10100319 0
-1.2968193 1.3255248 0.162824 0
-1.2917215 1.3164318 0.22418302 0
-1.2510785 1.2439389 0.28010398 0
-1.2408153 1.2256327 0.33813375 0
-1.2422895 1.2282624 0.39824373 0
-1.2351545 1.2155359 0.45634744 0
-1.2407688 1.2255499 0.5184375 0
-1.2386274 1.2217305 0.5785532 0
-0.46181136 -0.21057829 -0.091579102 0
-0.52346164 -0.10684142 -0.092376508 0
-0.58550018 -0.0024512077 -0.087698065 0
-0.58524615 -0.0028786326 -0.060287628 0
-0.58264351 -0.0072580245 -0.032541741 0
-0.5807777 -0.01039752 -0.0053175967 0
-0.58623153 -0.0012205507 0.020617226 0
-0.57999867 -0.011708405 0.048028935 0
-0.58318764 -0.0063424972 0.074385107 0
-0.58371979 -0.0054470566 0.10100307 0
-1.3553236 1.2929051 0.16284737 0
-1.3560996 1.2942111 0.22478648 0
-1.248897 1.1138246 0.27214301 0
-1.238318 1.0960238 0.32753286 0
-1.2361937 1.0924494 0.38413304 0
-1.2420727 1.1023417 0.4430505 0
-1.2424297 1.1029425 0.50111544 0
-1.238474 1.0962863 0.55806863 0
-0.48007002 -0.22447696 -0.091083355 0
-0.53855932 -0.13148442 -0.089899965 0
-0.6166572 -0.0073161987 -0.089687504 0
-0.6126948 -0.013615932 -0.061012749 0
-0.61263961 -0.01370379 -0.033728052 0
-0.6080454 -0.0210081 -0.0058004763 0
-0.61130774 -0.015821304 0.020573484 0
-0.60643047 -0.02357563 0.047858305 0
-0.61383945 -0.011796083 0.074121468 0
-0.61404139 -0.011475053 0.10100337 0
-1.2457672 0.99291009 0.26481065 0
-1.2393481 0.98270434 0.31855291 0
-1.2446661 0.9911595 0.37454462 0
-1.2400193 0.98377138 0.42867687 0
-1.2344662 0.97494251 0.4824771 0
-1.2451825 0.99198049 0.54196072 0
-0.50137162 -0.23361185 -0.09191183 0
-0.55841571 -0.14780018 -0.08935044 0
-0.63802284 -0.028046932 -0.088733368 0
-0.63462114 -0.03316411 -0.060379241 0
-0.64098799 -0.023586418 -0.034557465 0
-0.64292663 -0.020670142 -0.0075951796 0
-0.63057899 -0.039244797 0.021216946 0
-0.6402716 -0.02466407 0.047045238 0
-0.64211309 -0.021894004 0.073961616 0
-0.63436401 -0.033551004 0.10100316 0
-1.2471528 0.88826936 0.25871503 0
-1.2357008 0.87104219 0.30960998 0
-1.2425574 0.88135654 0.3636286 0
-1.2402666 0.87791044 0.41619724 0
-1.2371171 0.87317258 0.4686628 0
-1.2426355 0.88147384 0.52421564 0
-0.52182811 -0.24431857 -0.092485346 0
-0.58550483 -0.15358165 -0.091329403 0
-0.6686281 -0.035134103 -0.090608947 0
-0.66206849 -0.044481304 -0.061241765 0
-0.66483659 -0.040536907 -0.034493823 0
-0.66695929 -0.03751209 -0.0075624269 0
-0.6674639 -0.036793079 0.0196208 0
-0.66813308 -0.035839524 0.046743181 0
-0.66212893 -0.044395175 0.074131116 0
-0.66154289 -0.045230236 0.10100333 0
-1.3004912 0.86524731 0.25949007 0
-1.2463379 0.78808075 0.30377176 0
-1.2323428 0.76813835 0.35202232 0
-1.2399806 0.77902192 0.40469345 0
-1.2403275 0.77951616 0.45624489 0
-1.2391893 0.77789432 0.50773358 0
-0.53414643 -0.26627448 -0.090230145 0
-0.60770011 -0.16689381 -0.091739796 0
-0.6889509 -0.057113376 -0.089631431 0
-0.68794912 -0.058466937 -0.061774049 0
-0.68814409 -0.058203544 -0.034411598 0
-0.69352871 -0.050928202 -0.0079966765 0
-0.69150925 -0.053656723 0.019594276 0
-0.68807375 -0.058298495 0.047048599 0
-0.68826258 -0.058043387 0.074033253 0
-0.69324893 -0.051306155 0.10100371 0
-1.3414799 0.82453853 0.25885627 0
-1.2466415 0.69639963 0.29684132 0
-1.2398562 0.68723172 0.34486073 0
-1.2397557 0.68709606 0.39418963 0
-1.2460796 0.69564027 0.44561002 0
-1.2475353 0.69760734 0.49638063 0
-0.54836148 -0.2849516 -0.088897042 0
-0.62786162 -0.18301907 -0.091618933 0
-0.71324211 -0.073546976 -0.089896269 0
-0.72190136 -0.062444296 -0.064215921 0
-0.7215817 -0.062854201 -0.036343295 0
-0.70571923 -0.083192497 -0.0062870663 0
-0.71783537 -0.06765756 0.019260125 0
-0.71270365 -0.074237317 0.046945695 0
-0.72226471 -0.061978426 0.073627777 0
-0.71613544 -0.069837183 0.10100368 0
-1.3867222 0.78996795 0.25884548 0
-1.2492733 0.61373526 0.29084215 0
-1.2397082 0.60147125 0.33686501 0
-1.2493461 0.6138286 0.38680297 0
-1.2431821 0.60592526 0.43357646 0
-1.241469 0.60372883 0.48160458 0
-0.57499975 -0.28802732 -0.091925226 0
-0.64244926 -0.20590553 -0.089970388 0
-0.73887891 -0.088499635 -0.09061072 0
-0.74655616 -0.079152316 -0.064547978 0
-0.74274272 -0.083795339 -0.035977978 0
-0.74032468 -0.086739391 -0.0080472063 0
-0.74275613 -0.083779007 0.0190513 0
-0.73973006 -0.087463409 0.046640135 0
-0.7408033 -0.086156636 0.073797315 0
-0.74852175 -0.076759189 0.10100411 0
-1.4316106 0.7549215 0.25889373 0
-1.2554069 0.54038829 0.28585151 0
-1.2374549 0.51853126 0.32912824 0
-1.2336719 0.51392525 0.37445933 0
-1.2445379 0.5271551 0.42360437 0
-1.2441831 0.52672285 0.47059619 0
-0.58937109 -0.30641386 -0.090905003 0
-0.66002703 -0.22468302 -0.089399256 0
-0.76497507 -0.10328493 -0.091516368 0
-0.7783767 -0.087782651 -0.06650234 0
-0.77033246 -0.09708783 -0.03686792 0
-0.7751919 -0.091466695 -0.0098071229 0
-0.77190268 -0.095271498 0.018352592 0
-0.76579666 -0.10233459 0.046387538 0
-0.77899581 -0.087066561 0.073241234 0
-0.77391768 -0.092940658 0.10100422 0
-1.475499 0.71860963 0.2589297 0
-1.2521282 0.4602268 0.27992854 0
-1.2397519 0.4459106 0.32280734 0
-1.2384291 0.44438031 0.36741295 0
-1.2357448 0.44127527 0.41187477 0
-1.2446414 0.45156637 0.45982274 0
-0.6065225 -0.32140562 -0.090939663 0
-0.68507689 -0.2350423 -0.091069974 0
-0.78326279 -0.12709603 -0.090582512 0
-0.80086255 -0.10774669 -0.066499822 0
-0.80231375 -0.10615125 -0.038555462 0
-0.79442316 -0.11482623 -0.009366734 0
-0.80071789 -0.10790572 0.017676817 0
-0.79715765 -0.11181989 0.045749191 0
-0.79233444 -0.11712256 0.073558338 0
-0.80065626 -0.10797343 0.10100441 0
-1.2524736 0.38875809 0.27495536 0
-1.2410872 0.37623981 0.31681517 0
-1.2389301 0.37386826 0.36004192 0
-1.2405361 0.37563387 0.40432227 0
-1.243365 0.37874416 0.44939688 0
-0.62282938 -0.33731303 -0.09083169 0
-0.69949812 -0.25718138 -0.089873679 0
-0.79191226 -0.16059312 -0.087526448 0
-0.83134896 -0.11937514 -0.068227611 0
-0.83133876 -0.11938581 -0.039738569 0
-0.82933146 -0.12148371 -0.011135181 0
-0.82773882 -0.12314835 0.017167369 0
-0.83835846 -0.11204901 0.044448461 0
-0.8339681 -0.11663768 0.072889723 0
-0.82963216 -0.12116948 0.1010047 0
-1.2456472 0.31363609 0.26938963 0
-1.2426018 0.31045309 0.31131068 0
-1.242413 0.3102558 0.35383591 0
-1.2328533 0.30026427 0.39439902 0
-1.2404228 0.30817571 0.43929589 0
-0.63388169 -0.3584263 -0.089273669 0
-0.73283952 -0.26009032 -0.093881242 0
-0.83109283 -0.16245452 -0.091818459 0
-0.85396469 -0.13972643 -0.068412237 0
-0.85946941 -0.13425627 -0.040800814 0
-0.86048669 -0.13324538 -0.012388414 0
-0.85634738 -0.1373587 0.01647562 0
-0.86221945 -0.13152352 0.044317558 0
-0.86239773 -0.13134637 0.072670847 0
-0.86119372 -0.13254282 0.1010051 0
-1.2658727 0.26959303 0.14259705 0
-1.2673162 0.27102736 0.18431273 0
-1.2734289 0.27710167 0.22667444 0
-1.247282 0.25111917 0.26532859 0
-1.2503737 0.25419143 0.30725119 0
-1.2487739 0.25260165 0.3486762 0
-1.2417926 0.24566415 0.38902059 0
-1.2494088 0.25323263 0.43309236 0
-0.64696884 -0.37712809 -0.088505141 0
-0.74384713 -0.28559938 -0.092026658 0
-0.84247112 -0.19242129 -0.089734085 0
-0.88612455 -0.15117839 -0.07053829 0
-0.88480842 -0.15242186 -0.04145031 0
-0.88947618 -0.14801183 -0.01337265 0
-0.88126987 -0.15576503 0.01611975 0
-0.88689536 -0.15045014 0.044105675 0
-0.88607848 -0.1512219 0.072596997 0
-0.89726859 -0.14064971 0.10100567 0
-1.2884479 0.22892907 0.14231539 0
-1.2920095 0.23229399 0.18388295 0
-1.2897398 0.23014966 0.22520792 0
-1.2437401 0.18669 0.26090324 0
-1.2489619 0.19162348 0.30204114 0
-1.2437807 0.18672839 0.34172684 0
-1.2427917 0.18579391 0.3822884 0
-1.2384269 0.18167022 0.42222306 0
-0.67468697 -0.38246366 -0.092070438 0
-0.76628309 -0.30019882 -0.09327177 0
-0.85611248 -0.21952066 -0.088365369 0
-0.91381919 -0.16769281 -0.071828552 0
-0.91771013 -0.16419831 -0.043346185 0
-0.92582053 -0.15691409 -0.015304936 0
-0.92054039 -0.16165635 0.014379436 0
-0.91684991 -0.16497084 0.043537971 0
-0.91354281 -0.16794106 0.072390698 0
-0.91351211 -0.1679686 0.10100549 0
-1.3326691 0.20848718 0.14275068 0
-1.3302994 0.20635882 0.18437663 0
-1.3203408 0.19741467 0.22523087 0
-1.2531796 0.13709548 0.25841317 0
-1.2457232 0.1303989 0.29691172 0
-1.2409742 0.12613359 0.33566415 0
-1.2351803 0.12092987 0.37414202 0
-1.2404163 0.12563244 0.41534483 0
-0.68637013 -0.40261719 -0.091116749 0
-0.77920938 -0.32337531 -0.092227779 0
-0.87592381 -0.24082574 -0.088508435 0
-0.95035535 -0.17729554 -0.074802838 0
-0.95202368 -0.17587158 -0.045464832 0
-0.94440424 -0.1823751 -0.015044397 0
-0.94986176 -0.17771682 0.013576793 0
-0.9448669 -0.18198016 0.043078259 0
-0.94769979 -0.17956218 0.071971163 0
-0.94493431 -0.18192264 0.1010059 0
-1.4116908 0.2164723 0.1442591 0
-1.4026003 0.20871308 0.18698464 0
-1.4082277 0.21351627 0.23059982 0
-1.2553782 0.08305338 0.25524238 0
-1.2467517 0.075690299 0.29278773 0
-1.2390035 0.069076926 0.3301709 0
-1.2403525 0.070228249 0.36929011 0
-1.2425494 0.072103411 0.40900287 0
-0.70101553 -0.42009625 -0.091133662 0
-0.78694695 -0.35042021 -0.090090059 0
-0.90900296 -0.25145325 -0.091570921 0
-0.97714692 -0.19619992 -0.075998224 0
-0.97736698 -0.19602147 -0.046235699 0
-0.97042423 -0.20165089 -0.0157608 0
-0.97333628 -0.19928971 0.013279753 0
-0.97002739 -0.20197263 0.042773049 0
-0.97700864 -0.19631204 0.071696356 0
-0.98754752 -0.18776676 0.10100673 0
-1.2487223 0.024002228 0.25123683 0
-1.2506758 0.025586281 0.28939319 0
-1.243148 0.019482408 0.32615909 0
-1.232677 0.010992203 0.36209074 0
