# .PCD v0.7 - Point Cloud Data file format
VERSION 0.7
FIELDS x y z intensity
SIZE 4 4 4 4
TYPE F F F F
COUNT 1 1 1 1
WIDTH 1312
HEIGHT 1
VIEWPOINT 0 0 0 1 0 0 0
POINTS 1312
DATA ascii
1.0195861 -0.40973392 -0.091640554 0
1.1849728 -0.31563404 -0.090470009 0
1.2103829 -0.30117652 -0.061654616 0
1.2142372 -0.29898348 -0.029323271 0
3.0113399 0.72351211 -0.1411626 0
4.5144892 1.5787573 -0.14078544 0
9.0287704 4.1472425 -0.14052674 0
0.77558005 -0.52230948 -0.091288038 0
0.87671065 -0.46134135 -0.091631405 0
0.99772465 -0.38838622 -0.090313651 0
1.1622363 -0.28920791 -0.08959005 0
1.1456556 -0.29920384 -0.055243243 0
1.2021643 -0.26513675 -0.029947838 0
2.9596229 0.79437381 -0.14054686 0
4.4418111 1.6879337 -0.140435 0
8.9027939 4.3773046 -0.14070314 0
0.7672196 -0.50057423 -0.092212953 0
0.85954499 -0.44168827 -0.090834714 0
0.98840994 -0.35949704 -0.091515236 0
1.1419238 -0.26158461 -0.089210145 0
1.1501532 -0.25633582 -0.058330853 0
1.1735312 -0.24142513 -0.028843006 0
2.9191329 0.87193531 -0.14099923 0
4.3861022 1.8075812 -0.14116682 0
8.7679176 4.6023421 -0.14079586 0
0.74710721 -0.48647627 -0.090280898 0
0.84795141 -0.41851774 -0.091401704 0
0.96382266 -0.34043261 -0.08985392 0
1.1338261 -0.22586796 -0.09101098 0
1.1352006 -0.2249417 -0.058881406 0
1.1657672 -0.20434305 -0.030135011 0
2.8586054 0.93645412 -0.13993384 0
4.2996097 1.907541 -0.14035121 0
8.6213112 4.8199191 -0.14071923 0
0.73292315 -0.46870682 -0.089952223 0
0.83841234 -0.39367953 -0.092587821 0
0.94671142 -0.31665376 -0.089766525 0
1.1121684 -0.19897547 -0.090659998 0
1.1480013 -0.17349002 -0.063534923 0
1.1305807 -0.18588009 -0.028415671 0
2.8183422 1.0145102 -0.14072609 0
4.2342091 2.0215199 -0.14086866 0
8.4774122 5.0394216 -0.14087377 0
0.71889049 -0.45090327 -0.089775614 0
0.8110854 -0.38176331 -0.089755006 0
0.93088096 -0.29192469 -0.090062745 0
1.0877082 -0.17431477 -0.089928202 0
1.1015778 -0.16391358 -0.059813369 0
1.0968295 -0.16747436 -0.026884874 0
1.0972471 -0.16716126 0.0051737223 0
1.1014198 -0.16403201 0.036933888 0
1.0961496 -0.16798428 0.069142275 0
1.1035824 -0.16241023 0.10100974 0
1.1054393 -0.16101769 0.13314736 0
1.0994554 -0.16550526 0.16497116 0
1.1055666 -0.16092214 0.19757329 0
0.71111828 -0.42818829 -0.091411985 0
0.80047607 -0.35758421 -0.090949766 0
0.91998953 -0.26315346 -0.091528945 0
1.0568216 -0.15503868 -0.088141061 0
1.1024489 -0.11898729 -0.063097306 0
1.0992829 -0.12148896 -0.029684892 0
1.0927385 -0.12665978 0.0036961532 0
1.1021508 -0.11922291 0.035634283 0
1.0998605 -0.12103245 0.06840793 0
1.1042244 -0.1175845 0.10101054 0
1.1023703 -0.11904952 0.13368742 0
1.0927968 -0.12661371 0.16583113 0
1.0928758 -0.1265513 0.19833672 0
0.69741863 -0.40988055 -0.091601022 0
0.78494078 -0.33706585 -0.091110937 0
0.89302713 -0.24714264 -0.089744084 0
1.030992 -0.1323618 -0.087328576 0
1.0978923 -0.076703638 -0.065796264 0
1.1005923 -0.074457377 -0.032544885 0
1.1021 -0.073203057 0.00083389343 0
1.0969779 -0.077464372 0.034596879 0
1.1042818 -0.071387857 0.067601055 0
1.0978632 -0.076727897 0.10101113 0
1.1068769 -0.069228917 0.1345004 0
1.0978212 -0.076762825 0.16747662 0
1.1029996 -0.072454602 0.20127097 0
0.68238151 -0.39266488 -0.091545559 0
0.77149725 -0.3146368 -0.09192767 0
0.87909716 -0.22042432 -0.090853609 0
0.98882341 -0.12435004 -0.083551727 0
1.1029834 -0.024393763 -0.070218213 0
1.0957172 -0.030755844 -0.034847159 0
1.1068351 -0.021021273 -0.0017864013 0
1.1080284 -0.019976463 0.032467913 0
1.1018025 -0.025427725 0.066951111 0
1.0993817 -0.027547386 0.10101207 0
1.0944883 -0.031831946 0.13484667 0
1.0978191 -0.028915551 0.16892457 0
1.1102079 -0.018068101 0.2041252 0
1.1014197 -0.025762882 0.23757967 0
1.0956157 -0.030844714 0.37509653 0
0.65901929 -0.38311622 -0.089207001 0
0.75503761 -0.29466632 -0.092134543 0
0.85678363 -0.20094016 -0.090264879 0
0.95723999 -0.1084021 -0.081746928 0
1.0538969 -0.019363966 -0.06634251 0
1.0981345 0.021386657 -0.038267393 0
1.0937846 0.017379556 -0.0029015222 0
1.0990661 0.022244845 0.031464864 0
1.1003491 0.023426685 0.066217199 0
1.0942068 0.017768536 0.10101283 0
1.1017071 0.024677668 0.13585202 0
1.1020464 0.024990235 0.17075025 0
1.1062802 0.028890286 0.20611626 0
1.0922166 0.015935216 0.2395426 0
1.0353551 -0.036444273 0.36594382 0
0.64458424 -0.36567041 -0.089523368 0
0.72385579 -0.28886071 -0.088616095 0
0.83385336 -0.18227926 -0.089631669 0
0.83415329 -0.18198869 -0.062069599 0
0.84033078 -0.17600301 -0.035624389 0
0.82541764 -0.19045302 -0.0061821695 0
0.84398443 -0.17246285 0.018908622 0
0.83749664 -0.17874911 0.046743717 0
0.84203815 -0.17434862 0.073741339 0
0.84083426 -0.17551515 0.10100378 0
0.83410686 -0.18203363 0.12800896 0
0.83540374 -0.18077698 0.1551279 0
0.83947653 -0.17683074 0.18266036 0
1.102375 0.077903181 0.24420734 0
1.0159354 -0.0058520106 0.29966456 0
1.0029221 -0.018461194 0.33034515 0
0.98602879 -0.034829821 0.35939676 0
0.64089638 -0.33714435 -0.093241639 0
0.7051248 -0.27168879 -0.088393353 0
0.82296252 -0.15159974 -0.091916315 0
0.83357251 -0.14078704 -0.066093422 0
0.83998919 -0.13424781 -0.039036173 0
0.83781612 -0.13646242 -0.010555616 0
0.84936607 -0.12469181 0.016287515 0
0.84400576 -0.13015452 0.04493399 0
0.84149337 -0.1327149 0.073067948 0
0.83680737 -0.13749036 0.10100447 0
0.83573484 -0.13858345 0.12874977 0
0.84802586 -0.1260576 0.15734322 0
0.83986145 -0.13437799 0.1847733 0
0.84010267 -0.13413212 0.21287017 0
1.0978125 0.12850121 0.28409061 0
0.95137686 -0.020732012 0.29175109 0
0.94018018 -0.032142665 0.32144189 0
0.95966989 -0.012280609 0.3588686 0
0.61766803 -0.32824889 -0.091194309 0
0.70061606 -0.23933563 -0.09220957 0
0.80072534 -0.132027 -0.091714002 0
0.83675748 -0.093403608 -0.071214698 0
0.84606034 -0.083431691 -0.043818314 0
0.84345299 -0.086226553 -0.014307706 0
0.83941376 -0.090556234 0.015044132 0
0.83844966 -0.091589659 0.043815479 0
0.8365649 -0.093610018 0.072490178 0
0.84600538 -0.08349058 0.10100576 0
0.84226727 -0.087497562 0.12971543 0
0.8370111 -0.093131691 0.15809727 0
0.84416181 -0.085466772 0.18745418 0
0.84388906 -0.085759133 0.21637933 0
1.1039426 0.19299617 0.29003569 0
0.93333489 0.010119233 0.29313162 0
0.93039805 0.0069712135 0.3249768 0
0.91819394 -0.0061105755 0.35430586 0
0.59688085 -0.31731102 -0.089941002 0
0.67607945 -0.2280018 -0.090678953 0
0.77415305 -0.11740795 -0.09055274 0
0.84944385 -0.03250536 -0.078746028 0
0.8502562 -0.031589236 -0.048630852 0
0.83815753 -0.045232441 -0.016805923 0
0.83972478 -0.043465104 0.012593942 0
0.84077352 -0.042282548 0.042044446 0
0.83790183 -0.045520868 0.071642078 0
0.84209192 -0.040795829 0.10100659 0
0.83575386 -0.047942962 0.13029532 0
0.84222704 -0.04064342 0.1600709 0
0.83814615 -0.045245316 0.18925291 0
0.83960313 -0.043602373 0.21902288 0
1.1004822 0.25058106 0.29474494 0
1.0976061 0.24733773 0.33334687 0
0.58175308 -0.30009648 -0.09060622 0
0.65593755 -0.2120637 -0.090468831 0
0.72450477 -0.13069668 -0.083563529 0
0.84337056 0.010358427 -0.082745202 0
0.84186107 0.0085671879 -0.051539827 0
0.84577137 0.013207469 -0.021397626 0
0.84131867 0.0079235174 0.0098030809 0
0.84344774 0.010450099 0.0401057 0
0.84725457 0.014967594 0.070435837 0
0.8368926 0.0026712155 0.10100743 0
0.83445936 -0.00021627206 0.13111718 0
0.84074986 0.0072484943 0.16171475 0
0.83472699 0.00010130148 0.19149683 0
0.84066439 0.0071471068 0.22267371 0
0.84430116 0.011462841 0.25399894 0
1.1034203 0.31895283 0.341499 0
0.56115836 -0.28943619 -0.08957871 0
0.6414665 -0.18910465 -0.092080705 0
0.72189373 -0.088624328 -0.088634931 0
0.84422445 0.064207345 -0.088669799 0
0.84798306 0.068903118 -0.057443667 0
0.83848643 0.057038698 -0.024127787 0
0.83452582 0.052090559 0.0077182744 0
0.83269012 0.049797211 0.039007947 0
0.84261328 0.0621945 0.069655739 0
0.83992463 0.058835421 0.10100872 0
0.83680207 0.054934416 0.13214526 0
0.83726335 0.055510674 0.16335012 0
0.83790821 0.05631629 0.19467777 0
0.84102708 0.060212765 0.2265255 0
0.83524364 0.052987371 0.25707909 0
1.1064268 0.39178517 0.34968078 0
1.0985413 0.38193348 0.3897388 0
0.5475173 -0.27000371 -0.091052689 0
0.61420661 -0.18223593 -0.089943014 0
0.70358044 -0.064613789 -0.089895658 0
0.73094046 -0.028606083 -0.068592049 0
0.72968131 -0.030263152 -0.039800141 0
0.72703642 -0.033744063 -0.011047302 0
0.73247111 -0.026591625 0.016444134 0
0.72606319 -0.035024848 0.045175068 0
0.73151499 -0.027849939 0.072895437 0
0.72935796 -0.030688789 0.10100476 0
0.7288444 -0.031364586 0.12901145 0
0.72764182 -0.032947268 0.15695593 0
0.7287941 -0.031430807 0.1851408 0
0.73050839 -0.029174712 0.2135932 0
0.73496002 -0.023316052 0.24283089 0
0.72942311 -0.030603018 0.27025047 0
0.73075628 -0.028848436 0.29928961 0
0.72993976 -0.029923107 0.32798544 0
0.52423835 -0.26331964 -0.089250825 0
0.5984633 -0.16034052 -0.091493927 0
0.67763633 -0.050496366 -0.089223929 0
0.7266618 0.017521176 -0.073445283 0
0.95885873 0.3396695 -0.09049084 0
0.858491 0.20042005 -0.035917301 0
0.85005128 0.18871084 -0.00054578274 0
0.83502388 0.16786185 0.034564387 0
0.84099269 0.17614296 0.067568392 0
0.83911872 0.17354301 0.10101132 0
0.84262395 0.17840615 0.13451949 0
0.84056664 0.17555192 0.16789988 0
0.83807641 0.172097 0.20113699 0
0.84934568 0.18773189 0.23648177 0
0.83810067 0.17213061 0.26837745 0
0.84036338 0.17526987 0.30279732 0
1.093209 0.52606612 0.40808228 0
0.51201957 -0.24117729 -0.091611646 0
0.57591838 -0.14763632 -0.091013275 0
0.65317279 -0.034544256 -0.089060344 0
0.76682687 0.13183299 -0.089838855 0
0.92618233 0.36511222 -0.090731107 0
1.1540166 0.69863695 -0.089832686 0
0.85334253 0.25848261 -0.0046709161 0
0.83889061 0.23732653 0.031813655 0
0.83647811 0.23379496 0.066531397 0
0.83982944 0.23870102 0.10101286 0
0.84221905 0.24219909 0.13573124 0
0.84005833 0.23903599 0.17030863 0
0.83446062 0.23084155 0.2043563 0
0.84153342 0.24119535 0.24015024 0
0.84204274 0.24194089 0.27532461 0
0.84401721 0.24483135 0.31109837 0
1.0977699 0.61629766 0.42065713 0
1.1016363 0.62195772 0.46861559 0
0.49249503 -0.22927299 -0.091421358 0
0.55681837 -0.12981239 -0.091817535 0
0.62992322 -0.016773131 -0.089377321 0
0.73713535 0.14900473 -0.089538507 0
0.89071715 0.38648227 -0.090516381 0
1.1119196 0.72851902 -0.089980207 0
1.4833481 1.302844 -0.089862131 0
0.84330171 0.31316558 0.028759459 0
0.84381324 0.31395653 0.064884722 0
0.83794236 0.30487862 0.1010144 0
0.83745521 0.30412546 0.13687186 0
0.8381598 0.30521491 0.17282875 0
0.8432492 0.31308439 0.20948917 0
0.83744651 0.30411187 0.24483295 0
0.84030402 0.30853036 0.28169692 0
0.84326494 0.31310871 0.31903455 0
0.83311892 0.29742029 0.35290393 0
1.1047939 0.71750075 0.48393729 0
0.47190332 -0.21917263 -0.090908296 0
0.53290945 -0.11940804 -0.091078691 0
0.60690576 0.0015995238 -0.089919277 0
0.70360273 0.15973011 -0.088305302 0
0.85393143 0.40556553 -0.090115301 0
1.0682275 0.75600833 -0.089980863 0
1.4225438 1.3354287 -0.089527182 0
0.84733456 0.39477757 0.025443086 0
0.85443181 0.40638378 0.062934048 0
0.84082049 0.38412502 0.10101636 0
0.83947474 0.3819243 0.13843197 0
0.83865029 0.38057604 0.17581461 0
0.8369115 0.37773255 0.21308219 0
0.83766806 0.37896982 0.2507627 0
0.83905339 0.38123527 0.28881598 0
0.84302127 0.38772395 0.32789695 0
0.84095669 0.38434771 0.36568871 0
1.105382 0.81676763 0.49982923 0
0.45133078 -0.20925352 -0.090486683 0
0.50854897 -0.11014894 -0.090233706 0
0.57893628 0.011765275 -0.089006998 0
0.67702156 0.18165365 -0.089045487 0
0.82374775 0.43579033 -0.091349833 0
1.0239984 0.78263372 -0.090008147 0
1.3708276 1.3833582 -0.090560637 0
1.3745306 1.3897722 -0.026920279 0
0.84673965 0.47561327 0.061641611 0
0.84528834 0.47309962 0.10101861 0
0.83592856 0.45688799 0.13989186 0
0.84057599 0.4649376 0.17924111 0
0.83888221 0.46200386 0.21822171 0
0.83801144 0.46049562 0.25732523 0
0.83644384 0.45778051 0.29635498 0
0.83577615 0.45662406 0.33570448 0
0.84068453 0.46512559 0.37708348 0
0.84420878 0.4712297 0.41871771 0
0.43161058 -0.19794723 -0.09053307 0
0.48805928 -0.094216079 -0.090964101 0
0.55748951 0.033370171 -0.090380602 0
0.65042651 0.20415285 -0.089975826 0
0.78734124 0.45574978 -0.091303773 0
0.98072463 0.81111473 -0.090351723 0
1.2946019 1.3879011 -0.088231452 0
1.2903821 1.3801467 -0.024613446 0
1.291929 1.3829892 0.038175751 0
0.85108984 0.57289547 0.10102117 0
0.84293294 0.55790609 0.1420256 0
0.84179616 0.55581719 0.18296418 0
0.83645326 0.54599899 0.22326519 0
0.84382677 0.55954868 0.26566115 0
0.83617145 0.54548115 0.30528513 0
0.83500314 0.54333419 0.34628579 0
0.84455377 0.56088465 0.39112839 0
0.8421765 0.55651611 0.43254781 0
0.41122687 -0.18788114 -0.090402372 0
0.4665823 -0.079746634 -0.091485627 0
0.52616489 0.036645446 -0.088452898 0
0.62048531 0.22089639 -0.090092205 0
0.75284368 0.47945288 -0.091871269 0
0.93897563 0.84305388 -0.091168813 0
1.2423021 1.4355888 -0.089472733 0
1.2458096 1.4424407 -0.02620939 0
1.248163 1.4470382 0.037333857 0
1.2462667 1.4433339 0.10104842 0
0.85265732 0.6744346 0.14453344 0
0.84020078 0.65010124 0.18681617 0
0.84283751 0.65525204 0.23023415 0
0.83560503 0.64112371 0.27204078 0
0.84685528 0.66310054 0.31803188 0
0.84218496 0.65397733 0.36051455 0
0.84245926 0.65451318 0.40458155 0
0.83824813 0.6462869 0.44716066 0
0.39291546 -0.1735402 -0.091403432 0
0.44448233 -0.066213459 -0.091919221 0
0.50605071 0.061929498 -0.090706535 0
0.58689165 0.23018482 -0.089163385 0
0.70714319 0.48046592 -0.089603491 0
0.88666117 0.85409886 -0.089922182 0
1.1852142 1.4754808 -0.090197466 0
1.7854232 2.7247033 -0.090855248 0
4.5025973 8.3799925 -0.14070913 0
0.85249847 0.78299564 0.19262052 0
0.84160787 0.76032895 0.23678243 0
0.83728153 0.75132447 0.28133139 0
0.84167886 0.76047665 0.32796377 0
0.84288436 0.76298565 0.37428856 0
0.84491861 0.7672196 0.42136222 0
0.83921295 0.75534433 0.46564987 0
0.37453535 -0.15873733 -0.092609234 0
0.41640568 -0.065645248 -0.089786224 0
0.47694197 0.068947822 -0.089735083 0
0.55897564 0.25133684 -0.090204604 0
0.67559165 0.51061445 -0.091243692 0
0.84603012 0.8895579 -0.091324247 0
1.1207403 1.5003328 -0.089872234 0
1.6902721 2.7665982 -0.090755902 0
4.2622099 8.4849014 -0.14056411 0
1.0676242 1.3822377 0.22217827 0
0.84727085 0.89231652 0.24532381 0
0.84457254 0.88631719 0.29305181 0
0.8364141 0.86817819 0.33912441 0
0.83534956 0.86581129 0.38695139 0
0.84160894 0.87972802 0.43790674 0
0.84060043 0.87748581 0.48662853 0
0.35001904 -0.15777543 -0.090719126 0
0.39782876 -0.043880071 -0.092151172 0
0.45042604 0.081420571 -0.089877777 0
0.52620924 0.26195613 -0.089737512 0
0.63219362 0.51443893 -0.089631505 0
0.79730934 0.90778822 -0.091071866 0
1.0605289 1.5348465 -0.090407021 0
1.5959053 2.8102546 -0.090868466 0
4.0244255 8.5956326 -0.14072125 0
0.99766767 1.3850946 0.22100037 0
0.84979647 1.0328264 0.25441101 0
0.83707434 1.0025189 0.30272672 0
0.83740103 1.0032972 0.35366142 0
0.84011573 1.0097643 0.40578103 0
0.84400958 1.0190406 0.45907143 0
0.84142578 1.0128851 0.51008826 0
0.32875559 -0.14967492 -0.090618379 0
0.36949259 -0.045326378 -0.089895003 0
0.4246451 0.095947772 -0.090500198 0
0.4972851 0.28201631 -0.090824686 0
0.59894842 0.54242867 -0.091205083 0
0.75176781 0.93387812 -0.091733359 0
1.0000603 1.5698833 -0.091090463 0
1.4987197 2.8472078 -0.09076456 0
3.779578 8.6896648 -0.14061065 0
0.92675936 1.3821218 0.21963112 0
0.85215753 1.1910281 0.26473323 0
0.83492386 1.1468837 0.31514961 0
0.84202784 1.1650805 0.37139997 0
0.83929056 1.1580691 0.42506477 0
0.84052038 1.1612194 0.48052388 0
0.83905286 1.1574602 0.53516978 0
0.30947113 -0.13612905 -0.091871254 0
0.34584838 -0.035525944 -0.090055801 0
0.39537326 0.10143748 -0.089651816 0
0.43289882 0.2052162 -0.077536829 0
0.43515524 0.21145645 -0.048257682 0
0.43392512 0.20805457 -0.01787228 0
0.93044758 1.5812118 -0.090119235 0
1.404061 2.8910124 -0.091122814 0
3.5357947 8.7864275 -0.14072205 0
0.85726142 1.3788118 0.21834671 0
0.84833723 1.3541315 0.27532199 0
0.84066403 1.332911 0.33160293 0
0.84047937 1.3324003 0.38965133 0
0.83818883 1.3260658 0.44712058 0
0.83504695 1.3173766 0.50424099 0
0.83542532 1.318423 0.56331891 0
0.28528446 -0.13630441 -0.090148814 0
0.32300431 -0.023137297 -0.090848126 0
0.37056431 0.11955228 -0.091126271 0
0.40570757 0.22498909 -0.078907855 0
0.40552557 0.22444299 -0.048555065 0
0.4048301 0.22235659 -0.018242164 0
0.86912376 1.6153309 -0.090965636 0
1.3033738 2.9181685 -0.090778805 0
3.2872953 8.8703327 -0.14066887 0
0.78799534 1.3719294 0.21698406 0
0.85067141 1.5599701 0.28898105 0
0.83738679 1.5201137 0.34801993 0
0.84302598 1.5370324 0.41235369 0
0.83964324 1.5268836 0.47385991 0
0.84204614 1.5340927 0.53827852 0
0.84043461 1.5292578 0.60115534 0
0.26612175 -0.12138453 -0.091930889 0
0.29846182 -0.015525784 -0.09080755 0
0.33927119 0.11805561 -0.089327209 0
0.37806013 0.24502352 -0.080408059 0
0.38095534 0.25450042 -0.051028091 0
0.37906769 0.24832156 -0.019819466 0
0.72793925 1.3902833 -0.072974302 0
0.72321546 1.3748212 -0.014111584 0
0.72298807 1.3740766 0.043513954 0
0.72729176 1.3881638 0.10104137 0
0.72415602 1.3778999 0.15866119 0
0.72617042 1.3844934 0.21666524 0
0.84084404 1.7598548 0.30209535 0
0.8379494 1.7503798 0.36852461 0
0.83774865 1.7497227 0.43585923 0
0.83564776 1.7428458 0.50261503 0
0.83592451 1.7437518 0.57081127 0
0.24289641 -0.11943951 -0.090944998 0
0.27515203 -0.0034613872 -0.091759332 0
0.31031063 0.12295452 -0.088766955 0
0.36425927 0.31693175 -0.0895667 0
0.4407948 0.59212202 -0.090869702 0
0.55118728 0.98904818 -0.090697251 0
0.66194803 1.3872983 -0.071481727 0
0.66089022 1.3834949 -0.013686536 0
0.66040391 1.3817463 0.043750335 0
0.66199154 1.3874547 0.10104083 0
0.65714383 1.3700244 0.15804748 0
0.6617834 1.3867064 0.21592362 0
0.8140896 1.9343371 0.31329128 0
0.81470656 1.9365554 0.38461035 0
0.81370938 1.93297 0.45564324 0
0.81178087 1.9260356 0.52640146 0
0.81202745 1.9269223 0.5986228 0
0.22004351 -0.11691234 -0.0902218 0
0.24794106 -0.0058183339 -0.090019144 0
0.28341576 0.13544944 -0.089621715 0
0.33134499 0.32631376 -0.089658253 0
0.39310864 0.57226974 -0.087200902 0
0.49897471 0.99385077 -0.089884035 0
0.59751421 1.386256 -0.070259042 0
0.59455574 1.3744745 -0.012490591 0
0.59787512 1.3876929 0.043988541 0
0.59741992 1.3858805 0.10104031 0
0.59613329 1.3807569 0.15792558 0
0.59606081 1.3804681 0.21485889 0
0.7673012 2.0623834 0.32111561 0
0.76913339 2.0696797 0.3955425 0
0.76650691 2.0592203 0.46850407 0
0.77037156 2.0746102 0.5451076 0
0.19799575 -0.11151573 -0.090253808 0
0.22552875 0.011150155 -0.092152275 0
0.25874674 0.15914407 -0.092472829 0
0.2987996 0.33758894 -0.090141974 0
0.35616747 0.59317619 -0.088579543 0
0.4484691 1.0044014 -0.089751743 0
0.55485779 1.4783876 -0.075835951 0
0.55108994 1.461601 -0.015968984 0
0.55461544 1.477308 0.042193953 0
0.55119783 1.4620817 0.10104212 0
0.55025905 1.4578993 0.15942764 0
0.55149144 1.4633899 0.21813896 0
0.71135461 2.1756172 0.32791853 0
0.71350807 2.1852117 0.4048394 0
0.71333212 2.1844277 0.48131058 0
0.7148965 2.1913974 0.55927891 0
0.17597385 -0.10587516 -0.090459444 0
0.19951621 0.01296917 -0.091474824 0
0.2245463 0.13932386 -0.088123612 0
0.26700971 0.35368386 -0.091431774 0
0.31991249 0.62074298 -0.090856232 0
0.39826998 1.0163002 -0.089869983 0
0.4170408 1.1110573 -0.0487171 0
0.41462544 1.0988643 0.0018679595 0
0.41556585 1.1036117 0.051363874 0
0.41616333 1.1066277 0.10103139 0
0.41469494 1.099215 0.15059434 0
0.41627282 1.1071804 0.20058981 0
0.4125745 1.088511 0.2491726 0
0.41726488 1.1121883 0.30105832 0
0.41302925 1.0908067 0.3489252 0
0.40755141 1.0631537 0.39513695 0
0.29339215 0.48686531 0.34838146 0
0.27101031 0.37387946 0.36279652 0
0.15365103 -0.10161093 -0.090487503 0
0.17328091 0.012519632 -0.090492494 0
0.1967205 0.14880016 -0.088823132 0
0.23340616 0.36209503 -0.091734998 0
0.27992374 0.63255411 -0.091363393 0
0.34575868 1.0153265 -0.088888846 0
0.37109962 1.1626618 -0.051680479 0
0.88203084 4.1332784 -0.14101078 0
1.7626851 9.2535086 -0.14067613 0
0.58199751 2.3888476 0.26074389 0
0.58089232 2.3824222 0.3403424 0
0.58163446 2.3867369 0.42091441 0
0.26171538 0.5266884 0.28083867 0
0.26994297 0.5745247 0.32406026 0
0.27182168 0.58544761 0.36367494 0
0.2379448 0.38848332 0.36436886 0
0.13159272 -0.095390409 -0.09105698 0
0.14769195 0.014786396 -0.090157159 0
0.16815029 0.15479544 -0.089058764 0
0.19733135 0.35449925 -0.089884378 0
0.23785271 0.63181156 -0.090505369 0
0.29814926 1.0444579 -0.090876438 0
0.3955352 1.7109294 -0.089805193 0
0.75200617 4.1504784 -0.14085084 0
1.5048846 9.3028841 -0.1408685 0
0.50803399 2.4808271 0.26443684 0
0.50518227 2.4613113 0.34496191 0
0.5047918 2.4586389 0.42641982 0
0.22301053 0.53023762 0.28053766 0
0.27479178 0.88460845 0.36722526 0
0.19989337 0.37203267 0.36018154 0
0.10965692 -0.086900979 -0.09222988 0
0.12329709 0.026353274 -0.091709889 0
0.13829227 0.15085807 -0.087769039 0
0.16385974 0.36314455 -0.090467401 0
0.19772871 0.64435834 -0.091339536 0
0.2445205 1.0328703 -0.089142971 0
0.32684845 1.7164385 -0.089552663 0
0.62230408 4.1696048 -0.14093587 0
1.2440281 9.3317747 -0.14073317 0
0.42607743 2.5403361 0.26668194 0
0.42323133 2.516705 0.34804654 0
0.42498112 2.5312333 0.43215641 0
0.4252179 2.5331995 0.51583612 0
0.23090017 0.91978079 0.37131214 0
0.16510801 0.37350896 0.35959148 0
0.086039342 -0.093030483 -0.090396963 0
0.0967611 0.01993588 -0.08997298 0
0.1107407 0.16722754 -0.089959405 0
0.12979202 0.36795571 -0.090627186 0
0.15603425 0.64444894 -0.090828411 0
0.19581939 1.0636327 -0.091511466 0
0.25886652 1.7279091 -0.089841269 0
0.49197054 4.1839371 -0.14094982 0
0.98457849 9.3741474 -0.14106703 0
0.34070966 2.5902238 0.26856816 0
0.33985001 2.5811663 0.35190663 0
0.33921748 2.5745018 0.43531722 0
0.34000498 2.5827992 0.52053636 0
0.33971813 2.5797768 0.60501111 0
0.17274174 0.82048219 0.39985254 0
0.1317489 0.3885738 0.36174095 0
0.06301184 -0.096735507 -0.089210995 0
0.072029196 0.033000384 -0.092043988 0
0.080967896 0.16160467 -0.088637419 0
0.096063189 0.378786 -0.091755889 0
0.11496071 0.6506713 -0.091159992 0
0.14154759 1.033186 -0.088263877 0
0.19077598 1.7414525 -0.090394981 0
0.36154094 4.1983089 -0.14111923 0
0.72159338 9.3785105 -0.14066721 0
0.25359586 2.6452646 0.27079263 0
0.25302887 2.6371069 0.35531011 0
0.13317026 0.91265863 0.27903727 0
0.1335271 0.91779238 0.32450607 0
0.13398279 0.92434877 0.37066382 0
0.12531628 0.79966062 0.39580172 0
0.096198678 0.38073531 0.3597202 0
0.04042175 -0.0965918 -0.088968985 0
0.045918711 0.027804885 -0.090787821 0
0.05203912 0.16631034 -0.089139812 0
0.060921192 0.36731246 -0.089865662 0
0.073356688 0.64872891 -0.090657376 0
0.086297989 0.9415918 -0.079434864 0
0.085321434 0.9194923 -0.032601867 0
0.086133696 0.9378739 0.011164287 0
0.4601329 9.4015102 -0.14085615 0
0.16316998 2.6812117 0.27222642 0
0.16275959 2.6719246 0.35738403 0
0.086746097 0.95173246 0.28243503 0
0.08582665 0.93092543 0.32572284 0
0.086641721 0.94937044 0.37379858 0
0.07756795 0.74403018 0.386224 0
0.061406858 0.37830308 0.35889062 0
0.017955447 -0.092184633 -0.089754768 0
0.020246528 0.028852019 -0.090832449 0
0.023102771 0.17974582 -0.091197021 0
0.02679701 0.3749105 -0.090781741 0
0.032156534 0.65805131 -0.091594584 0
0.039392445 1.0403206 -0.088508315 0
0.036879577 0.90756732 -0.031661723 0
0.036929905 0.91022617 0.012523131 0
0.19776298 9.4069529 -0.14079022 0
0.071002707 2.7102742 0.27344501 0
0.070676573 2.6930449 0.3586579 0
0.070794001 2.6992488 0.44553423 0
0.070924804 2.7061586 0.53316128 0
0.032547854 0.67872459 0.37525815 0
0.026880294 0.37931028 0.35887516 0
-0.0046879454 -0.091553241 -0.089858614 0
-0.0053780461 0.017861996 -0.088731892 0
-0.0063529504 0.17243281 -0.089964502 0
-0.0075917048 0.36883691 -0.08989764 0
-0.0093479417 0.64728779 -0.090305932 0
-0.010259002 0.79173595 -0.065274708 0
-0.010306083 0.79920071 -0.024064621 0
-0.010421146 0.81744403 0.016856739 0
-0.010489653 0.82830566 0.058709592 0
-0.01094635 0.90071505 0.10102435 0
-0.022417225 2.7194188 0.27384382 0
-0.022445373 2.7238817 0.36077449 0
-0.022465963 2.7271464 0.44808498 0
-0.022410089 2.7182875 0.53451073 0
-0.0093914717 0.65418941 0.37118059 0
-0.0076652691 0.38050058 0.35905835 0
-0.02760528 -0.083478183 -0.091667093 0
-0.031209875 0.030767713 -0.091254525 0
-0.035657391 0.17172948 -0.089940064 0
-0.042397786 0.38536301 -0.092312478 0
-0.050543591 0.64354044 -0.089959122 0
-0.063888669 1.0665059 -0.091014005 0
-0.055188343 0.79075366 -0.023533521 0
-0.055236325 0.7922743 0.017988907 0
-0.054814663 0.77890998 0.059838448 0
-0.056234315 0.82390517 0.10102218 0
-0.11889246 2.8098242 0.18956265 0
-0.1168114 2.7438662 0.27506649 0
-0.11667178 2.7394407 0.36198774 0
-0.11671785 2.740901 0.44953614 0
-0.11677253 2.7426343 0.53756613 0
-0.050316297 0.63633639 0.36837301 0
-0.042483293 0.38807312 0.36060911 0
-0.049978513 -0.092796654 -0.089898057 0
-0.056523442 0.022359047 -0.089882649 0
-0.065753937 0.1847662 -0.092299126 0
-0.076510437 0.37402311 -0.090931885 0
-0.091871463 0.64429492 -0.090260468 0
-0.10658176 0.90311736 -0.075952835 0
-0.1067263 0.90566045 -0.031718466 0
-0.099650085 0.78115696 0.018414723 0
-0.10049597 0.79604012 0.059393633 0
-0.10063612 0.79850584 0.10102152 0
-0.21416073 2.7959311 0.18933715 0
-0.21132958 2.7461181 0.27536586 0
-0.21172228 2.7530277 0.36323112 0
-0.21096072 2.7396281 0.44980595 0
-0.078108057 0.40213266 0.26393393 0
-0.077354677 0.3888773 0.29504395 0
-0.076797783 0.37907878 0.32630736 0
-0.076538518 0.37451723 0.35834056 0
-0.072807916 -0.091616064 -0.09048491 0
-0.083080165 0.033362065 -0.0922971 0
-0.093630046 0.16171792 -0.088837616 0
-0.11032399 0.36482611 -0.089971893 0
-0.1332082 0.64324874 -0.090473466 0
-0.15331554 0.88788635 -0.074836947 0
-0.15035728 0.85189444 -0.028179964 0
-0.14824267 0.82616681 0.016167322 0
-0.14904471 0.8359248 0.058390182 0
-0.30650929 2.7517292 0.27593446 0
-0.30470508 2.7297785 0.36205935 0
-0.30453151 2.7276669 0.44929737 0
-0.3042953 2.724793 0.53672725 0
-0.11306064 0.39812163 0.29668871 0
-0.11459302 0.4167656 0.3329199 0
-0.11260121 0.39253214 0.36219802 0
-0.094697855 -0.10059848 -0.089023642 0
-0.10792367 0.022255693 -0.090656541 0
-0.12208059 0.15375856 -0.087977044 0
-0.14528374 0.36929169 -0.091060959 0
-0.17498912 0.64522368 -0.091164686 0
-0.21841423 1.0485976 -0.090346046 0
-0.29135075 1.7261014 -0.089958094 0
-0.55426192 4.1682725 -0.14052559 0
-1.1119752 9.3488464 -0.14078479 0
-0.39944404 2.7301753 0.27534351 0
-0.39930716 2.7289038 0.36262387 0
-0.39799008 2.7166696 0.44909954 0
-0.39749658 2.7120855 0.53627771 0
-0.14890948 0.40297094 0.29784372 0
-0.14985652 0.41176799 0.33264968 0
-0.1465662 0.3812044 0.36067781 0
-0.11864915 -0.091594964 -0.091532685 0
-0.13474774 0.029214773 -0.092562176 0
-0.1536433 0.17101398 -0.091413192 0
-0.18041761 0.37193802 -0.092020668 0
-0.2163125 0.64130646 -0.091287635 0
-0.27034339 1.0467737 -0.090756632 0
-0.3587918 1.7105227 -0.089440517 0
-0.68464386 4.1558352 -0.14067653 0
-1.3712347 9.3082628 -0.14056872 0
-0.49132749 2.7051187 0.27469602 0
-0.488805 2.6861889 0.36040524 0
-0.24109261 0.82726532 0.27213287 0
-0.2418925 0.83326799 0.31596833 0
-0.1839595 0.39851776 0.29781136 0
-0.18509623 0.40704826 0.33257204 0
-0.18019199 0.37024501 0.35938519 0
-0.14149736 -0.093411654 -0.091852792 0
-0.15941939 0.019284401 -0.091383196 0
-0.18285178 0.16663054 -0.091394387 0
-0.21286768 0.35537449 -0.090376593 0
-0.25712878 0.63369423 -0.09109702 0
-0.31790105 1.0158384 -0.088541098 0
-0.42844233 1.7109368 -0.090173237 0
-0.81606472 4.1483583 -0.14121677 0
-1.6328965 9.2847071 -0.14090644 0
-0.58204693 2.6768231 0.27400228 0
-0.58133358 2.6723375 0.36038232 0
-0.27804118 0.76519412 0.266895 0
-0.27691764 0.75812918 0.3078661 0
-0.27924407 0.77275807 0.35181522 0
-0.21726613 0.38303247 0.36277938 0
-0.16304061 -0.1027796 -0.090666451 0
-0.18398133 0.010406647 -0.090519361 0
-0.21052566 0.15388075 -0.090100117 0
-0.24599433 0.34559157 -0.089810722 0
-0.2952382 0.61175841 -0.089325227 0
-0.37054309 1.0187869 -0.089645289 0
-0.49817175 1.7086296 -0.090840615 0
-0.94331008 4.1146364 -0.14067362 0
-1.8928586 9.2470188 -0.14106737 0
-0.66971058 2.6358099 0.27281079 0
-0.66752678 2.6240063 0.35807168 0
-0.66655976 2.6187797 0.44367573 0
-0.6672895 2.6227241 0.53049541 0
-0.29125422 0.59022468 0.36506584 0
-0.25302982 0.38361898 0.36403054 0
-0.18493026 -0.10921541 -0.09022861 0
-0.20907049 0.005065057 -0.090450682 0
-0.23634566 0.13418654 -0.087749444 0
-0.27876979 0.33502343 -0.089248814 0
-0.33613262 0.60658056 -0.089660354 0
-0.41968778 1.0021329 -0.089011736 0
-0.5654031 1.6919529 -0.090610273 0
-0.61822683 1.9420221 -0.038507331 0
-0.61832464 1.9424851 0.03130107 0
-0.61772871 1.9396639 0.10105586 0
-0.75442517 2.5867887 0.27133653 0
-0.75284261 2.5792966 0.35616291 0
-0.75084347 2.5698328 0.44072074 0
-0.75236911 2.5770552 0.52718997 0
-0.28821969 0.37975946 0.36460561 0
-0.20747623 -0.11250386 -0.090596162 0
-0.23323631 -0.0041513112 -0.089753695 0
-0.26778811 0.14118114 -0.090003006 0
-0.31230897 0.32844558 -0.089379109 0
-0.37245423 0.5814299 -0.087721802 0
-0.47235724 1.0016438 -0.09004394 0
-0.52342856 1.2164612 -0.057530586 0
-0.61918789 1.6192458 -0.023854015 0
-0.61807531 1.6145658 0.038742106 0
-0.61838573 1.6158717 0.10104685 0
-0.83751076 2.5375597 0.26994562 0
-0.83202106 2.5144689 0.35295022 0
-0.83291978 2.518249 0.43769845 0
-0.83272612 2.5174344 0.52244508 0
-0.83281672 2.5178154 0.60778803 0
-0.22691998 -0.12791547 -0.088425316 0
-0.25942847 -0.0050424603 -0.090792485 0
-0.29955444 0.14662257 -0.092142098 0
-0.34520289 0.31916097 -0.089239456 0
-0.41363335 0.57780915 -0.088483594 0
-0.52217245 0.98805672 -0.089946352 0
-0.58112693 1.2108884 -0.058135185 0
-0.65098202 1.4749212 -0.01769737 0
-0.64873713 1.4664359 0.04190911 0
-0.64770806 1.4625463 0.1010428 0
-0.91389823 2.4686713 0.26769832 0
-0.91049898 2.4558229 0.35030761 0
-0.90898579 2.4501038 0.43325543 0
-0.91028529 2.4550154 0.51757455 0
-0.91110247 2.4581041 0.60232604 0
-0.25402775 -0.11527035 -0.092559166 0
-0.28309169 -0.015653279 -0.090061195 0
-0.32296106 0.12099937 -0.089115404 0
-0.34706429 0.20361343 -0.073663659 0
-0.45929727 0.58829314 -0.091094293 0
-0.57027102 0.96865684 -0.089404695 0
-0.71480274 1.464041 -0.077691369 0
-0.71530515 1.4657629 -0.018089002 0
-0.71633047 1.4692774 0.041424327 0
-0.71323812 1.458678 0.10104319 0
-0.98334551 2.3844743 0.26478437 0
-0.9806031 2.3750746 0.34617844 0
-0.98183525 2.3792977 0.42870685 0
-0.98369116 2.3856587 0.51206058 0
-0.98260731 2.3819439 0.59470308 0
-0.27350014 -0.12980738 -0.090813138 0
-0.30568203 -0.029033449 -0.088894047 0
-0.35526809 0.12623957 -0.091490589 0
-0.3750883 0.18830422 -0.072756656 0
-0.39536422 0.25179592 -0.051296476 0
-0.39663827 0.2557855 -0.021027772 0
-0.39600754 0.25381055 0.0097419638 0
-0.39748365 0.25843278 0.039992925 0
-0.39414394 0.24797478 0.070772119 0
-0.39899886 0.26317742 0.10100793 0
-0.39645815 0.25522152 0.13142018 0
-0.39584714 0.25330821 0.16177207 0
-0.39472178 0.24978426 0.19197799 0
-0.39491743 0.250397 0.22251552 0
-0.39442801 0.24886432 0.25295281 0
-0.39560086 0.25253704 0.2842494 0
-0.39908463 0.263446 0.31718051 0
-0.39640358 0.25505057 0.34708178 0
-0.29528603 -0.13646618 -0.090934671 0
-0.33376396 -0.025702145 -0.091161989 0
-0.37916762 0.10499862 -0.089420594 0
-0.43150306 0.25565341 -0.084243767 0
-0.42802367 0.24563757 -0.051820654 0
-0.43180498 0.25652257 -0.022131076 0
-0.43028784 0.25215521 0.0090938974 0
-0.43124312 0.25490513 0.039651729 0
-0.42712808 0.24305943 0.070638031 0
-0.42681909 0.24217001 0.10100761 0
-0.43284664 0.25952104 0.13178347 0
-0.42937839 0.24953726 0.16209956 0
-0.43293735 0.25978222 0.19348723 0
-0.43473673 0.26496199 0.22498225 0
-0.4339321 0.26264575 0.25594249 0
-0.43355894 0.26157156 0.28714213 0
-0.43401039 0.26287118 0.31890666 0
-0.43077764 0.25356522 0.34886429 0
-0.31938094 -0.13710585 -0.092548512 0
-0.36088297 -0.026704993 -0.092721365 0
-0.40778497 0.098060399 -0.089947604 0
-0.47706068 0.28234282 -0.089948602 0
-0.48402718 0.30087462 -0.060118038 0
-0.51150888 0.3739796 -0.034972031 0
-0.51600176 0.38593128 -0.0017394701 0
-0.51129991 0.37342361 0.033195075 0
-0.5095048 0.36864844 0.067240477 0
-0.51232505 0.37615064 0.10101204 0
-1.2049954 2.2187443 0.18085067 0
-1.1923959 2.1852279 0.25905073 0
-1.1628898 2.1067379 0.33239013 0
-1.1581827 2.0942166 0.40864071 0
-1.1567277 2.0903459 0.4856801 0
-1.1589712 2.096314 0.56442481 0
-0.33993635 -0.14754418 -0.092070542 0
-0.38367665 -0.03954431 -0.092029877 0
-0.43428364 0.085410386 -0.089594655 0
-0.51124305 0.27543214 -0.09079092 0
-0.51209915 0.27754596 -0.058771241 0
-0.51383442 0.28183058 -0.027038028 0
-0.51184398 0.27691582 0.0054661948 0
-0.50770193 0.26668873 0.037885148 0
-0.51494181 0.28456488 0.069015779 0
-0.50850892 0.26868132 0.10100915 0
-1.2746691 2.1604204 0.25936818 0
-1.1918366 1.9558976 0.3232947 0
-1.1963475 1.9670355 0.39887106 0
-1.1975212 1.9699333 0.47429794 0
-1.1970074 1.9686649 0.54965055 0
-0.35963929 -0.15969571 -0.091309838 0
-0.40378824 -0.05813035 -0.090268038 0
-0.46334884 0.078889638 -0.09045545 0
-0.5126186 0.19223538 -0.080084153 0
-0.51168245 0.19008175 -0.04932614 0
-0.50813985 0.181932 -0.018233797 0
-0.50961334 0.18532172 0.011431241 0
-0.51491874 0.19752696 0.040724184 0
-0.51151198 0.18968955 0.071080774 0
-0.50869381 0.18320635 0.1010069 0
-1.3528676 2.1252406 0.25926697 0
-1.2271771 1.8360877 0.31652185 0
-1.2279097 1.8377731 0.38887936 0
-1.2235295 1.8276963 0.46013826 0
-1.2239143 1.8285813 0.53295368 0
-1.2222348 1.824718 0.60544109 0
-0.38178164 -0.16620782 -0.091978095 0
-0.4307451 -0.060915973 -0.091872342 0
-0.48991349 0.066320688 -0.090362363 0
-0.5099808 0.10947385 -0.069323875 0
-0.51008999 0.10970858 -0.040682245 0
-0.50641119 0.10179761 -0.011345511 0
-0.51147544 0.11268786 0.016009154 0
-0.5139882 0.11809137 0.044114891 0
-0.50993472 0.10937467 0.072798982 0
-0.50915253 0.10769275 0.10100494 0
-1.4296652 2.0871782 0.25911728 0
-1.2517093 1.7044992 0.30882868 0
-1.2371858 1.6732676 0.37522125 0
-1.2417605 1.683105 0.44559214 0
-1.2424432 1.6845729 0.51555598 0
-1.2364557 1.6716974 0.58345419 0
-0.39776862 -0.18551746 -0.089749955 0
-0.44920921 -0.081824869 -0.089828543 0
-0.51370174 0.048177395 -0.089367695 0
-0.50987345 0.040460382 -0.060574565 0
-0.50972599 0.040163193 -0.033336986 0
-0.51203161 0.044810925 -0.0067778658 0
-0.51335889 0.047486339 0.020061033 0
-0.5144735 0.049733195 0.046973817 0
-0.51160657 0.043953929 0.074153274 0
-0.51442593 0.049637232 0.10100351 0
-1.2494028 1.5311835 0.29782772 0
-1.2357402 1.5036428 0.36088175 0
-1.2448069 1.5219193 0.42875654 0
-1.2396559 1.5115359 0.49345642 0
-1.2398254 1.5118775 0.56000811 0
-0.41824895 -0.19521412 -0.089898951 0
-0.47021884 -0.096774548 -0.089125194 0
-0.53274959 0.021669064 -0.086915918 0
-0.53350538 0.023100648 -0.059916202 0
-0.52715403 0.011070166 -0.031238293 0
-0.53445596 0.024901185 -0.0060773399 0
-0.5337097 0.023487721 0.020906227 0
-0.53312898 0.022387657 0.047711328 0
-0.52862716 0.013860498 0.074595809 0
-0.5359413 0.027714763 0.10100323 0
-1.2525399 1.3850713 0.28882703 0
-1.2416435 1.3644319 0.34955838 0
-1.2379491 1.357434 0.41126916 0
-1.2418545 1.3648317 0.47523603 0
-1.2387263 1.358906 0.5375368 0
-1.2385361 1.3585458 0.60118878 0
-0.44788879 -0.18867519 -0.094131626 0
-0.50369442 -0.089137167 -0.09340287 0
-0.55713779 0.006187472 -0.086596854 0
-0.55698353 0.0059122774 -0.059371535 0
-0.55894607 0.0094127394 -0.032844309 0
-0.55883944 0.009222541 -0.0058797654 0
-0.55774397 0.0072685811 0.021099078 0
-0.55837446 0.008393202 0.047721818 0
-0.56070197 0.012544665 0.074266195 0
-0.55330378 -0.00065108796 0.10100275 0
-1.2933968 1.3194201 0.16266088 0
-1.2909374 1.3150334 0.22410829 0
-1.2523935 1.2462842 0.28029209 0
-1.2429557 1.2294505 0.33854255 0
-1.2422608 1.2282112 0.39823684 0
-1.2395331 1.2233458 0.45760626 0
-1.2404701 1.2250171 0.51833707 0
-1.2379649 1.2205486 0.57829791 0
-0.46509987 -0.20504484 -0.092947342 0
-0.52257872 -0.10832706 -0.092051007 0
-0.58581561 -0.0019204881 -0.087799527 0
-0.58403116 -0.0049230722 -0.05995341 0
-0.58040911 -0.011017825 -0.032030586 0
-0.58425158 -0.0045521525 -0.0059522819 0
-0.58935082 0.004028115 0.02019039 0
-0.58545476 -0.0025276209 0.047531746 0
-0.58384264 -0.0052403477 0.074355297 0
-0.58702719 0.00011828881 0.10100325 0
-1.3585435 1.2983234 0.16299428 0
-1.3549122 1.292213 0.22467813 0
-1.2507071 1.1168706 0.2723909 0
-1.2413515 1.1011281 0.32808742 0
-1.2377925 1.0951395 0.38449895 0
-1.240653 1.0999529 0.44265985 0
-1.2421223 1.1024253 0.5010165 0
-1.2397386 1.0984142 0.55853498 0
-0.48009369 -0.22443935 -0.091092803 0
-0.54224628 -0.12562248 -0.091204308 0
-0.61434948 -0.010985162 -0.088975139 0
-0.60773218 -0.021506097 -0.059702817 0
-0.61101925 -0.016279962 -0.033372361 0
-0.60915667 -0.01924124 -0.0059953164 0
-0.60815489 -0.020833995 0.020987475 0
-0.6149568 -0.010019626 0.047112759 0
-0.60714102 -0.022445943 0.074413992 0
-0.60578513 -0.024601724 0.10100293 0
-1.2533722 1.0050013 0.26581004 0
-1.2413661 0.98591286 0.31890693 0
-1.242095 0.98707157 0.37397993 0
-1.2383441 0.98110789 0.42823449 0
-1.2387956 0.98182601 0.48381406 0
-1.2375695 0.97987634 0.53926659 0
-0.49372295 -0.24511775 -0.08897502 0
-0.56017578 -0.14515254 -0.089949258 0
-0.64164567 -0.02259716 -0.089808889 0
-0.63431448 -0.03362545 -0.060301382 0
-0.64311212 -0.020391192 -0.035005886 0
-0.63783723 -0.02832618 -0.0067370813 0
-0.63478917 -0.032911386 0.02068528 0
-0.63868761 -0.027046945 0.047178444 0
-0.6393705 -0.026019659 0.074076802 0
-0.64238238 -0.021488871 0.10100357 0
-1.2531137 0.89723653 0.25946841 0
-1.2420946 0.88066036 0.31068867 0
-1.2385683 0.87535578 0.36278602 0
-1.2416466 0.87998635 0.41654772 0
-1.241359 0.87955374 0.4699226 0
-1.2412364 0.87936944 0.52373952 0
-0.52115643 -0.24527571 -0.09223678 0
-0.58593768 -0.15296492 -0.091471337 0
-0.66449797 -0.041019406 -0.089427285 0
-0.66526711 -0.039923336 -0.062024314 0
-0.66693932 -0.037540521 -0.03492165 0
-0.6529693 -0.05744734 -0.0052891802 0
-0.66617703 -0.038626816 0.019777412 0
-0.66106224 -0.045915153 0.047316227 0
-0.66353118 -0.042397048 0.074074365 0
-0.66656536 -0.038073387 0.10100357 0
-1.299863 0.86435205 0.25941354 0
-1.2453911 0.78673178 0.30361784 0
-1.2364831 0.77403802 0.3528651 0
-1.2336831 0.7700482 0.40315217 0
-1.2364289 0.77396089 0.45512906 0
-1.2427802 0.78301126 0.50891137 0
-0.53234863 -0.26870355 -0.089587785 0
-0.60352868 -0.17253003 -0.090419091 0
-0.69113529 -0.054161992 -0.090234898 0
-0.68905663 -0.056970503 -0.062035669 0
-0.69300699 -0.051633086 -0.035366956 0
-0.69746125 -0.045614805 -0.0086136963 0
-0.68767011 -0.058843877 0.020045431 0
-0.68623006 -0.060789611 0.047192883 0
-0.68641639 -0.060537841 0.074105404 0
-0.68934053 -0.056586947 0.10100352 0
-1.3464781 0.83129185 0.25944412 0
-1.2421026 0.69026691 0.29612872 0
-1.2410663 0.68886679 0.34509858 0
-1.24119 0.68903369 0.39452854 0
-1.2382711 0.68509012 0.44345206 0
-1.2383329 0.68517345 0.49346614 0
-0.55473107 -0.27678475 -0.091098569 0
-0.6212436 -0.19150445 -0.089592077 0
-0.71354663 -0.073156446 -0.089977659 0
-0.71509105 -0.071176261 -0.062659673 0
-0.71510285 -0.071161181 -0.035112057 0
-0.71456051 -0.071856529 -0.0076289307 0
-0.71590739 -0.070129603 0.019479284 0
-0.71905011 -0.066100091 0.046465274 0
-0.71603954 -0.069960147 0.073863126 0
-0.72101319 -0.063583106 0.10100392 0
-1.389165 0.79310006 0.25912338 0
-1.2543985 0.62030655 0.29162049 0
-1.2394292 0.60111362 0.33681196 0
-1.2399021 0.6017198 0.384644 0
-1.2406617 0.60269386 0.43290272 0
-1.246429 0.61008841 0.48312414 0
-0.57331079 -0.29008362 -0.091359593 0
-0.64259273 -0.20573083 -0.09001296 0
-0.74578559 -0.080090553 -0.092399172 0
-0.7444272 -0.081744462 -0.06407658 0
-0.74827576 -0.077058703 -0.03699683 0
-0.74097884 -0.085942894 -0.0081434008 0
-0.74848354 -0.076805741 0.018420452 0
-0.74814266 -0.077220768 0.046023071 0
-0.74840307 -0.076903731 0.073518924 0
-0.74413449 -0.082100898 0.10100392 0
-1.4346045 0.75856656 0.25922376 0
-1.2477119 0.53101951 0.28471917 0
-1.237288 0.51832789 0.32909748 0
-1.2349724 0.51550859 0.37474737 0
-1.2337481 0.514018 0.42080936 0
-1.2411765 0.52306229 0.46970367 0
-0.58803982 -0.30795375 -0.090472318 0
-0.66537857 -0.21849266 -0.090940513 0
-0.7588433 -0.11037782 -0.089975424 0
-0.77422523 -0.092584819 -0.065610237 0
-0.76730603 -0.10058859 -0.036327083 0
-0.78070283 -0.085091978 -0.010593666 0
-0.76801747 -0.099765688 0.01876791 0
-0.77410674 -0.092721909 0.045795981 0
-0.77170604 -0.095498949 0.073500395 0
-0.77315134 -0.093827099 0.10100419 0
-1.4787956 0.72242302 0.25928238 0
-1.2483559 0.45586303 0.2793898 0
-1.2369187 0.44263318 0.32230076 0
-1.2276701 0.43193498 0.36510003 0
-1.2382352 0.44415608 0.41250086 0
-1.2353226 0.44078687 0.45713809 0
-0.60414433 -0.32402024 -0.090188377 0
-0.68531996 -0.2347751 -0.091137998 0
-0.78161383 -0.12890884 -0.090179764 0
-0.80707443 -0.10091725 -0.067797221 0
-0.80498511 -0.10321429 -0.039019469 0
-0.80221176 -0.10626331 -0.010447172 0
-0.80452001 -0.10372564 0.017281795 0
-0.80230469 -0.10616121 0.045393076 0
-0.79887605 -0.10993066 0.073332302 0
-0.80047619 -0.10817143 0.1010044 0
-1.2507663 0.38688102 0.27471837 0
-1.233726 0.36814693 0.31553596 0
-1.2399284 0.37496582 0.3602505 0
-1.2379497 0.37279049 0.40369034 0
-1.2422981 0.37757114 0.44909811 0
-0.61857951 -0.34175488 -0.089524947 0
-0.69914633 -0.25754902 -0.089777835 0
-0.79973477 -0.15241721 -0.089386143 0
-0.83444804 -0.11613604 -0.068857618 0
-0.82652754 -0.12441435 -0.03892519 0
-0.83187056 -0.11883 -0.01147799 0
-0.82529795 -0.12569943 0.017414192 0
-0.82815075 -0.12271777 0.045135863 0
-0.82723194 -0.12367812 0.073116273 0
-0.83271724 -0.11794505 0.10100482 0
-1.2551599 0.32357839 0.27067479 0
-1.2357302 0.30327109 0.31014842 0
-1.2419913 0.30981508 0.35375014 0
-1.2401265 0.30786601 0.39612874 0
-1.2381722 0.30582336 0.4386825 0
-0.63610327 -0.35621867 -0.089939393 0
-0.72678792 -0.26610389 -0.092274345 0
-0.82201272 -0.17147759 -0.089714609 0
-0.86290741 -0.13083991 -0.070183985 0
-0.86595315 -0.12781331 -0.041869108 0
-0.85906643 -0.13465676 -0.012201523 0
-0.85994947 -0.13377926 0.016120614 0
-0.85633349 -0.13737246 0.044703864 0
-0.85320657 -0.14047977 0.072972111 0
-0.86044586 -0.13328597 0.10100507 0
-1.270342 0.27403405 0.1427439 0
-1.2750697 0.27873221 0.18482223 0
-1.2662258 0.26994386 0.22596394 0
-1.2512195 0.25503185 0.26584703 0
-1.2519275 0.25573531 0.30750731 0
-1.2416911 0.24556342 0.34727237 0
-1.2379403 0.2418361 0.38812771 0
-1.2523205 0.25612608 0.43386576 0
-0.65132117 -0.37301615 -0.089777879 0
-0.73864228 -0.29051682 -0.090677999 0
-0.84508622 -0.18995062 -0.090325363 0
-0.88865745 -0.14878538 -0.071027987 0
-0.88785326 -0.1495451 -0.041939888 0
-0.88443208 -0.1527774 -0.012724942 0
-0.89431334 -0.14344177 0.014865274 0
-0.89002281 -0.14749542 0.04390537 0
-0.88848954 -0.14894399 0.072519876 0
-0.89173508 -0.14587769 0.10100546 0
-1.2928689 0.23310593 0.14245714 0
-1.3002738 0.24010196 0.18441291 0
-1.3000891 0.23992744 0.2262041 0
-1.2485638 0.19124737 0.26152304 0
-1.2544467 0.19680539 0.30292344 0
-1.2470509 0.18981794 0.34235933 0
-1.23798 0.18124798 0.38120008 0
-1.2424017 0.18542555 0.42325333 0
-0.66524225 -0.39094612 -0.089372031 0
-0.75712186 -0.30842677 -0.090952478 0
-0.86200505 -0.21422842 -0.089667074 0
-0.91732061 -0.16454807 -0.072489955 0
-0.91857994 -0.16341707 -0.043482829 0
-0.91352504 -0.16795698 -0.013762331 0
-0.91773361 -0.16417721 0.014643172 0
-0.91638207 -0.16539106 0.043567244 0
-0.91361284 -0.16787812 0.072388507 0
-0.9117291 -0.16957 0.10100542 0
-1.3268749 0.20328322 0.14256915 0
-1.332028 0.20791128 0.18448493 0
-1.3342255 0.20988491 0.22653665 0
-1.2595561 0.14282241 0.25921363 0
-1.2512434 0.13535658 0.29777929 0
-1.2381784 0.12362257 0.33513582 0
-1.244632 0.12941876 0.37623069 0
-1.2428889 0.1278533 0.41597101 0
-0.68704009 -0.4020454 -0.091303967 0
-0.77015758 -0.33110133 -0.089986257 0
-0.88395888 -0.23396751 -0.090244628 0
-0.94620562 -0.18083754 -0.074036114 0
-0.94885701 -0.17857447 -0.04497825 0
-0.95176715 -0.17609051 -0.015947966 0
-0.9509064 -0.17682526 0.013480777 0
-0.94336087 -0.1832656 0.043170441 0
-0.94529545 -0.18161437 0.072044656 0
-0.95217413 -0.17574313 0.10100617 0
-1.4043965 0.21024635 0.14403558 0
-1.4108577 0.2157611 0.18749067 0
-1.4082177 0.2135078 0.2305989 0
-1.2563511 0.083883792 0.25536186 0
-1.252769 0.080826312 0.29371279 0
-1.2375686 0.067852169 0.32990566 0
-1.2319216 0.06303218 0.36746773 0
-1.2377018 0.067965895 0.4078021 0
-0.69766617 -0.42281201 -0.090217076 0
-0.79105717 -0.34708753 -0.091086738 0
-0.89913106 -0.25945774 -0.089482121 0
-0.97948307 -0.19430569 -0.076420896 0
-0.97509485 -0.19786379 -0.045893822 0
-0.986498 -0.1886178 -0.017692355 0
-0.98256046 -0.1918104 0.01244955 0
-0.97957557 -0.19423065 0.042200778 0
-0.98298252 -0.19146821 0.071517542 0
-0.97504687 -0.19790265 0.10100627 0
-1.2484137 0.023752008 0.25119972 0
-1.2508795 0.025751386 0.28942385 0
-1.2426933 0.019113813 0.32607678 0
-1.2355815 0.013347302 0.36270556 0
-1.2437801 0.019995127 0.40290162 0
-0.71133649 -0.44092771 -0.090109758 0
-0.80726677 -0.36707684 -0.091148131 0
-0.91481048 -0.28428552 -0.08897429 0
-1.009221 -0.21160462 -0.078192987 0
-1.0060542 -0.21404251 -0.04756074 0
-1.0111479 -0.21012118 -0.018253354 0
-1.0103569 -0.21073011 0.011744762 0
-1.0079921 -0.21255055 0.041691475 0
-1.0104448 -0.21066245 0.071293198 0
-1.017275 -0.20540431 0.10100708 0
-1.2474229 -0.028227415 0.2481171 0
-1.2438471 -0.030980196 0.28466561 0
-1.2486796 -0.027259912 0.32269484 0
-1.2337327 -0.038766649 0.35715473 0
-1.2440574 -0.03081825 0.39700678 0
-0.73141158 -0.45435175 -0.091811784 0
-0.8218286 -0.3883104 -0.090942882 0
-0.92881775 -0.31016466 -0.088264145 0
-1.0462028 -0.22442558 -0.081270121 0
-1.0431906 -0.22662571 -0.050150935 0
-1.0515794 -0.22049847 -0.020691616 0
-1.0445608 -0.22562495 0.010456407 0
-1.043007 -0.22675976 0.040784162 0
-1.037676 -0.23065367 0.071065523 0
-1.0399315 -0.22900614 0.10100719 0
-1.2544191 -0.072342724 0.24616767 0
-1.24518 -0.079090983 0.28141484 0
-1.2399117 -0.082939059 0.31701159 0
-1.2321539 -0.088605374 0.35203055 0
-1.241203 -0.081995815 0.39079091 0
-0.7445516 -0.47308663 -0.091779746 0
-0.83236885 -0.41228154 -0.089943759 0
-0.95204246 -0.32941893 -0.089540668 0
-1.0769379 -0.24294063 -0.083282061 0
-1.0781702 -0.24208739 -0.052435238 0
-1.0818397 -0.23954669 -0.021962946 0
-1.0695602 -0.24804905 0.0099407602 0
-1.0808336 -0.24024329 0.039712843 0
-1.0804224 -0.24052802 0.070388623 0
-1.0734059 -0.24538627 0.1010077 0
-1.2552829 -0.11945376 0.20788006 0
-1.2432821 -0.12776312 0.24231967 0
-1.2319733 -0.13559344 0.27632669 0
-1.2369429 -0.13215247 0.3126609 0
-1.2381058 -0.13134721 0.34875482 0
-1.2393633 -0.13047656 0.38521385 0
-0.75707829 -0.49223199 -0.091713585 0
-0.85334873 -0.4291068 -0.09144979 0
-0.97436112 -0.34975812 -0.090714522 0
-1.1170425 -0.25620094 -0.08691477 0
-1.1165175 -0.25654516 -0.055207778 0
-1.1000123 -0.26736769 -0.021918355 0
-1.1080365 -0.26210621 0.008259194 0
-1.1064731 -0.26313135 0.039318439 0
-1.1142879 -0.2580072 0.06996274 0
-1.1141688 -0.25808522 0.10100847 0
-1.2484831 -0.17001441 0.2055084 0
-1.2449218 -0.17234954 0.24011931 0
-1.2416856 -0.17447153 0.27472779 0
-1.2404108 -0.17530748 0.30967429 0
-1.2401774 -0.17546049 0.34498385 0
-1.2454484 -0.17200431 0.3817918 0
-0.76904917 -0.51172078 -0.091631256 0
-0.86573476 -0.45175597 -0.091122665 0
-0.98378664 -0.37853971 -0.089476787 0
-1.1484548 -0.27641192 -0.089109458 0
-1.1418482 -0.28050926 -0.056197766 0
-1.146546 -0.27759573 -0.025067231 0
-1.1581224 -0.27041599 0.0056192596 0
-1.1400784 -0.28160688 0.038461868 0
-1.1505723 -0.27509859 0.069465123 0
-1.1495996 -0.27570185 0.10100905 0
-1.2479504 -0.2147043 0.16947241 0
-1.2487065 -0.21423534 0.20385766 0
-1.2373539 -0.22127625 0.23706584 0
-1.2300562 -0.22580233 0.27035332 0
-1.246703 -0.21547791 0.30738294 0
-1.2419813 -0.21840635 0.34143671 0
-1.2401745 -0.21952692 0.37613878 0
-0.78911936 -0.52645922 -0.093667515 0
-0.86974913 -0.47922668 -0.089098625 0
-0.99153686 -0.40788403 -0.088077523 0
