# .PCD v0.7 - Point Cloud Data file format
VERSION 0.7
FIELDS x y z intensity
SIZE 4 4 4 4
TYPE F F F F
COUNT 1 1 1 1
WIDTH 1320
HEIGHT 1
VIEWPOINT 0 0 0 1 0 0 0
POINTS 1320
DATA ascii
1.6239994 -1.2160015 -0.090559505 0
2.5581894 -1.3464921 -0.14003828 0
3.415472 -1.4662399 -0.14005268 0
5.1533527 -1.7089925 -0.14122556 0
10.304951 -2.4285834 -0.14092752 0
0.89629918 -1.091397 -0.090575226 0
1.0103421 -1.1044027 -0.090377323 0
1.1511979 -1.1204661 -0.089295723 0
1.3558445 -1.1438044 -0.090670012 0
1.6292157 -1.1749803 -0.09056104 0
2.5720224 -1.2824999 -0.14056765 0
3.4309587 -1.3804547 -0.14037211 0
5.1644158 -1.5781417 -0.14096995 0
10.334772 -2.1677794 -0.14085233 0
0.89174247 -1.0681682 -0.089113928 0
1.016169 -1.079186 -0.09099067 0
1.1291467 -1.0891899 -0.085171752 0
1.1360763 -1.0898036 -0.059174944 0
1.6469587 -1.1350412 -0.092153944 0
2.5786157 -1.2175376 -0.14056893 0
3.4478085 -1.2945031 -0.14093865 0
5.1755071 -1.4474876 -0.14087076 0
10.354226 -1.9060534 -0.14068915 0
0.90693563 -1.0465201 -0.091986381 0
1.0222003 -1.0538011 -0.091761909 0
1.1277056 -1.0604657 -0.084578492 0
1.1372347 -1.0610676 -0.059031848 0
1.6497495 -1.0934421 -0.092111476 0
2.5785308 -1.1521113 -0.14009912 0
3.4434965 -1.2067494 -0.14017403 0
5.1871948 -1.3168952 -0.14095353 0
10.375554 -1.6446333 -0.14072397 0
0.89966869 -1.0233246 -0.090194814 0
1.0133328 -1.0276289 -0.089844994 0
1.1213119 -1.0317179 -0.083290584 0
1.1367809 -1.0323037 -0.058764208 0
1.6480893 -1.0516663 -0.091671355 0
2.5903141 -1.0873469 -0.14089271 0
3.4489398 -1.1198618 -0.14024767 0
5.187438 -1.1856964 -0.14065669 0
10.396819 -1.3829681 -0.14091083 0
0.91402525 -1.0008128 -0.093124993 0
1.0289329 -1.0022626 -0.092662029 0
1.1305133 -1.0035443 -0.084685646 0
1.1242303 -1.0034651 -0.056898568 0
1.1297576 -1.0035348 -0.030964738 0
1.1238565 -1.0034603 -0.0038481632 0
1.1330884 -1.0035768 0.021818647 0
1.1281739 -1.0035148 0.048489828 0
1.1369586 -1.0036256 0.074556157 0
1.1319002 -1.0035619 0.10100269 0
1.1234858 -1.0034556 0.1271355 0
1.1322443 -1.0035661 0.15370521 0
1.1315539 -1.0035574 0.18007973 0
1.1271542 -1.0035019 0.20616165 0
1.1305391 -1.0035447 0.23306225 0
1.1376927 -1.0036349 0.26079765 0
1.124181 -1.0034645 0.2856515 0
1.1238425 -1.0034602 0.31254694 0
0.90244704 -0.97791803 -0.090663709 0
1.0096123 -0.97656584 -0.089022689 0
1.117379 -0.97520614 -0.082526825 0
1.1429741 -0.9748832 -0.059532944 0
1.6481248 -0.96850944 -0.091552861 0
2.5946193 -0.95656705 -0.1411406 0
3.4450512 -0.94583672 -0.13982221 0
5.1932116 -0.92377931 -0.14077166 0
10.398884 -0.85809678 -0.14080486 0
0.90039271 -0.95523268 -0.090348817 0
1.0226872 -0.95060158 -0.091608159 0
1.1338305 -0.94639271 -0.085349523 0
1.1253723 -0.94671303 -0.057159755 0
1.6550937 -0.92665321 -0.092490561 0
2.5892861 -0.89127672 -0.14079668 0
3.4582415 -0.8583706 -0.14089842 0
5.1902099 -0.79278344 -0.14078583 0
10.400007 -0.59549588 -0.14098504 0
0.89237678 -0.93298429 -0.088885553 0
1.0289551 -0.92435688 -0.093036704 0
1.1241546 -0.91834337 -0.083993725 0
1.1161611 -0.91884828 -0.056064371 0
1.6390554 -0.88581812 -0.090859137 0
2.5880895 -0.82586956 -0.14099313 0
3.4493341 -0.77146649 -0.14058295 0
5.185658 -0.6617865 -0.14088184 0
10.384558 -0.3333827 -0.14093372 0
0.90287232 -0.90943098 -0.091488965 0
1.0177056 -0.89926267 -0.091281228 0
1.1450949 -0.88798261 -0.087803103 0
1.3460915 -0.87018472 -0.088804848 0
1.6456327 -0.84366089 -0.091998361 0
2.5748124 -0.76138377 -0.14021254 0
3.4405527 -0.68472409 -0.14042942 0
5.1855526 -0.53020757 -0.14134026 0
10.354404 -0.072515458 -0.14069334 0
0.89207441 -0.8876695 -0.089671366 0
1.0029427 -0.87502587 -0.088974588 0
1.160309 -0.85707951 -0.090802841 0
1.3470504 -0.83578312 -0.089426138 0
1.6247026 -0.80411911 -0.090030156 0
2.5876539 -0.6943022 -0.14203613 0
3.4400525 -0.59709293 -0.14101197 0
5.1705561 -0.39974275 -0.14125766 0
10.334281 0.18913868 -0.14084084 0
0.89266384 -0.8647384 -0.090409078 0
1.0097064 -0.84838957 -0.090869851 0
1.1504261 -0.82873338 -0.089777656 0
1.3459553 -0.80142128 -0.08988113 0
1.6242793 -0.7625441 -0.090592541 0
2.5622923 -0.63151956 -0.14042498 0
3.4178073 -0.51201856 -0.14021753 0
5.1379871 -0.27173856 -0.14050329 0
10.298231 0.44906011 -0.14076978 0
0.88586801 -0.84283751 -0.089683153 0
1.0060407 -0.82294828 -0.09091007 0
1.1479601 -0.79945982 -0.09010265 0
1.336965 -0.76817846 -0.089336701 0
1.6222655 -0.7209596 -0.091092937 0
2.5514624 -0.56717229 -0.14033155 0
3.4139566 -0.42442474 -0.14087504 0
5.1341553 -0.13972226 -0.14125395 0
10.281343 0.71216589 -0.1413043 0
0.8798961 -0.82093954 -0.089251377 0
1.0031013 -0.79734021 -0.091212608 0
1.1381904 -0.77146465 -0.089330398 0
1.3392856 -0.73294592 -0.090527914 0
1.3473502 -0.73140115 -0.05924565 0
1.3512374 -0.73065656 -0.027354857 0
1.3458396 -0.73169053 0.0052424241 0
1.3379426 -0.73320311 0.037596773 0
1.3505101 -0.73079592 0.069022663 0
1.3430905 -0.73221707 0.10100941 0
0.88006043 -0.797795 -0.090272076 0
0.98685449 -0.7745313 -0.089075856 0
1.1335477 -0.74257612 -0.089534827 0
1.2102133 -0.72587556 -0.072954945 0
1.2025292 -0.72754943 -0.042752568 0
1.1941679 -0.72937083 -0.013014553 0
1.2129134 -0.72528738 0.014257478 0
1.2110306 -0.72569752 0.043315537 0
1.1998764 -0.7281273 0.072441682 0
1.2064894 -0.72668672 0.10100562 0
0.87430722 -0.77583259 -0.090131648 0
0.9813751 -0.74966311 -0.089124925 0
1.1241411 -0.71476829 -0.089057513 0
1.1927477 -0.69799948 -0.071445398 0
1.1992717 -0.69640493 -0.043201227 0
1.2075047 -0.69439256 -0.014962723 0
1.2088451 -0.69406497 0.014043117 0
1.2054117 -0.69490415 0.043247622 0
1.2041221 -0.69521934 0.072173208 0
1.2075205 -0.69438875 0.10100585 0
0.87272704 -0.75275749 -0.091031067 0
0.99194556 -0.72040963 -0.092428736 0
1.1253968 -0.68419999 -0.090511791 0
1.2076472 -0.66188276 -0.074740462 0
1.2130946 -0.66040474 -0.045816261 0
1.20048 -0.66382748 -0.01504009 0
1.1966901 -0.66485578 0.014356168 0
1.2068151 -0.66210854 0.042803131 0
1.2058873 -0.66236031 0.071942702 0
1.2074108 -0.66194689 0.10100608 0
0.86434227 -0.73147643 -0.090556495 0
0.97043061 -0.69979668 -0.089595146 0
1.1164532 -0.65619195 -0.090359487 0
1.2025596 -0.63047916 -0.075262211 0
1.211176 -0.62790614 -0.046641473 0
1.2009591 -0.63095713 -0.015923893 0
1.1946831 -0.63283122 0.01387758 0
1.2114936 -0.62781131 0.042156085 0
1.2031397 -0.63030595 0.071799912 0
1.2078366 -0.62890339 0.10100635 0
0.84924823 -0.71248794 -0.088697501 0
0.96276468 -0.6754458 -0.089584626 0
1.1050584 -0.6290133 -0.089903913 0
1.2024075 -0.59724683 -0.076634593 0
1.1928445 -0.60036737 -0.045556162 0
1.2081068 -0.5953871 -0.017550906 0
1.2099382 -0.59478945 0.012066433 0
1.2133619 -0.59367228 0.041599087 0
1.2051171 -0.59636265 0.071520664 0
1.1998606 -0.59807795 0.1010064 0
0.84418505 -0.69039667 -0.089191608 0
0.96303284 -0.64826828 -0.091281824 0
1.0997882 -0.59979218 -0.090631299 0
1.2032553 -0.56311589 -0.078292899 0
1.2081825 -0.5613693 -0.048721898 0
1.2116109 -0.56015402 -0.018920204 0
1.2159358 -0.55862093 0.010854745 0
1.2144688 -0.55914098 0.041032314 0
1.2113283 -0.56025422 0.071113437 0
1.2057331 -0.56223756 0.10100689 0
0.84164417 -0.667198 -0.090390988 0
0.95372242 -0.62425631 -0.091201179 0
1.0969167 -0.56939292 -0.09191712 0
1.2062086 -0.52751881 -0.08041323 0
1.2057852 -0.52768105 -0.049821261 0
1.1987239 -0.53038645 -0.018752886 0
1.2071842 -0.52714503 0.010667482 0
1.207305 -0.52709877 0.04082913 0
1.2021434 -0.52907634 0.071063004 0
1.2141321 -0.52448297 0.10100748 0
0.82672286 -0.64878112 -0.088890262 0
0.94185126 -0.60130602 -0.090720855 0
1.0778748 -0.54521447 -0.0904774 0
1.2101294 -0.49067706 -0.082838707 0
1.2070791 -0.49193496 -0.051505733 0
1.2085487 -0.49132892 -0.020952364 0
1.1939154 -0.49736318 0.010760063 0
1.2023214 -0.49389684 0.040473498 0
1.2003851 -0.49469528 0.070805572 0
1.2138101 -0.48915926 0.10100785 0
0.82379299 -0.62543523 -0.090267219 0
0.92966813 -0.57861638 -0.090289526 0
1.0692735 -0.51688182 -0.091006823 0
1.2035084 -0.45752206 -0.0838136 0
1.2034158 -0.45756301 -0.052690286 0
1.2055744 -0.45660844 -0.02197033 0
1.1994309 -0.45932516 0.0093606729 0
1.208041 -0.45551774 0.03952663 0
1.2059175 -0.45645675 0.070337974 0
1.2082291 -0.45543453 0.10100808 0
0.82613409 -0.59922022 -0.093037702 0
0.92292118 -0.55346674 -0.091104217 0
1.0519214 -0.49248537 -0.090081044 0
1.2280761 -0.40921298 -0.089777701 0
1.4849365 -0.2877892 -0.090867452 0
1.8607854 -0.11011669 -0.091044255 0
3.1213491 0.48578098 -0.14031924 0
4.6937437 1.2290881 -0.14068052 0
9.4032841 3.4553964 -0.14083277 0
0.80639762 -0.58337903 -0.090745024 0
0.91229248 -0.53001064 -0.091243662 0
1.0435535 -0.46385846 -0.090909518 0
1.2194326 -0.37521973 -0.090782233 0
1.4594449 -0.2542595 -0.089909501 0
1.8411061 -0.061911847 -0.091367774 0
3.0852661 0.56511396 -0.14048582 0
4.6403151 1.3488197 -0.14089099 0
9.294054 3.6941879 -0.14098656 0
0.79888207 -0.56158793 -0.091464303 0
0.90107763 -0.50680786 -0.091385417 0
1.0293652 -0.4380416 -0.090797789 0
1.1887256 -0.35261926 -0.088418283 0
1.4500533 -0.21253911 -0.091184951 0
1.8130887 -0.017940428 -0.090940692 0
3.0409019 0.64020723 -0.14015561 0
4.5863729 1.4686296 -0.1412358 0
9.1704588 3.9258473 -0.14092146 0
0.78840131 -0.54127085 -0.091602392 0
0.89128548 -0.48273298 -0.091963597 0
1.0099776 -0.41520092 -0.089823656 0
1.1707866 -0.32370552 -0.088176243 0
1.2110074 -0.30082121 -0.061738584 0
1.2200726 -0.29566339 -0.029949939 0
3.0047441 0.71975917 -0.14063208 0
4.5076079 1.574842 -0.14041686 0
9.0412884 4.1543651 -0.1408616 0
0.7819345 -0.51847863 -0.092865221 0
0.86969423 -0.46557131 -0.090088271 0
0.98862177 -0.39387408 -0.088566743 0
1.1631569 -0.28865299 -0.089741088 0
1.1390873 -0.30316368 -0.054346878 0
1.204125 -0.26395473 -0.030161535 0
2.958312 0.79358369 -0.14043987 0
4.4358807 1.6843581 -0.14011259 0
8.9040051 4.3780346 -0.14073601 0
0.76313537 -0.50317919 -0.091183238 0
0.84392905 -0.45164827 -0.087346114 0
0.98772812 -0.35993198 -0.091382332 0
1.1416825 -0.26173851 -0.089169927 0
1.1468159 -0.25846443 -0.057868216 0
1.1799115 -0.23735574 -0.029549366 0
2.91293 0.86797899 -0.1404849 0
4.3794003 1.8033068 -0.14079677 0
8.7681217 4.6024723 -0.14080149 0
0.75523317 -0.48100021 -0.092363752 0
0.8395769 -0.42416134 -0.08949963 0
0.97572023 -0.33241484 -0.092211865 0
1.1221478 -0.23373792 -0.089031883 0
1.138115 -0.22297767 -0.059292156 0
1.1545097 -0.21192941 -0.028867906 0
2.8713472 0.94504076 -0.14100799 0
4.3150988 1.9179792 -0.14122076 0
8.6272793 4.8239408 -0.14088656 0
0.73618823 -0.46638462 -0.090803884 0
0.8298828 -0.39974603 -0.090616368 0
0.94965875 -0.31455752 -0.090360947 0
1.1104987 -0.2001631 -0.090372033 0
1.1441914 -0.17619976 -0.062988512 0
1.1427668 -0.17721286 -0.029811492 0
2.8191843 1.0151091 -0.14079833 0
4.2253962 2.0152516 -0.1403652 0
8.4724836 5.0359163 -0.14073317 0
0.72553092 -0.44592342 -0.091539927 0
0.82649082 -0.37021026 -0.093381919 0
0.93675244 -0.28752145 -0.091268934 0
1.0818095 -0.17873839 -0.08889202 0
1.0945498 -0.16918412 -0.058786679 0
1.0992852 -0.16563281 -0.027171379 0
1.1035031 -0.16246971 0.0046270508 0
1.0998367 -0.16521928 0.037026007 0
1.1052576 -0.16115388 0.068877578 0
1.1146476 -0.15411201 0.10101014 0
1.0930651 -0.17029741 0.13278686 0
1.1024382 -0.1632683 0.16514495 0
1.100644 -0.16461381 0.19714276 0
0.71505433 -0.4250783 -0.092478283 0
0.80321705 -0.35541853 -0.091607742 0
0.920555 -0.26270661 -0.091647394 0
1.0505031 -0.16003117 -0.087009363 0
1.1017137 -0.11956832 -0.062987767 0
1.0975753 -0.12283811 -0.029481759 0
1.1035694 -0.11810198 0.0027311391 0
1.1000918 -0.1208497 0.03575645 0
1.0951656 -0.12474212 0.068547055 0
1.0984421 -0.12215325 0.10101033 0
1.0948411 -0.12499848 0.13346377 0
1.1014702 -0.1197606 0.16634639 0
1.1059481 -0.11622259 0.19950239 0
0.69768798 -0.40965644 -0.091675498 0
0.77606738 -0.34444818 -0.088936843 0
0.89541733 -0.24515411 -0.090255089 0
1.0284553 -0.13447228 -0.086864822 0
1.1032045 -0.072284132 -0.066603892 0
1.1095829 -0.06697765 -0.033636514 0
1.1043478 -0.071332961 0.0006294793 0
1.0989625 -0.075813264 0.034476694 0
1.099381 -0.075465173 0.067749277 0
1.0956304 -0.078585476 0.10101105 0
1.0993788 -0.075466901 0.13427307 0
1.1030542 -0.072409242 0.16779393 0
1.1070979 -0.069045037 0.20164396 0
0.68602675 -0.38947311 -0.092575453 0
0.7619288 -0.32301471 -0.089532234 0
0.88126838 -0.21852323 -0.091327913 0
0.99988282 -0.11466667 -0.085617535 0
1.0954868 -0.030957606 -0.069053672 0
1.0990071 -0.02787533 -0.035255302 0
1.1034738 -0.023964372 -0.0014740729 0
1.0996357 -0.027324941 0.032987241 0
1.1025499 -0.024773326 0.066928014 0
1.0989146 -0.027956273 0.10101206 0
1.105976 -0.021773484 0.13520256 0
1.0988228 -0.02803668 0.16898675 0
1.1060894 -0.021674301 0.20374218 0
1.1023903 -0.024913039 0.23770016 0
1.0792345 -0.045187857 0.37099424 0
0.65964395 -0.38254079 -0.089387543 0
0.74638349 -0.30263832 -0.089918353 0
0.85463208 -0.2029222 -0.089784093 0
0.96320844 -0.10290411 -0.082887344 0
1.066077 -0.0081439875 -0.068277963 0
1.0938245 0.017416392 -0.037720416 0
1.1039298 0.026725207 -0.003865836 0
1.0964292 0.019815836 0.031631764 0
1.0965776 0.019952569 0.066336423 0
1.0987186 0.021924768 0.101013 0
1.1097481 0.032084975 0.13610683 0
1.105969 0.028603587 0.17099883 0
1.1002696 0.023353491 0.20554447 0
1.1034164 0.026252303 0.24096483 0
1.0384226 -0.033618536 0.36672959 0
0.65256524 -0.35793731 -0.091885544 0
0.73655945 -0.27655157 -0.091947816 0
0.83449584 -0.18165675 -0.089778699 0
0.84437233 -0.17208698 -0.064069308 0
0.83202291 -0.18405291 -0.034272391 0
0.83972681 -0.17658821 -0.0080419239 0
0.84768844 -0.16887382 0.018548058 0
0.83921301 -0.17708603 0.046632454 0
0.83817619 -0.17809066 0.073866367 0
0.83715707 -0.17907813 0.10100364 0
0.84027082 -0.17606112 0.12820901 0
0.8364709 -0.17974296 0.15519716 0
0.84470886 -0.17176089 0.1831701 0
1.0960286 0.071753651 0.24338196 0
1.0115616 -0.01009002 0.29880831 0
1.0126013 -0.0090827011 0.33256099 0
0.99319744 -0.027883794 0.36127743 0
0.63262695 -0.34557173 -0.090731941 0
0.71520299 -0.26141807 -0.091103621 0
0.81493235 -0.15978339 -0.090031974 0
0.8378762 -0.13640121 -0.06695696 0
0.84383547 -0.13032803 -0.039678011 0
0.84021336 -0.13401935 -0.010875104 0
0.84314507 -0.13103166 0.016908469 0
0.84326577 -0.13090858 0.044983171 0
0.83486342 -0.1394715 0.073288046 0
0.83527064 -0.13905653 0.10100441 0
0.83890575 -0.13535199 0.12885529 0
0.84280276 -0.13138053 0.15699562 0
0.84109288 -0.13312301 0.18489631 0
0.84179664 -0.13240585 0.21309604 0
1.1053662 0.13619927 0.28535172 0
0.94665444 -0.025544669 0.2908031 0
0.94718897 -0.024999943 0.32308716 0
0.95053029 -0.021594789 0.35640997 0
0.61759782 -0.32832417 -0.091172434 0
0.69635749 -0.24390045 -0.091033734 0
0.79854441 -0.13436475 -0.091188543 0
0.84112388 -0.088723153 -0.072114252 0
0.83492577 -0.095366985 -0.041910622 0
0.83789557 -0.09218362 -0.013547262 0
0.84155685 -0.088259012 0.014824504 0
0.83385235 -0.096517593 0.04412923 0
0.84354836 -0.086124331 0.072252154 0
0.84101152 -0.088843554 0.10100555 0
0.83594602 -0.094273359 0.12949945 0
0.83955908 -0.090400547 0.15827137 0
0.8377946 -0.092291862 0.18680111 0
0.83984888 -0.090089828 0.21582617 0
1.1016247 0.19051161 0.28963837 0
0.92846435 0.004898462 0.29212779 0
0.92200178 -0.0020289088 0.32295316 0
0.92654604 0.002842102 0.35661268 0
0.59635645 -0.31790242 -0.089772992 0
0.68311322 -0.22007009 -0.092675708 0
0.7767185 -0.11451498 -0.091188215 0
0.84935218 -0.032608714 -0.078726612 0
0.84137189 -0.041607764 -0.047065888 0
0.84635782 -0.035985317 -0.017959541 0
0.83846867 -0.044881668 0.012726294 0
0.83933365 -0.043906238 0.042145476 0
0.83950764 -0.043710019 0.071585804 0
0.83946711 -0.043755736 0.10100648 0
0.83399171 -0.049930122 0.13023342 0
0.84266269 -0.040152159 0.1601015 0
0.83684736 -0.046709921 0.18911596 0
0.83642155 -0.047190096 0.21857502 0
1.1022034 0.2525219 0.29504827 0
1.0964665 0.24605277 0.33310542 0
0.58517355 -0.29603758 -0.091734491 0
0.65260488 -0.21601847 -0.089494728 0
0.73132157 -0.12260732 -0.085302137 0
0.85012341 0.018371854 -0.084217899 0
0.83825719 0.0042905542 -0.050886203 0
0.83746457 0.0033499335 -0.02019438 0
0.83364928 -0.0011775758 0.010635117 0
0.84141743 0.0080407597 0.040252384 0
0.83891189 0.0050674411 0.070736855 0
0.83663023 0.0023598408 0.10100742 0
0.8392545 0.0054740044 0.13129061 0
0.8441605 0.011295829 0.16196145 0
0.84360105 0.010631952 0.19246034 0
0.83529121 0.00077090005 0.22189495 0
0.84848738 0.016430411 0.25475854 0
1.0999476 0.31483188 0.34074137 0
0.5641166 -0.28574041 -0.090584956 0
0.64136726 -0.18922868 -0.092050783 0
0.72204161 -0.088439554 -0.088673823 0
0.84723753 0.067971736 -0.08934743 0
0.8439244 0.063832551 -0.056684587 0
0.83926362 0.058009658 -0.024243882 0
0.84034979 0.059366617 0.0070667285 0
0.84353441 0.063345343 0.038200054 0
0.84225535 0.061747346 0.06966906 0
0.84131938 0.060578022 0.10100879 0
0.84439766 0.064423829 0.13242856 0
0.84555668 0.065871745 0.16396874 0
0.83567166 0.053522144 0.19442734 0
0.84069216 0.05979434 0.22647545 0
0.83722168 0.055458579 0.25744924 0
1.0998791 0.38360491 0.34820765 0
1.1000654 0.38383761 0.39013982 0
0.54483682 -0.27353141 -0.09011092 0
0.61721629 -0.17827496 -0.090879984 0
0.70599496 -0.061436024 -0.090551592 0
0.7266804 -0.034212615 -0.067602493 0
0.72383881 -0.03795233 -0.038671482 0
0.73001099 -0.02982929 -0.01150622 0
0.72825634 -0.032138493 0.016931156 0
0.72979856 -0.030108895 0.044887636 0
0.72555232 -0.035697188 0.07312458 0
0.7288214 -0.031394865 0.10100474 0
0.72745335 -0.033195343 0.12895787 0
0.73417902 -0.024343934 0.15745959 0
0.73169786 -0.027609255 0.18547662 0
0.7250759 -0.036324169 0.21275456 0
0.72789252 -0.032617357 0.24146491 0
0.7267288 -0.034148898 0.26962438 0
0.72691065 -0.033909585 0.29824457 0
0.72670919 -0.034174707 0.32697937 0
0.52635497 -0.26038304 -0.090020277 0
0.59720665 -0.16208395 -0.091089137 0
0.68071151 -0.046229925 -0.090088286 0
0.7258426 0.016384635 -0.073248394 0
0.94894511 0.32591537 -0.088509314 0
0.84855825 0.18663946 -0.034331713 0
0.84100294 0.17615715 0.00053604902 0
0.83543348 0.16843024 0.034531768 0
0.84172601 0.17716041 0.067539237 0
0.84160537 0.17699304 0.10101144 0
0.84115386 0.1763666 0.1344609 0
0.84237534 0.17806128 0.16804406 0
0.84405625 0.18039337 0.20185255 0
0.84412354 0.18048671 0.23564763 0
0.84301472 0.17894831 0.26936015 0
0.84138656 0.17668954 0.30304334 0
1.095677 0.52949005 0.40877619 0
0.509749 -0.2445012 -0.090756007 0
0.57108861 -0.15470657 -0.089400537 0
0.65411562 -0.03316405 -0.089335047 0
0.75906801 0.12047485 -0.087905757 0
0.92718828 0.36658481 -0.090939529 0
1.151934 0.69558817 -0.089488067 0
0.85030526 0.25403646 -0.004294483 0
0.84397697 0.24477246 0.03139386 0
0.83693242 0.23446003 0.066512674 0
0.84098959 0.24039927 0.10101292 0
0.83784753 0.23579958 0.1355506 0
0.83964032 0.23842409 0.17027409 0
0.83798772 0.23600486 0.2047938 0
0.84344143 0.24398854 0.24046618 0
0.84167081 0.24139646 0.27524751 0
0.84168309 0.24141446 0.31051657 0
1.1058098 0.62806731 0.42300057 0
1.1046566 0.62637919 0.46962446 0
0.48820916 -0.23590013 -0.089743771 0
0.55576366 -0.13144323 -0.091451712 0
0.63494384 -0.0090099834 -0.090896778 0
0.740879 0.15479341 -0.090507321 0
0.88924575 0.38420704 -0.090199716 0
1.1091573 0.72424763 -0.089505397 0
1.4834168 1.3029504 -0.089870982 0
0.84683532 0.31862953 0.028456526 0
0.83687979 0.30323568 0.065181576 0
0.83401364 0.29880384 0.10101419 0
0.84001601 0.30808511 0.13698176 0
0.84262013 0.31211165 0.17321159 0
0.84275872 0.31232598 0.20942599 0
0.8423844 0.31174722 0.24568221 0
0.84073383 0.30919495 0.28178945 0
0.83906704 0.30661765 0.31794775 0
0.83605939 0.30196705 0.35379416 0
1.1024947 0.71394557 0.4831396 0
0.47413477 -0.21552345 -0.091817506 0
0.52970701 -0.12464514 -0.08992248 0
0.60521299 -0.0011686351 -0.089386009 0
0.70883644 0.16828886 -0.08971516 0
0.85262108 0.40342274 -0.089821748 0
1.0663153 0.75288111 -0.089638717 0
1.4271047 1.3428872 -0.090138368 0
0.84870297 0.39701536 0.025320971 0
0.84894437 0.39741006 0.063178606 0
0.83632433 0.37677231 0.10101611 0
0.84343588 0.38840201 0.13860895 0
0.8381089 0.37969068 0.17576624 0
0.83431536 0.37348703 0.21273403 0
0.83865637 0.38058594 0.25093961 0
0.839894 0.38260987 0.28900439 0
0.83722687 0.37824824 0.3263354 0
0.84315962 0.38795021 0.36638299 0
1.1051544 0.81639546 0.49974704 0
0.45440817 -0.20392331 -0.09179496 0
0.51400983 -0.10069045 -0.092290826 0
0.5792855 0.012370024 -0.089121781 0
0.68222535 0.19066682 -0.090508111 0
0.81504989 0.42072514 -0.089316733 0
1.0266789 0.78727657 -0.090508558 0
1.3669277 1.3766036 -0.090015374 0
1.3720162 1.385417 -0.026686167 0
0.84940612 0.48023179 0.061517619 0
0.84320623 0.4694933 0.10101849 0
0.83955371 0.46316698 0.14006084 0
0.84080428 0.46533301 0.17926238 0
0.84241784 0.46812776 0.21871646 0
0.84052306 0.46484581 0.25779441 0
0.83542585 0.45601729 0.29611692 0
0.84156281 0.46664682 0.33733159 0
0.83981282 0.46361569 0.37679684 0
0.84696215 0.47599867 0.41975525 0
0.42945808 -0.20190272 -0.089575864 0
0.48972625 -0.091152877 -0.091620959 0
0.55658156 0.031701718 -0.090068407 0
0.64571834 0.195501 -0.088591553 0
0.78189158 0.44573537 -0.089971282 0
0.98609996 0.82099241 -0.091401391 0
1.2948045 1.3882735 -0.088261075 0
1.2866181 1.37323 -0.024246847 0
1.2930942 1.3851304 0.038119074 0
0.85237968 0.57526571 0.10102125 0
0.83922738 0.55109674 0.14184491 0
0.84149814 0.55526954 0.18293512 0
0.83500844 0.54334396 0.22305369 0
0.84198803 0.55616981 0.26530185 0
0.84130967 0.55492324 0.3065421 0
0.83907354 0.55081409 0.34748301 0
0.83723241 0.54743069 0.38861015 0
0.83666778 0.54639322 0.43037644 0
0.41112414 -0.18808183 -0.090354435 0
0.46446294 -0.083886713 -0.090609603 0
0.5288536 0.041897688 -0.089422636 0
0.61724854 0.21457341 -0.089093946 0
0.74946165 0.47284618 -0.091003828 0
0.93695009 0.83909696 -0.090753905 0
1.245816 1.4424534 -0.090011857 0
1.2419896 1.4349785 -0.025819113 0
1.2461996 1.4432027 0.03743403 0
1.2475883 1.4459152 0.1010485 0
0.8504011 0.6700272 0.14441803 0
0.83925694 0.64825755 0.18671963 0
0.83895993 0.64767736 0.22963876 0
0.83746731 0.6447615 0.27242246 0
0.84873259 0.6667679 0.3185136 0
0.8394078 0.64855224 0.3596577 0
0.8411628 0.65198058 0.40411377 0
0.83663261 0.64313096 0.44649267 0
0.39561057 -0.16793081 -0.092726253 0
0.44162866 -0.072152823 -0.090678118 0
0.50519848 0.060155902 -0.09038312 0
0.5864889 0.22934654 -0.089032687 0
0.71583623 0.49855891 -0.091949485 0
0.89211112 0.86544198 -0.091096826 0
1.1772069 1.4588151 -0.088904865 0
1.7833197 2.7203252 -0.090629123 0
4.5089421 8.3931971 -0.14104974 0
0.85314149 0.78433388 0.19268972 0
0.83825511 0.75335079 0.23624076 0
0.83786219 0.75253302 0.28145662 0
0.83840269 0.75365788 0.32707921 0
0.83837128 0.75359255 0.37282345 0
0.8368544 0.75043541 0.41830078 0
0.84012938 0.75725168 0.46604857 0
0.37387589 -0.16020361 -0.092267491 0
0.41757199 -0.063052148 -0.090321757 0
0.48228392 0.080824763 -0.091875441 0
0.55686456 0.24664322 -0.089481331 0
0.67305249 0.50496906 -0.090520225 0
0.84709674 0.89192933 -0.091566958 0
1.1136036 1.4844656 -0.088655911 0
1.6907021 2.7675543 -0.090804704 0
4.2662787 8.4939489 -0.14079475 0
1.0707517 1.3891909 0.22253366 0
0.85170853 0.902183 0.24608074 0
0.84326416 0.88340825 0.29275391 0
0.83848238 0.87277669 0.33971399 0
0.83948827 0.87501305 0.38836992 0
0.84207296 0.88075978 0.43809274 0
0.83402187 0.86285943 0.48360687 0
0.34630346 -0.16662696 -0.088678591 0
0.39479864 -0.051098611 -0.090676628 0
0.44763288 0.074766427 -0.088691719 0
0.52451944 0.25793067 -0.089123972 0
0.6412493 0.53601211 -0.092365943 0
0.79866737 0.91102344 -0.091399379 0
1.06487 1.545188 -0.091191091 0
1.5987637 2.817064 -0.091212265 0
4.0271282 8.6020699 -0.14088358 0
0.99730015 1.3842192 0.22095612 0
0.84858483 1.0299399 0.25419199 0
0.84164345 1.0134037 0.30382925 0
0.8386184 1.0061973 0.35402921 0
0.84352332 1.0178821 0.40701881 0
0.84137851 1.0127726 0.45795378 0
0.84248531 1.0154092 0.51060402 0
0.32892209 -0.14924833 -0.090715714 0
0.37330747 -0.035554495 -0.091870837 0
0.42351687 0.093057662 -0.08999031 0
0.49641031 0.27977553 -0.090486638 0
0.59914315 0.54292744 -0.091267668 0
0.74807096 0.9244085 -0.090784483 0
0.99519211 1.5574136 -0.090154625 0
1.5023495 2.8565054 -0.091229238 0
3.7858033 8.7056122 -0.14100866 0
0.92791122 1.3850725 0.21977876 0
0.84928113 1.18366 0.26417983 0
0.84023505 1.1604884 0.31651366 0
0.84105009 1.1625762 0.37108558 0
0.83551496 1.1483979 0.42360511 0
0.83646154 1.1508224 0.4786889 0
0.84257251 1.1664758 0.53699321 0
0.30656236 -0.14417341 -0.09005297 0
0.34351656 -0.041974749 -0.088764213 0
0.39403558 0.097738057 -0.089005284 0
0.43676659 0.21591285 -0.079135321 0
0.43373156 0.2075192 -0.047768358 0
0.43509132 0.21127978 -0.018192394 0
0.9337244 1.5902741 -0.090792902 0
1.4038835 2.8905218 -0.091098525 0
3.5372212 8.7903728 -0.14081958 0
0.85838509 1.3819194 0.21850072 0
0.84665298 1.3494737 0.27497545 0
0.84063512 1.3328309 0.33159497 0
0.83825666 1.3262534 0.38888702 0
0.83906472 1.3284881 0.44748271 0
0.83822829 1.3261747 0.50577915 0
0.84184241 1.33617 0.5668745 0
0.28541639 -0.13590857 -0.090237506 0
0.32148463 -0.027696695 -0.089942925 0
0.37068972 0.11992851 -0.091191448 0
0.40566036 0.22484758 -0.078886889 0
0.40394107 0.21968928 -0.047969434 0
0.40345907 0.21824315 -0.017837455 0
0.86641955 1.6072178 -0.090367772 0
1.3057516 2.925302 -0.091128878 0
3.2882056 8.873064 -0.14073581 0
0.79530603 1.393863 0.21806173 0
0.84777462 1.5512791 0.28834006 0
0.8388201 1.5244138 0.3484433 0
0.84229636 1.5348434 0.41208389 0
0.8366859 1.5180109 0.47254503 0
0.84052324 1.5295238 0.53748673 0
0.842448 1.5352983 0.602355 0
0.26644608 -0.12032297 -0.092166848 0
0.29958501 -0.011849191 -0.091531642 0
0.33976024 0.11965647 -0.089602299 0
0.38060272 0.25334612 -0.081631042 0
0.38028201 0.25229636 -0.050758753 0
0.38165423 0.25678816 -0.020645795 0
0.72578675 1.3832376 -0.072459273 0
0.72701406 1.387255 -0.014716854 0
0.72596753 1.3838294 0.043276854 0
0.72647005 1.3854742 0.10104129 0
0.72565001 1.3827901 0.15878037 0
0.72631413 1.3849638 0.21668817 0
0.8424772 1.7652006 0.30248645 0
0.83371836 1.7365303 0.36717209 0
0.83463985 1.7395465 0.43461505 0
0.83733773 1.7483778 0.50342822 0
0.83507299 1.7409644 0.57033205 0
0.2420426 -0.12250939 -0.090267681 0
0.27370232 -0.0086739324 -0.090740286 0
0.30831364 0.11577407 -0.087542064 0
0.36668333 0.32564762 -0.090838067 0
0.44208494 0.59676093 -0.091432445 0
0.55440849 1.0006301 -0.091819353 0
0.66414922 1.3952129 -0.072056033 0
0.66199988 1.3874848 -0.013879335 0
0.66122329 1.3846924 0.043679237 0
0.65952736 1.3785946 0.10104056 0
0.65665013 1.3682492 0.15800452 0
0.66032457 1.3814611 0.21566986 0
0.8114742 1.9249332 0.31260836 0
0.81266844 1.9292274 0.38389993 0
0.8110916 1.9235575 0.45450085 0
0.80968475 1.918499 0.52530164 0
0.81518728 1.9382839 0.60056162 0
0.22134916 -0.1117129 -0.091361307 0
0.24752796 -0.0074634221 -0.089699663 0
0.2830916 0.13415852 -0.089402966 0
0.33171818 0.32779983 -0.089873575 0
0.39716864 0.5884375 -0.089149155 0
0.49705252 0.98619622 -0.089147381 0
0.59590131 1.379833 -0.069796063 0
0.59532309 1.3775303 -0.012637271 0
0.59645295 1.3820298 0.044124302 0
0.59852672 1.3902879 0.10104044 0
0.59682256 1.3835015 0.15799154 0
0.59723729 1.3851531 0.21508405 0
0.76621461 2.0580566 0.32080346 0
0.76964515 2.0717177 0.39573875 0
0.76661742 2.0596604 0.46855715 0
0.76645678 2.0590208 0.54284775 0
0.1977382 -0.11266318 -0.090003841 0
0.22567557 0.011804257 -0.092278548 0
0.2576558 0.15428367 -0.091654129 0
0.3010605 0.34766176 -0.091592766 0
0.35559985 0.59064728 -0.088276632 0
0.44687378 0.99729389 -0.089071803 0
0.55285668 1.4694722 -0.075197168 0
0.55201715 1.4657321 -0.016166082 0
0.55324209 1.4711893 0.042339753 0
0.55150241 1.4634385 0.10104216 0
0.5526458 1.4685326 0.15968165 0
0.55198914 1.4656072 0.2182449 0
0.71459383 2.1900489 0.32895339 0
0.71212691 2.1790581 0.40425038 0
0.71235245 2.1800632 0.48078752 0
0.7137754 2.1864026 0.55855918 0
0.17809071 -0.095189065 -0.092775054 0
0.19863835 0.0085376836 -0.090623923 0
0.22576872 0.14549473 -0.089157499 0
0.26488522 0.3429592 -0.089895301 0
0.3203302 0.62285155 -0.091107465 0
0.39747441 1.012284 -0.089487828 0
0.41609153 1.1062653 -0.04837558 0
0.4128423 1.0898628 0.0022951534 0
0.41588026 1.1051986 0.05132626 0
0.41565076 1.1040401 0.10103132 0
0.4147425 1.0994551 0.15060005 0
0.41661733 1.1089196 0.20067245 0
0.41602841 1.1059465 0.25041622 0
0.41439119 1.0976818 0.2996771 0
0.41437346 1.0975921 0.34973407 0
0.40615138 1.0560863 0.394124 0
0.29569826 0.49850681 0.35033265 0
0.27005261 0.36904481 0.3618679 0
0.15327345 -0.10380623 -0.090014018 0
0.17358655 0.014296565 -0.090832107 0
0.19681318 0.14933899 -0.088912986 0
0.23285826 0.35890952 -0.091280751 0
0.27737707 0.61774749 -0.089607485 0
0.34841049 1.0307443 -0.090349071 0
0.36791015 1.1441178 -0.050365034 0
0.88100278 4.1273012 -0.14072841 0
1.763414 9.2577467 -0.14077611 0
0.58358788 2.3980944 0.26118124 0
0.58211261 2.3895171 0.34084609 0
0.58026427 2.3787704 0.42015943 0
0.26174036 0.52683359 0.28085589 0
0.27050215 0.57777578 0.32452404 0
0.26976156 0.57346994 0.36167675 0
0.2384403 0.39136425 0.3649196 0
0.13118181 -0.098202497 -0.090452872 0
0.14678603 0.0085867383 -0.088977046 0
0.16731876 0.14910474 -0.088113554 0
0.19785734 0.35809889 -0.090395607 0
0.23922548 0.64120632 -0.091615014 0
0.29643083 1.0326974 -0.089767061 0
0.39613065 1.7150042 -0.090093099 0
0.74949259 4.133276 -0.1400415 0
1.5036907 9.294714 -0.14067651 0
0.50674206 2.4719856 0.26402035 0
0.50439179 2.4559014 0.3445794 0
0.50597042 2.4667048 0.42718115 0
0.22171947 0.52140206 0.27949357 0
0.27707139 0.90020901 0.3694419 0
0.19954684 0.36966124 0.35972998 0
0.10930619 -0.089813024 -0.091606416 0
0.12292633 0.023274932 -0.091125883 0
0.13869026 0.15416256 -0.088316061 0
0.16494222 0.37213233 -0.091739617 0
0.19715665 0.63960868 -0.0907804 0
0.24652621 1.0495236 -0.090708651 0
0.32794833 1.7255709 -0.090195723 0
0.62136978 4.1618471 -0.14057212 0
1.2454896 9.3439083 -0.14101733 0
0.4259266 2.5390837 0.26662314 0
0.42432886 2.5258179 0.34868875 0
0.4252947 2.5338373 0.43240136 0
0.42470512 2.5289419 0.51533467 0
0.23106197 0.92112416 0.37150237 0
0.16597503 0.38070789 0.36095762 0
0.086222507 -0.091100723 -0.09080901 0
0.097142808 0.023957644 -0.090733893 0
0.11085933 0.16847757 -0.090165772 0
0.13046873 0.37508574 -0.0916337 0
0.15538941 0.63765472 -0.090030797 0
0.19480594 1.0529544 -0.090510286 0
0.25937077 1.733222 -0.090214349 0
0.49231046 4.1875186 -0.14111729 0
0.98422688 9.3704424 -0.1409805 0
0.34121668 2.595566 0.26881829 0
0.33891851 2.5713518 0.35121685 0
0.33968544 2.5794325 0.43577981 0
0.34080121 2.5911882 0.52152169 0
0.3403984 2.5869443 0.60602337 0
0.17320307 0.82534271 0.40065527 0
0.13090137 0.37964419 0.36005095 0
0.063595749 -0.088334531 -0.091001041 0
0.071900114 0.031143341 -0.091693364 0
0.081020094 0.16235569 -0.088761158 0
0.094806604 0.36070707 -0.089209042 0
0.1148939 0.64971 -0.091047369 0
0.14260328 1.0483747 -0.089685 0
0.19116522 1.7470524 -0.090787433 0
0.36023948 4.179584 -0.14024539 0
0.72249568 9.3914928 -0.14096978 0
0.25327039 2.6405818 0.27057385 0
0.25230342 2.6266696 0.35457808 0
0.13333149 0.91497809 0.27925441 0
0.13391155 0.92332381 0.32515442 0
0.13339315 0.91586536 0.36946824 0
0.12503935 0.79567641 0.39514509 0
0.096280642 0.38191453 0.35994291 0
0.040775396 -0.088588744 -0.090671785 0
0.046249155 0.035282884 -0.092197679 0
0.051861752 0.16229656 -0.088479497 0
0.061209142 0.3738288 -0.090782322 0
0.073695861 0.65640455 -0.09155532 0
0.090778925 1.0429957 -0.088909186 0
0.12236509 1.7577934 -0.091264211 0
0.23031245 4.2006521 -0.14088145 0
0.45995298 9.397439 -0.14076141 0
0.16307668 2.6791003 0.27212793 0
0.16306002 2.6787233 0.35786018 0
0.086838968 0.95383424 0.28263152 0
0.086496495 0.94608408 0.32749707 0
0.086591467 0.94823331 0.37363854 0
0.076471649 0.71922082 0.38214114 0
0.061588068 0.38240388 0.35966402 0
0.018164925 -0.081118017 -0.092107542 0
0.020377301 0.035760555 -0.092133917 0
0.023182055 0.18393436 -0.091885544 0
0.026809666 0.37557903 -0.090875722 0
0.03203154 0.65144807 -0.090822704 0
0.039444089 1.0430491 -0.088763021 0
0.052901085 1.7539749 -0.090844207 0
0.09928792 4.2045674 -0.14087126 0
0.19766755 9.4019108 -0.14067298 0
0.0710513 2.7128413 0.2735647 0
0.070892714 2.7044635 0.35945699 0
0.070736073 2.6961882 0.44524834 0
0.070666119 2.6924927 0.53156298 0
0.032584913 0.68068248 0.3755801 0
0.026937399 0.38232711 0.35944366 0
-0.0047208252 -0.086340159 -0.090966739 0
-0.0054422598 0.028043065 -0.090649553 0
-0.0063605784 0.17364219 -0.090163268 0
-0.0076548839 0.37885395 -0.091305412 0
-0.0093564587 0.64863807 -0.09046375 0
-0.011836109 1.041786 -0.088614918 0
-0.016243719 1.7406111 -0.089879401 0
-0.031750429 4.1991959 -0.14058267 0
-0.064667158 9.4181328 -0.14101169 0
-0.022474624 2.7285194 0.27426803 0
-0.022428768 2.7212489 0.36059028 0
-0.022413878 2.7188883 0.4473137 0
-0.022489175 2.7308264 0.53597695 0
-0.0093406048 0.64612454 0.36985463 0
-0.0076651257 0.38047782 0.35905406 0
-0.027503554 -0.086702317 -0.090981416 0
-0.031173967 0.029629622 -0.091040052 0
-0.035617013 0.17044976 -0.089729644 0
-0.041672166 0.36236492 -0.089078836 0
-0.050779313 0.65101153 -0.090832718 0
-0.064148866 1.0747528 -0.091784157 0
-0.085681461 1.7572179 -0.091132112 0
-0.11902118 2.813904 -0.076174207 0
-0.11895367 2.811764 0.012550162 0
-0.11902154 2.8139155 0.10107902 0
-0.11869683 2.8036242 0.18941808 0
-0.1166861 2.7398946 0.27488127 0
-0.11647824 2.7333071 0.36155838 0
-0.11651901 2.7345989 0.44894722 0
-0.11625934 2.7263689 0.53566325 0
-0.050480258 0.6415332 0.36922783 0
-0.042105608 0.3761026 0.3583526 0
-0.050551683 -0.082711846 -0.092045151 0
-0.056661412 0.024786625 -0.090340622 0
-0.064810254 0.16816261 -0.089565895 0
-0.076050699 0.36593416 -0.089793272 0
-0.092441507 0.65432459 -0.091434546 0
-0.11580136 1.0653331 -0.091118552 0
-0.154405 1.7445505 -0.090459429 0
-0.21379484 2.7894933 -0.075233571 0
-0.2141227 2.7952621 0.01283581 0
-0.21421672 2.7969162 0.10107866 0
-0.21432734 2.7988625 0.18940559 0
-0.2113107 2.7457857 0.27535036 0
-0.21063472 2.7338924 0.36189014 0
-0.2109988 2.7402983 0.44986862 0
-0.077836901 0.39736179 0.26337516 0
-0.076417908 0.37239519 0.29272294 0
-0.076896288 0.38081196 0.32659277 0
-0.076674551 0.3769106 0.35879225 0
-0.0728283 -0.091368049 -0.090537809 0
-0.082594857 0.027457509 -0.091181211 0
-0.093156494 0.15595654 -0.087887518 0
-0.11072013 0.36964586 -0.09065152 0
-0.13245885 0.63413173 -0.089404352 0
-0.16697256 1.0540454 -0.090398602 0
-0.22349703 1.7417545 -0.090599366 0
-0.42443055 4.1864276 -0.14079598 0
-0.8504777 9.3699627 -0.1406991 0
-0.30601251 2.7456856 0.27565178 0
-0.30467919 2.7294633 0.36203724 0
-0.30526355 2.736573 0.45013198 0
-0.30517051 2.735441 0.53797656 0
-0.11297354 0.39706209 0.29653925 0
-0.1137493 0.40650037 0.3312265 0
-0.11141376 0.37808505 0.35946685 0
-0.095414862 -0.093938202 -0.090447538 0
-0.10883094 0.030683193 -0.092253037 0
-0.12356906 0.16758493 -0.090262555 0
-0.14467107 0.36360064 -0.090256549 0
-0.1752836 0.64795905 -0.091486223 0
-0.21812122 1.0458758 -0.090090521 0
-0.2911298 1.7240491 -0.089813791 0
-0.5545826 4.1712508 -0.14066505 0
-1.1117076 9.3463612 -0.14072666 0
-0.39852014 2.7215931 0.27494118 0
-0.3994095 2.7298543 0.36269075 0
-0.39893973 2.7254908 0.44992819 0
-0.39997616 2.7351182 0.5389865 0
-0.14986178 0.41181698 0.29909459 0
-0.1490228 0.40402368 0.3313691 0
-0.1461504 0.37734202 0.35994589 0
-0.11831155 -0.09412834 -0.090989403 0
-0.1336038 0.020630274 -0.090930961 0
-0.15326895 0.16820458 -0.090947382 0
-0.17875376 0.35945204 -0.090250425 0
-0.21558154 0.63582104 -0.09064088 0
-0.26995715 1.0438752 -0.090483688 0
-0.35985619 1.7185104 -0.09000387 0
-0.68501884 4.158649 -0.1408087 0
-1.3716931 9.3117037 -0.14064942 0
-0.49125135 2.7045472 0.27466914 0
-0.48888698 2.6868043 0.36044869 0
-0.24083185 0.82530862 0.27194849 0
-0.24244212 0.83739263 0.31645489 0
-0.18425275 0.40071848 0.29812351 0
-0.18638209 0.41669765 0.33417252 0
-0.18186417 0.38279369 0.36177039 0
-0.14073482 -0.098206609 -0.090820752 0
-0.15910242 0.017291341 -0.091003083 0
-0.18269329 0.16563395 -0.091228537 0
-0.21514824 0.36971501 -0.092417248 0
-0.25557965 0.62395316 -0.089944236 0
-0.32085168 1.0343924 -0.090294696 0
-0.42664573 1.6996393 -0.089373522 0
-0.81525451 4.1432643 -0.14097662 0
-1.6338174 9.2904987 -0.14104277 0
-0.5807488 2.6686604 0.27361703 0
-0.58120996 2.6715603 0.36032724 0
-0.27902773 0.77139777 0.26748165 0
-0.27830267 0.76683849 0.30889729 0
-0.27876127 0.76972228 0.35138303 0
-0.21633817 0.37719741 0.3616662 0
-0.16228786 -0.10684827 -0.089786924 0
-0.18489969 0.015370402 -0.09147016 0
-0.20958833 0.14881435 -0.089253329 0
-0.24678805 0.3498818 -0.09042386 0
-0.29608959 0.61636025 -0.089872189 0
-0.36927241 1.0119188 -0.088993348 0
-0.49346027 1.6831636 -0.089030094 0
-0.94374335 4.1169782 -0.1407845 0
-1.892277 9.2438755 -0.14099304 0
-0.66993713 2.6370347 0.27286884 0
-0.66810596 2.6271369 0.35829446 0
-0.66798192 2.6264665 0.44440585 0
-0.66876745 2.6307123 0.53144532 0
-0.29025957 0.58484858 0.36416695 0
-0.2509875 0.37258008 0.36191541 0
-0.18465334 -0.11052635 -0.089943804 0
-0.20818418 0.00086930732 -0.089642964 0
-0.23644429 0.13465348 -0.087827869 0
-0.27728426 0.3279908 -0.088238694 0
-0.33839345 0.6172834 -0.090938844 0
-0.42239526 1.0149503 -0.090234511 0
-0.56390697 1.6848705 -0.0901042 0
-0.61844999 1.9430785 -0.038557593 0
-0.62063295 1.9534125 0.031041386 0
-0.61724454 1.9373717 0.10105579 0
-0.75531149 2.5909846 0.27153644 0
-0.75210387 2.5757995 0.3559128 0
-0.75535464 2.5911887 0.44275934 0
-0.75188893 2.5747821 0.52691829 0
-0.28707534 0.37434211 0.36356241 0
-0.20651422 -0.1165503 -0.089712076 0
-0.23624697 0.0085122325 -0.092205353 0
-0.27176058 0.15789023 -0.092825718 0
-0.31416965 0.33627203 -0.090509646 0
-0.37263253 0.58217973 -0.08781188 0
-0.47189108 0.99968308 -0.089855812 0
-0.52325845 1.2157452 -0.057479147 0
-0.61864096 1.616945 -0.023743926 0
-0.62001193 1.6227117 0.038547434 0
-0.6196211 1.621068 0.10104699 0
-0.8367421 2.5343266 0.26979074 0
-0.83275706 2.5175645 0.35317284 0
-0.83448267 2.524823 0.43832958 0
-0.83388364 2.5223033 0.52303028 0
-0.83228153 2.5155644 0.6074627 0
-0.22946657 -0.1182901 -0.090541698 0
-0.2589426 -0.006878939 -0.090434693 0
-0.29534194 0.13070038 -0.089435242 0
-0.34635612 0.32351986 -0.089873113 0
-0.41308984 0.57575482 -0.088235237 0
-0.52059585 0.98209769 -0.089371003 0
-0.58015835 1.2072272 -0.057870436 0
-0.64639765 1.4575934 -0.01686292 0
-0.64811277 1.4640763 0.041965865 0
-0.64587665 1.4556241 0.1010426 0
-0.91815788 2.4847715 0.26847458 0
-0.91199106 2.4614627 0.35071579 0
-0.91104102 2.4578719 0.43400592 0
-0.91108412 2.4580348 0.51793975 0
-0.90842652 2.4479897 0.60085511 0
-0.25121379 -0.12491515 -0.090423562 0
-0.28642455 -0.0042298702 -0.092302509 0
-0.32571697 0.13044527 -0.090732582 0
-0.34538415 0.19785479 -0.072820626 0
-0.45713162 0.58087045 -0.090190612 0
-0.57340515 0.97939914 -0.090449192 0
-0.71637326 1.4694238 -0.078083374 0
-0.71536529 1.4659691 -0.018099001 0
-0.71198905 1.454397 0.041784726 0
-0.71020252 1.4482737 0.10104289 0
-0.98744547 2.3985267 0.26546669 0
-0.98261738 2.3819783 0.34668159 0
-0.98211443 2.3802547 0.42879996 0
-0.98459601 2.3887603 0.51243842 0
-0.98155344 2.3783317 0.59417403 0
-0.27119726 -0.13701859 -0.089204051 0
-0.30760989 -0.022996631 -0.09008766 0
-0.35121483 0.11354724 -0.089300804 0
-0.37741834 0.19560054 -0.073833041 0
-0.39319593 0.24500623 -0.050463442 0
-0.39413196 0.24793723 -0.02025876 0
-0.39481828 0.25008646 0.010015259 0
-0.39661875 0.25572446 0.040125281 0
-0.39371353 0.246627 0.070805013 0
-0.39625618 0.25458899 0.10100768 0
-0.3943423 0.24859598 0.13125807 0
-0.39794818 0.25988737 0.162094 0
-0.39648879 0.25531748 0.19238439 0
-0.39576283 0.25304416 0.22277507 0
-0.39948714 0.2647064 0.25489742 0
-0.39615852 0.25428322 0.28450713 0
-0.39597231 0.25370017 0.31549847 0
-0.39917922 0.26374224 0.34880084 0
-0.29217908 -0.14540991 -0.088922136 0
-0.33473003 -0.022921111 -0.091716506 0
-0.38147691 0.11164621 -0.090577178 0
-0.43140593 0.25537375 -0.084202163 0
-0.4313848 0.25531307 -0.053017754 0
-0.42968252 0.25041273 -0.021527341 0
-0.43356523 0.26158968 0.0083956737 0
-0.43010145 0.25161865 0.039813697 0
-0.43250862 0.25854805 0.070256807 0
-0.43197161 0.25700226 0.10100807 0
-0.43034557 0.25232139 0.13160582 0
-0.42973682 0.25056902 0.16215047 0
-0.43056592 0.2529557 0.1929816 0
-0.4279533 0.24543491 0.22305155 0
-0.43275207 0.25924888 0.25552198 0
-0.42912692 0.2488133 0.28524324 0
-0.43246305 0.2584168 0.31813142 0
-0.43227902 0.25788715 0.34972632 0
-0.31722397 -0.14284369 -0.091245539 0
-0.35921803 -0.031133916 -0.091830187 0
-0.40776151 0.097998053 -0.089936651 0
-0.47575197 0.27886143 -0.089425914 0
-0.48510358 0.30373803 -0.060475562 0
-0.51107484 0.37282494 -0.034856889 0
-0.51093906 0.37246385 -0.00073365658 0
-0.51293033 0.3777608 0.032979365 0
-0.50986075 0.36959544 0.067216963 0
-0.51264018 0.37698892 0.10101207 0
-1.1991309 2.2031438 0.18046221 0
-1.1928825 2.1865225 0.25911519 0
-1.1620138 2.1044073 0.33221591 0
-1.1563157 2.0892498 0.40814513 0
-1.1603831 2.1000698 0.48689485 0
-1.1619008 2.1041069 0.56559527 0
-0.33771351 -0.15303263 -0.090811856 0
-0.38365328 -0.039601948 -0.09201815 0
-0.43586311 0.089310199 -0.090286173 0
-0.5045259 0.25884667 -0.088276185 0
-0.5142864 0.2829465 -0.05945221 0
-0.5163191 0.28796557 -0.027655846 0
-0.51456851 0.28364316 0.0049587879 0
-0.51820451 0.29262069 0.036582645 0
-0.50916678 0.27030554 0.069373474 0
-0.51239389 0.27827361 0.10100944 0
-1.2713802 2.1522996 0.2589598 0
-1.197742 1.9704788 0.32439539 0
-1.1987492 1.9729655 0.39946863 0
-1.1972095 1.9691637 0.47420084 0
-1.1992513 1.9742053 0.55049098 0
-0.35572001 -0.16871205 -0.089220084 0
-0.40356758 -0.058638003 -0.090163775 0
-0.46502075 0.082735807 -0.091144718 0
-0.50800371 0.18161884 -0.078457288 0
-0.50928217 0.18455985 -0.048622448 0
-0.51090789 0.18829992 -0.0188819 0
-0.51385504 0.19507983 0.01068739 0
-0.50963587 0.18537357 0.041341122 0
-0.51198912 0.19078723 0.071052946 0
-0.51189148 0.19056275 0.10100713 0
-1.3573937 2.135653 0.2597962 0
-1.2219704 1.8241098 0.31560805 0
-1.2259412 1.8332443 0.38841817 0
-1.2295789 1.8416131 0.46191266 0
-1.2281494 1.8383245 0.53444731 0
-1.2280275 1.8380442 0.60783005 0
-0.38025984 -0.16948029 -0.091210954 0
-0.42401749 -0.075383157 -0.08886721 0
-0.48606828 0.058051858 -0.088863634 0
-0.51283967 0.1156216 -0.0702767 0
-0.51090431 0.11145976 -0.040907968 0
-0.50941646 0.10826018 -0.012010766 0
-0.51088548 0.11141923 0.016106965 0
-0.51179636 0.11337796 0.044356883 0
-0.51458007 0.11936417 0.072542839 0
-0.51084125 0.1113241 0.10100505 0
-1.4351351 2.0989411 0.25972196 0
-1.2540455 1.709523 0.30921632 0
-1.2362549 1.6712658 0.37501505 0
-1.2415681 1.6826913 0.44553879 0
-1.2362533 1.671262 0.51349211 0
-1.2385088 1.6761127 0.58425474 0
-0.40214744 -0.17669067 -0.091844372 0
-0.45825595 -0.063588709 -0.093662761 0
-0.51464099 0.050070677 -0.089715041 0
-0.51162475 0.043990765 -0.061128382 0
-0.50772291 0.036125455 -0.0328102 0
-0.50944215 0.039590988 -0.0062339809 0
-0.51109409 0.042920981 0.020417312 0
-0.51065516 0.042036209 0.047373813 0
-0.51059014 0.041905198 0.074206457 0
-0.51278132 0.046322141 0.1010034 0
-1.2523482 1.5371208 0.29829144 0
-1.2418984 1.5160565 0.36217597 0
-1.2368294 1.5058384 0.42665753 0
-1.2399727 1.5121746 0.49355665 0
-1.2387623 1.5097346 0.55961484 0
-0.42067236 -0.19062379 -0.091002308 0
-0.47312951 -0.091261238 -0.09029948 0
-0.53431875 0.024641309 -0.087468304 0
-0.53270435 0.021583352 -0.059675086 0
-0.52872139 0.014038954 -0.031630654 0
-0.53681743 0.029374275 -0.0065494757 0
-0.5365169 0.028805051 0.02048588 0
-0.53263682 0.021455441 0.047760408 0
-0.52948457 0.015484605 0.07455311 0
-0.53083545 0.018043313 0.10100292 0
-1.2538009 1.3874598 0.28901601 0
-1.2433257 1.3676181 0.34989491 0
-1.2381814 1.3578739 0.41132733 0
-1.2422636 1.3656063 0.4753592 0
-1.2397542 1.3608532 0.53789878 0
-1.2403431 1.3619685 0.60191798 0
-0.43777034 -0.20672306 -0.089733548 0
-0.49495137 -0.10473177 -0.090035491 0
-0.55649495 0.0050407979 -0.086380802 0
-0.56181681 0.014533196 -0.060760487 0
-0.55769169 0.0071753594 -0.032544527 0
-0.55997747 0.011252437 -0.0060969796 0
-0.55610913 0.0043526622 0.02133278 0
-0.56154168 0.014042411 0.047420304 0
-0.56540096 0.020926032 0.07404279 0
-0.5551874 0.0027086472 0.10100286 0
-1.2910855 1.3152974 0.16255072 0
-1.2970661 1.3259649 0.22469245 0
-1.2510154 1.2438262 0.28009495 0
-1.243122 1.2297471 0.33857429 0
-1.2398164 1.2238512 0.39765239 0
-1.2371658 1.2191234 0.45692566 0
-1.2386267 1.2217293 0.51771736 0
-1.2380763 1.2207475 0.57834089 0
-0.46254712 -0.2093403 -0.091885231 0
-0.5230183 -0.10758737 -0.092213072 0
-0.58455843 -0.004035857 -0.087395109 0
-0.58452094 -0.0040989188 -0.060088132 0
-0.58325112 -0.0062356261 -0.032680739 0
-0.58694959 -1.2364572e-05 -0.0064452123 0
-0.58757901 0.0010467503 0.020432839 0
-0.58095855 -0.010093238 0.047941469 0
-0.58640343 -0.000931349 0.074238755 0
-0.58651078 -0.00075068732 0.10100322 0
-1.3552109 1.2927158 0.16284223 0
-1.3556246 1.2934117 0.22474313 0
-1.2465632 1.1098976 0.27182338 0
-1.2367702 1.0934193 0.32724988 0
-1.2401478 1.0991027 0.38503805 0
-1.2364557 1.0928903 0.44150475 0
-1.2330415 1.0871453 0.49809414 0
-1.2403202 1.0993929 0.55874956 0
-0.48091668 -0.22313085 -0.091421373 0
-0.54064214 -0.12817296 -0.090636797 0
-0.61026162 -0.017484512 -0.087713249 0
-0.61411381 -0.011359837 -0.061387304 0
-0.61286372 -0.013347413 -0.033777256 0
-0.60870051 -0.019966509 -0.0059153344 0
-0.60994333 -0.017990556 0.02075264 0
-0.61293858 -0.013228443 0.047289234 0
-0.6094045 -0.018847253 0.074315146 0
-0.60992509 -0.018019523 0.10100316 0
-1.2457824 0.99293417 0.26481265 0
-1.2341644 0.97446269 0.31764358 0
-1.2389611 0.98208898 0.37329164 0
-1.2396028 0.9831093 0.4285669 0
-1.240633 0.98474711 0.48438141 0
-1.239405 0.98279482 0.53991616 0
-0.50258487 -0.2317867 -0.092377685 0
-0.56637824 -0.13582215 -0.092059515 0
-0.64011532 -0.02489927 -0.089354567 0
-0.63643587 -0.030434217 -0.06083991 0
-0.63576132 -0.031448927 -0.033454034 0
-0.63194066 -0.037196424 -0.0057428833 0
-0.63774806 -0.02846029 0.020311626 0
-0.64119279 -0.023278382 0.046967771 0
-0.63384342 -0.03433403 0.074308932 0
-0.63785839 -0.028294291 0.10100334 0
-1.2509705 0.89401239 0.25919753 0
-1.2350099 0.87000281 0.30949339 0
-1.2414124 0.87963408 0.36338675 0
-1.2452824 0.88545579 0.41747105 0
-1.2428169 0.88174683 0.47035557 0
-1.2393997 0.8766064 0.52311438 0
-0.52397996 -0.24125233 -0.093281589 0
-0.58199561 -0.15858218 -0.09017878 0
-0.66182697 -0.044825461 -0.088663094 0
-0.65888321 -0.049020197 -0.060462493 0
-0.66846216 -0.035370555 -0.035231475 0
-0.66912037 -0.034432676 -0.0079135727 0
-0.66428918 -0.041316893 0.020007158 0
-0.65752226 -0.050959554 0.047603127 0
-0.66238213 -0.044034388 0.074120872 0
-0.66989064 -0.033334997 0.10100374 0
-1.2936903 0.85555631 0.25866172 0
-1.2463611 0.78811389 0.30377555 0
-1.2398267 0.77880257 0.3535457 0
-1.2427005 0.78289765 0.40535918 0
-1.2416666 0.78142422 0.45662814 0
-1.2416192 0.78135687 0.50853056 0
-0.53454798 -0.2657319 -0.090373643 0
-0.60439539 -0.17135891 -0.090693496 0
-0.68461466 -0.062972158 -0.088433482 0
-0.6936391 -0.050779011 -0.063118197 0
-0.68913454 -0.056865241 -0.034606177 0
-0.68992633 -0.055795457 -0.0074314605 0
-0.68876004 -0.057371285 0.019917348 0
-0.6858992 -0.061236646 0.04721877 0
-0.68582869 -0.061331954 0.074128374 0
-0.68767762 -0.058833744 0.10100345 0
-1.3444377 0.8285349 0.25920415 0
-1.2418079 0.68986875 0.29608247 0
-1.2391458 0.68627185 0.34472108 0
-1.2417163 0.68974489 0.39465293 0
-1.2365152 0.68271762 0.44296679 0
-1.2374659 0.68400198 0.49319154 0
-0.54876947 -0.28442851 -0.089038067 0
-0.63117713 -0.17876801 -0.092634358 0
-0.70350039 -0.086037487 -0.087292902 0
-0.72042567 -0.064336389 -0.063878708 0
-0.71198893 -0.075153738 -0.034520287 0
