# .PCD v0.7 - Point Cloud Data file format
VERSION 0.7
FIELDS x y z intensity
SIZE 4 4 4 4
TYPE F F F F
COUNT 1 1 1 1
WIDTH 1314
HEIGHT 1
VIEWPOINT 0 0 0 1 0 0 0
POINTS 1314
DATA ascii
0.8145982 -0.16012391 -0.089953549 0
0.843808 -0.13035604 0.15706253 0
0.84613389 -0.12798575 0.18539989 0
0.83952945 -0.1347163 0.21279371 0
1.1013038 0.13205925 0.28467348 0
0.94960684 -0.022535887 0.29139575 0
0.94772953 -0.024449077 0.32321402 0
0.95906329 -0.012898769 0.35870543 0
0.6227265 -0.32282665 -0.092770554 0
0.84487408 -0.084703237 0.12980449 0
0.83833766 -0.091709763 0.15818791 0
0.8380881 -0.091977268 0.18683122 0
0.83942908 -0.090539843 0.21576869 0
1.0947182 0.18310836 0.28845447 0
0.92779988 0.0041861865 0.29199085 0
0.92671758 0.0030260419 0.32408977 0
0.93047273 0.0070512625 0.35769725 0
0.59675324 -0.31745496 -0.089900114 0
0.67461127 -0.22965744 -0.090262167 0
0.77561957 -0.11575416 -0.090916015 0
0.84646297 -0.035866763 -0.078114636 0
0.83842921 -0.044926133 -0.046547536 0
0.83943915 -0.043787267 -0.016986212 0
0.84472334 -0.037828472 0.01206726 0
0.83354652 -0.050432172 0.04255154 0
0.84255886 -0.040269222 0.071478881 0
0.83869553 -0.044625785 0.10100644 0
0.83733046 -0.046165135 0.13035071 0
0.83035821 -0.054027464 0.15923707 0
0.83250922 -0.051601913 0.18865848 0
0.83554584 -0.048177566 0.21845174 0
1.0923471 0.24140742 0.29331124 0
1.1000546 0.25009885 0.33386573 0
0.59030694 -0.28994587 -0.093427815 0
0.6631543 -0.20349976 -0.092578225 0
0.73148108 -0.12241802 -0.085342832 0
0.84828192 0.016186628 -0.083816297 0
0.84132028 0.0079254247 -0.051441748 0
0.84016037 0.0065489742 -0.020584872 0
0.84139103 0.0080094077 0.009795228 0
0.83666092 0.0023962592 0.040596019 0
0.84664744 0.014246974 0.070457749 0
0.84248209 0.0093041398 0.10100768 0
0.83986855 0.0062026712 0.13131283 0
0.84374321 0.010800634 0.16193128 0
0.84097022 0.0075100395 0.1921747 0
0.83660293 0.0023274755 0.22208506 0
0.83548498 0.0010007952 0.25239915 0
1.097448 0.31186572 0.34019598 0
0.5620749 -0.28829119 -0.089890458 0
0.6315437 -0.20150152 -0.089089863 0
0.72813499 -0.080826908 -0.090276413 0
0.84319097 0.062916309 -0.088437386 0
0.85832584 0.08182469 -0.059378047 0
0.84132618 0.060586486 -0.024551963 0
0.8373093 0.055568133 0.0074068774 0
0.83763468 0.055974517 0.038639583 0
0.84011531 0.05907372 0.069748685 0
0.83743536 0.055725608 0.10100861 0
0.8405844 0.059659753 0.13228633 0
0.84091377 0.060071263 0.16362241 0
0.84201109 0.06144217 0.19513714 0
0.84335673 0.063123256 0.2268737 0
0.83802909 0.056467328 0.25760031 0
1.1025664 0.38696221 0.34881222 0
1.0958468 0.37856713 0.38902989 0
0.54471588 -0.27369061 -0.090068437 0
0.61762774 -0.17773351 -0.091008075 0
0.7020964 -0.066566795 -0.089492522 0
0.72860456 -0.031680252 -0.068049453 0
0.73008734 -0.029728856 -0.039878566 0
0.72930551 -0.030757751 -0.011397382 0
0.73048359 -0.029207315 0.016673798 0
0.73356843 -0.025147464 0.044597548 0
0.72480422 -0.036681797 0.073153332 0
0.73482972 -0.023487534 0.10100503 0
0.73244148 -0.026630607 0.12915003 0
0.72947925 -0.030529108 0.15709749 0
0.72682619 -0.034020748 0.18491322 0
0.72783172 -0.032697346 0.21318001 0
0.73118955 -0.028278198 0.24210216 0
0.72212565 -0.040206995 0.26855466 0
0.72510678 -0.036283638 0.29775435 0
0.72868013 -0.031580772 0.32759318 0
0.53289104 -0.25131497 -0.092396326 0
0.59734786 -0.16188803 -0.091134615 0
0.67519933 -0.053877439 -0.088538937 0
0.73674607 0.031512056 -0.075869001 0
0.95063961 0.32826629 -0.088848017 0
0.85052073 0.1893622 -0.03464498 0
0.84914142 0.18744853 -0.00043698936 0
0.839665 0.17430094 0.034194868 0
0.84803164 0.18590882 0.067288503 0
0.84088522 0.17599395 0.1010114 0
0.84164107 0.17704251 0.13448031 0
0.83781761 0.17173794 0.16768074 0
0.83930755 0.17380503 0.2012843 0
0.84401155 0.18033138 0.23562975 0
0.83541346 0.16840246 0.26784009 0
0.83624911 0.16956177 0.30180806 0
1.1037114 0.54063696 0.4110353 0
0.51515192 -0.23659185 -0.092792057 0
0.5754019 -0.14839241 -0.090840809 0
0.65754598 -0.028142359 -0.090334572 0
0.76711965 0.13226166 -0.089911811 0
0.9226259 0.35990599 -0.089994214 0
1.1530908 0.69728154 -0.089679487 0
0.85259348 0.25738612 -0.0045780819 0
0.83763427 0.23548737 0.031917345 0
0.83918041 0.2377508 0.066420011 0
0.83508307 0.23175266 0.10101261 0
0.8429836 0.24331823 0.13576283 0
0.83639514 0.23367348 0.17000593 0
0.83498639 0.23161116 0.20442151 0
0.8397761 0.23862281 0.23985927 0
0.83938742 0.23805383 0.27477416 0
0.84177572 0.24155 0.31053966 0
1.0981939 0.6169185 0.42078075 0
1.1038601 0.62521333 0.46935844 0
0.49364361 -0.22749701 -0.091870926 0
0.55556905 -0.13174418 -0.091384225 0
0.6311751 -0.01483747 -0.089756168 0
0.73533386 0.14621916 -0.089072295 0
0.88410902 0.37626436 -0.089094199 0
1.1099759 0.72551352 -0.089646123 0
1.4800309 1.2977149 -0.089435108 0
0.85108918 0.32520714 0.02809185 0
0.8388052 0.30621281 0.065099135 0
0.84067005 0.30909637 0.10101454 0
0.83880824 0.30621758 0.13692993 0
0.84032285 0.30855957 0.17301442 0
0.83995187 0.30798593 0.20906433 0
0.84141195 0.31024352 0.24551496 0
0.83949006 0.30727175 0.28152165 0
0.84217238 0.31141928 0.31875169 0
0.84342963 0.31336346 0.35602552 0
1.0980446 0.70706457 0.48159567 0
0.46873182 -0.22435907 -0.089616083 0
0.53264701 -0.11983725 -0.090983935 0
0.60743904 0.0024716591 -0.090087287 0
0.71139938 0.17248002 -0.090405561 0
0.85450405 0.40650192 -0.090243571 0
1.0632299 0.74783546 -0.089086674 0
1.4242733 1.3382568 -0.089758955 0
0.85377556 0.40531066 0.024868304 0
0.85616851 0.40922394 0.062856644 0
0.84051836 0.3836309 0.10101634 0
0.83518511 0.37490931 0.13824032 0
0.83986008 0.38255444 0.17592271 0
0.8400228 0.38282052 0.21349947 0
0.83881849 0.38085106 0.25096864 0
0.83891338 0.38100627 0.28878459 0
0.83962077 0.38216308 0.32698053 0
0.83850354 0.38033608 0.36491564 0
1.0986671 0.80578667 0.49740416 0
0.45317656 -0.20605657 -0.091271363 0
0.50875688 -0.10978881 -0.090312041 0
0.58382159 0.02022687 -0.090612821 0
0.68329239 0.19251493 -0.090808012 0
0.81654739 0.42331901 -0.089666776 0
1.0230473 0.78098649 -0.089830615 0
1.3650513 1.3733535 -0.089752994 0
1.3728584 1.3868759 -0.026764592 0
0.85302651 0.48650244 0.061349269 0
0.8411119 0.46586576 0.10101837 0
0.8411172 0.46587494 0.14013372 0
0.83658361 0.45802262 0.17886892 0
0.84076887 0.46527162 0.21848571 0
0.84056979 0.46492687 0.25780314 0
0.83965641 0.46334484 0.2971063 0
0.83915079 0.46246901 0.33665335 0
0.83645582 0.45780125 0.37569302 0
0.83209711 0.45025173 0.41415378 0
0.43008247 -0.20075533 -0.089853518 0
0.48931497 -0.091908604 -0.091458894 0
0.55120546 0.021822486 -0.088219903 0
0.64902145 0.2015709 -0.089562707 0
0.78430206 0.45016506 -0.090560667 0
0.98190248 0.81327909 -0.090581723 0
1.2972119 1.3926971 -0.088613175 0
1.2931877 1.3853023 -0.024886688 0
1.2884938 1.3766766 0.038342845 0
0.84840578 0.56796318 0.10102101 0
0.83970159 0.55196816 0.14186804 0
0.83861643 0.54997414 0.18265411 0
0.84046304 0.55336744 0.22385211 0
0.84185416 0.55592376 0.26527572 0
0.84215009 0.55646759 0.3067477 0
0.83745909 0.54784733 0.34700817 0
0.84421378 0.56025988 0.39101145 0
0.84064794 0.55370718 0.43194529 0
0.41400415 -0.18245587 -0.091697894 0
0.46574509 -0.081382126 -0.091139562 0
0.52824897 0.040716562 -0.089204572 0
0.6205731 0.22106782 -0.090119265 0
0.74754977 0.46911147 -0.090513475 0
0.9385736 0.84226841 -0.091086455 0
1.2462984 1.4433959 -0.090085872 0
1.2434704 1.4378712 -0.025970405 0
1.2419902 1.4349799 0.037648816 0
1.2507036 1.4520009 0.10104869 0
0.85423642 0.67751926 0.1446142 0
0.83323532 0.63649458 0.18610366 0
0.8380723 0.64594346 0.22950247 0
0.84488952 0.65926057 0.27394378 0
0.83774322 0.64530057 0.31569362 0
0.83547586 0.64087135 0.35844454 0
0.84294033 0.65545291 0.40475512 0
0.83871698 0.64720279 0.44735453 0
0.39075947 -0.17802754 -0.090345226 0
0.44421315 -0.066773683 -0.091802157 0
0.50405204 0.05776969 -0.089948036 0
0.59498405 0.24702767 -0.091789417 0
0.70710593 0.48038831 -0.089593418 0
0.88885891 0.85867316 -0.090395875 0
1.1859361 1.4769833 -0.090313993 0
1.7850934 2.7240169 -0.090819784 0
4.5018625 8.3784628 -0.14066967 0
0.84790975 0.77344507 0.19212662 0
0.84217483 0.761509 0.23687403 0
0.84249091 0.7621668 0.28245485 0
0.8365317 0.74976379 0.32657403 0
0.8430618 0.76335508 0.37434617 0
0.840666 0.75836867 0.4197478 0
0.84272963 0.76266366 0.46717983 0
0.367632 -0.17408589 -0.089031912 0
0.42179966 -0.053652491 -0.092263021 0
0.47457099 0.063676268 -0.088785104 0
0.55393577 0.24013165 -0.088477932 0
0.6744284 0.50802821 -0.09091226 0
0.84422171 0.88553721 -0.090912752 0
1.118291 1.4948874 -0.089454792 0
1.6867018 2.7586603 -0.090350695 0
4.269022 8.5000477 -0.14095025 0
1.0670071 1.3808656 0.22210816 0
0.8494221 0.89709944 0.24569075 0
0.84233499 0.88134223 0.29254234 0
0.83874261 0.87335533 0.3397882 0
0.83410215 0.86303788 0.38652384 0
0.84042346 0.87709242 0.4374316 0
0.83749926 0.87059075 0.4852041 0
0.35204795 -0.15294203 -0.09183336 0
0.39679641 -0.046339419 -0.091648795 0
0.44889832 0.077781111 -0.089229055 0
0.52705669 0.26397493 -0.090045206 0
0.63613802 0.5238356 -0.090822555 0
0.7973448 0.90787274 -0.091080435 0
1.0614343 1.5370035 -0.090570547 0
1.5973085 2.8135972 -0.091037236 0
4.0211926 8.5879297 -0.14052702 0
0.99929839 1.3889794 0.22119677 0
0.85027701 1.0339711 0.25449789 0
0.83763856 1.0038631 0.30286285 0
0.83989167 1.0092306 0.35441387 0
0.83990097 1.0092527 0.40570304 0
0.8384909 1.0058935 0.45672721 0
0.84346861 1.0177517 0.51108265 0
0.32953048 -0.14768997 -0.091071315 0
0.37154055 -0.040080514 -0.090955697 0
0.42359468 0.093257099 -0.090025492 0
0.50009137 0.28920451 -0.091909133 0
0.59781748 0.53953177 -0.090841629 0
0.74720562 0.92219192 -0.090562381 0
0.99939847 1.5681882 -0.090963237 0
1.5019788 2.855556 -0.091181777 0
3.7825961 8.6973963 -0.14080361 0
0.93005157 1.3905549 0.22005309 0
0.84949124 1.1841984 0.26422024 0
0.84137291 1.163403 0.31680587 0
0.84178859 1.1644678 0.37132305 0
0.84179693 1.1644893 0.42603374 0
0.84211218 1.1652966 0.48124352 0
0.84370059 1.1693654 0.53757769 0
0.30932647 -0.13652912 -0.091780834 0
0.34758237 -0.030730572 -0.091016255 0
0.39880189 0.11091951 -0.091308959 0
0.43559909 0.21268395 -0.078652807 0
0.43284488 0.20506707 -0.0474636 0
0.43868467 0.22121742 -0.019178754 0
0.93130803 1.5835915 -0.090296127 0
1.4003024 2.8806183 -0.090608247 0
3.5387747 8.7946692 -0.14092579 0
0.8589108 1.3833733 0.2185728 0
0.84617954 1.3481643 0.27487803 0
0.83958572 1.3299289 0.33130676 0
0.83766061 1.3246047 0.38868204 0
0.84147239 1.3351467 0.44847816 0
0.84165543 1.3356528 0.50743616 0
0.8449378 1.3447304 0.56858957 0
0.28707182 -0.13094202 -0.09135031 0
0.32423472 -0.019445803 -0.091581024 0
0.36740699 0.11007968 -0.089485236 0
0.40493438 0.22266939 -0.078564219 0
0.40568492 0.22492114 -0.048613969 0
0.40491813 0.22262064 -0.018268144 0
0.86897749 1.6148922 -0.090933301 0
1.3012874 2.9119089 -0.090471633 0
3.2879128 8.8721857 -0.14071429 0
0.79337066 1.3880565 0.21777645 0
0.85128975 1.5618253 0.28911787 0
0.8407771 1.5302854 0.34902135 0
0.83941251 1.5261912 0.41101748 0
0.83940101 1.5261567 0.4737522 0
0.84182853 1.5334396 0.53816539 0
0.84133458 1.5319579 0.6016916 0
0.26803574 -0.11511949 -0.093323372 0
0.30135188 -0.0060656932 -0.092670672 0
0.341526 0.12543634 -0.090595581 0
0.38321191 0.26188686 -0.082886077 0
0.38406453 0.26467767 -0.052271817 0
0.37841886 0.24619785 -0.019612191 0
0.72567677 1.3828776 -0.072432958 0
0.72532177 1.3817155 -0.014447203 0
0.72667158 1.3861339 0.043220829 0
0.72638899 1.3852091 0.10104128 0
0.72885424 1.3932784 0.15903598 0
0.72548264 1.3822422 0.21655554 0
0.84514666 1.7739387 0.30312571 0
0.83369434 1.7364516 0.3671644 0
0.8381803 1.7511356 0.43603197 0
0.83382916 1.7368932 0.50173992 0
0.83321756 1.7348909 0.56928796 0
0.24090353 -0.12660506 -0.089364059 0
0.27300465 -0.011182513 -0.090249859 0
0.31338453 0.13400701 -0.090652399 0
0.36489818 0.31922892 -0.089901783 0
0.43939105 0.5870747 -0.090257414 0
0.55059046 0.9869023 -0.090489365 0
0.65810317 1.3734739 -0.070478581 0
0.65992421 1.3800216 -0.013518697 0
0.66082162 1.3832483 0.043714087 0
0.66039801 1.3817251 0.10104065 0
0.66271275 1.390048 0.15853189 0
0.65958846 1.3788142 0.21554179 0
0.81140721 1.9246922 0.31259087 0
0.81211054 1.9272211 0.38370544 0
0.81330991 1.9315336 0.45546889 0
0.81021559 1.9204078 0.52558017 0
0.8138364 1.9334269 0.59973276 0
0.22208478 -0.10878351 -0.092003308 0
0.25173882 0.009305153 -0.092956118 0
0.28235343 0.13121906 -0.088904865 0
0.33272749 0.33181921 -0.090455972 0
0.39706638 0.58803028 -0.089100085 0
0.49813446 0.99050468 -0.089562021 0
0.59837461 1.3896821 -0.070505999 0
0.59915203 1.3927779 -0.013369156 0
0.59458071 1.3745739 0.044303034 0
0.59410465 1.372678 0.10103992 0
0.59538227 1.3777661 0.15785371 0
0.5974865 1.3861454 0.21513173 0
0.76590294 2.0568154 0.32071394 0
0.76809841 2.0655582 0.3951456 0
0.76942444 2.0708387 0.46990481 0
0.77024078 2.0740895 0.54503208 0
0.1977677 -0.11253175 -0.090032481 0
0.22345947 0.0019310449 -0.090372644 0
0.25438526 0.13971272 -0.089199789 0
0.2992214 0.33946803 -0.090412624 0
0.35824108 0.60241455 -0.089686118 0
0.45070073 1.0143437 -0.090702854 0
0.5520367 1.4658191 -0.074935444 0
0.55312091 1.4706495 -0.0164007 0
0.55314678 1.4707649 0.042349868 0
0.55185568 1.4650126 0.1010422 0
0.55301034 1.4701569 0.15972044 0
0.55076784 1.460166 0.21798494 0
0.71466976 2.1903872 0.32897764 0
0.71290106 2.1825073 0.40458053 0
0.71348202 2.1850958 0.48139063 0
0.7129395 2.1826787 0.55802262 0
0.17629828 -0.10423747 -0.09081433 0
0.19932108 0.011984143 -0.091285698 0
0.22490858 0.14115277 -0.088430025 0
0.26633492 0.35027745 -0.090943746 0
0.32145017 0.62850541 -0.091781087 0
0.39790121 1.0144384 -0.089692838 0
0.41542459 1.1028986 -0.048135642 0
0.41665867 1.1091282 0.0013808331 0
0.41504613 1.1009879 0.051426064 0
0.4157643 1.1046135 0.10103133 0
0.41589189 1.1052573 0.15073791 0
0.41647005 1.108176 0.20063712 0
0.41395941 1.0955021 0.24967125 0
0.41517985 1.1016629 0.30005616 0
0.41502184 1.1008654 0.35012421 0
0.40680435 1.0593824 0.39459643 0
0.29682592 0.50419933 0.35128674 0
0.2707856 0.37274507 0.3625786 0
0.15306866 -0.10499695 -0.089757197 0
0.17213304 0.0058457586 -0.089217015 0
0.19746754 0.15314355 -0.089547448 0
0.23310721 0.36035696 -0.091487147 0
0.27942893 0.62967724 -0.091022216 0
0.34718513 1.0236201 -0.089674331 0
0.36826229 1.1461651 -0.050510261 0
0.88192666 4.1326728 -0.14098215 0
1.7628052 9.2542076 -0.14069261 0
0.58419627 2.4016316 0.26134855 0
0.58000964 2.37729 0.33997804 0
0.57922798 2.3727455 0.41958848 0
0.2623255 0.53023583 0.28125957 0
0.27351668 0.59530276 0.3270244 0
0.27385145 0.59724909 0.36564371 0
0.23707519 0.38342729 0.36340225 0
0.13121517 -0.097974211 -0.090501927 0
0.14746377 0.013224874 -0.089859925 0
0.16760121 0.15103772 -0.088434629 0
0.19737555 0.3548018 -0.089927338 0
0.23729891 0.62802166 -0.090057708 0
0.29674882 1.0348737 -0.089972354 0
0.39461428 1.704627 -0.089359917 0
0.75187522 4.1495819 -0.14080867 0
1.5040747 9.2973404 -0.14073825 0
0.50667077 2.4714978 0.26399738 0
0.50427276 2.4550869 0.34452179 0
0.5037235 2.4513278 0.42572972 0
0.22160876 0.52064437 0.27940401 0
0.27707082 0.90020519 0.36944136 0
0.20237961 0.38904753 0.36342135 0
0.11039886 -0.08074066 -0.093548797 0
0.12255991 0.020232592 -0.090548716 0
0.13820957 0.15017131 -0.087655358 0
0.16587842 0.37990561 -0.092839934 0
0.19678392 0.63651377 -0.090416081 0
0.24699987 1.0534565 -0.091078393 0
0.32654548 1.713923 -0.089375533 0
0.62099844 4.1587639 -0.14042754 0
1.2429162 9.3225422 -0.14051695 0
0.42512536 2.5324311 0.26631081 0
0.42508677 2.5321107 0.34913221 0
0.42407003 2.5236688 0.43144479 0
0.42390451 2.5222943 0.5145517 0
0.23014465 0.91350776 0.37042382 0
0.16678694 0.38744906 0.36223689 0
0.085515767 -0.098547071 -0.089219086 0
0.097403817 0.026707683 -0.091254182 0
0.11046168 0.16428784 -0.089474089 0
0.13003686 0.37053552 -0.09099137 0
0.15538388 0.63759643 -0.090023957 0
0.19541378 1.0593591 -0.091110773 0
0.25872892 1.7264593 -0.089739464 0
0.49196249 4.1838522 -0.14094584 0
0.98288143 9.356266 -0.14064942 0
0.34121025 2.5954981 0.2688151 0
0.34001535 2.5829084 0.35202906 0
0.34015259 2.5843544 0.43624157 0
0.34027937 2.5856903 0.52087593 0
0.33953008 2.5777953 0.60473132 0
0.17303731 0.8235963 0.40036684 0
0.13152201 0.38618329 0.36128852 0
0.064060152 -0.081653029 -0.092424698 0
0.071043074 0.018812809 -0.089365296 0
0.08145 0.16854087 -0.089780159 0
0.096004374 0.37793973 -0.09163668 0
0.11448366 0.64380795 -0.09035591 0
0.14221857 1.0428398 -0.089167126 0
0.19129832 1.7489674 -0.090921633 0
0.36073261 4.1866789 -0.1405765 0
0.72198814 9.3841906 -0.1407996 0
0.253326 2.641382 0.27061123 0
0.25312918 2.6385503 0.35541132 0
0.13276209 0.90678602 0.27848744 0
0.13370305 0.92032403 0.32480282 0
0.13408644 0.92583996 0.37087399 0
0.1245449 0.78856248 0.39397269 0
0.096182592 0.38050392 0.35967648 0
0.041008081 -0.083323032 -0.091792174 0
0.046497483 0.040902529 -0.093257181 0
0.051663458 0.15780917 -0.087741263 0
0.061174933 0.37305465 -0.090673409 0
0.074038617 0.66416103 -0.092462741 0
0.090405487 1.0345449 -0.088119619 0
0.12236647 1.7578247 -0.091266401 0
0.23025614 4.199378 -0.14082207 0
0.45972699 9.3923244 -0.14064237 0
0.16336292 2.6855779 0.27243015 0
0.16288279 2.6747127 0.35757929 0
0.08699853 0.95744509 0.28296909 0
0.085793875 0.93018359 0.325636 0
0.086553112 0.94736534 0.37351638 0
0.076923043 0.72943586 0.38382223 0
0.061359599 0.37723365 0.35868895 0
0.01807018 -0.086123317 -0.091043405 0
0.020417906 0.037905846 -0.092538051 0
0.023054691 0.17720571 -0.090779476 0
0.026894715 0.38007227 -0.091507263 0
0.031943504 0.646797 -0.09027902 0
0.039460227 1.0439014 -0.088842623 0
0.052768722 1.7469823 -0.09035527 0
0.099239707 4.2020206 -0.14075266 0
0.19776438 9.4070272 -0.14079195 0
0.070984542 2.7093148 0.27340031 0
0.07079307 2.6991994 0.3590886 0
0.070846707 2.7020328 0.44579428 0
0.07077685 2.6983426 0.53224713 0
0.032726347 0.6881544 0.37680879 0
0.026824443 0.37635973 0.35831913 0
-0.0046698479 -0.094422549 -0.089248694 0
-0.00538343 0.018715654 -0.088892676 0
-0.00625929 0.15758291 -0.087523855 0
-0.0076168282 0.37282017 -0.090457447 0
-0.0093902461 0.6539951 -0.091089852 0
-0.011839319 1.042295 -0.088662438 0
-0.016403152 1.7658894 -0.091646619 0
-0.031813681 4.2092247 -0.14104955 0
-0.064616963 9.4101753 -0.14082666 0
-0.022469614 2.727725 0.27423099 0
-0.022445831 2.7239544 0.36077955 0
-0.022403894 2.7173052 0.44716585 0
-0.022442298 2.7233944 0.53510785 0
-0.0094142091 0.65779442 0.3717733 0
-0.0076098442 0.37171283 0.35740262 0
-0.027655523 -0.081885725 -0.092005752 0
-0.031179428 0.029802714 -0.091072686 0
-0.035545416 0.1681805 -0.089356504 0
-0.04221753 0.37964991 -0.091509186 0
-0.050661013 0.64726204 -0.090394296 0
-0.063827001 1.0645514 -0.090831481 0
-0.085847601 1.7624836 -0.091500424 0
-0.11860161 2.8006058 -0.075554796 0
-0.11890353 2.8101752 0.012587124 0
-0.1190694 2.8154323 0.10107907 0
-0.11875799 2.805562 0.18946326 0
-0.1168867 2.7462525 0.27517781 0
-0.11621588 2.7249908 0.36097625 0
-0.11613379 2.7223895 0.44780633 0
-0.11642143 2.7315063 0.5362643 0
-0.051041737 0.65932888 0.37215507 0
-0.042529166 0.38952711 0.36088318 0
-0.050429307 -0.084865004 -0.091586731 0
-0.057423085 0.038188014 -0.092868857 0
-0.065978184 0.18871179 -0.092948638 0
-0.076822624 0.37951592 -0.091705061 0
-0.09216734 0.64950079 -0.090869866 0
-0.11515491 1.0539587 -0.090055145 0
-0.15497155 1.7545187 -0.091157429 0
-0.21400297 2.7931554 -0.075404339 0
-0.21378151 2.789259 0.012975613 0
-0.21423829 2.7972958 0.10107867 0
-0.21370687 2.7879455 0.18915074 0
-0.21105298 2.7412515 0.27513868 0
-0.21071142 2.7352419 0.3619847 0
-0.21108316 2.7417824 0.45000747 0
-0.077818334 0.39703503 0.2633369 0
-0.076814204 0.37936774 0.29370481 0
-0.077328466 0.38841596 0.32784498 0
-0.076982923 0.38233629 0.35981616 0
-0.072755612 -0.092252403 -0.09034919 0
-0.082127966 0.021777067 -0.090107687 0
-0.093400873 0.15892974 -0.088377811 0
-0.11048552 0.3667914 -0.090249024 0
-0.13351537 0.64698607 -0.090911739 0
-0.16730484 1.0580881 -0.090777226 0
-0.22322819 1.7384837 -0.090369932 0
-0.42450136 4.1872892 -0.14083621 0
-0.8506422 9.3719645 -0.14074579 0
-0.30594209 2.7448285 0.2756117 0
-0.30436057 2.7255869 0.36176509 0
-0.30445343 2.7267168 0.44920832 0
-0.30419555 2.7235794 0.53658485 0
-0.11345139 0.40287593 0.29735938 0
-0.11401215 0.4096984 0.33175406 0
-0.11165421 0.38101032 0.36001986 0
-0.095689952 -0.091382891 -0.090993844 0
-0.10829937 0.025745425 -0.091317646 0
-0.1222892 0.15569642 -0.088297375 0
-0.14544871 0.37082413 -0.091277562 0
-0.17476252 0.6431188 -0.090917267 0
-0.21729833 1.0382321 -0.089372925 0
-0.29098138 1.7226706 -0.089716859 0
-0.5544911 4.1704011 -0.14062527 0
-1.1122198 9.351119 -0.14083792 0
-0.39914584 2.7274053 0.27521366 0
-0.39928237 2.7286737 0.36260766 0
-0.39834699 2.7199848 0.44941097 0
-0.39829716 2.719522 0.53715223 0
-0.14880367 0.40198806 0.29770476 0
-0.14830348 0.39734188 0.33026418 0
-0.14869681 0.40099552 0.36442819 0
-0.1189732 -0.089163214 -0.092054136 0
-0.13440914 0.026673827 -0.092079334 0
-0.15367745 0.17127016 -0.091455676 0
-0.17802738 0.35400096 -0.089477591 0
-0.21677627 0.64478666 -0.091697983 0
-0.27215081 1.0603373 -0.092033841 0
-0.35870445 1.709867 -0.089394279 0
-0.68526942 4.1605296 -0.14089702 0
-1.3725908 9.3184395 -0.14080743 0
-0.49112105 2.7035694 0.27462316 0
-0.48883301 2.6863992 0.36042011 0
-0.24293549 0.84109503 0.27343595 0
-0.24140951 0.82964355 0.31554079 0
-0.18634596 0.41642669 0.30035147 0
-0.18491533 0.40569058 0.33234686 0
-0.18042038 0.37195888 0.35971096 0
-0.14063229 -0.098851413 -0.090681978 0
-0.1595611 0.020175491 -0.091553144 0
-0.18161309 0.1588414 -0.090098165 0
-0.2128339 0.35516205 -0.090346344 0
-0.25645813 0.62947696 -0.09059795 0
-0.31923357 1.0242174 -0.08933302 0
-0.42579019 1.6942599 -0.088992707 0
-0.81366104 4.1332445 -0.14050429 0
-1.630839 9.2717695 -0.14060184 0
-0.58172452 2.6747959 0.27390662 0
-0.58042866 2.6666472 0.35997918 0
-0.2785503 0.76839572 0.26719776 0
-0.27908739 0.77177304 0.30948153 0
-0.27981442 0.7763446 0.3523258 0
-0.21601737 0.37518016 0.36128134 0
-0.16299035 -0.10305122 -0.090607725 0
-0.18368849 0.0088237859 -0.090216167 0
-0.20926736 0.14707962 -0.088963367 0
-0.24668556 0.34932771 -0.09034469 0
-0.29601899 0.61597866 -0.08982683 0
-0.37065184 1.0193748 -0.089701094 0
-0.49615419 1.6977246 -0.090065308 0
-0.94237977 4.1096082 -0.14043556 0
-1.8894587 9.2286415 -0.14063284 0
-0.668818 2.6309855 0.27258208 0
-0.66796112 2.6263542 0.35823876 0
-0.66659731 2.6189826 0.44369501 0
-0.66644824 2.6181767 0.52995467 0
-0.29029194 0.58502358 0.36419621 0
-0.25356549 0.38651422 0.36458528 0
-0.18553555 -0.10634992 -0.090851136 0
-0.20860581 0.0028652882 -0.090027221 0
-0.23663059 0.13553527 -0.087976016 0
-0.28049031 0.34316829 -0.090418719 0
-0.33742753 0.61271065 -0.090392627 0
-0.42189708 1.0125918 -0.090009518 0
-0.56532526 1.6915848 -0.090583958 0
-0.61861306 1.9438505 -0.038594339 0
-0.61664647 1.9345407 0.031489853 0
-0.61852801 1.9434481 0.10105597 0
-0.75432271 2.5863035 0.27131343 0
-0.75079137 2.569586 0.35546848 0
-0.75190723 2.5748687 0.44120145 0
-0.75065386 2.5689352 0.52621949 0
-0.28829566 0.380119 0.36467487 0
-0.20876826 -0.10706928 -0.091783546 0
-0.23359682 -0.0026349092 -0.090047263 0
-0.26842761 0.14387098 -0.090457417 0
-0.31270978 0.33013156 -0.089622639 0
-0.37405735 0.58817297 -0.088531859 0
-0.47192156 0.99981123 -0.089868121 0
-0.5250805 1.2234092 -0.058029864 0
-0.61772645 1.6130984 -0.023559852 0
-0.61610603 1.6062827 0.038940061 0
-0.61942941 1.6202617 0.10104697 0
-0.83503801 2.5271587 0.2694473 0
-0.83390325 2.5223856 0.35351956 0
-0.83322597 2.519537 0.4378221 0
-0.83142984 2.511982 0.52178979 0
-0.83345956 2.5205195 0.60817879 0
-0.22983265 -0.11690637 -0.090845935 0
-0.25892898 -0.0069303778 -0.090424664 0
-0.29429096 0.12672809 -0.088759921 0
-0.34503645 0.3185319 -0.089148007 0
-0.41474289 0.58200294 -0.088990591 0
-0.52161676 0.98595637 -0.089743562 0
-0.57931483 1.2040391 -0.057639886 0
-0.64711058 1.460288 -0.016992694 0
-0.64866698 1.466171 0.04191548 0
-0.64564735 1.4547575 0.10104257 0
-0.91411781 2.4695013 0.26773831 0
-0.90819132 2.4471009 0.34967637 0
-0.90997338 2.4538367 0.43361607 0
-0.91118056 2.4583993 0.51798385 0
-0.91036665 2.455323 0.60192156 0
-0.25133181 -0.12451062 -0.090513133 0
-0.28556946 -0.0071607498 -0.091727458 0
-0.32734299 0.13601854 -0.091686748 0
-0.34281743 0.18905726 -0.071532719 0
-0.45865023 0.5860756 -0.090824313 0
-0.57025772 0.9686113 -0.089400269 0
-0.71410459 1.461648 -0.0775171 0
-0.71345365 1.4594169 -0.017781256 0
-0.71339345 1.4592106 0.041668139 0
-0.71428555 1.4622684 0.10104331 0
-0.98365372 2.3855305 0.26483566 0
-0.98293644 2.3830721 0.34676132 0
-0.98198819 2.3798218 0.42875785 0
-0.97880036 2.3688955 0.51001877 0
-0.98273927 2.3823965 0.5947693 0
-0.27301568 -0.13132444 -0.090474628 0
-0.30729863 -0.023971286 -0.089894958 0
-0.35063234 0.11172321 -0.088986106 0
-0.37730795 0.19525483 -0.073782034 0
-0.39818561 0.26063088 -0.052380402 0
-0.39691243 0.25664404 -0.021111896 0
-0.39773256 0.25921217 0.0093455408 0
-0.39910686 0.26351562 0.039744522 0
-0.39852101 0.26168111 0.070437588 0
-0.39780647 0.25944355 0.10100782 0
-0.39442062 0.2488412 0.13126408 0
-0.39513081 0.25106505 0.16166231 0
-0.39453813 0.2492092 0.19193575 0
-0.39527097 0.25150397 0.22262406 0
-0.39990655 0.26601973 0.25505862 0
-0.39845911 0.26148728 0.28557032 0
-0.39749691 0.25847426 0.31632242 0
-0.39433345 0.24856821 0.34579965 0
-0.29612312 -0.13405648 -0.09147691 0
-0.33667576 -0.017320123 -0.092833303 0
-0.38045263 0.10869768 -0.090064175 0
-0.42842984 0.24680677 -0.082927622 0
-0.4299984 0.25132206 -0.052523959 0
-0.42948046 0.24983111 -0.021469874 0
-0.43243751 0.25834337 0.0086359326 0
-0.43299478 0.25994757 0.039403219 0
-0.43123293 0.25487581 0.07034719 0
-0.42945874 0.24976864 0.10100784 0
-0.43214682 0.25750652 0.13173376 0
-0.43595237 0.26846138 0.16303335 0
-0.43084121 0.25374821 0.1930403 0
-0.43019485 0.25188759 0.22368954 0
-0.42994452 0.25116697 0.25452158 0
-0.43050531 0.25278118 0.28583381 0
-0.43344805 0.26125231 0.31862494 0
-0.42931837 0.24936453 0.34802645 0
-0.31279683 -0.15462038 -0.088571213 0
-0.35840255 -0.033303287 -0.091393672 0
-0.40456766 0.089502007 -0.088444911 0
-0.4793621 0.28846493 -0.09086775 0
-0.48775065 0.3107796 -0.06135476 0
-0.51297683 0.37788454 -0.035361413 0
-0.51392877 0.38041678 -0.0013276243 0
-0.51378262 0.38002792 0.032866608 0
-0.50872916 0.36658517 0.067291729 0
-0.51507258 0.38345948 0.10101227 0
-1.2032577 2.2141216 0.18073556 0
-1.1965114 2.1961756 0.25959587 0
-1.1602683 2.0997641 0.33186886 0
-1.1596013 2.09799 0.40901724 0
-1.1602523 2.0997219 0.48685136 0
-1.159711 2.0982819 0.56472039 0
-0.33627829 -0.15657637 -0.089999162 0
-0.38261229 -0.042172339 -0.091495834 0
-0.42921236 0.072888762 -0.087374337 0
-0.50682545 0.26452461 -0.0891371 0
-0.50895035 0.26977125 -0.057790879 0
-0.50924599 0.27050117 -0.025897106 0
-0.51337445 0.28069475 0.0051811654 0
-0.51295912 0.2796692 0.037233163 0
-0.51115686 0.27521923 0.069250211 0
-0.51222229 0.27785006 0.10100943 0
-1.272867 2.1559708 0.25914443 0
-1.1983408 1.971957 0.324507 0
-1.1965433 1.9675188 0.39891979 0
-1.1990097 1.9736085 0.47476158 0
-1.1987916 1.9730704 0.55031884 0
-0.35469088 -0.17107961 -0.088671334 0
-0.40282407 -0.060348477 -0.08981248 0
-0.45838133 0.067461759 -0.088407509 0
-0.51247555 0.19190624 -0.080033727 0
-0.51092839 0.18834713 -0.049105082 0
-0.50947273 0.1849983 -0.018545887 0
-0.51190203 0.19058695 0.011029879 0
-0.50898427 0.18387452 0.041417219 0
-0.51500589 0.19772747 0.070876993 0
-0.51551938 0.19890872 0.10100739 0
-1.3543868 2.1287353 0.25944459 0
-1.2300465 1.8426888 0.31702545 0
-1.2278789 1.8377023 0.38887215 0
-1.2283647 1.83882 0.46155652 0
-1.2263246 1.8341265 0.53380376 0
-1.2287682 1.8397479 0.60813552 0
-0.38156092 -0.16668245 -0.091866829 0
-0.43179384 -0.058660772 -0.09234079 0
-0.48912555 0.064626366 -0.090055265 0
-0.51113093 0.11194697 -0.069707192 0
-0.51019722 0.10993913 -0.040711973 0
-0.5098142 0.10911551 -0.01209881 0
-0.51304358 0.11606005 0.015749158 0
-0.50731421 0.10373941 0.04485175 0
-0.50836146 0.10599151 0.072885729 0
-0.5095762 0.10860363 0.10100497 0
-1.4328841 2.0941002 0.25947312 0
-1.2463446 1.6929626 0.30793849 0
-1.2408171 1.6810763 0.37602556 0
-1.238557 1.6762161 0.44470379 0
-1.2445774 1.6891625 0.5162676 0
-1.2415385 1.6826274 0.58543605 0
-0.40066963 -0.17966965 -0.091137536 0
-0.45052958 -0.079163283 -0.090388142 0
-0.50800818 0.036700521 -0.087262101 0
-0.51117462 0.043083344 -0.060986031 0
-0.5113942 0.043525968 -0.033775706 0
-0.50758392 0.035845313 -0.0058436897 0
-0.50890064 0.038499508 0.020762356 0
-0.51518267 0.051162634 0.046899527 0
-0.51107544 0.04288331 0.074181065 0
-0.50731522 0.035303626 0.10100305 0
-1.2480528 1.5284624 0.29761517 0
-1.239287 1.5107925 0.36162716 0
-1.2388611 1.5099337 0.42719209 0
-1.2370559 1.506295 0.49263391 0
-1.241423 1.5150981 0.56059921 0
-0.42125297 -0.18952402 -0.091266654 0
-0.47407946 -0.089461833 -0.090682723 0
-0.53366053 0.023394618 -0.087236606 0
-0.53318983 0.022503052 -0.059821222 0
-0.53526127 0.026426587 -0.033267815 0
-0.53382581 0.023707662 -0.0059513729 0
-0.53594416 0.027720127 0.020571643 0
-0.52814114 0.012939963 0.048208702 0
-0.53353631 0.023159299 0.074351333 0
-0.53451759 0.025017891 0.10100314 0
-1.2514086 1.3829284 0.28865749 0
-1.2382392 1.3579836 0.34887734 0
-1.2388984 1.3592322 0.41150692 0
-1.2384695 1.3584197 0.47421664 0
-1.2407749 1.3627865 0.53825819 0
-1.2362976 1.3543057 0.60028541 0
-0.44455051 -0.19462952 -0.092680611 0
-0.49832106 -0.098721415 -0.091333322 0
-0.55745161 0.0067471596 -0.08670231 0
-0.55456674 0.0016015504 -0.058677021 0
-0.55592906 0.0040314528 -0.032123286 0
-0.56385481 0.018168245 -0.0068370458 0
-0.55668491 0.0053797099 0.021250466 0
-0.55601603 0.0041866037 0.04794633 0
-0.55706215 0.0060524675 0.074439242 0
-0.56045723 0.012108121 0.10100317 0
-1.2920249 1.316973 0.1625955 0
-1.2961527 1.3243356 0.22460538 0
-1.2487321 1.2397537 0.27976826 0
-1.2422867 1.2282572 0.33841479 0
-1.2395047 1.2232952 0.39757782 0
-1.2435319 1.2304783 0.45875588 0
-1.2421482 1.2280102 0.51890123 0
-1.2380859 1.2207646 0.57834458 0
-0.46038836 -0.21297273 -0.090987049 0
-0.52005935 -0.11256632 -0.091122173 0
-0.58851451 0.0026209091 -0.088667773 0
-0.59246266 0.0092643239 -0.062272746 0
-0.58124214 -0.009616103 -0.032221157 0
-0.58769 0.0012334917 -0.006580485 0
-0.57919264 -0.013064709 0.02158043 0
-0.58096117 -0.010088827 0.04794123 0
-0.58255851 -0.0074010757 0.074413739 0
-0.58849585 0.0025894975 0.10100333 0
-1.3589081 1.2989366 0.16301091 0
-1.3548225 1.2920623 0.22466995 0
-1.2523973 1.1197147 0.27262238 0
-1.2382002 1.0958254 0.32751131 0
-1.2354647 1.0912228 0.38396618 0
-1.2396913 1.0983346 0.44239515 0
-1.244415 1.1062832 0.50175434 0
-1.2380424 1.0955601 0.55790949 0
-0.47980049 -0.22490552 -0.090975739 0
-0.53778625 -0.13271353 -0.089626484 0
-0.61249173 -0.013938811 -0.088401668 0
-0.60712171 -0.022476699 -0.059541676 0
-0.608257 -0.020671632 -0.032766003 0
-0.61058831 -0.016965117 -0.0062462967 0
-0.60774422 -0.021486904 0.021041403 0
-0.60908294 -0.019358542 0.047626376 0
-0.60760862 -0.021702554 0.07439357 0
-0.61573493 -0.0087824725 0.10100347 0
-1.2505152 1.000459 0.26543459 0
-1.2401129 0.98392028 0.31868708 0
-1.2345368 0.97505468 0.37231994 0
-1.2389265 0.98203415 0.42838833 0
-1.2395674 0.98305303 0.48405236 0
-1.2396369 0.98316342 0.53999817 0
-0.49450171 -0.24394622 -0.089274041 0
-0.56030595 -0.14495668 -0.089993559 0
-0.63871539 -0.027005162 -0.088938959 0
-0.63772076 -0.028501417 -0.061166082 0
-0.63967419 -0.025562849 -0.03428008 0
-0.63845575 -0.027395751 -0.0068413597 0
-0.63622004 -0.030758884 0.020504588 0
-0.63711059 -0.029419269 0.047311064 0
-0.63172209 -0.037525203 0.074398026 0
-0.64070678 -0.024009433 0.10100349 0
-1.2544208 0.89920264 0.2596336 0
-1.2373728 0.87355715 0.30989203 0
-1.2445649 0.88437635 0.36405262 0
-1.2375852 0.87387675 0.41551626 0
-1.2352362 0.87034315 0.46810421 0
-1.2382798 0.87492162 0.52273321 0
-0.51574481 -0.25298706 -0.090234302 0
-0.58269036 -0.15759221 -0.090406574 0
-0.66534418 -0.039813604 -0.089669399 0
-0.66064936 -0.04650351 -0.060894582 0
-0.66292506 -0.04326072 -0.034104917 0
-0.66226745 -0.044197764 -0.0068000462 0
-0.66557825 -0.039479997 0.019850278 0
-0.66290671 -0.043286886 0.04716675 0
-0.66147232 -0.045330789 0.074157692 0
-0.65889573 -0.049002316 0.10100319 0
-1.3042346 0.87058157 0.25994602 0
-1.248719 0.79147381 0.30415893 0
-1.2338139 0.77023453 0.35232174 0
-1.2336001 0.76993006 0.40313187 0
-1.2457082 0.78718358 0.45778492 0
-1.2419635 0.78184754 0.50864351 0
-0.53567326 -0.26421151 -0.090775706 0
-0.60328871 -0.17285416 -0.090343125 0
-0.69318157 -0.051397171 -0.090800218 0
-0.6885618 -0.057639088 -0.061918784 0
-0.69029343 -0.055299427 -0.034833852 0
-0.69213277 -0.052814271 -0.0077776518 0
-0.69504547 -0.048878815 0.01917872 0
-0.68777221 -0.058705892 0.047072195 0
-0.68681097 -0.060004737 0.074089989 0
-0.68983364 -0.055920687 0.10100355 0
-1.345342 0.8297568 0.25931051 0
-1.2431611 0.69169694 0.2962949 0
-1.2421914 0.69038695 0.34531975 0
-1.2387196 0.68569607 0.39394474 0
-1.2412381 0.68909889 0.44427204 0
-1.2364727 0.68266028 0.49287704 0
-0.55702841 -0.27383921 -0.091892593 0
-0.62658733 -0.18465295 -0.091228656 0
-0.71226609 -0.074798375 -0.089635439 0
-0.7147606 -0.07159999 -0.062584169 0
-0.71849889 -0.066806883 -0.035757426 0
-0.72417086 -0.059534457 -0.0090875309 0
-0.70882779 -0.079206795 0.020284051 0
-0.71260428 -0.074364752 0.04695322 0
-0.72024179 -0.064572185 0.073704258 0
-0.71121901 -0.07614091 0.10100346 0
-1.3832058 0.78545934 0.25844541 0
-1.2427915 0.60542446 0.28985777 0
-1.2443045 0.60736448 0.33773893 0
-1.2389554 0.60050589 0.38442755 0
-1.2374958 0.59863454 0.43205634 0
-1.2379141 0.59917086 0.48051551 0
-0.57689035 -0.28572544 -0.092558391 0
-0.646074 -0.20149234 -0.091046043 0
-0.73848158 -0.088983387 -0.090507828 0
-0.74403363 -0.082223564 -0.063989438 0
-0.74603438 -0.079787642 -0.036584098 0
-0.7481243 -0.077243119 -0.0091942307 0
-0.75009727 -0.074840933 0.018242704 0
-0.74312556 -0.083329231 0.046391074 0
-0.7432723 -0.083150536 0.073706873 0
-0.74442714 -0.081744522 0.10100392 0
-1.4431733 0.7689994 0.26016834 0
-1.2469312 0.53006893 0.28460431 0
-1.2391667 0.52061552 0.3294436 0
-1.2372797 0.51831788 0.37525848 0
-1.2390584 0.52048355 0.42218494 0
-1.2395688 0.52110499 0.46922645 0
-0.58418882 -0.31240836 -0.08922065 0
-0.66807252 -0.21537641 -0.091716386 0
-0.75546634 -0.11428413 -0.089126773 0
-0.77027261 -0.097157031 -0.064760856 0
-0.76604128 -0.10205165 -0.036101062 0
-0.7674771 -0.1003907 -0.0087060463 0
-0.7759825 -0.090552181 0.01791648 0
-0.77416927 -0.092649609 0.045791529 0
-0.77147305 -0.095768422 0.07350868 0
-0.76707113 -0.10086033 0.10100392 0
-1.4807491 0.72468263 0.25949138 0
-1.2424034 0.44897762 0.27853972 0
-1.2400047 0.4462029 0.32285252 0
-1.2362149 0.4418191 0.36693695 0
-1.2409279 0.4472709 0.41317779 0
-1.2438371 0.45063606 0.45959106 0
-0.6077258 -0.32008275 -0.091319762 0
-0.68580681 -0.23423991 -0.091274284 0
-0.77477145 -0.13643143 -0.088508479 0
-0.79742455 -0.11152646 -0.065781765 0
-0.80754846 -0.10039613 -0.039464701 0
-0.7998336 -0.10887793 -0.010117261 0
-0.80103856 -0.10755315 0.017643498 0
-0.79777181 -0.11114463 0.045706697 0
-0.79843825 -0.11041197 0.073347427 0
-0.80161744 -0.1069167 0.10100445 0
-1.253274 0.3896381 0.27506647 0
-1.2435933 0.37899509 0.3172507 0
-1.2425262 0.37782195 0.36079332 0
-1.2423923 0.37767461 0.4047758 0
-1.246218 0.38188067 0.45019573 0
-0.62105298 -0.33916971 -0.090285473 0
-0.69996917 -0.25668904 -0.090002023 0
-0.80316418 -0.14883295 -0.09020143 0
-0.82853144 -0.12231991 -0.067654856 0
-0.82624376 -0.12471095 -0.038877223 0
-0.83468634 -0.11588702 -0.011858186 0
-0.83014542 -0.12063304 0.016924003 0
-0.82731187 -0.12359455 0.045192357 0
-0.82541817 -0.12557378 0.073177271 0
-0.827968 -0.1229088 0.10100463 0
-1.248389 0.31650165 0.26976004 0
-1.2455529 0.31353739 0.31180984 0
-1.2402233 0.3079671 0.35339054 0
-1.237656 0.30528381 0.39554116 0
-1.2428942 0.31075874 0.43996942 0
-0.63502747 -0.35728768 -0.089617021 0
-0.72568339 -0.26720151 -0.091981046 0
-0.82199383 -0.17149636 -0.089710243 0
-0.8590275 -0.13469544 -0.069415294 0
-0.86172837 -0.13201156 -0.041173015 0
-0.85781622 -0.1358991 -0.012037015 0
-0.85102344 -0.14264914 0.017000334 0
-0.86085093 -0.13288346 0.044407379 0
-0.85927528 -0.13444921 0.072773196 0
-0.86181551 -0.1319249 0.10100512 0
-1.2785419 0.28218248 0.14301334 0
-1.2711315 0.27481881 0.18456344 0
-1.2714441 0.27512935 0.22647867 0
-1.2509254 0.25473955 0.26580831 0
-1.2582232 0.26199141 0.30854511 0
-1.2362144 0.24012104 0.34618685 0
-1.2411474 0.24502304 0.38887104 0
-1.2363534 0.2402592 0.42962462 0
-0.6508767 -0.37343606 -0.089647897 0
-0.74267054 -0.28671101 -0.091721781 0
-0.84716982 -0.18798205 -0.090796463 0
-0.8875258 -0.14985451 -0.070809193 0
-0.88304269 -0.15409008 -0.041166414 0
-0.88539219 -0.15187034 -0.012848234 0
-0.88467991 -0.15254328 0.015791783 0
-0.88748389 -0.14989409 0.044067979 0
-0.88042778 -0.15656057 0.072777741 0
-0.89026374 -0.14726779 0.1010054 0
-1.2952987 0.23540166 0.14253506 0
-1.2929831 0.23321381 0.18394539 0
-1.2908405 0.23118964 0.22531387 0
-1.2494042 0.19204143 0.26163101 0
-1.2505854 0.19315735 0.3023023 0
-1.237433 0.18073121 0.34049907 0
-1.2402807 0.18342164 0.38172045 0
-1.2436966 0.18664888 0.42358896 0
-0.66761857 -0.38881192 -0.090050958 0
-0.75830013 -0.30736849 -0.09125077 0
-0.86241704 -0.2138584 -0.089758091 0
-0.91493011 -0.16669503 -0.072038405 0
-0.9265461 -0.15626243 -0.044734228 0
-0.91251564 -0.16886356 -0.013635701 0
-0.9130339 -0.16839811 0.01508479 0
-0.91471297 -0.16689011 0.04367169 0
-0.91043979 -0.17072794 0.072487667 0
-0.91959232 -0.16250786 0.10100572 0
-1.3208179 0.19784334 0.1423794 0
-1.3356014 0.21112075 0.18470882 0
-1.3332531 0.20901158 0.2264452 0
-1.2446984 0.12947837 0.25734845 0
-1.250306 0.13451472 0.29763198 0
-1.2359602 0.12163034 0.33471665 0
-1.2326878 0.11869135 0.37359121 0
-1.2443905 0.1292018 0.41635126 0
-0.69290882 -0.39703616 -0.092944063 0
-0.77590334 -0.32619712 -0.091409095 0
-0.8816067 -0.23597518 -0.08973638 0
-0.94337571 -0.18325296 -0.073513247 0
-0.95150852 -0.17631128 -0.045385662 0
-0.95657074 -0.17199048 -0.016537456 0
-0.95332205 -0.17476335 0.01325875 0
-0.94071364 -0.18552509 0.043332469 0
-0.94374377 -0.18293878 0.072092086 0
-0.94469297 -0.18212858 0.10100589 0
-1.4054617 0.21115544 0.14406821 0
-1.4054441 0.21114054 0.18715891 0
-1.4031566 0.20918801 0.23013335 0
-1.2461432 0.075171024 0.2541084 0
-1.2537794 0.081688672 0.29386812 0
-1.2404393 0.070302397 0.33043629 0
-1.2404847 0.07034114 0.36931869 0
-1.2404352 0.07029894 0.40847918 0
-0.68969685 -0.42927375 -0.088036232 0
-0.7938171 -0.34484968 -0.091755979 0
-0.89567471 -0.26226023 -0.088750802 0
-0.98198485 -0.19227716 -0.076873533 0
-0.98446542 -0.1902658 -0.04730377 0
-0.98133218 -0.19280633 -0.017071581 0
-0.98229045 -0.19202933 0.012473846 0
-0.98449802 -0.1902394 0.04190575 0
-0.97923785 -0.19450453 0.071629629 0
-0.97732085 -0.19605884 0.10100635 0
-1.2481349 0.023525987 0.25116619 0
-1.2508209 0.025703821 0.289415 0
-1.2383626 0.015602265 0.32529292 0
-1.2401921 0.017085705 0.36368144 0
-1.2452763 0.021208201 0.40326452 0
-0.71186358 -0.44052199 -0.090251155 0
-0.80688995 -0.36736694 -0.09105856 0
-0.92495006 -0.27647963 -0.091077365 0
-1.0107505 -0.21042702 -0.078464277 0
-1.0059226 -0.21414384 -0.047541324 0
-1.0094881 -0.21139893 -0.018057844 0
-1.0127548 -0.20888409 0.01153321 0
-1.0139278 -0.20798108 0.041342746 0
-1.0134571 -0.20834348 0.071204811 0
-1.0096817 -0.21124986 0.10100681 0
-1.2564836 -0.021252181 0.24918507 0
-1.226936 -0.043999102 0.28217009 0
-1.2398664 -0.034044709 0.32113111 0
-1.2416415 -0.032678153 0.3587957 0
-1.2408997 -0.033249285 0.39625591 0
-0.73020566 -0.45523253 -0.091494359 0
-0.81664115 -0.39209935 -0.089732938 0
-0.93747884 -0.30383852 -0.090026893 0
-1.0467136 -0.22405246 -0.081359021 0
-1.0400356 -0.22893021 -0.049694303 0
-1.0411429 -0.22812137 -0.019485293 0
-1.0512282 -0.22075501 0.0098792035 0
-1.0443596 -0.22577187 0.040706184 0
-1.0545344 -0.21834007 0.070580132 0
-1.0343219 -0.23310342 0.101007 0
-1.2456053 -0.078780323 0.24514829 0
-1.2372518 -0.084881872 0.28026682 0
-1.2364684 -0.085454017 0.31641212 0
-1.23914 -0.08350268 0.35345289 0
-1.240029 -0.082853407 0.39051697 0
-0.74952346 -0.4696441 -0.093065195 0
-0.83039176 -0.41365048 -0.089490823 0
-0.95611727 -0.32659754 -0.09035524 0
-1.0731535 -0.24556103 -0.082635172 0
-1.0751843 -0.24415484 -0.052010793 0
-1.0668238 -0.24994364 -0.020258171 0
-1.0744481 -0.24466458 0.0095251296 0
-1.0797038 -0.24102554 0.039776817 0
-1.0771041 -0.2428256 0.070482463 0
-1.0791426 -0.24141416 0.1010079 0
-1.2426113 -0.12822762 0.2068017 0
-1.2470496 -0.12515453 0.24274766 0
-1.2354941 -0.13315555 0.27682745 0
-1.2466896 -0.12540385 0.31432763 0
-1.2383701 -0.13116428 0.34880766 0
-1.2393348 -0.13049623 0.38520733 0
-0.75155413 -0.49585423 -0.090309434 0
-0.85684013 -0.42681751 -0.092236169 0
-0.96549189 -0.35557374 -0.088971429 0
-1.109042 -0.26144686 -0.085570268 0
-1.109062 -0.26143381 -0.054165814 0
-1.107914 -0.26218656 -0.022800302 0
-1.1135226 -0.25850895 0.007800566 0
-1.1060725 -0.26339403 0.039340738 0
-1.1179212 -0.25562468 0.069861725 0
-1.1103674 -0.26057783 0.10100833 0
-1.2462432 -0.17148313 0.20532098 0
-1.234906 -0.17891702 0.23900068 0
-1.2400556 -0.17554042 0.27449986 0
-1.2352517 -0.17869028 0.30880696 0
-1.2324262 -0.18054304 0.34345993 0
-1.2331303 -0.18008134 0.37901652 0
-0.75872701 -0.51812255 -0.089049451 0
-0.86866462 -0.44993886 -0.091772027 0
-0.98690605 -0.37660506 -0.09008006 0
-1.1457185 -0.27810892 -0.088656969 0
-1.1482964 -0.27651009 -0.057084564 0
-1.1486652 -0.27628133 -0.025300002 0
-1.1530825 -0.27354178 0.006033862 0
-1.1585145 -0.2701728 0.037451912 0
-1.1366768 -0.28371659 0.069845289 0
-1.1470912 -0.27725759 0.10100897 0
-1.2584043 -0.20822075 0.17004579 0
-1.2504469 -0.2131559 0.20400095 0
-1.2430449 -0.2177467 0.23769127 0
-1.2417146 -0.21857175 0.27195746 0
-1.2405671 -0.21928343 0.30636784 0
-1.2470878 -0.21523926 0.34242466 0
-1.2431812 -0.21766219 0.37680537 0
-0.77731395 -0.53337473 -0.09075927 0
-0.8616327 -0.48398122 -0.087326907 0
-0.99522233 -0.40572509 -0.088779517 0
-1.1644412 -0.30659738 -0.088843293 0
-1.1849918 -0.29455897 -0.059668545 0
-1.1828175 -0.29583272 -0.027087962 0
-1.181893 -0.29637423 0.0051329974 0
-1.1847184 -0.29471913 0.036997136 0
-1.187656 -0.29299828 0.068941548 0
-1.1793302 -0.29787549 0.10100945 0
-1.2529795 -0.2547321 0.1687098 0
-1.2396661 -0.26253101 0.20157115 0
-1.2325579 -0.26669499 0.23449185 0
-1.2359654 -0.26469889 0.26859668 0
-1.2394065 -0.26268312 0.30307752 0
-1.2345951 -0.26550159 0.33639866 0
-1.2397823 -0.26246294 0.3718985 0
-0.78706437 -0.55398828 -0.090393789 0
-0.89207846 -0.49597964 -0.091193818 0
-1.018769 -0.42599711 -0.090495609 0
-1.1876915 -0.3326861 -0.089870207 0
-1.421235 -0.20367923 -0.088921465 0
-1.7954013 0.0030063128 -0.090584867 0
-3.0241842 0.68177277 -0.14063765 0
-4.5425496 1.5205016 -0.14067774 0
-9.1081934 4.0425148 -0.14098623 0
-1.2509346 -0.29775128 0.13430516 0
-1.2400507 -0.30376342 0.16705567 0
-1.2336686 -0.30728886 0.19965762 0
-1.2373919 -0.30523208 0.23310421 0
-1.2410669 -0.30320206 0.26688853 0
-1.2421039 -0.30262926 0.30062962 0
-1.2403282 -0.30361012 0.33411929 0
-1.2340358 -0.30708596 0.36679932 0
-0.80236888 -0.57163268 -0.091489173 0
-0.9002614 -0.52073818 -0.090349026 0
-1.035249 -0.45055792 -0.090975754 0
-1.2123022 -0.35850754 -0.091204248 0
-1.4529124 -0.23341379 -0.090542801 0
-1.82064 -0.042231586 -0.090666272 0
-3.0661402 0.60530633 -0.14069726 0
-4.6111455 1.4085574 -0.14103021 0
-9.2248011 3.8072064 -0.14079101 0
-1.2449434 -0.34153733 0.13369989 0
-1.2366869 -0.34582987 0.16599104 0
-1.2343041 -0.34706876 0.19838178 0
-1.2462088 -0.34087947 0.23225698 0
-1.2486759 -0.33959678 0.26566207 0
-1.2362535 -0.34605524 0.29701993 0
-1.2350134 -0.34669998 0.33000186 0
-1.2415812 -0.34328535 0.36482993 0
-0.80824417 -0.59418648 -0.090446733 0
-0.90970474 -0.54464775 -0.089910574 0
-1.0452738 -0.47845533 -0.090383537 0
-1.2183046 -0.39397195 -0.089714356 0
-1.4684961 -0.2718145 -0.09014935 0
-1.845459 -0.087760061 -0.090822466 0
-3.0950441 0.52235752 -0.13989183 0
-4.6641483 1.2884822 -0.14071786 0
-9.3328476 3.5680034 -0.14053133 0
-1.2501581 -0.37841931 0.10101014 0
-1.2469952 -0.37996361 0.13333948 0
-1.2487752 -0.37909451 0.16579635 0
-1.2476946 -0.37962213 0.19819334 0
-1.2372372 -0.38472804 0.22966537 0
-1.244724 -0.38107249 0.26306653 0
-1.2465425 -0.38018468 0.29615211 0
-1.2430068 -0.38191101 0.32856995 0
-1.2356462 -0.38550481 0.36025101 0
-0.8134225 -0.61680293 -0.089387186 0
-0.92087787 -0.56765491 -0.089961164 0
-1.0512681 -0.50801694 -0.089197688 0
-1.2302457 -0.42615601 -0.089298464 0
-1.4839095 -0.3101351 -0.089863859 0
-1.8665453 -0.13512483 -0.090712391 0
-3.1543674 0.45390013 -0.14159602 0
-4.7263355 1.172888 -0.14103538 0
-9.4547577 3.3355772 -0.14078434 0
-1.249504 -0.41734764 0.10100965 0
-1.247753 -0.41814849 0.13297506 0
-1.2327448 -0.42501298 0.16420597 0
-1.2455971 -0.41913459 0.19687904 0
-1.2463744 -0.41877905 0.22907765 0
-1.255832 -0.41445336 0.26257259 0
-1.2469722 -0.41850564 0.29390401 0
-1.2460861 -0.41891095 0.32642767 0
-1.243224 -0.42021999 0.35874632 0
-0.82576555 -0.63610077 -0.090127803 0
-0.9415369 -0.58664209 -0.092073701 0
-1.0564321 -0.53755766 -0.088010259 0
-1.2446212 -0.4571614 -0.089383863 0
-1.5057483 -0.34560528 -0.090521641 0
-1.8979261 -0.17806295 -0.091770433 0
-3.1856658 0.37207237 -0.14128356 0
-4.7744126 1.050801 -0.14078367 0
-9.5669413 3.0982182 -0.14093791 0
-1.2499672 -0.45487753 0.10100923 0
-1.2405207 -0.45891318 0.13243659 0
-1.2436244 -0.45758721 0.16405568 0
-1.2416717 -0.45842144 0.19551605 0
-1.2390355 -0.45954767 0.22691065 0
-1.2322966 -0.46242663 0.2577866 0
-1.2455581 -0.45676109 0.29154676 0
-1.2416735 -0.45842072 0.32313678 0
-1.2551202 -0.45267609 0.35832304 0
-0.83985269 -0.65490967 -0.091371991 0
-0.95244527 -0.61013347 -0.092286356 0
-1.0750604 -0.56137151 -0.089348681 0
-1.260196 -0.48774621 -0.08976879 0
-1.5209588 -0.38404527 -0.090452395 0
-1.9139125 -0.22777423 -0.091380961 0
-3.2110758 0.28808573 -0.14068739 0
-4.8226018 0.92896241 -0.14069527 0
-1.2440468 -0.49416846 0.06981805 0
-1.2509079 -0.49143991 0.10100886 0
-1.2366682 -0.49710283 0.13201421 0
-1.2457111 -0.49350664 0.16350727 0
-1.2495399 -0.49198395 0.19512974 0
-1.2486298 -0.49234587 0.22657123 0
-1.2410226 -0.49537116 0.25726125 0
-1.2350013 -0.49776572 0.28797659 0
-1.2327601 -0.49865705 0.31925976 0
-1.2393532 -0.49603504 0.35246187 0
-0.83748126 -0.68011773 -0.088984005 0
-0.95367658 -0.63727152 -0.090674005 0
-1.0953367 -0.58503538 -0.091069184 0
-1.2731905 -0.51945299 -0.089879863 0
-1.5319386 -0.42404148 -0.089978196 0
-1.9337757 -0.27586684 -0.091506205 0
-3.2543945 0.21110204 -0.14158985 0
-4.8746657 0.80856568 -0.14095329 0
-1.2525204 -0.52707493 0.069907822 0
-1.2454848 -0.52966928 0.10100833 0
-1.2441434 -0.53016394 0.1319012 0
-1.2425629 -0.53074676 0.16274914 0
-1.2472575 -0.5290156 0.19405353 0
-1.241818 -0.53102142 0.2246846 0
-1.2364101 -0.53301549 0.25518259 0
-1.2366183 -0.53293878 0.28641951 0
-1.229262 -0.53565133 0.31654641 0
-1.246736 -0.52920789 0.35152456 0
-0.85419631 -0.69824654 -0.091045506 0
-0.96254241 -0.66137242 -0.090731286 0
-1.0976374 -0.61539459 -0.089758419 0
-1.2900242 -0.54991835 -0.090679236 0
-1.5608218 -0.45775601 -0.091843568 0
-1.9483318 -0.32587221 -0.09122733 0
-3.2730618 0.12498179 -0.14080828 0
-1.2501783 -0.5634793 0.03944248 0
-1.2490247 -0.56387198 0.0702703 0
-1.2340932 -0.56895375 0.10100764 0
-1.2356819 -0.56841302 0.13141742 0
-1.2356344 -0.56842917 0.16185783 0
-1.2460983 -0.56486797 0.19313891 0
