# .PCD v0.7 - Point Cloud Data file format
VERSION 0.7
FIELDS x y z intensity
SIZE 4 4 4 4
TYPE F F F F
COUNT 1 1 1 1
WIDTH 1328
HEIGHT 1
VIEWPOINT 0 0 0 1 0 0 0
POINTS 1328
DATA ascii
1.0060865 -1.5952395 -0.091918342 0
1.1743389 -1.696673 -0.091576032 0
1.4154395 -1.8420242 -0.092060409 0
1.7611924 -2.0504665 -0.090876557 0
2.9578719 -2.771903 -0.14040393 0
4.4480376 -3.6702719 -0.14077346 0
8.9041166 -6.3566866 -0.14073905 0
0.78576779 -1.4358155 -0.090958364 0
0.89013219 -1.4951955 -0.091713659 0
1.0251791 -1.572033 -0.092698164 0
1.1758595 -1.6577655 -0.088996477 0
1.4088546 -1.7903324 -0.088342421 0
1.7805409 -2.0018103 -0.090139262 0
3.0156548 -2.7045517 -0.14150965 0
4.5255079 -3.5636113 -0.14137563 0
9.036274 -6.1300964 -0.14072746 0
0.7944575 -1.414625 -0.090397216 0
0.90204835 -1.4722972 -0.091592886 0
1.0275646 -1.539578 -0.090462036 0
1.2094017 -1.6370485 -0.091715135 0
1.4501511 -1.766098 -0.091197915 0
1.8085181 -1.9581943 -0.090456642 0
3.0483055 -2.6227605 -0.14074287 0
4.5819921 -3.4448662 -0.14100441 0
9.1574068 -5.8974361 -0.14057715 0
0.79471391 -1.3893174 -0.087963946 0
0.90865266 -1.4467397 -0.090475954 0
1.0516311 -1.5187972 -0.092396162 0
1.2255166 -1.6064311 -0.091739677 0
1.4501863 -1.7196591 -0.088697754 0
1.837378 -1.9147941 -0.090978108 0
3.1013215 -2.55179 -0.14174274 0
4.6371751 -3.3258221 -0.14072731 0
9.276885 -5.6641197 -0.14053954 0
0.8010993 -1.36753 -0.087151624 0
0.91727769 -1.4224502 -0.089928471 0
1.060402 -1.4901084 -0.091622733 0
1.2274938 -1.5690964 -0.089687176 0
1.4817935 -1.6893098 -0.090461142 0
1.8521156 -1.8643696 -0.090149172 0
3.1176956 -2.4626386 -0.14003673 0
4.6978941 -3.209635 -0.14089426 0
9.4064541 -5.4354796 -0.14091429 0
0.81990665 -1.3514309 -0.08936397 0
0.9254697 -1.3981117 -0.089424886 0
1.0566189 -1.4561069 -0.088732742 0
1.2441483 -1.5390339 -0.090058424 0
1.4968255 -1.6507698 -0.090185277 0
1.8771906 -1.8189703 -0.09051507 0
3.1736221 -2.3922629 -0.14154603 0
4.7495122 -3.0891345 -0.14074624 0
9.5051003 -5.1920934 -0.14064631 0
0.84040803 -1.3354468 -0.092036836 0
0.93958151 -1.3763428 -0.090258412 0
1.073151 -1.4314224 -0.08963763 0
1.2565272 -1.5070405 -0.089891843 0
1.5217599 -1.6164136 -0.091287784 0
1.9015886 -1.7730423 -0.09092515 0
3.1940486 -2.3060098 -0.14049022 0
4.7960458 -2.96662 -0.14049765 0
9.6121387 -4.9526157 -0.14074749 0
0.84409976 -1.3123275 -0.090949945 0
0.95371771 -1.3543265 -0.09120024 0
1.0829476 -1.4038397 -0.089458548 0
1.2635132 -1.4730215 -0.089037381 0
1.5208319 -1.5716107 -0.089251883 0
1.9220611 -1.7253376 -0.091055371 0
3.2396207 -2.2301476 -0.14149089 0
4.8509822 -2.8475246 -0.14082538 0
9.7036037 -4.706758 -0.1406112 0
0.84334719 -1.287891 -0.089002647 0
0.96754038 -1.3319142 -0.092182584 0
1.0941383 -1.3767897 -0.089646123 0
1.2820374 -1.4433949 -0.090039529 0
1.5443455 -1.5363761 -0.09040568 0
1.9279839 -1.6723658 -0.089863367 0
3.2686999 -2.1476138 -0.14140207 0
4.9000187 -2.7258725 -0.1410079 0
9.7986012 -4.4622889 -0.14071704 0
0.85991508 -1.2695775 -0.091082536 0
0.95893669 -1.3018897 -0.088826202 0
1.1118221 -1.3517785 -0.091073237 0
1.2875946 -1.4091356 -0.08922758 0
1.5476813 -1.4940058 -0.08917921 0
1.9494714 -1.6251159 -0.090341158 0
3.2997303 -2.0657256 -0.14161129 0
4.9223809 -2.5952203 -0.14003368 0
9.8753271 -4.2114401 -0.14052673 0
0.86618781 -1.2476593 -0.090965919 0
0.9749741 -1.2801448 -0.090488248 0
1.1106441 -1.3206581 -0.08936312 0
1.3027046 -1.3780105 -0.089950152 0
1.5616435 -1.4553338 -0.089389019 0
1.9604251 -1.5744166 -0.08990588 0
3.3147161 -1.9788303 -0.14079972 0
4.9827132 -2.4769218 -0.14107245 0
9.968648 -3.9658039 -0.14089474 0
0.87141055 -1.2254701 -0.09074112 0
0.98902667 -1.2573831 -0.09185908 0
1.1196468 -1.2928245 -0.089532591 0
1.3177158 -1.346567 -0.090768196 0
1.5602865 -1.4123844 -0.087860905 0
1.9557042 -1.5196741 -0.088081799 0
3.3488996 -1.8976933 -0.14154375 0
5.008956 -2.3481205 -0.14060427 0
10.030932 -3.7107458 -0.14066245 0
0.87781811 -1.2036102 -0.090899907 0
0.98728848 -1.2303669 -0.09027151 0
1.1297115 -1.2651778 -0.089999981 0
1.3266715 -1.3133187 -0.09082035 0
1.5848591 -1.3764249 -0.089592688 0
1.9821342 -1.4735267 -0.089395337 0
3.3620791 -1.8108125 -0.14091948 0
5.0391798 -2.2207289 -0.14048608 0
10.09441 -3.4563265 -0.1406147 0
0.88054508 -1.1808952 -0.090377502 0
0.99255949 -1.2052962 -0.090175591 0
1.1334066 -1.2359778 -0.089511104 0
1.3286632 -1.2785119 -0.089991651 0
1.601596 -1.3379667 -0.090486623 0
1.9893335 -1.4224302 -0.088976182 0
3.3721232 -1.7236527 -0.14023162 0
5.0807543 -2.0958555 -0.14106299 0
10.154645 -3.2011356 -0.14064331 0
0.87895286 -1.1574645 -0.089047231 0
1.0029973 -1.1812246 -0.091192655 0
1.144887 -1.2084028 -0.090450995 0
1.3339051 -1.2446082 -0.089758016 0
1.6099511 -1.2974833 -0.090494625 0
2.5455067 -1.4766841 -0.14085488 0
3.4008636 -1.6405232 -0.1410349 0
5.1061907 -1.9671695 -0.14102192 0
10.20614 -2.9440377 -0.14061776 0
0.89411509 -1.1371121 -0.091459997 0
1.0036494 -1.1552407 -0.090453528 0
1.1417242 -1.1780928 -0.089063846 0
1.3433189 -1.2114578 -0.090241812 0
1.6199809 -1.257247 -0.090822302 0
2.5599585 -1.4128184 -0.14113535 0
3.4103658 -1.5535657 -0.1406206 0
5.1218562 -1.8368269 -0.14067358 0
10.262337 -2.6876049 -0.1408564 0
0.89413863 -1.1140523 -0.090725608 0
1.004666 -1.1294911 -0.089911275 0
1.1467484 -1.1493376 -0.089167349 0
1.3370219 -1.1759156 -0.088613503 0
1.6312712 -1.2170173 -0.091417633 0
2.5659549 -1.3475767 -0.14077017 0
3.4192071 -1.4667616 -0.14031632 0
5.1421604 -1.7074291 -0.14069945 0
10.287058 -2.426084 -0.14050749 0
0.90172136 -1.0920154 -0.091735236 0
1.0143296 -1.1048574 -0.091133215 0
1.1452854 -1.1197919 -0.0883177 0
1.3501117 -1.1431507 -0.089859135 0
1.6313018 -1.1752182 -0.090806417 0
2.5741048 -1.2827374 -0.14076327 0
3.4357722 -1.3810036 -0.1407108 0
5.1538763 -1.5769397 -0.14047609 0
10.332141 -2.1674795 -0.14079078 0
0.90991408 -1.0697773 -0.092991628 0
1.0125216 -1.078863 -0.090301 0
1.1299508 -1.0892612 -0.085304432 0
1.1228706 -1.0886341 -0.057311807 0
1.6362687 -1.1340946 -0.090899669 0
2.5846822 -1.2180749 -0.14113741 0
3.4416285 -1.2939559 -0.14050493 0
5.173924 -1.4473474 -0.14079677 0
10.358669 -1.9064469 -0.14079289 0
0.89861989 -1.0459948 -0.090215258 0
1.018304 -1.053555 -0.091026567 0
1.132374 -1.0607606 -0.085347302 0
1.1461829 -1.0616329 -0.060291875 0
1.6326505 -1.092362 -0.090109073 0
2.5843139 -1.1524767 -0.14064002 0
3.4506154 -1.2071991 -0.1406727 0
5.1757846 -1.3161745 -0.14042126 0
10.37325 -1.6444877 -0.14067028 0
0.90214765 -1.0234185 -0.090722121 0
1.0193934 -1.0278584 -0.090987347 0
1.1297147 -1.0320362 -0.084672593 0
1.1287701 -1.0320004 -0.057637606 0
1.6423196 -1.0514477 -0.090996541 0
2.5868773 -1.0872169 -0.1405717 0
3.4465468 -1.1197712 -0.14008026 0
5.1892853 -1.1857662 -0.14074275 0
10.398577 -1.3830346 -0.14095175 0
0.89802516 -1.0006108 -0.089723714 0
1.0213991 -1.0021676 -0.091242932 0
1.12052 -1.0034182 -0.083043106 0
1.1335746 -1.003583 -0.058211867 0
1.1381185 -1.0036403 -0.031941969 0
1.1267906 -1.0034974 -0.0041220542 0
1.1279604 -1.0035121 0.022177169 0
1.139232 -1.0036544 0.047974981 0
1.1273279 -1.0035042 0.074780092 0
1.1350396 -1.0036014 0.10100278 0
1.1330706 -1.0035765 0.12735891 0
1.1342821 -1.0035919 0.1538002 0
1.1286796 -1.0035212 0.17987862 0
1.1247329 -1.0034714 0.20593548 0
1.1417593 -1.0036862 0.23437436 0
1.1319621 -1.0035626 0.25999188 0
1.1305712 -1.003545 0.28670219 0
1.1307817 -1.0035477 0.31385446 0
0.89502031 -0.97801173 -0.089084961 0
1.0165135 -0.97647882 -0.090322636 0
1.1230772 -0.97513419 -0.083463393 0
1.1245152 -0.97511607 -0.056938607 0
1.6415842 -0.96859199 -0.090788357 0
2.5959187 -0.95655066 -0.14126189 0
3.4471531 -0.9458102 -0.13996917 0
5.1972814 -0.92372799 -0.14096114 0
10.389705 -0.85821259 -0.14059143 0
0.90570438 -0.95503151 -0.091478683 0
1.013479 -0.95095026 -0.089872546 0
1.1302053 -0.94652998 -0.084753267 0
1.1382418 -0.94622564 -0.058969665 0
1.6269163 -0.92772025 -0.08919502 0
2.5925152 -0.89115441 -0.14109831 0
3.4568379 -0.85842371 -0.14080022 0
5.1952481 -0.79259264 -0.14102055 0
10.393206 -0.59575343 -0.14082681 0
0.89918345 -0.9325543 -0.090335287 0
1.0103089 -0.92553473 -0.089517675 0
1.1372453 -0.91751641 -0.086149491 0
1.1367061 -0.9175505 -0.058957402 0
1.63662 -0.88597196 -0.090573944 0
2.5970032 -0.82530653 -0.14182679 0
3.4562645 -0.7710287 -0.14106843 0
5.1869435 -0.66170526 -0.1409418 0
10.373237 -0.33409777 -0.14066997 0
0.88952482 -0.91061282 -0.088640697 0
1.0152012 -0.89948446 -0.090807684 0
1.151104 -0.88745052 -0.088794567 0
1.3627197 -0.86871237 -0.091150813 0
1.6365916 -0.8444615 -0.090937547 0
2.5694914 -0.76185495 -0.13971394 0
3.4480212 -0.68406272 -0.14095359 0
5.1755223 -0.53109574 -0.14087147 0
10.365899 -0.071497649 -0.14096163 0
0.90071499 -0.88668406 -0.091519944 0
1.0285392 -0.87210679 -0.093826957 0
1.1632591 -0.85674304 -0.091290869 0
1.3526291 -0.8351469 -0.090215199 0
1.6266817 -0.80389339 -0.090262942 0
2.5724597 -0.69603497 -0.14060871 0
3.4505117 -0.59590012 -0.14174792 0
5.1572719 -0.40125772 -0.14063521 0
10.340483 0.18984607 -0.14098598 0
0.8915962 -0.86488754 -0.090179928 0
1.007971 -0.84863192 -0.090539835 0
1.1571249 -0.82779765 -0.090889297 0
1.3478062 -0.80116272 -0.090143777 0
1.6262363 -0.76227075 -0.090823494 0
2.5649176 -0.63115281 -0.1406724 0
3.4208837 -0.51158881 -0.14043468 0
5.137568 -0.27179709 -0.14048357 0
10.30175 0.44955185 -0.14085242 0
0.88959759 -0.84222025 -0.090486683 0
1.0133973 -0.82173067 -0.092314549 0
1.1642439 -0.79676473 -0.092815332 0
1.3502593 -0.76597816 -0.091230445 0
1.6342297 -0.71897948 -0.092510261 0
2.5523467 -0.56702596 -0.14041522 0
3.4122055 -0.4247146 -0.14075094 0
5.1262655 -0.14102808 -0.14088164 0
10.258244 0.70834285 -0.14075992 0
0.882999 -0.82034516 -0.089922912 0
1.0092868 -0.79615539 -0.09239883 0
1.1343607 -0.7721982 -0.088689528 0
1.3413421 -0.73255199 -0.090822168 0
1.3407483 -0.73266572 -0.058460031 0
1.3433053 -0.73217595 -0.026601022 0
1.3408039 -0.73265511 0.0056008715 0
1.3449274 -0.73186523 0.037265692 0
1.3531077 -0.73029834 0.068961173 0
1.342929 -0.73224801 0.10100941 0
0.88123369 -0.79753941 -0.090527304 0
0.991005 -0.77362716 -0.089875944 0
1.1347474 -0.74231482 -0.089736618 0
1.2091181 -0.72611409 -0.07279744 0
1.2038877 -0.7272535 -0.042915065 0
1.2030863 -0.72742808 -0.013866534 0
1.1997217 -0.72816104 0.015201332 0
1.2091417 -0.72610897 0.043405537 0
1.2165345 -0.72449857 0.072045289 0
1.2062939 -0.72672933 0.10100561 0
0.87680125 -0.77522302 -0.090677388 0
0.99073547 -0.74737525 -0.090939872 0
1.1294358 -0.71347415 -0.089953326 0
1.2063427 -0.69467658 -0.073412202 0
1.2117174 -0.69336295 -0.044698615 0
1.2008866 -0.69601017 -0.014326802 0
1.2113178 -0.69346058 0.01386516 0
1.1971915 -0.69691336 0.043641578 0
1.2106396 -0.69362634 0.072017208 0
1.2007663 -0.69603956 0.10100566 0
0.87234676 -0.75286067 -0.090947323 0
0.99487329 -0.71961522 -0.093000121 0
1.1231546 -0.68480837 -0.090129949 0
1.2037389 -0.66294318 -0.074171357 0
1.2090271 -0.66150838 -0.045323689 0
1.2103904 -0.66113847 -0.015998585 0
1.2032192 -0.66308421 0.013883213 0
1.2099383 -0.66126114 0.04265248 0
1.2104326 -0.66112697 0.071833201 0
1.2111363 -0.66093606 0.10100619 0
0.87596303 -0.72800624 -0.093134411 0
0.97799665 -0.69753736 -0.091082387 0
1.1199577 -0.65514547 -0.090960599 0
1.21257 -0.62748992 -0.076730393 0
1.2094706 -0.62841541 -0.046433453 0
1.1981001 -0.63181084 -0.01564539 0
1.2022117 -0.63058305 0.013328293 0
1.2119827 -0.62766528 0.042132322 0
1.1966748 -0.63223648 0.071956776 0
1.2118897 -0.627693 0.10100648 0
0.8480503 -0.71287882 -0.088429652 0
0.97097367 -0.6727671 -0.091211028 0
1.0950462 -0.63228041 -0.088173009 0
1.2026544 -0.59716624 -0.076671086 0
1.2034417 -0.59690934 -0.046858955 0
1.2126695 -0.59389818 -0.01799888 0
1.2055295 -0.59622812 0.012390638 0
1.2025957 -0.59718543 0.042126313 0
1.2118123 -0.5941779 0.071356922 0
1.2138709 -0.59350616 0.10100682 0
0.84665173 -0.68952227 -0.089747898 0
0.96313483 -0.64823216 -0.091302194 0
1.1084448 -0.59672362 -0.092140771 0
1.2043369 -0.56273246 -0.078454174 0
1.2007809 -0.56399298 -0.047804106 0
1.212762 -0.55974603 -0.01903419 0
1.2074234 -0.56163836 0.011486122 0
1.2095357 -0.56088966 0.041275978 0
1.2033823 -0.56307089 0.071309447 0
1.2015789 -0.56371009 0.10100676 0
0.84491247 -0.66594577 -0.091134943 0
0.94810438 -0.62640882 -0.090068005 0
1.0822421 -0.57501537 -0.089334376 0
1.2061518 -0.5275405 -0.080404706 0
1.2034378 -0.52858037 -0.049527485 0
1.2027192 -0.52885574 -0.01915223 0
1.2075297 -0.52701265 0.010641614 0
1.2060814 -0.52756757 0.040890127 0
1.2044369 -0.52819765 0.071005896 0
1.2018636 -0.52918351 0.10100711 0
0.83827084 -0.64401913 -0.09154544 0
0.93865657 -0.6026234 -0.090069972 0
1.0886991 -0.54075086 -0.092401706 0
1.2124363 -0.48972577 -0.083189391 0
1.210757 -0.49041826 -0.051970709 0
1.2019814 -0.494037 -0.0202893 0
1.2053784 -0.49263623 0.009893233 0
1.2085726 -0.49131903 0.0401587 0
1.2089577 -0.49116027 0.070589982 0
1.20557 -0.4925572 0.1010076 0
0.81631583 -0.62874168 -0.088529401 0
0.9320935 -0.57754385 -0.090789028 0
1.0594633 -0.52121997 -0.089243896 0
1.2118236 -0.45384499 -0.08509133 0
1.2081399 -0.45547393 -0.053293992 0
1.20296 -0.45776454 -0.02170351 0
1.2119968 -0.4537684 0.0084001366 0
1.2025551 -0.45794359 0.039805878 0
1.2083385 -0.45538619 0.070276424 0
1.1988146 -0.45959768 0.10100779 0
0.82035512 -0.60195208 -0.09167897 0
0.91012615 -0.55951524 -0.088438563 0
1.0638354 -0.48685339 -0.092246868 0
1.2346095 -0.4061245 -0.090793289 0
1.4757935 -0.29211125 -0.089685507 0
1.86691 -0.10722145 -0.091676585 0
3.1279063 0.48888078 -0.1408263 0
4.6892014 1.2269409 -0.14044663 0
9.4037285 3.4556062 -0.14084418 0
0.80035394 -0.58642489 -0.089306451 0
0.91156518 -0.53037721 -0.091090269 0
1.0505593 -0.46032771 -0.092198886 0
1.2101465 -0.37989965 -0.089320861 0
1.4587803 -0.25459448 -0.089822523 0
1.8385297 -0.063210219 -0.091098495 0
3.0946302 0.56983322 -0.1412189 0
4.6366906 1.3469932 -0.14070205 0
9.2892971 3.6917908 -0.14086272 0
0.79929322 -0.56136757 -0.091563471 0
0.90112114 -0.5067845 -0.09139473 0
1.0268117 -0.4394103 -0.090321638 0
1.2062148 -0.34324452 -0.09120696 0
1.435727 -0.22021851 -0.089285202 0
1.8056233 -0.021942105 -0.090150081 0
3.0565422 0.64859098 -0.14139619 0
4.5781832 1.4642396 -0.1408032 0
9.1680269 3.9245436 -0.14085729 0
0.78622913 -0.54250675 -0.091071181 0
0.88813633 -0.48452476 -0.091281153 0
1.0206909 -0.40910533 -0.091849454 0
1.1825064 -0.31703731 -0.090071224 0
1.199527 -0.30735317 -0.060194869 0
1.2193828 -0.29605582 -0.029875865 0
3.0020649 0.71823496 -0.14041659 0
4.5157881 1.5794961 -0.140855 0
9.0418711 4.1546969 -0.1408772 0
0.78016973 -0.51954252 -0.092427216 0
0.87468892 -0.46256021 -0.091186754 0
0.99696851 -0.38884214 -0.090168528 0
1.1620457 -0.28932288 -0.089558743 0
1.1346723 -0.30582538 -0.05374435 0
1.2001554 -0.26634791 -0.02972888 0
2.9604979 0.79490131 -0.14061828 0
4.4491854 1.692379 -0.14083585 0
8.8967218 4.3736439 -0.14053829 0
0.76246667 -0.50360572 -0.091014646 0
0.85687166 -0.44339338 -0.090237506 0
0.97664887 -0.3669984 -0.089222588 0
1.1460277 -0.25896713 -0.089894213 0
1.1441278 -0.26017883 -0.057495598 0
1.1797549 -0.23745564 -0.029532021 0
2.9190955 0.87191147 -0.14099614 0
4.3776665 1.802201 -0.14070104 0
8.776516 4.6078262 -0.14103298 0
0.75465029 -0.48139301 -0.092214353 0
0.84430033 -0.42097822 -0.090572454 0
0.96712631 -0.33820626 -0.090508662 0
1.131994 -0.22710261 -0.090700485 0
1.1312234 -0.22762188 -0.058320884 0
1.1665573 -0.20381054 -0.030223941 0
2.8692474 0.94362575 -0.14083098 0
4.307919 1.9131405 -0.14081767 0
8.6278992 4.8243585 -0.14090393 0
0.73255819 -0.46896639 -0.089857034 0
0.8245095 -0.4035677 -0.08937443 0
0.9546113 -0.31103513 -0.091359772 0
1.1106797 -0.20003429 -0.090403266 0
1.14469 -0.17584512 -0.063060023 0
1.143942 -0.17637715 -0.029946094 0
2.8277118 1.021174 -0.14152987 0
4.2385712 2.0246224 -0.14111789 0
8.4708061 5.0347233 -0.1406853 0
0.71917588 -0.45068929 -0.089851417 0
0.80840731 -0.38377169 -0.089124508 0
0.92825133 -0.2938967 -0.089522533 0
1.0915891 -0.17140439 -0.090609916 0
1.0977511 -0.1667833 -0.059254352 0
1.1081254 -0.15900323 -0.028202778 0
1.1023884 -0.16330561 0.0047244597 0
1.1053848 -0.16105852 0.036703158 0
1.101118 -0.16425839 0.06899789 0
1.1034911 -0.16247872 0.10100974 0
1.0992837 -0.16563401 0.13296802 0
1.100693 -0.16457704 0.16504328 0
1.1025195 -0.16320732 0.1973068 0
0.71180475 -0.42764589 -0.091597952 0
0.80162835 -0.35667381 -0.091226362 0
0.91353518 -0.26825318 -0.090177007 0
1.0518383 -0.15897623 -0.087248497 0
1.0976851 -0.12275133 -0.062387709 0
1.0977563 -0.12269518 -0.029503291 0
1.0962979 -0.12384751 0.0033790267 0
1.1015486 -0.11969879 0.035670023 0
1.10412 -0.11766699 0.068281718 0
1.1008662 -0.12023792 0.10101042 0
1.0979556 -0.12253764 0.13355628 0
1.1009133 -0.12020072 0.16631329 0
1.0918007 -0.12740079 0.19824085 0
0.69843531 -0.4090347 -0.091882132 0
0.78102916 -0.34032014 -0.090152554 0
0.90772748 -0.2349126 -0.092886902 0
1.0330693 -0.13063368 -0.087708302 0
1.0978686 -0.076723427 -0.065792657 0
1.0961971 -0.078114003 -0.03201123 0
1.1022066 -0.073114306 0.00082420022 0
1.0989891 -0.07579115 0.034475084 0
1.096532 -0.077835351 0.06783545 0
1.1108426 -0.065929562 0.10101161 0
1.0924749 -0.081210703 0.13406375 0
1.1077203 -0.068527192 0.16807686 0
1.1036246 -0.07193467 0.20132785 0
0.68169022 -0.39327016 -0.09135025 0
0.76598698 -0.31946149 -0.09054818 0
0.87329447 -0.22550502 -0.089586027 0
0.99346304 -0.12028769 -0.084418379 0
1.097388 -0.029292908 -0.069349013 0
1.1035113 -0.023931529 -0.03581411 0
1.0947485 -0.031604137 -0.00066331564 0
1.0977169 -0.029005017 0.033105973 0
1.1009904 -0.026138749 0.066976205 0
1.0991112 -0.027784195 0.10101207 0
1.0977596 -0.028967645 0.13494803 0
1.1084057 -0.019646075 0.16958044 0
1.0974001 -0.029282417 0.2029341 0
1.0939279 -0.032322612 0.23664963 0
1.0845578 -0.040526893 0.37232733 0
0.66169089 -0.3806552 -0.08997912 0
0.74728721 -0.30180576 -0.090149783 0
0.85350579 -0.20395967 -0.089532413 0
0.96218014 -0.10385135 -0.082690857 0
1.0618374 -0.012049284 -0.067604296 0
1.1015046 0.024491105 -0.038695071 0
1.0966136 0.019985709 -0.003170436 0
1.1050762 0.027781162 0.031084443 0
1.0955288 0.018986378 0.066369578 0
1.1063141 0.028921518 0.1010133 0
1.1090325 0.031425748 0.13608415 0
1.1032114 0.026063476 0.17082408 0
1.1023757 0.025293622 0.20574485 0
1.0958513 0.019283447 0.24000417 0
1.0358388 -0.035998669 0.36606771 0
0.64980119 -0.36061546 -0.091067471 0
0.72735161 -0.28547344 -0.089532934 0
0.84187102 -0.17451063 -0.091466494 0
0.84526616 -0.17122093 -0.064244218 0
0.8357783 -0.18041411 -0.034883533 0
0.84175348 -0.17462447 -0.0083053317 0
0.83635968 -0.17985079 0.019650841 0
0.84197438 -0.17441043 0.046453454 0
0.84070396 -0.17564139 0.07378453 0
0.83368498 -0.1824424 0.1010035 0
0.84102178 -0.17533347 0.12823337 0
0.84351444 -0.17291823 0.15565431 0
0.83958071 -0.17672977 0.1826705 0
1.1017798 0.077326447 0.24412993 0
1.0132158 -0.0084871911 0.29913214 0
1.0104944 -0.01112416 0.33207867 0
0.98653907 -0.034335401 0.35953063 0
0.63773835 -0.3403627 -0.092283212 0
0.71006477 -0.26665446 -0.089721821 0
0.82003033 -0.15458795 -0.091228254 0
0.83794183 -0.13633427 -0.066970132 0
0.84592897 -0.12819454 -0.040027339 0
0.8382495 -0.13602075 -0.01061338 0
0.84045345 -0.13377467 0.017177137 0
0.84315521 -0.13102129 0.044990525 0
0.84262782 -0.13155881 0.073030293 0
0.83432376 -0.14002147 0.10100436 0
0.83902931 -0.13522604 0.1288594 0
0.84722215 -0.12687662 0.15728974 0
0.83819807 -0.13607314 0.18460712 0
0.8445369 -0.12961319 0.21346146 0
1.0985521 0.12925497 0.28421408 0
0.94742697 -0.024757411 0.29095817 0
0.9388032 -0.033545937 0.32111865 0
0.96122408 -0.010696676 0.3592867 0
0.61870968 -0.32713231 -0.091518901 0
0.69210416 -0.24845967 -0.089859329 0
0.80042291 -0.13235119 -0.091641136 0
0.83416092 -0.096186846 -0.070679776 0
0.83388394 -0.096483737 -0.041732136 0
0.84486097 -0.084717304 -0.014500355 0
0.84255356 -0.087190658 0.014722357 0
0.8377775 -0.09231022 0.043861352 0
0.8374508 -0.092660397 0.072459981 0
0.84190404 -0.0878869 0.10100559 0
0.83973682 -0.090209991 0.12962897 0
0.83522481 -0.095046431 0.15797521 0
0.84413815 -0.085492104 0.18745175 0
0.84041452 -0.08948347 0.21590362 0
1.0976998 0.18630436 0.28896555 0
0.93789959 0.015012179 0.29407239 0
0.92967969 0.0062011811 0.32480365 0
0.92994881 0.0064896676 0.35755256 0
0.59764123 -0.31645361 -0.090184592 0
0.6805259 -0.22298774 -0.091941215 0
0.77758062 -0.11354277 -0.091401778 0
0.84388101 -0.038778331 -0.077567764 0
0.83784235 -0.045587923 -0.046444152 0
0.83164907 -0.052571859 -0.015890291 0
0.83686483 -0.046690252 0.012895288 0
0.84182614 -0.041095521 0.041970588 0
0.84496456 -0.037556436 0.071394578 0
0.83678192 -0.046783712 0.10100636 0
0.84471709 -0.037835505 0.1306102 0
0.84145635 -0.041512515 0.16001675 0
0.84336025 -0.039365616 0.18980275 0
0.83900338 -0.044278648 0.21893845 0
1.1017046 0.25195947 0.29496035 0
1.0977722 0.24752513 0.3333821 0
0.58635592 -0.29463449 -0.092124514 0
0.65290695 -0.21566001 -0.089583032 0
0.72911978 -0.12522015 -0.084740572 0
0.85135567 0.019834194 -0.084486641 0
0.84468389 0.011916909 -0.052051801 0
0.83905065 0.0052321288 -0.020424126 0
0.84249735 0.0093222596 0.0096752066 0
0.84394783 0.011043463 0.040069576 0
0.84273648 0.0096059777 0.070598856 0
0.84508222 0.012389693 0.10100779 0
0.84175181 0.0084374882 0.13138095 0
0.8379795 0.0039610001 0.16151436 0
0.83744562 0.0033274626 0.19179201 0
0.83857572 0.0046685073 0.22237098 0
0.84340566 0.01040009 0.25383642 0
1.0988855 0.3135716 0.34050965 0
0.57134658 -0.27670774 -0.093044274 0
0.63898027 -0.19221076 -0.091331325 0
0.72239393 -0.087999433 -0.088766478 0
0.84890962 0.07006076 -0.08972346 0
0.85023475 0.071716338 -0.057864804 0
0.84090376 0.060058746 -0.024488857 0
0.83516175 0.05288497 0.0076471362 0
0.84189761 0.06130043 0.038321998 0
0.8451972 0.065422684 0.069559604 0
0.84009558 0.059049044 0.10100874 0
0.83873028 0.057343278 0.13221717 0
0.8396728 0.058520827 0.16352986 0
0.83796561 0.056388054 0.19468419 0
0.84024364 0.059234057 0.22640841 0
0.83859581 0.057175312 0.25770637 0
1.0931281 0.37517062 0.34668875 0
1.1001805 0.3839815 0.3901701 0
0.54574698 -0.27233353 -0.090430714 0
0.61717498 -0.17832938 -0.09086711 0
0.70217055 -0.066469282 -0.089512669 0
0.72943503 -0.030587342 -0.068242349 0
0.73344094 -0.025315311 -0.040526409 0
0.73323172 -0.025590625 -0.012003122 0
0.72824401 -0.032154765 0.016932586 0
0.72798878 -0.032490637 0.045026895 0
0.73104459 -0.028468993 0.072913513 0
0.72374851 -0.038071182 0.1010045 0
0.72951293 -0.030484762 0.12903722 0
0.73190552 -0.027335968 0.15728442 0
0.7296437 -0.030312683 0.18523905 0
0.73276633 -0.026203122 0.21394178 0
0.7274884 -0.033149209 0.24138682 0
0.72696322 -0.033840325 0.26967886 0
0.73226446 -0.026863601 0.29969946 0
0.72544706 -0.035835769 0.32658631 0
0.52797967 -0.25812897 -0.090610899 0
0.60046017 -0.15757003 -0.092137165 0
0.67733312 -0.050917055 -0.089138694 0
0.72688848 0.017835651 -0.073499776 0
0.95184225 0.32993487 -0.089088403 0
0.85886395 0.20093742 -0.035976831 0
0.84034377 0.17524269 0.00061485381 0
0.83795649 0.17193058 0.034330893 0
0.84228885 0.17794123 0.067516856 0
0.83423114 0.16676214 0.10101108 0
0.84313864 0.17912033 0.13454001 0
0.84376693 0.17999199 0.168155 0
0.83782727 0.17175129 0.20110717 0
0.84298158 0.1789023 0.23546521 0
0.84331256 0.17936149 0.26941973 0
0.84384602 0.18010166 0.3036347 0
1.1068252 0.54495698 0.4119108 0
0.50000405 -0.25876674 -0.08708372 0
0.57636386 -0.14698419 -0.091162033 0
0.65759593 -0.028069284 -0.090349115 0
0.76879787 0.13471845 -0.090329923 0
0.92264849 0.35993901 -0.089998893 0
1.1471709 0.6886155 -0.08869987 0
0.84536815 0.24680892 -0.0036825815 0
0.83697176 0.2345176 0.031972025 0
0.84765983 0.25016382 0.066070497 0
0.83565009 0.23258284 0.10101264 0
0.8394177 0.23809817 0.13561548 0
0.83800495 0.23603013 0.17013896 0
0.84143525 0.24105158 0.20522143 0
0.84376526 0.24446252 0.24051979 0
0.83397299 0.23012772 0.27365175 0
0.84313595 0.24354127 0.31087869 0
1.1017976 0.62219387 0.42183113 0
1.1032633 0.62433952 0.46915907 0
0.49322098 -0.22815046 -0.091705509 0
0.55260938 -0.13632056 -0.090357699 0
0.63173079 -0.01397815 -0.089924358 0
0.7369718 0.14875177 -0.089496173 0
0.88539732 0.37825647 -0.08937148 0
1.109704 0.72509307 -0.089599378 0
1.4820243 1.3007972 -0.089691721 0
0.84845966 0.32114115 0.028317275 0
0.8397789 0.30771843 0.065057449 0
0.83257747 0.29658309 0.10101411 0
0.83854383 0.30580869 0.13691857 0
0.8430233 0.31273511 0.1732462 0
0.83715749 0.30366507 0.20870431 0
0.84449041 0.31500366 0.24604441 0
0.83707821 0.30354241 0.28100231 0
0.84033859 0.30858389 0.31827694 0
0.8385523 0.30582181 0.35454887 0
1.0982325 0.70735496 0.48166081 0
0.47510591 -0.21393535 -0.092213191 0
0.5334571 -0.11851254 -0.091276415 0
0.60411114 -0.0029704834 -0.089038886 0
0.71113908 0.17205432 -0.090335451 0
0.85375464 0.40527657 -0.090075694 0
1.0685593 0.75655073 -0.090040199 0
1.4252068 1.3397834 -0.08988405 0
0.84926456 0.39793375 0.025270859 0
0.85442722 0.40637639 0.06293425 0
0.83910555 0.38132051 0.10101626 0
0.84296042 0.38762441 0.1385877 0
0.84337699 0.38830569 0.17623694 0
0.83791041 0.37936607 0.21321619 0
0.8418808 0.38585892 0.25151688 0
0.84485704 0.390726 0.29011679 0
0.83726442 0.37830976 0.32634553 0
0.83465081 0.37403563 0.36370146 0
1.0986146 0.80570072 0.49738517 0
0.4517214 -0.20857695 -0.090652741 0
0.511123 -0.10569057 -0.091203354 0
0.5794673 0.012684975 -0.08918155 0
0.67734122 0.18220726 -0.089135326 0
0.82097429 0.43098655 -0.090701543 0
1.0263555 0.7867164 -0.090448178 0
1.3661263 1.3752153 -0.089903302 0
1.3626019 1.3691108 -0.025809607 0
0.84420961 0.47123125 0.06175926 0
0.83993441 0.46382633 0.1010183 0
0.84197438 0.46735969 0.14017369 0
0.8407355 0.46521381 0.17925598 0
0.83451629 0.45444193 0.21761076 0
0.84162265 0.46675041 0.25799981 0
0.84025455 0.46438077 0.29724616 0
0.84145701 0.46646348 0.33730185 0
0.8404426 0.46470645 0.37700394 0
0.84130085 0.46619311 0.41762197 0
0.42854372 -0.20358297 -0.089169241 0
0.48820451 -0.093949229 -0.091021322 0
0.55804968 0.034399543 -0.090573199 0
0.64676535 0.19742504 -0.088899396 0
0.78022367 0.44267038 -0.089563452 0
0.98838991 0.8252005 -0.091848575 0
1.2928658 1.3847108 -0.087977536 0
1.2912987 1.3818312 -0.024702718 0
1.2915282 1.3822527 0.038195249 0
0.85286498 0.57615751 0.10102127 0
0.84446758 0.56072623 0.14210042 0
0.83962584 0.55182892 0.18275253 0
0.84199876 0.55618948 0.22407691 0
0.84170502 0.55564982 0.26524657 0
0.8419286 0.55606061 0.30669352 0
0.8426373 0.55736285 0.34853125 0
0.84267801 0.55743772 0.3904832 0
0.84022611 0.55293208 0.43177903 0
0.41086134 -0.18859521 -0.090231858 0
0.46532717 -0.082198471 -0.090966828 0
0.53129977 0.046676192 -0.090304919 0
0.61974192 0.21944419 -0.08986292 0
0.74721056 0.46844879 -0.090426467 0
0.93527979 0.83583409 -0.09041176 0
1.2487833 1.4482498 -0.090467103 0
1.2425284 1.4360311 -0.025874173 0
1.244964 1.440789 0.037497077 0
1.2453198 1.4414842 0.10104836 0
0.85211569 0.67337662 0.14450574 0
0.83936447 0.6484676 0.18673062 0
0.8388055 0.64737564 0.22961505 0
0.83958948 0.64890712 0.27285746 0
0.83568943 0.64128858 0.31516659 0
0.84081841 0.65130776 0.36009294 0
0.83992362 0.6495598 0.40366668 0
0.84067285 0.65102357 0.44816321 0
0.39071321 -0.17812374 -0.090322517 0
0.43933541 -0.076925784 -0.089680739 0
0.50770289 0.065368325 -0.091333546 0
0.58419788 0.22457817 -0.088289239 0
0.71208704 0.49075559 -0.090937681 0
0.89569867 0.87290877 -0.091870047 0
1.1858075 1.4767156 -0.090293221 0
1.7855481 2.7249632 -0.090868674 0
4.5086837 8.3926601 -0.14103588 0
0.85173446 0.78140551 0.19253828 0
0.83819276 0.75322098 0.23623069 0
0.83919388 0.75530463 0.28174379 0
0.84027499 0.75755483 0.32758474 0
0.84136641 0.75982636 0.37379578 0
0.83935183 0.75563341 0.41924891 0
0.84054965 0.75812644 0.46623144 0
0.37112486 -0.16632006 -0.090841912 0
0.41906869 -0.059724417 -0.091009013 0
0.48025635 0.076316744 -0.091063045 0
0.55665648 0.24618056 -0.089410044 0
0.67555851 0.51054078 -0.091234259 0
0.84579259 0.8890298 -0.091270201 0
1.1201574 1.499037 -0.089772888 0
1.692286 2.771076 -0.090984471 0
4.2723908 8.5075378 -0.14114121 0
1.0683482 1.3838472 0.22226055 0
0.85055447 0.89961714 0.24588388 0
0.8413471 0.87914592 0.29231739 0
0.84252912 0.88177401 0.34086758 0
0.84038466 0.87700611 0.38867715 0
0.83713645 0.86978418 0.43611413 0
0.84128869 0.8790161 0.48694471 0
0.35140851 -0.15446541 -0.091482185 0
0.39684057 -0.046234157 -0.091670297 0
0.4507626 0.082222253 -0.090020679 0
0.52409023 0.25690809 -0.088968121 0
0.6417312 0.5371601 -0.092511453 0
0.79728961 0.90774125 -0.091067113 0
1.0666143 1.5493436 -0.091506161 0
1.5947664 2.8075411 -0.090731464 0
4.021884 8.5895767 -0.14056855 0
0.99498576 1.3787055 0.22067741 0
0.85321432 1.0409687 0.25502887 0
0.84232503 1.0150275 0.30399373 0
0.8394807 1.0082514 0.35428971 0
0.84002036 1.0095371 0.40574637 0
0.83906752 1.0072671 0.45697215 0
0.84305376 1.0167634 0.51088071 0
0.3304061 -0.14544705 -0.09158311 0
0.37212503 -0.038583305 -0.091258429 0
0.42291179 0.091507822 -0.089716859 0
0.49610817 0.2790015 -0.090369858 0
0.59559375 0.53383559 -0.090126969 0
0.74870825 0.92604107 -0.090948068 0
0.99633259 1.5603349 -0.090373866 0
1.4961228 2.8405559 -0.09043213 0
3.779784 8.6901932 -0.14062382 0
0.91960675 1.3638003 0.21871434 0
0.84800476 1.1803906 0.26393425 0
0.83786172 1.1544092 0.31590411 0
0.83543396 1.1481903 0.3692798 0
0.84034032 1.160758 0.42547059 0
0.84020847 1.1604202 0.48038286 0
0.84371889 1.1694121 0.53758717 0
0.30404609 -0.15113232 -0.088480048 0
0.35064596 -0.022258069 -0.092713185 0
0.40041506 0.11538079 -0.092088647 0
0.43327105 0.20624569 -0.077690668 0
0.43738303 0.21761754 -0.049023364 0
0.43745032 0.21780363 -0.018839931 0
0.93184942 1.5850885 -0.090407424 0
1.4002646 2.8805137 -0.090603061 0
3.5375566 8.7912998 -0.14084251 0
0.86273652 1.3939536 0.21909721 0
0.84694254 1.3502743 0.27503502 0
0.83854836 1.32706 0.33102182 0
0.83957094 1.3298879 0.38933894 0
0.83813542 1.325918 0.44709846 0
0.84046042 1.3323479 0.50685835 0
0.83831078 1.3264029 0.56491768 0
0.28762951 -0.12926885 -0.091725193 0
0.32315445 -0.022686806 -0.090937562 0
0.36739039 0.11002985 -0.089476593 0
0.40382701 0.21934715 -0.078072079 0
0.40269458 0.21594957 -0.04750872 0
0.40657151 0.22758117 -0.018756201 0
0.86866927 1.6139674 -0.090865143 0
1.3033689 2.9181538 -0.09077809 0
3.2894156 8.8766937 -0.14082476 0
0.79083651 1.3804536 0.21740289 0
0.84968942 1.557024 0.28876376 0
0.84101999 1.531014 0.34909308 0
0.84016865 1.5284598 0.41129711 0
0.83756828 1.520658 0.47293732 0
0.84030861 1.5288796 0.53737515 0
0.84223175 1.5346496 0.60222614 0
0.26439738 -0.12702897 -0.09067636 0
0.29734024 -0.019196954 -0.09008453 0
0.33947992 0.1187388 -0.089444615 0
0.38529825 0.26871613 -0.083889596 0
0.38011545 0.25175121 -0.050692115 0
0.38140565 0.25597444 -0.020566372 0
0.72498631 1.3806176 -0.072267748 0
0.72579592 1.3832676 -0.014522752 0
0.72637159 1.3851519 0.043244701 0
0.72798979 1.3904488 0.10104144 0
0.72539705 1.3819621 0.15876019 0
0.72550315 1.3823092 0.2165588 0
0.84353578 1.7686658 0.30273995 0
0.83810198 1.7508793 0.36857337 0
0.8341409 1.7379136 0.43441537 0
0.83998358 1.7570384 0.50470144 0
0.83183771 1.7303743 0.56851155 0
0.24143738 -0.12468556 -0.089787565 0
0.27341336 -0.0097129606 -0.090537168 0
0.30992714 0.12157562 -0.08853174 0
0.36534402 0.32083192 -0.090135626 0
0.44374421 0.602727 -0.092156179 0
0.55258632 0.99407846 -0.091184609 0
0.65976423 1.3794463 -0.070911951 0
0.6623711 1.3888197 -0.013943827 0
0.66325247 1.3919885 0.043503162 0
0.6624971 1.3892727 0.10104088 0
0.65964276 1.3790095 0.15826485 0
0.66428977 1.3957183 0.21635965 0
0.81254357 1.9287782 0.31288761 0
0.81033486 1.9208364 0.3830865 0
0.81045884 1.9212823 0.45422468 0
0.81301075 1.9304581 0.5270468 0
0.81139874 1.9246616 0.59823704 0
0.22170302 -0.11030379 -0.091670133 0
0.25097018 0.0062443349 -0.092361696 0
0.2848992 0.14135674 -0.090622745 0
0.33238712 0.33046368 -0.090259574 0
0.39499721 0.57979041 -0.088107161 0
0.49688283 0.98552042 -0.089082353 0
0.59564042 1.378794 -0.069721185 0
0.59815609 1.3888118 -0.013178786 0
0.59571946 1.3791087 0.044194326 0
0.59629911 1.381417 0.10104018 0
0.59802681 1.3882971 0.15810679 0
0.59654897 1.382412 0.21495232 0
0.77044475 2.0749016 0.32201865 0
0.77191508 2.0807569 0.39660919 0
0.77147681 2.0790114 0.47089013 0
0.76831889 2.0664361 0.54392266 0
0.19849528 -0.10929021 -0.090738647 0
0.22307332 0.00021067601 -0.090040557 0
0.25651574 0.14920452 -0.090798579 0
0.29973409 0.34175232 -0.090741627 0
0.3560999 0.59287518 -0.088543482 0
0.4479838 1.0022392 -0.0895449 0
0.55126441 1.4623783 -0.074688889 0
0.55336094 1.4717188 -0.016451737 0
0.55281699 1.4692955 0.042384882 0
0.55328584 1.4713843 0.10104239 0
0.55099857 1.461194 0.15950634 0
0.55302811 1.4702358 0.21846601 0
0.71402586 2.1875186 0.32877192 0
0.71367109 2.1859379 0.40490893 0
0.7140612 2.187676 0.48169982 0
0.71251768 2.1807992 0.55775183 0
0.1766205 -0.10261086 -0.091166802 0
0.19872417 0.0089709498 -0.090707116 0
0.22562145 0.14475134 -0.089032941 0
0.26739055 0.35560635 -0.091707207 0
0.32021683 0.62227935 -0.091039278 0
0.39952925 1.0226572 -0.090474881 0
0.41437489 1.0975995 -0.047757987 0
0.41789192 1.1153538 0.0010853654 0
0.41423362 1.0968864 0.051523279 0
0.41546643 1.1031098 0.1010313 0
0.41740212 1.1128812 0.15091905 0
0.4164249 1.1079483 0.2006263 0
0.41478497 1.0996697 0.24996851 0
0.41455182 1.0984926 0.29975429 0
0.41751206 1.1134362 0.35162273 0
0.40424073 1.0464411 0.39274162 0
0.27240911 0.38094059 0.36415276 0
0.15396988 -0.099757046 -0.090887345 0
0.1721423 0.005899522 -0.089227296 0
0.19747661 0.15319636 -0.089556254 0
0.23333707 0.36169341 -0.091677733 0
0.28094828 0.638511 -0.092069812 0
0.34776857 1.0270121 -0.0899956 0
0.37071323 1.1604152 -0.051521111 0
0.88099396 4.1272497 -0.140726 0
1.7652358 9.2683392 -0.14102601 0
0.58095771 2.3828022 0.26045796 0
0.58125371 2.3845232 0.34049156 0
0.58028287 2.3788786 0.42016971 0
0.26378822 0.53874034 0.28226858 0
0.27091148 0.58015579 0.32486355 0
0.27254847 0.58967334 0.36437988 0
0.23586348 0.37638226 0.36205539 0
0.1309278 -0.099940866 -0.090079449 0
0.14616483 0.0043354365 -0.088167809 0
0.16725765 0.14868644 -0.0880441 0
0.19862558 0.36335638 -0.091142319 0
0.23901629 0.63977474 -0.09144593 0
0.29659444 1.0338173 -0.089872696 0
0.39601213 1.7141933 -0.090035804 0
0.74996382 4.1365008 -0.14019322 0
1.5043601 9.2992954 -0.14078416 0
0.50518072 2.4613004 0.26351699 0
0.50637639 2.4694834 0.34553975 0
0.50471377 2.4581051 0.42636943 0
0.22300507 0.53020018 0.28053325 0
0.27653354 0.89652842 0.36891893 0
0.20091808 0.37904528 0.3615168 0
0.10971673 -0.086404413 -0.0923362 0
0.12229632 0.01804379 -0.090133481 0
0.13838087 0.15159371 -0.087890811 0
0.16561098 0.37768522 -0.092525624 0
0.19673555 0.63611215 -0.090368815 0
0.24674818 1.0513666 -0.090881906 0
0.32706964 1.7182751 -0.08968199 0
0.62016404 4.1518364 -0.14010268 0
1.2446076 9.336585 -0.14084582 0
0.42580405 2.5380664 0.26657537 0
0.425051 2.5318136 0.34911129 0
0.42472672 2.5291212 0.43195772 0
0.42479935 2.5297244 0.51542681 0
0.23060253 0.91730946 0.37096217 0
0.16543911 0.37625805 0.36011317 0
0.087397136 -0.078724593 -0.093451522 0
0.097598106 0.028754745 -0.091641493 0
0.11153371 0.17558292 -0.091338791 0
0.12933862 0.36317876 -0.089952849 0
0.15510879 0.63469821 -0.089683704 0
0.19453727 1.0501237 -0.090244882 0
0.25886175 1.727859 -0.089837752 0
0.49193418 4.1835542 -0.14093189 0
0.98283958 9.3558254 -0.14063913 0
0.34173337 2.6010096 0.26907316 0
0.34069449 2.5900638 0.35253194 0
0.34085307 2.5917346 0.43693396 0
0.34032813 2.5862038 0.52093625 0
0.340213 2.584991 0.60574752 0
0.17305803 0.82381469 0.4004029 0
0.1314262 0.38517383 0.36109746 0
0.063370183 -0.091579884 -0.090309523 0
0.071463153 0.024856482 -0.090506382 0
0.081428468 0.16823104 -0.089729123 0
0.095589787 0.37197497 -0.090796404 0
0.1147071 0.64702266 -0.090732522 0
0.14138667 1.0308709 -0.088047259 0
0.19129227 1.7488804 -0.090915523 0
0.36077404 4.1872749 -0.14060432 0
0.7225495 9.3922672 -0.14098781 0
0.25281551 2.6340375 0.27026805 0
0.25272876 2.6327894 0.35500729 0
0.13253322 0.90349334 0.27817917 0
0.13340954 0.91610116 0.32430783 0
0.13392726 0.92354971 0.3705512 0
0.12461837 0.78961951 0.39414689 0
0.096616864 0.38675192 0.36085653 0
0.040023554 -0.10560301 -0.087051682 0
0.045549233 0.019443545 -0.089211412 0
0.051861733 0.16229609 -0.088479407 0
0.061364219 0.3773382 -0.091275997 0
0.073228993 0.64583927 -0.090319328 0
0.090558216 1.0380011 -0.088442527 0
0.12251057 1.7610857 -0.091494612 0
0.23020071 4.1981235 -0.14076361 0
0.4599342 9.3970137 -0.1407515 0
0.16301507 2.677706 0.27206287 0
0.16235398 2.6627455 0.35674116 0
0.087121487 0.96022767 0.28322923 0
0.086673692 0.95009404 0.32796642 0
0.08663813 0.94928914 0.37378713 0
0.076666862 0.72363847 0.38286814 0
0.061360635 0.37725702 0.35869336 0
0.01802993 -0.088249713 -0.090591334 0
0.020040784 0.017982636 -0.088784821 0
0.023033509 0.17608681 -0.090595551 0
0.026703984 0.36999598 -0.090090953 0
0.032002844 0.64993197 -0.090645485 0
0.039657775 1.054338 -0.08981692 0
0.053070389 1.7629192 -0.091469608 0
0.099444009 4.2128134 -0.1412552 0
0.19792511 9.4155178 -0.14098941 0
0.070930429 2.7064559 0.27326703 0
0.070659205 2.6921275 0.3585937 0
0.070713952 2.6950197 0.44513917 0
0.070684731 2.6934757 0.53167796 0
0.03270277 0.68690866 0.37660396 0
0.027143043 0.39319113 0.36149091 0
-0.0047085318 -0.088289291 -0.090552427 0
-0.0054418244 0.027974043 -0.090636544 0
-0.0063020452 0.16436186 -0.088638 0
-0.0076579973 0.37934759 -0.091374777 0
-0.0093695996 0.65072161 -0.090707265 0
-0.011809638 1.0375888 -0.088223152 0
-0.016297117 1.7490776 -0.09047129 0
-0.031737641 4.1971684 -0.14048827 0
-0.064655915 9.4163513 -0.14097025 0
-0.022523383 2.7362502 0.27462837 0
-0.022471597 2.7280397 0.36106542 0
-0.022401884 2.7169864 0.44713607 0
-0.022479096 2.7292287 0.53579009 0
-0.0093556233 0.64850563 0.37024608 0
-0.0077303946 0.39082626 0.36100385 0
-0.02773522 -0.0793598 -0.092542939 0
-0.031478766 0.039290104 -0.092860527 0
-0.035048667 0.15243629 -0.086767636 0
-0.041945908 0.37104109 -0.090298735 0
-0.050900094 0.65483969 -0.091280364 0
-0.063865267 1.0657642 -0.09094476 0
-0.085757241 1.7596197 -0.091300093 0
-0.11899921 2.8132076 -0.076141767 0
-0.11866354 2.8025689 0.012764061 0
-0.1189523 2.8117206 0.10107896 0
-0.11873677 2.8048894 0.18944758 0
-0.11726373 2.7582023 0.27573508 0
-0.11589497 2.7148199 0.36026427 0
-0.11680388 2.7436275 0.44979089 0
-0.11635119 2.7292795 0.53600377 0
-0.050962955 0.65683192 0.37174433 0
-0.042402618 0.3855162 0.36012712 0
-0.049649376 -0.098587602 -0.08866512 0
-0.057057478 0.031755242 -0.091655292 0
-0.06420704 0.15754929 -0.087818764 0
-0.076680914 0.37702253 -0.091354094 0
-0.091931097 0.6453442 -0.090383284 0
-0.11538745 1.0580502 -0.090437673 0
-0.15466654 1.7491519 -0.090781651 0
-0.21325886 2.7800632 -0.074793838 0
-0.21356837 2.7855089 0.013062941 0
-0.21393509 2.7919612 0.10107852 0
-0.21415384 2.79581 0.18933433 0
-0.21127832 2.7452161 0.27532375 0
-0.21042417 2.7301877 0.3616305 0
-0.21066785 2.7344751 0.44932386 0
-0.077489972 0.39125767 0.26266026 0
-0.077107936 0.38453582 0.29443258 0
-0.076971985 0.38214388 0.32681209 0
-0.077012539 0.38285735 0.35991448 0
-0.073271453 -0.085976332 -0.091687731 0
-0.082312852 0.024026547 -0.090532817 0
-0.093351595 0.15833023 -0.088278957 0
-0.11061235 0.36833432 -0.090466596 0
-0.13358626 0.64784843 -0.091012858 0
-0.16742015 1.0594909 -0.090908609 0
-0.22412762 1.7494268 -0.091137536 0
-0.42503783 4.1938162 -0.14114109 0
-0.85098594 9.3761463 -0.14084335 0
-0.30566171 2.7414174 0.27545217 0
-0.30499017 2.733247 0.36230284 0
-0.30448079 2.7270496 0.44923952 0
-0.30431345 2.7250137 0.53675318 0
-0.11299591 0.39733413 0.29657763 0
-0.11306219 0.39814058 0.32984743 0
-0.11168609 0.38139823 0.36009321 0
-0.095027491 -0.097536474 -0.089678265 0
-0.10778639 0.020980272 -0.090414934 0
-0.12128738 0.14639047 -0.086759098 0
-0.14559034 0.37213972 -0.091463514 0
-0.17392655 0.63535351 -0.090004452 0
-0.21703245 1.0357621 -0.089141063 0
-0.29066902 1.7197692 -0.089512847 0
-0.55525333 4.1774812 -0.14095679 0
-1.1118299 9.347496 -0.14075322 0
-0.39849129 2.7213254 0.2749286 0
-0.3979274 2.7160871 0.36172193 0
-0.39922798 2.7281685 0.45017973 0
-0.39837146 2.7202122 0.53723341 0
-0.14855228 0.39965299 0.29737455 0
-0.1487592 0.401575 0.33096418 0
-0.1463619 0.3793067 0.36031821 0
-0.11764219 -0.099151462 -0.089912243 0
-0.13347648 0.019674812 -0.090749405 0
-0.15278104 0.16454318 -0.090340309 0
-0.17996107 0.36851206 -0.091534935 0
-0.21550505 0.63524693 -0.090573199 0
-0.27104133 1.0520113 -0.091249831 0
-0.35816649 1.7058301 -0.089109562 0
-0.68654811 4.1701255 -0.14134769 0
-1.3741888 9.3304319 -0.14108871 0
-0.49091083 2.7019918 0.27454898 0
-0.48965088 2.6925366 0.36085331 0
-0.24110192 0.82733518 0.27213946 0
-0.24051508 0.82293135 0.314749 0
-0.18354268 0.39538983 0.29736769 0
-0.18561953 0.41097525 0.33322337 0
-0.17997807 0.36863962 0.35908008 0
-0.14208759 -0.089700252 -0.092651613 0
-0.16002741 0.023107801 -0.092112385 0
-0.18075703 0.15345839 -0.089202337 0
-0.21453069 0.36583164 -0.091864653 0
-0.25768986 0.63722235 -0.09151455 0
-0.32007679 1.0295198 -0.089834161 0
-0.42882845 1.7133648 -0.090345107 0
-0.814031 4.1355705 -0.14061394 0
-1.6322793 9.2808256 -0.14081506 0
-0.57956839 2.6612377 0.2732667 0
-0.58205676 2.6768851 0.36070448 0
-0.27862215 0.76884729 0.26724046 0
-0.28014284 0.77840978 0.31026733 0
-0.2792576 0.77284306 0.35182732 0
-0.21721396 0.38270453 0.36271679 0
-0.16279739 -0.10409418 -0.090382271 0
-0.18426293 0.011928711 -0.090810902 0
-0.20777537 0.13901523 -0.087615483 0
-0.24660137 0.34887269 -0.090279646 0
-0.29711902 0.62192446 -0.090533532 0
-0.37041613 1.0181007 -0.089580171 0
-0.49605283 1.6971767 -0.090026356 0
-0.94275916 4.1116586 -0.14053266 0
-1.8905352 9.2344608 -0.14077044 0
-0.66906399 2.6323152 0.27264512 0
-0.66827571 2.6280544 0.35835972 0
-0.66711891 2.6218016 0.44396278 0
-0.66772902 2.6250994 0.53077787 0
-0.28928095 0.57955891 0.36328253 0
-0.25245383 0.38050559 0.36343399 0
-0.18314177 -0.11768213 -0.088389181 0
-0.21252699 0.021428261 -0.093600728 0
-0.23562916 0.13079455 -0.087179668 0
-0.27999935 0.34084418 -0.090084873 0
-0.34068635 0.62813801 -0.092235453 0
-0.42127845 1.0096632 -0.089730136 0
-0.5633806 1.6823785 -0.089926146 0
-0.61803985 1.9411368 -0.03846522 0
-0.61972469 1.9491131 0.031143555 0
-0.61613637 1.9321258 0.10105564 0
-0.75483918 2.5887485 0.2714299 0
-0.75431961 2.5862889 0.35666293 0
-0.75294363 2.5797751 0.44166982 0
-0.75265193 2.5783939 0.52734995 0
-0.28668374 0.37248817 0.3632054 0
-0.20785613 -0.11090586 -0.090945296 0
-0.23697227 0.011562977 -0.09279599 0
-0.26585171 0.13303617 -0.088627063 0
-0.31403086 0.33568826 -0.09042532 0
-0.37253773 0.58178109 -0.087763987 0
-0.47221348 1.001039 -0.089985915 0
-0.52381301 1.2180779 -0.05764677 0
-0.61884457 1.6178017 -0.023784911 0
-0.61805707 1.6144893 0.038743939 0
-0.621575 1.6292863 0.10104724 0
-0.83482939 2.5262814 0.26940528 0
-0.83423847 2.5237958 0.35362098 0
-0.83354849 2.5208936 0.43795234 0
-0.83235979 2.5158935 0.52225989 0
-0.83444256 2.5246542 0.60877627 0
-0.22764121 -0.12518939 -0.089024715 0
-0.2563917 -0.016520586 -0.088556193 0
-0.29515591 0.1299974 -0.08931572 0
-0.34674671 0.32499626 -0.090087719 0
-0.41741133 0.59208888 -0.090209924 0
-0.52374911 0.99401611 -0.090521745 0
-0.57959855 1.2051115 -0.057717431 0
-0.64869481 1.4662762 -0.017281054 0
-0.6481238 1.4641178 0.041964862 0
-0.64657974 1.4582818 0.10104267 0
-0.91517401 2.4734936 0.26793081 0
-0.91119039 2.4584365 0.35049677 0
-0.91305238 2.4654744 0.43474039 0
-0.91058522 2.4561491 0.5177117 0
-0.90891421 2.4498332 0.60112315 0
-0.25170672 -0.12322566 -0.090797655 0
-0.28517416 -0.0085156225 -0.091461636 0
-0.32454434 0.12642613 -0.090044491 0
-0.34728521 0.20437065 -0.073774494 0
-0.45486167 0.57309014 -0.08924339 0
-0.56789541 0.96051449 -0.088612981 0
-0.71298862 1.457823 -0.077238552 0
-0.71427339 1.4622264 -0.017917505 0
-0.71512938 1.4651606 0.041524034 0
-0.71461356 1.4633925 0.10104334 0
-0.98656958 2.3955247 0.26532093 0
-0.98397255 2.3866234 0.34702015 0
-0.9808594 2.375953 0.42838144 0
-0.98201007 2.3798969 0.5113588 0
-0.97988099 2.3725996 0.59333456 0
-0.27075893 -0.13839123 -0.088897772 0
-0.31161612 -0.010451581 -0.092568092 0
-0.35096058 0.11275104 -0.089163445 0
-0.37930286 0.20150164 -0.074703611 0
-0.39221665 0.24193981 -0.050087232 0
-0.39379692 0.24688819 -0.020155972 0
-0.39684093 0.25642005 0.0095504466 0
-0.39753607 0.25859693 0.039984901 0
-0.39619035 0.25438288 0.070615716 0
-0.3960343 0.25389424 0.10100766 0
-0.39358908 0.24623731 0.13120036 0
-0.39463699 0.24951878 0.16158664 0
-0.3953661 0.25180188 0.19212618 0
-0.396393 0.25501743 0.22296855 0
-0.39524642 0.25142708 0.25326738 0
-0.3954092 0.25193682 0.28416082 0
-0.39758304 0.25874391 0.31636897 0
-0.39721635 0.25759569 0.34758514 0
-0.29596731 -0.134505 -0.091375969 0
-0.33289516 -0.028203037 -0.090663321 0
-0.37949744 0.105948 -0.089585789 0
-0.43381327 0.26230374 -0.085233144 0
-0.43132073 0.25512853 -0.052994926 0
-0.42919663 0.24901405 -0.021389132 0
-0.43352869 0.26148453 0.0084034596 0
-0.42888299 0.24811116 0.039986562 0
-0.43028867 0.2521576 0.070414096 0
-0.43259221 0.25878873 0.10100812 0
-0.43101597 0.25425127 0.13165344 0
-0.43339834 0.26110926 0.16267057 0
-0.43200946 0.25711122 0.19328938 0
-0.43016768 0.25180939 0.22368181 0
-0.43219721 0.25765172 0.25532427 0
-0.4320296 0.25716916 0.28648689 0
-0.43212727 0.25745037 0.31796321 0
-0.43289915 0.25967219 0.35008237 0
-0.31539878 -0.14769885 -0.090143003 0
-0.35858431 -0.032819714 -0.091490977 0
-0.40731454 0.096809059 -0.089727886 0
-0.47580057 0.27899078 -0.08944533 0
-0.48873407 0.31339565 -0.061681394 0
-0.51220548 0.37583259 -0.035156805 0
-0.51164281 0.37433591 -0.00087345927 0
-0.50919902 0.36783507 0.033473026 0
-0.50924158 0.36794832 0.067257874 0
-0.51129359 0.37340692 0.10101195 0
-1.2015877 2.2096794 0.18062495 0
-1.1935265 2.1882355 0.25920048 0
-1.1618178 2.1038861 0.33217695 0
-1.1627322 2.1063187 0.40984827 0
-1.161641 2.103416 0.48731285 0
-1.162709 2.1062567 0.56591821 0
-0.33897012 -0.14992985 -0.091523431 0
-0.3791976 -0.050603535 -0.089782499 0
-0.43731606 0.092897683 -0.090922303 0
-0.51183367 0.27689043 -0.058688585 0
-0.51238346 0.27824786 -0.026677242 0
-0.51055014 0.27372125 0.0057071466 0
-0.51380169 0.28174964 0.037128668 0
-0.51552123 0.28599539 0.068979889 0
-0.51488966 0.28443614 0.10100963 0
-1.2737942 2.1582601 0.25925955 0
-1.1989665 1.9735022 0.32462364 0
-1.1942316 1.9618111 0.39834464 0
-1.1938438 1.9608536 0.47315249 0
-1.1990393 1.9736817 0.55041158 0
-0.51062804 0.18765607 -0.049017016 0
-0.51043677 0.18721619 -0.018771602 0
-0.51056802 0.18751803 0.011263819 0
-0.51322085 0.19362095 0.040922467 0
-0.50916839 0.18429807 0.071217455 0
-0.51069456 0.18780902 0.10100704 0
-1.3526577 2.1247575 0.25924242 0
-1.2336328 1.850939 0.31765488 0
-1.2268336 1.8352973 0.38862723 0
-1.2321 1.8474131 0.46265215 0
-1.2251697 1.8314695 0.53339642 0
-1.2254162 1.8320367 0.60675317 0
-0.51386982 0.11783686 -0.01299656 0
-0.50831026 0.10588148 0.016533921 0
-0.51291591 0.11578551 0.044233277 0
-0.51443446 0.11905101 0.072550863 0
-0.51470035 0.11962274 0.10100531 0
-1.4301647 2.0882523 0.2591725 0
-1.2516756 1.7044265 0.30882308 0
-1.2416362 1.6828375 0.37620696 0
-1.2390072 1.6771843 0.44482863 0
-1.2417064 1.6829886 0.51531035 0
-1.2355851 1.6698253 0.58311474 0
-0.51186687 0.044478688 0.020295748 0
-0.51311284 0.046990309 0.047116358 0
-0.51283854 0.046437416 0.074088827 0
-0.51027632 0.041272435 0.10100324 0
-1.2510862 1.5345769 0.29809275 0
-1.241153 1.5145538 0.3620193 0
-1.2431678 1.5186152 0.42832527 0
-1.2415822 1.5154188 0.49406582 0
-1.2411225 1.5144923 0.56048799 0
