# .PCD v0.7 - Point Cloud Data file format
VERSION 0.7
FIELDS x y z intensity
SIZE 4 4 4 4
TYPE F F F F
COUNT 1 1 1 1
WIDTH 1315
HEIGHT 1
VIEWPOINT 0 0 0 1 0 0 0
POINTS 1315
DATA ascii
-0.92965424 -1.4149439 -0.091778897 0
-1.055033 -1.4722897 -0.089878105 0
-1.2334942 -1.5539145 -0.08980047 0
-1.5016125 -1.6765467 -0.092139013 0
-1.8654763 -1.842971 -0.090602659 0
-3.1465154 -2.4288933 -0.14099239 0
-4.7262568 -3.1514368 -0.14103134 0
-9.4519892 -5.3128958 -0.14071357 0
-0.80758476 -1.3840762 -0.090290748 0
-0.92329359 -1.4405718 -0.092758842 0
-1.0457877 -1.5003803 -0.090477519 0
-1.2075011 -1.5793378 -0.088024758 0
-1.4775598 -1.7111957 -0.091328196 0
-1.8444386 -1.8903264 -0.090716459 0
-3.0974882 -2.5021355 -0.14008197 0
-4.6629038 -3.2664592 -0.1406534 0
-9.3472414 -5.5536156 -0.14090374 0
-0.79460084 -1.4029133 -0.089628153 0
-0.89419544 -1.4546927 -0.089061297 0
-1.0335488 -1.5271429 -0.090660833 0
-1.2171504 -1.6225978 -0.091972165 0
-1.4472228 -1.7422128 -0.089793332 0
-1.8241239 -1.9381644 -0.091032781 0
-3.0731523 -2.5875366 -0.14124975 0
-4.6032176 -3.3830206 -0.14061424 0
-9.214736 -5.7805576 -0.14052726 0
-0.79288739 -1.4278129 -0.09180782 0
-0.88925129 -1.4810433 -0.090585478 0
-1.0152806 -1.5506606 -0.089840628 0
-1.1886498 -1.6464279 -0.090024047 0
-1.4302942 -1.7799097 -0.090131037 0
-1.7989572 -1.9835552 -0.090964042 0
-3.0311375 -2.6641984 -0.14119299 0
-4.5419302 -3.4987442 -0.14064479 0
-9.0967369 -6.0147705 -0.14068194 0
-0.77443236 -1.4435219 -0.090049408 0
-0.87715667 -1.5036973 -0.090715609 0
-0.98954207 -1.5695322 -0.087697573 0
-1.1622254 -1.6706892 -0.088482387 0
-1.4125684 -1.8173391 -0.090493776 0
-1.7654164 -2.0240357 -0.090111442 0
-2.9831247 -2.7373633 -0.14080505 0
-4.4805217 -3.6145318 -0.14082573 0
-8.9675112 -6.2429891 -0.14069456 0
-0.78114837 -1.4743679 -0.094657578 0
-0.86205363 -1.5245457 -0.090306796 0
-0.98804063 -1.6026833 -0.09029948 0
-1.1439067 -1.699352 -0.088357352 0
-1.3835027 -1.8479505 -0.089431621 0
-1.7397941 -2.068924 -0.090226524 0
-2.9375892 -2.811801 -0.14076558 0
-4.3979406 -3.7175169 -0.14000855 0
-8.8381567 -6.4713569 -0.14086026 0
-0.75352395 -1.484022 -0.090810128 0
-0.84752923 -1.545662 -0.090139069 0
-0.97137642 -1.6268694 -0.090127923 0
-1.1318038 -1.7320628 -0.089395426 0
-1.3776145 -1.8932427 -0.091698118 0
-1.7154715 -2.1147778 -0.090614013 0
-2.8950529 -2.8882375 -0.14113197 0
-4.3361359 -3.8331656 -0.14047793 0
-8.694315 -6.6908545 -0.1407849 0
-0.73853385 -1.5013313 -0.090223916 0
-0.8365137 -1.5691731 -0.090893321 0
-0.96032518 -1.6549008 -0.09119641 0
-1.1162499 -1.7628639 -0.090001829 0
-1.3527435 -1.9266132 -0.091467179 0
-1.679927 -2.1531565 -0.089864604 0
-2.8409688 -2.9570675 -0.14068556 0
-4.2665172 -3.9441245 -0.14067702 0
-8.5515213 -6.9110823 -0.14089324 0
-0.72902501 -1.5224898 -0.09118358 0
-0.82098627 -1.5896591 -0.09074641 0
-0.93741524 -1.6746998 -0.090013944 0
-1.1092417 -1.8002033 -0.092240818 0
-1.3225898 -1.9560344 -0.09058819 0
-1.663524 -2.2050555 -0.091424741 0
-2.791338 -3.02882 -0.14076544 0
-4.190948 -4.0511069 -0.14069678 0
-8.4000845 -7.125495 -0.14091335 0
-0.70882374 -1.5357226 -0.089435704 0
-0.80790281 -1.6119975 -0.091299318 0
-0.92862862 -1.704937 -0.091840349 0
-1.0761508 -1.8185053 -0.090063341 0
-1.2947038 -1.986756 -0.090134986 0
-1.624472 -2.2406244 -0.090500377 0
-2.7352009 -3.0957067 -0.14043117 0
-4.1181703 -4.1603708 -0.14103809 0
-8.2404346 -7.3338504 -0.14085016 0
-0.698497 -1.5564463 -0.090444438 0
-0.78674209 -1.6279984 -0.090040378 0
-0.91047561 -1.7283255 -0.091882519 0
-1.0657961 -1.8542645 -0.092037283 0
-1.272824 -2.0221295 -0.090691663 0
-1.5977273 -2.2855716 -0.091142677 0
-2.6854436 -3.1675272 -0.14081465 0
-4.0333967 -4.2604914 -0.14083113 0
-8.0842018 -7.5450163 -0.14104386 0
-0.68753892 -1.5769651 -0.091443367 0
-0.7739383 -1.6507103 -0.090922482 0
-0.87906235 -1.7404379 -0.089186601 0
-1.0359575 -1.8743539 -0.090619199 0
-1.2495347 -2.0566504 -0.091179632 0
-1.5643485 -2.325356 -0.09112262 0
-2.6277199 -3.232985 -0.14063916 0
-3.9422321 -4.3549719 -0.14038159 0
-7.9055476 -7.7378159 -0.14071758 0
-0.6672259 -1.5894201 -0.089938767 0
-0.75722647 -1.670252 -0.090978958 0
-0.87391627 -1.7750541 -0.092298336 0
-1.0206126 -1.9068059 -0.092001192 0
-1.2269311 -2.0921059 -0.091921873 0
-1.5251143 -2.3599117 -0.090492107 0
-2.5715733 -3.2997634 -0.14076136 0
-3.8587227 -4.4557853 -0.14054836 0
-7.7382522 -7.9400907 -0.14088926 0
-0.65344429 -1.6075745 -0.090398736 0
-0.74008244 -1.6894286 -0.091051169 0
-0.8392151 -1.7830871 -0.088997908 0
-0.99165952 -1.9271138 -0.090942077 0
-1.2011588 -2.1250446 -0.092314772 0
-1.4946584 -2.4023376 -0.091084339 0
-1.9771206 -2.8581586 -0.089274742 0
-3.7720077 -4.5539331 -0.14067498 0
-7.5571976 -8.1301088 -0.14078641 0
-0.64256942 -1.6287916 -0.091877081 0
-0.7247293 -1.7104352 -0.091727711 0
-0.8228457 -1.8079349 -0.089907609 0
-0.97145766 -1.9556129 -0.091690235 0
-1.1699708 -2.1528785 -0.091960676 0
-1.4621789 -2.4432502 -0.091564529 0
-1.9343913 -2.9124947 -0.089772798 0
-3.6774778 -4.6446266 -0.14045252 0
-7.3794818 -8.3233652 -0.14094572 0
-0.62315667 -1.6416137 -0.090932302 0
-0.71335131 -1.7358823 -0.093647994 0
-0.80277985 -1.8293501 -0.090110071 0
-0.9424848 -1.9753652 -0.090819754 0
-1.1337599 -2.1752796 -0.090865217 0
-1.4202576 -2.4747179 -0.090920396 0
-1.8815199 -2.9568143 -0.089395516 0
-3.5912316 -4.7437496 -0.14093418 0
-7.1913047 -8.5064287 -0.14091942 0
-0.60890383 -1.6597971 -0.091691919 0
-0.68321294 -1.7414931 -0.090548195 0
-0.78438324 -1.8527205 -0.090856187 0
-0.91811758 -1.9997492 -0.090989508 0
-1.1076669 -2.2081411 -0.091593318 0
-1.3791519 -2.506614 -0.090480037 0
-1.8449141 -3.0186765 -0.090812258 0
-3.4972005 -4.8352132 -0.14106156 0
-6.9958644 -8.6816711 -0.14079896 0
-0.59279895 -1.676136 -0.092019133 0
-0.66589773 -1.7606926 -0.091090031 0
-0.7585181 -1.8678308 -0.089893706 0
-0.89228487 -2.0225646 -0.090979762 0
-1.0643297 -2.2215767 -0.089407466 0
-1.3406096 -2.5411618 -0.090505801 0
-1.7986249 -3.0709682 -0.091400377 0
-3.3976688 -4.9206529 -0.1409632 0
-6.8044915 -8.861475 -0.14097463 0
-0.57010084 -1.6845928 -0.090284549 0
-0.64719522 -1.7784575 -0.091378771 0
-0.74505979 -1.8976104 -0.092211224 0
-0.86717582 -2.0462902 -0.091255598 0
-1.0420394 -2.2591918 -0.091090597 0
-1.2957865 -2.5681362 -0.089735068 0
-1.7368604 -3.1051567 -0.090445541 0
-3.2961352 -5.0036187 -0.14087082 0
-6.5962286 -9.0215778 -0.14070085 0
-0.55886298 -1.7070978 -0.092526682 0
-0.62227213 -1.788399 -0.089907087 0
-0.72058046 -1.9144468 -0.091857381 0
-0.84290534 -2.0712879 -0.091866873 0
-1.0096232 -2.285048 -0.091082357 0
-1.2614964 -2.6079922 -0.09063942 0
-1.6861281 -3.1524413 -0.090810023 0
-3.1932817 -5.0848651 -0.14083156 0
-6.4002895 -9.1967888 -0.14103444 0
-0.53042972 -1.7072885 -0.088902168 0
-0.6094926 -1.8141128 -0.092307307 0
-0.68882632 -1.921303 -0.089597024 0
-0.8076793 -2.0818889 -0.090057917 0
-0.97293425 -2.3051698 -0.090360574 0
-1.2156713 -2.6331394 -0.089920528 0
-1.6282334 -3.1905649 -0.09048342 0
-3.0869973 -5.1615448 -0.14068036 0
-6.186975 -9.3500195 -0.14087054 0
-0.52203882 -1.7345663 -0.092563294 0
-0.58640581 -1.8262869 -0.091624849 0
-0.66993248 -1.9453093 -0.090982147 0
-0.78548729 -2.1099706 -0.091435947 0
-0.93604445 -2.3245089 -0.089673109 0
-1.178777 -2.6703937 -0.090727918 0
-1.5720979 -3.2308612 -0.090474091 0
-2.9851141 -5.2443562 -0.14103453 0
-5.9774113 -9.5082674 -0.14100635 0
-0.49962181 -1.7423406 -0.091239966 0
-0.55896151 -1.8316056 -0.089536123 0
-0.645549 -1.9618593 -0.090967692 0
-0.7525925 -2.1228852 -0.090326957 0
-0.90514517 -2.3523707 -0.090325005 0
-1.1354429 -2.6988084 -0.09063641 0
-1.5188943 -3.2756357 -0.090960808 0
-2.8769171 -5.3185134 -0.14104402 0
-5.7525296 -9.6443071 -0.14066885 0
-0.48004553 -1.7540689 -0.09107358 0
-0.54595041 -1.8588514 -0.092514701 0
-0.61580753 -1.9699177 -0.089425214 0
-0.72615021 -2.1453521 -0.090960272 0
-0.87331158 -2.3793249 -0.0909499 0
-1.0867647 -2.7186956 -0.089727648 0
-1.4522053 -3.2997119 -0.089842252 0
-2.7617171 -5.3817129 -0.14060216 0
-5.5375562 -9.7950373 -0.14089736 0
-0.46127811 -1.7671092 -0.091357239 0
-0.51629221 -1.8596796 -0.089733325 0
-0.59424365 -1.9908459 -0.090510838 0
-0.69224614 -2.1557515 -0.089721285 0
-0.83271772 -2.3921182 -0.089750327 0
-1.0458093 -2.7506804 -0.090280391 0
-1.3986086 -3.3443241 -0.090548359 0
-2.6547582 -5.4580054 -0.1410346 0
-5.3166842 -9.9371405 -0.14103702 0
-0.43822476 -1.7726722 -0.089931078 0
-0.49228323 -1.8690939 -0.089007847 0
-0.56606203 -2.00069 -0.089596055 0
-0.66231591 -2.1723735 -0.089641191 0
-0.79649436 -2.4117019 -0.08961571 0
-1.0090162 -2.7907677 -0.091803841 0
-1.339067 -3.3794649 -0.090594642 0
-2.5373437 -5.5167775 -0.14067104 0
-5.0900207 -10.069875 -0.14107467 0
-0.42461371 -1.7954265 -0.09279678 0
-0.47566706 -1.89213 -0.091323204 0
-0.53750598 -2.009263 -0.088590302 0
-0.64070314 -2.2047358 -0.092184402 0
-0.76040167 -2.4314647 -0.089628212 0
-0.9595536 -2.8086913 -0.091066472 0
-1.2800918 -3.415844 -0.090857856 0
-1.9237757 -4.635088 -0.090959527 0
-4.8523769 -10.182343 -0.1407305 0
-0.39539513 -1.7882829 -0.08861471 0
-0.45635882 -1.9111718 -0.092858709 0
-0.51368761 -2.0267336 -0.089362465 0
-0.60724312 -2.2153201 -0.091365688 0
-0.72311699 -2.4488955 -0.089455985 0
-0.91415519 -2.8339851 -0.091237135 0
-1.2163526 -3.4431467 -0.090526395 0
-1.8289602 -4.6780243 -0.090727426 0
-4.6228809 -10.309933 -0.1409397 0
-0.3796283 -1.8077463 -0.090892576 0
-0.42794037 -1.9116373 -0.090619497 0
-0.48923087 -2.0434375 -0.090096302 0
-0.57209778 -2.2216358 -0.09002661 0
-0.68176234 -2.4574602 -0.088264994 0
-0.86199373 -2.8450329 -0.090058021 0
-1.1554666 -3.4761219 -0.090760924 0
-1.7403158 -4.7337914 -0.091280393 0
-4.3819823 -10.414474 -0.14070494 0
-0.35472009 -1.8075722 -0.088686906 0
-0.40786558 -1.9298342 -0.09219446 0
-0.4624311 -2.0553629 -0.090077095 0
-0.53938192 -2.2323895 -0.089518912 0
-0.64834583 -2.4830625 -0.089391999 0
-0.81815523 -2.8737116 -0.090820931 0
-1.0912278 -3.5019193 -0.090563558 0
-1.6414337 -4.7676759 -0.090830751 0
-4.1441922 -10.525308 -0.14078729 0
-0.3353118 -1.8196219 -0.089451887 0
-0.37940136 -1.9284842 -0.089884736 0
-0.43497497 -2.065702 -0.089897327 0
-0.50706583 -2.2437027 -0.089227073 0
-0.61088461 -2.5000434 -0.089527361 0
-0.76842672 -2.8890333 -0.090343021 0
-1.029796 -3.5343852 -0.090994127 0
-1.5454952 -4.8077064 -0.090820394 0
-3.9034336 -10.629732 -0.14085937 0
-0.31440309 -1.8282372 -0.089541502 0
-0.35305843 -1.9310654 -0.088533126 0
-0.40798023 -2.0771644 -0.090038799 0
-0.47777346 -2.2628236 -0.090233274 0
-0.57780039 -2.5289083 -0.091263883 0
-0.72307622 -2.9153609 -0.091092847 0
-0.9614647 -3.5495055 -0.090241529 0
-1.4508737 -4.8513975 -0.091113217 0
-3.6585629 -10.724137 -0.1408336 0
-0.29590255 -1.8438933 -0.091334037 0
-0.33405313 -1.9537151 -0.091327973 0
-0.37915155 -2.0835371 -0.089412548 0
-0.44280645 -2.2667766 -0.089084603 0
-0.53926295 -2.5444398 -0.091439404 0
-0.67162132 -2.9254518 -0.09034539 0
-0.8984732 -3.5784762 -0.090648778 0
-1.3550692 -4.8928514 -0.091411479 0
-3.4090409 -10.805492 -0.14063966 0
-0.2749368 -1.853276 -0.091816969 0
-0.31037706 -1.9642532 -0.091800936 0
-0.35116622 -2.0919797 -0.089274533 0
-0.41256973 -2.2842577 -0.090071686 0
-0.49706069 -2.5488315 -0.090366624 0
-0.62482202 -2.9489014 -0.091040663 0
-0.82912761 -3.588661 -0.089791231 0
-1.252759 -4.9152136 -0.090893008 0
-3.1611025 -10.890972 -0.14070229 0
-0.25138637 -1.8542612 -0.090554543 0
-0.28489584 -1.9691151 -0.091274463 0
-0.32335624 -2.1009386 -0.089347295 0
-0.37824371 -2.2890661 -0.089308448 0
-0.45475343 -2.5513039 -0.089198224 0
-0.57498103 -2.9633853 -0.090974383 0
-0.76520872 -3.6153927 -0.09027297 0
-1.1498418 -4.9337268 -0.090317346 0
-2.9150813 -10.984103 -0.14110196 0
-0.23006026 -1.8625387 -0.09103512 0
-0.25944731 -1.9736135 -0.090806372 0
-0.29731783 -2.1167536 -0.09070491 0
-0.34455538 -2.2952983 -0.088883691 0
-0.41771448 -2.5718193 -0.090348445 0
-0.52374262 -2.9725761 -0.090519376 0
-0.70117235 -3.6432114 -0.090947174 0
-1.052888 -4.972599 -0.090851493 0
-2.6611822 -11.051503 -0.14102997 0
-0.20573321 -1.8587493 -0.088994317 0
-0.23539752 -1.983524 -0.091513626 0
-0.26938653 -2.1264892 -0.091138788 0
-0.31323001 -2.3109043 -0.089938723 0
-0.37685117 -2.5785089 -0.089943551 0
-0.47367069 -2.9857531 -0.090573989 0
-0.63323575 -3.656919 -0.090719856 0
-0.94603854 -4.9726357 -0.089641549 0
-2.4032242 -11.101879 -0.14070518 0
-0.18669625 -1.8777295 -0.092044882 0
-0.2090039 -1.9833345 -0.090390004 0
-0.23882385 -2.1245029 -0.089720123 0
-0.27880678 -2.3137832 -0.089273952 0
-0.33801228 -2.5940635 -0.090723284 0
-0.42285916 -2.9957311 -0.090444021 0
-0.56565315 -3.6717217 -0.090694852 0
-0.84640783 -5.0008216 -0.089906104 0
-2.1497028 -11.170654 -0.14097454 0
-0.16391174 -1.8805138 -0.091684304 0
-0.18317151 -1.9846143 -0.089680932 0
-0.21110317 -2.135587 -0.090621851 0
-0.24727994 -2.331125 -0.090803839 0
-0.2980485 -2.6055329 -0.091130652 0
-0.3702822 -2.9959617 -0.089511447 0
-0.49927497 -3.6931772 -0.091264538 0
-0.94253749 -6.0890446 -0.14047591 0
-1.8915275 -11.218409 -0.14089726 0
-0.14113909 -1.8829201 -0.091367893 0
-0.16027695 -2.0032616 -0.09241163 0
-0.1811527 -2.134531 -0.089616396 0
-0.21055217 -2.3193989 -0.088304646 0
-0.25742495 -2.6141412 -0.091317408 0
-0.32094407 -3.0135579 -0.090349592 0
-0.42997673 -3.6991701 -0.090856232 0
-0.81443673 -6.1167059 -0.14073421 0
-1.6326917 -11.262004 -0.14087611 0
-0.11788472 -1.8812531 -0.09030252 0
-0.13260101 -1.9916897 -0.089501046 0
-0.15178414 -2.1356468 -0.089099906 0
-0.17834121 -2.3349407 -0.089811482 0
-0.21541843 -2.6131816 -0.090496548 0
-0.26965156 -3.0201669 -0.090267755 0
-0.36053026 -3.7021534 -0.090360619 0
-0.68483388 -6.1358457 -0.14074351 0
-1.3737724 -11.305891 -0.14101541 0
-0.095045112 -1.8812119 -0.089713253 0
-0.10813282 -2.0027831 -0.09102457 0
-0.1235052 -2.1455765 -0.09016449 0
-0.14460754 -2.3415952 -0.090173148 0
-0.17475954 -2.6216757 -0.090914004 0
-0.21735236 -3.0173187 -0.089420043 0
-0.29288077 -3.7188988 -0.090957426 0
-0.55487865 -6.152585 -0.14079382 0
-1.1122805 -11.330267 -0.14085113 0
-0.073575035 -1.8963019 -0.092475496 0
-0.082399942 -2.0036707 -0.090733059 0
-0.093498684 -2.1387045 -0.088574059 0
-0.11015201 -2.3413184 -0.08967685 0
-0.13357441 -2.6262889 -0.09099596 0
-0.16665114 -3.0287194 -0.090032347 0
-0.22421212 -3.7290397 -0.091209657 0
-0.42459062 -6.1669598 -0.14088693 0
-0.85147792 -11.360717 -0.140983 0
-0.050189398 -1.8894986 -0.090688042 0
-0.056912865 -2.0077956 -0.091175281 0
-0.064761847 -2.1458955 -0.089425676 0
-0.076093405 -2.3452702 -0.089899041 0
-0.080995664 -2.4315238 -0.067859985 0
-0.080811106 -2.4282765 -0.033561636 0
-0.081063934 -2.432725 -0.00010200381 0
-0.081559636 -2.4414468 0.033256751 0
-0.08067847 -2.4259429 0.067513727 0
-0.080859877 -2.4291346 0.10101157 0
-0.027346628 -1.8869087 -0.089923672 0
-0.031026196 -2.0035307 -0.090157457 0
-0.035489149 -2.1449819 -0.089063264 0
-0.040602442 -2.3070452 -0.084311716 0
-0.040940918 -2.3177731 -0.054370794 0
-0.040716521 -2.3106608 -0.022427974 0
-0.04054575 -2.3052485 0.0089268778 0
-0.040500898 -2.3038268 0.039742246 0
-0.040612984 -2.3073795 0.070309035 0
-0.040609218 -2.30726 0.10100804 0
-0.0046958132 -1.8882788 -0.09012378 0
-0.0054461528 -2.0072451 -0.090765797 0
-0.0064009507 -2.158628 -0.091215305 0
-0.0067285057 -2.2105618 -0.070663698 0
-0.0067095747 -2.2075601 -0.041415412 0
-0.0066940621 -2.2051005 -0.012515826 0
-0.0066993167 -2.2059338 0.015914002 0
-0.006690071 -2.2044678 0.044397198 0
-0.0067270044 -2.2103236 0.072580308 0
-0.0067195441 -2.2091408 0.10100522 0
0.018025991 -1.8901268 -0.090547092 0
0.020118792 -2.0006883 -0.089561172 0
0.022936607 -2.1495521 -0.089754023 0
0.023868259 -2.1987708 -0.069033705 0
0.023693021 -2.1895132 -0.039328504 0
0.02415901 -2.2141311 -0.013376957 0
0.023926437 -2.2018442 0.016186396 0
0.023963777 -2.2038169 0.044418495 0
0.023860045 -2.1983368 0.072854541 0
0.023840422 -2.1973002 0.10100489 0
0.041020375 -1.8955399 -0.091851376 0
0.045760132 -2.0028009 -0.090111233 0
0.051943075 -2.1427217 -0.088782243 0
0.053959683 -2.1883576 -0.067704283 0
0.054723982 -2.2056537 -0.041328494 0
0.05427096 -2.1954017 -0.01171813 0
0.05443497 -2.1991134 0.016309964 0
0.053855792 -2.1860065 0.045203421 0
0.055243891 -2.2174191 0.072388031 0
0.054598182 -2.2028069 0.10100508 0
0.063864104 -1.894111 -0.09182369 0
0.071352176 -2.0018446 -0.090204932 0
0.081467375 -2.1473756 -0.089821346 0
0.085641846 -2.2074351 -0.070633911 0
0.084866196 -2.1962755 -0.040434051 0
0.085648358 -2.2075288 -0.013014553 0
0.085124128 -2.1999865 0.01612726 0
0.085392028 -2.203841 0.044291094 0
0.084944315 -2.1973994 0.0728136 0
0.085269623 -2.2020798 0.10100511 0
0.086599886 -1.8914602 -0.091657989 0
0.097068258 -2.0017569 -0.090585284 0
0.11063617 -2.144711 -0.089777596 0
0.11562695 -2.1972947 -0.069558732 0
0.11603498 -2.2015939 -0.041352008 0
0.11642656 -2.2057197 -0.013081593 0
0.11586439 -2.1997964 0.01596445 0
0.11662754 -2.2078371 0.043986529 0
0.11600062 -2.2012317 0.072665632 0
0.11610311 -2.2023118 0.10100518 0
0.10811823 -1.878908 -0.089494623 0
0.12238541 -1.9973685 -0.09027385 0
0.13917693 -2.1367881 -0.088984974 0
0.14671969 -2.1994154 -0.070322849 0
0.14553876 -2.1896105 -0.040328521 0
0.14719182 -2.2033358 -0.013167745 0
0.14700304 -2.2017682 0.01559435 0
0.14826618 -2.2122562 0.043624297 0
0.1468966 -2.2008846 0.072596766 0
0.14596532 -2.193152 0.10100501 0
0.13215032 -1.8870103 -0.091876723 0
0.14749251 -1.9920063 -0.089897357 0
0.16956392 -2.1430542 -0.090665631 0
0.17778781 -2.1993356 -0.070888467 0
0.17748465 -2.1972609 -0.041708101 0
0.17938273 -2.2102506 -0.014204493 0
0.1785682 -2.2046762 0.015101315 0
0.1774921 -2.1973116 0.044134248 0
0.17728272 -2.1958787 0.072618812 0
0.17695422 -2.1936307 0.10100514 0
0.15547475 -1.8875771 -0.092774458 0
0.17498459 -2.0010097 -0.092385568 0
0.19610776 -2.1238222 -0.088229023 0
0.20932499 -2.2006688 -0.071769707 0
0.20839778 -2.1952779 -0.0420467 0
0.20975949 -2.2031951 -0.013999423 0
0.20760915 -2.1906927 0.015747936 0
0.21027102 -2.2061694 0.043487284 0
0.21034859 -2.2066202 0.072251394 0
0.20827369 -2.1945565 0.10100531 0
0.17548929 -1.8702635 -0.089929394 0
0.2005786 -1.996917 -0.092504613 0
0.22545002 -2.1224706 -0.088887952 0
0.24133313 -2.2026503 -0.072861947 0
0.24241646 -2.2081189 -0.044245932 0
0.23917224 -2.1917419 -0.013447626 0
0.24059094 -2.1989038 0.014763938 0
0.24131383 -2.2025528 0.043389905 0
0.23824166 -2.1870441 0.072580993 0
0.23977868 -2.1948032 0.10100548 0
0.19911307 -1.8720468 -0.091338255 0
0.22592172 -1.9914857 -0.092490248 0
0.25468776 -2.1196451 -0.089426793 0
0.27297577 -2.2011225 -0.073571004 0
0.2734831 -2.2033827 -0.044454772 0
0.27444944 -2.2076879 -0.015584616 0
0.27197236 -2.1966519 0.014464507 0
0.27453989 -2.208091 0.042817909 0
0.2711215 -2.1928611 0.072290637 0
0.27171665 -2.1955128 0.10100569 0
0.22276583 -1.8725133 -0.092597701 0
0.24849507 -1.9749726 -0.090447582 0
0.28307381 -2.1126726 -0.089390986 0
0.30419555 -2.1967835 -0.073992632 0
0.30624801 -2.204957 -0.045519579 0
0.30882806 -2.2152314 -0.017011961 0
0.30494052 -2.1997502 0.013720633 0
0.30167884 -2.1867616 0.043491784 0
0.30539882 -2.2015753 0.071909159 0
0.30383629 -2.195353 0.1010059 0
0.24430948 -1.8642261 -0.092065983 0
0.27290639 -1.9670489 -0.090180792 0
0.31097263 -2.1039195 -0.089173011 0
0.33957005 -2.206744 -0.076617591 0
0.34103072 -2.2119961 -0.047354791 0
0.3369785 -2.1974258 -0.016077263 0
0.33812124 -2.2015347 0.013006674 0
0.33697462 -2.1974118 0.042592105 0
0.3395476 -2.2066634 0.07159169 0
0.33601084 -2.1939466 0.10100609 0
0.26259655 -1.845661 -0.08936622 0
0.29946178 -1.9663322 -0.091452189 0
0.33959222 -2.0976911 -0.089507781 0
0.36908969 -2.1942453 -0.076093279 0
0.37226844 -2.2046502 -0.047553185 0
0.37333411 -2.2081385 -0.017987756 0
0.37203649 -2.203891 0.012184398 0
0.37064818 -2.1993465 0.042066518 0
0.37304866 -2.2072041 0.071361445 0
0.3697179 -2.1963015 0.10100643 0
0.28433311 -1.839426 -0.089509286 0
0.32257608 -1.9541626 -0.090593062 0
0.36807206 -2.0906596 -0.089830898 0
0.42978376 -2.2758071 -0.0896082 0
0.51878148 -2.5428183 -0.090415381 0
0.64982653 -2.9359798 -0.090561651 0
0.86563635 -3.5834527 -0.09019462 0
1.3012065 -4.8902507 -0.090459712 0
3.2876222 -10.849897 -0.1406929 0
0.30792785 -1.8381876 -0.090906538 0
0.34798127 -1.9489573 -0.09123721 0
0.39373019 -2.0754781 -0.088857688 0
0.46240509 -2.2654018 -0.089731269 0
0.55656397 -2.5258031 -0.089985885 0
0.70126158 -2.9259713 -0.091254704 0
0.93500292 -3.5723946 -0.091055758 0
1.398966 -4.8555069 -0.090425275 0
3.5341887 -10.760571 -0.14061224 0
0.32965747 -1.83122 -0.091145538 0
0.37130588 -1.9379032 -0.090834163 0
0.42542931 -2.0765412 -0.090854608 0
0.49552599 -2.2560949 -0.090144895 0
0.59526193 -2.5115705 -0.090020336 0
0.74580574 -2.8971908 -0.090203084 0
0.99475926 -3.5348895 -0.090071417 0
1.4988728 -4.8261847 -0.09078417 0
3.7840295 -10.679652 -0.14089525 0
0.3492519 -1.8189818 -0.090297826 0
0.39268777 -1.9224575 -0.089649417 0
0.45500728 -2.070919 -0.091823064 0
0.52808869 -2.2450182 -0.090419926 0
0.63788372 -2.5065789 -0.091349669 0
0.79543447 -2.8819065 -0.090619735 0
1.0625782 -3.5183132 -0.090777151 0
1.5927527 -4.7813287 -0.090489261 0
4.0292954 -10.585817 -0.14101376 0
0.37257534 -1.8154895 -0.091593556 0
0.42139286 -1.9240277 -0.09207622 0
0.47893625 -2.0519664 -0.090534128 0
0.56089574 -2.2341907 -0.090862446 0
0.67437822 -2.4865012 -0.090897955 0
0.84586513 -2.8677757 -0.091286696 0
1.1274608 -3.4938598 -0.091017626 0
1.6896558 -4.7438126 -0.090685956 0
4.2672925 -10.474787 -0.14085221 0
0.39305681 -1.8053387 -0.091472812 0
0.43982401 -1.9026759 -0.089893244 0
0.51088339 -2.0505726 -0.09254054 0
0.58839154 -2.2118912 -0.089650102 0
0.70579445 -2.4562435 -0.0892395 0
0.89234513 -2.8445137 -0.091147251 0
1.1928155 -3.4698863 -0.091424517 0
1.7836766 -4.6996527 -0.090667479 0
4.5043483 -10.362221 -0.14080313 0
0.41138697 -1.7910163 -0.090477042 0
0.46315837 -1.8921496 -0.090070374 0
0.53484505 -2.0321865 -0.091583617 0
0.62044638 -2.199405 -0.090080179 0
0.75004184 -2.4525642 -0.091152646 0
0.93557405 -2.8149936 -0.090472035 0
1.2533162 -3.4356894 -0.091162525 0
1.8775049 -4.6550155 -0.090747155 0
4.7430639 -10.252764 -0.14098993 0
0.42817223 -1.7743191 -0.089004047 0
0.48629406 -1.8811249 -0.090268515 0
0.56032252 -2.0171609 -0.09135469 0
0.65218794 -2.1859744 -0.090493701 0
0.77797657 -2.4171259 -0.089014031 0
0.98575908 -2.7989507 -0.091334827 0
1.3117722 -3.3980384 -0.09074273 0
1.9659228 -4.6001172 -0.09040875 0
4.9654937 -10.112183 -0.14051387 0
0.45058554 -1.7680404 -0.090169869 0
0.50896019 -1.869148 -0.090388604 0
0.58288926 -1.9971967 -0.090306349 0
0.68392998 -2.172204 -0.090987213 0
0.81958276 -2.407161 -0.09037628 0
1.0331891 -2.7771373 -0.091723882 0
1.3681628 -3.3573275 -0.090188034 0
2.600533 -5.4918509 -0.14107235 0
5.1990252 -9.9925623 -0.14074324 0
0.47125876 -1.758358 -0.090645678 0
0.53177881 -1.8573277 -0.090670504 0
0.6177097 -1.9978522 -0.093322895 0
0.71111852 -2.1506054 -0.090329923 0
0.85500139 -2.3859 -0.090355001 0
1.0735081 -2.7432282 -0.090925641 0
1.430105 -3.3263783 -0.090540417 0
2.7097273 -5.4189701 -0.14075269 0
5.4247384 -9.858882 -0.14075245 0
0.49312726 -1.7502893 -0.091668822 0
0.5581826 -1.8508818 -0.092290707 0
0.62623793 -1.9561131 -0.088261969 0
0.73872375 -2.1300454 -0.089949556 0
0.88295084 -2.3530581 -0.088844948 0
1.1102368 -2.7045014 -0.089690931 0
1.4930083 -3.296366 -0.091105722 0
2.8243339 -5.3549428 -0.14107022 0
5.6503601 -9.7247162 -0.14090487 0
0.50439787 -1.7262501 -0.088739492 0
0.58218896 -1.8401278 -0.093107127 0
0.65602028 -1.9482089 -0.089890026 0
0.76934451 -2.1141033 -0.090466119 0
0.92390209 -2.340359 -0.090258636 0
1.1621741 -2.6891632 -0.091182582 0
1.5530111 -3.2613063 -0.091386832 0
2.9276738 -5.273664 -0.14058237 0
5.8670444 -9.5765848 -0.1408257 0
0.52578855 -1.7174158 -0.089814357 0
0.59667546 -1.8157638 -0.090918027 0
0.69095534 -1.9465671 -0.092967592 0
0.7997005 -2.0974393 -0.090999819 0
0.95568711 -2.3138537 -0.0898569 0
1.201839 -2.6553631 -0.090726845 0
1.6055585 -3.2154806 -0.090874694 0
3.0440156 -5.2111855 -0.14131284 0
6.081924 -9.4259567 -0.14082894 0
0.54928648 -1.7109094 -0.091674276 0
0.61644673 -1.799297 -0.090640403 0
0.70966905 -1.9219841 -0.091549672 0
0.82867414 -2.078603 -0.09129443 0
0.98868734 -2.2891915 -0.089834534 0
1.245047 -2.6265783 -0.090966545 0
1.6596363 -3.1722069 -0.090692066 0
3.1451144 -5.1271992 -0.14097004 0
6.2899251 -9.2659893 -0.1407164 0
0.56508183 -1.6940502 -0.090913288 0
0.63470775 -1.7810361 -0.090043522 0
0.72547448 -1.8944339 -0.089576684 0
0.85888875 -2.0611126 -0.09196768 0
1.016682 -2.2582488 -0.088995032 0
1.2841324 -2.5923831 -0.090693377 0
1.7104422 -3.1249859 -0.090273328 0
3.2510064 -5.0496626 -0.1411555 0
6.5064158 -9.1167507 -0.14107595 0
0.57796013 -1.6739872 -0.089355074 0
0.65799487 -1.7689624 -0.091070183 0
0.75263488 -1.8812693 -0.090738021 0
0.88084453 -2.0334125 -0.090917774 0
1.0502272 -2.2344146 -0.089330815 0
1.325143 -2.5606503 -0.090834104 0
1.7675645 -3.0856612 -0.090683512 0
3.3469186 -4.9598413 -0.14075813 0
6.694499 -8.932332 -0.14053801 0
0.59627646 -1.6605921 -0.089747362 0
0.68111342 -1.7562596 -0.092108004 0
0.77418923 -1.8612176 -0.09056171 0
0.90723914 -2.0112529 -0.090987794 0
1.0857811 -2.2125878 -0.090118624 0
1.3690395 -2.5320077 -0.09149126 0
1.815552 -3.0355229 -0.090225838 0
3.4483447 -4.8767614 -0.14092025 0
6.8979359 -8.7667351 -0.14071874 0
0.61187166 -1.6441226 -0.089388125 0
0.70077664 -1.7394211 -0.092253901 0
0.79803073 -1.8436693 -0.091064788 0
0.93220758 -1.9874955 -0.090878986 0
1.1181464 -2.1868062 -0.090434857 0
1.3989969 -2.4878542 -0.090323918 0
1.8582535 -2.9801381 -0.089370169 0
3.5434079 -4.7864809 -0.14078896 0
7.0937104 -8.592104 -0.14077795 0
0.62586832 -1.6261252 -0.088680722 0
0.7157473 -1.7177213 -0.09125001 0
0.82154131 -1.8255366 -0.091582827 0
0.95761144 -1.9642063 -0.090982266 0
1.1429319 -2.1530674 -0.089588262 0
1.4404109 -2.4562297 -0.090863489 0
1.9088329 -2.9336011 -0.089463986 0
3.6425383 -4.7004294 -0.14108482 0
7.283257 -8.4107056 -0.14077723 0
0.65218574 -1.6202798 -0.091773234 0
0.74103212 -1.7063669 -0.093120836 0
0.84105742 -1.8032857 -0.091280304 0
0.98674619 -1.94445 -0.091929622 0
1.1764055 -2.1282191 -0.090316348 0
1.4739859 -2.4165578 -0.090476312 0
1.9647224 -2.8920538 -0.090188213 0
3.7286181 -4.6011701 -0.14067018 0
7.4679484 -8.224371 -0.14076947 0
0.66063732 -1.596959 -0.089674614 0
0.75532418 -1.6841824 -0.092207931 0
0.86001265 -1.780619 -0.090986423 0
0.99748135 -1.9072521 -0.089436002 0
1.2054365 -2.0988154 -0.090422638 0
1.5122697 -2.3814633 -0.090824224 0
2.5491331 -3.3365986 -0.14123283 0
3.8269503 -4.5136948 -0.14120109 0
7.6592159 -8.043891 -0.14112025 0
0.67414087 -1.5787045 -0.089217357 0
0.77688146 -1.6686622 -0.093275584 0
0.88442057 -1.7628214 -0.092016496 0
1.0330926 -1.892996 -0.091820858 0
1.2249838 -2.0610123 -0.089170031 0
1.5274972 -2.3258872 -0.088415258 0
2.6065714 -3.2707047 -0.1411422 0
3.9153214 -4.4166217 -0.14124225 0
7.8327217 -7.8466244 -0.1410569 0
0.68925327 -1.561911 -0.089343242 0
0.7844196 -1.6410853 -0.090983249 0
0.90513456 -1.7415149 -0.092332549 0
1.0612845 -1.8714249 -0.092866369 0
1.2504756 -2.0288239 -0.088993825 0
1.5557026 -2.2827594 -0.087804236 0
2.6524334 -3.1951926 -0.1401536 0
3.9928913 -4.3103962 -0.14077844 0
7.9979124 -7.6424017 -0.14089559 0
0.7147432 -1.5532606 -0.092394002 0
0.80829328 -1.627177 -0.092826284 0
0.90961766 -1.7072362 -0.08935643 0
1.0751261 -1.8380089 -0.09141954 0
1.2793034 -1.9993349 -0.089440264 0
1.6004554 -2.2530859 -0.089304604 0
2.7260938 -3.1424832 -0.14183287 0
4.073967 -4.2074742 -0.14069249 0
8.1631212 -7.4384255 -0.14089231 0
0.72303784 -1.5307916 -0.09087754 0
0.81857055 -1.6024348 -0.091517247 0
0.93384963 -1.6888864 -0.090672605 0
1.0942596 -1.809183 -0.091079019 0
1.3109632 -1.9716961 -0.090401851 0
1.6272358 -2.2088795 -0.088768251 0
2.766319 -3.0631156 -0.14067641 0
4.1626077 -4.1102381 -0.14120105 0
8.3194952 -7.2276244 -0.14078344 0
0.73065346 -1.5082636 -0.0893602 0
0.83748561 -1.584246 -0.092373617 0
0.95733529 -1.669487 -0.091909148 0
1.1106968 -1.7785625 -0.090406217 0
1.3357006 -1.9385926 -0.090454571 0
1.6783693 -2.1823094 -0.091159843 0
2.8287277 -3.0004811 -0.14161703 0
4.2292333 -3.9965656 -0.14058441 0
8.4676638 -7.0110726 -0.14059566 0
0.75091088 -1.4946717 -0.091255851 0
0.84323186 -1.5568864 -0.090329774 0
0.96950054 -1.6419784 -0.090979196 0
1.1345768 -1.7532226 -0.091138192 0
1.3495024 -1.8980601 -0.089083962 0
1.69489 -2.1308155 -0.089691408 0
2.8634784 -2.9183228 -0.14034463 0
4.3008084 -3.8869336 -0.1404185 0
8.6194754 -6.797266 -0.14066777 0
0.75933087 -1.4729789 -0.090224065 0
0.86000478 -1.5371897 -0.090937443 0
0.9917087 -1.6211916 -0.09215828 0
1.146414 -1.719864 -0.089958616 0
1.3764242 -1.8665665 -0.089696936 0
1.7333814 -2.0942371 -0.090823837 0
2.9155467 -2.8482325 -0.14070186 0
4.3688068 -3.775135 -0.14021184 0
8.7625418 -6.5774975 -0.14064759 0
0.77317411 -1.4548247 -0.090690874 0
0.86842322 -1.5122471 -0.08980874 0
0.99337727 -1.5875776 -0.08947935 0
1.1670963 -1.6923066 -0.090387546 0
1.4041787 -1.8352355 -0.090523668 0
1.7576603 -2.0483372 -0.090491585 0
2.9654899 -2.7764957 -0.1410258 0
4.4491196 -3.6709244 -0.14083229 0
8.9103422 -6.3604393 -0.14090805 0
0.78203189 -1.4336898 -0.0900447 0
0.89006662 -1.4951582 -0.091699444 0
1.0113657 -1.5641736 -0.09008614 0
1.181693 -1.6610845 -0.089939691 0
1.4161607 -1.7944894 -0.089324854 0
1.7835252 -2.0035083 -0.090459742 0
3.0019577 -2.6967585 -0.14040796 0
4.5179744 -3.559325 -0.14097212 0
9.0511093 -6.1385374 -0.14112432 0
0.79238284 -1.4135129 -0.089896865 0
0.89523625 -1.4686457 -0.090137102 0
1.0332451 -1.5426229 -0.0915213 0
1.1999037 -1.6319573 -0.09020067 0
1.4402373 -1.7607839 -0.08988329 0
1.8194928 -1.9640771 -0.091618918 0
3.0530481 -2.6253026 -0.14111905 0
4.5828753 -3.4453394 -0.14105105 0
9.1799803 -5.9095359 -0.14117262 0
0.81215626 -1.3981079 -0.092115752 0
0.90640962 -1.4456092 -0.090002857 0
1.0460298 -1.5159743 -0.09136527 0
1.2232932 -1.6053106 -0.091389783 0
1.4539982 -1.7215801 -0.089196645 0
1.8378369 -1.9150254 -0.091026075 0
3.0860107 -2.5440738 -0.14054412 0
4.6397357 -3.3271127 -0.1408608 0
9.297781 -5.6746511 -0.14108361 0
0.81635123 -1.3747399 -0.090737604 0
0.91571474 -1.4217113 -0.08960285 0
1.0602999 -1.49006 -0.091604151 0
1.2211771 -1.5661104 -0.088705279 0
1.4851997 -1.69092 -0.090901487 0
1.8664244 -1.8711338 -0.091626458 0
3.125669 -2.4664078 -0.1406533 0
4.6931143 -3.2073753 -0.14064811 0
9.4009991 -5.4329009 -0.140774 0
0.82459575 -1.3535044 -0.090453796 0
0.93576574 -1.4026647 -0.091545306 0
1.0534003 -1.4546837 -0.088154353 0
1.2420417 -1.5381024 -0.089734711 0
1.5098704 -1.6565384 -0.0918523 0
1.8799945 -1.8202102 -0.090801232 0
3.1640251 -2.3880191 -0.14081241 0
4.7321939 -3.081476 -0.13986468 0
9.5159597 -5.1968956 -0.1409224 0
0.843265 -1.336625 -0.092693739 0
0.94314843 -1.3778136 -0.090985127 0
1.0761354 -1.432653 -0.090168186 0
1.2602885 -1.5085915 -0.090463616 0
1.5134413 -1.6129833 -0.09023615 0
1.8896375 -1.7681141 -0.089718513 0
3.1958697 -2.3067608 -0.14062792 0
4.7980571 -2.9674494 -0.14059895 0
9.612505 -4.9527669 -0.1407567 0
0.8427766 -1.3118205 -0.090648748 0
0.96285081 -1.3578258 -0.093042411 0
1.0886235 -1.4060143 -0.090457521 0
1.2696671 -1.4753793 -0.089963533 0
1.5204382 -1.5714599 -0.089202605 0
1.9281588 -1.7276739 -0.091664873 0
3.223604 -2.2240109 -0.14029181 0
4.8515978 -2.8477607 -0.14085607 0
9.7160292 -4.7115188 -0.14092056 0
0.85278291 -1.2912357 -0.091130607 0
0.95629978 -1.3279297 -0.089936323 0
1.100336 -1.3789867 -0.09072683 0
1.2817022 -1.4432762 -0.08998955 0
1.5533878 -1.5395814 -0.091526918 0
1.9383298 -1.6760331 -0.090887927 0
3.256938 -2.1434445 -0.14052966 0
4.894062 -2.7237611 -0.14071368 0
9.802371 -4.4636254 -0.14081006 0
0.85889798 -1.2692456 -0.090855114 0
0.97099572 -1.3058248 -0.091215409 0
1.1021886 -1.348635 -0.089407794 0
1.2870798 -1.4089677 -0.089151494 0
1.5578494 -1.4973239 -0.090429269 0
1.9581242 -1.6279395 -0.091190733 0
3.2831383 -2.0603113 -0.14039114 0
4.9361172 -2.5997028 -0.14070636 0
9.9041748 -4.2208533 -0.14123225 0
0.87490165 -1.2502614 -0.092898972 0
0.97081602 -1.2789031 -0.089670889 0
1.1080822 -1.319893 -0.088923685 0
1.2988865 -1.3768703 -0.089390181 0
1.5635546 -1.4559046 -0.089622132 0
1.943766 -1.569442 -0.088283069 0
3.3090901 -1.9771503 -0.14038925 0
4.9862542 -2.4779792 -0.1412445 0
9.9629002 -3.9640875 -0.14075527 0
0.87506044 -1.2264603 -0.091544993 0
0.98696536 -1.2568238 -0.091456808 0
1.1178665 -1.2923415 -0.089229427 0
1.3085183 -1.3440715 -0.089428894 0
1.5666022 -1.414098 -0.088625722 0
1.9675963 -1.5229008 -0.089231946 0
3.3429272 -1.8960727 -0.14111112 0
5.015594 -2.3499217 -0.14092448 0
10.042455 -3.7138722 -0.14094001 0
0.87207347 -1.2022061 -0.089642875 0
0.98492616 -1.2297895 -0.089813463 0
1.1206489 -1.2629628 -0.088466667 0
1.3257973 -1.3131051 -0.090693898 0
1.5779909 -1.3747462 -0.088766344 0
1.9747386 -1.4717191 -0.0886847 0
3.3587573 -1.8100005 -0.1406804 0
5.0388045 -2.2206371 -0.14046809 0
10.104337 -3.4587526 -0.14085229 0
0.87920725 -1.1806039 -0.090086468 0
0.99712217 -1.20629 -0.091055132 0
1.130932 -1.2354387 -0.08909484 0
1.3292294 -1.2786351 -0.090073057 0
1.5964242 -1.3368402 -0.089868002 0
1.988462 -1.4222404 -0.088892929 0
3.3769414 -1.7247024 -0.14057636 0
5.0839338 -2.0965481 -0.14121446 0
10.160092 -3.2023222 -0.14077294 0
0.89537185 -1.1606095 -0.092600726 0
0.99865872 -1.1803936 -0.090360634 0
1.1426365 -1.2079717 -0.090074427 0
1.3394012 -1.2456609 -0.09054447 0
1.6148345 -1.2984188 -0.091075741 0
2.5383074 -1.4753051 -0.14017069 0
3.4001746 -1.6403912 -0.14098585 0
5.1071157 -1.9673467 -0.14106576 0
10.214221 -2.9455857 -0.14080907 0
0.8890304 -1.1362706 -0.090364493 0
0.99720162 -1.1541735 -0.089222573 0
1.1483912 -1.1791962 -0.090174474 0
1.3469423 -1.2120576 -0.090757944 0
1.6124201 -1.2559956 -0.089926623 0
2.5602486 -1.4128665 -0.1411628 0
3.4159942 -1.5544972 -0.14101942 0
5.1314602 -1.8384163 -0.14112677 0
10.252052 -2.6859028 -0.140614 0
0.90269822 -1.115248 -0.092562728 0
1.0070996 -1.1298311 -0.09037412 0
1.1523348 -1.1501179 -0.09009438 0
1.3449576 -1.1770241 -0.089739554 0
1.6274011 -1.2164767 -0.090960942 0
2.5785682 -1.3493387 -0.14195892 0
3.4266357 -1.4677993 -0.14084069 0
5.1415811 -1.7073481 -0.14067222 0
10.305771 -2.4286981 -0.14094679 0
0.89595121 -1.0913574 -0.090500779 0
1.012652 -1.1046661 -0.090815209 0
1.1449221 -1.1197505 -0.088257618 0
1.3575823 -1.1440027 -0.090915807 0
1.6264805 -1.1746683 -0.090239279 0
2.5866621 -1.2841694 -0.14194298 0
3.4349077 -1.380905 -0.14064997 0
5.1536565 -1.5769147 -0.1404658 0
10.336282 -2.1679516 -0.14088769 0
0.89221489 -1.06821 -0.08921475 0
1.0222863 -1.0797276 -0.092147388 0
1.1257321 -1.0888876 -0.084608369 0
1.1445668 -1.0905553 -0.060372833 0
1.6351807 -1.1339983 -0.090772025 0
2.5766392 -1.2173626 -0.14038372 0
3.4420207 -1.2939906 -0.14053245 0
5.1638722 -1.4464573 -0.14032698 0
10.362452 -1.9067819 -0.14088118 0
0.91119492 -1.0467892 -0.092893548 0
1.0300457 -1.0542967 -0.093242548 0
1.1355691 -1.0609624 -0.085873462 0
1.1182972 -1.0598713 -0.056365166 0
1.643892 -1.0930721 -0.091425531 0
2.5834289 -1.1524208 -0.14055723 0
3.4573226 -1.2076228 -0.14114255 0
5.1829996 -1.3166302 -0.14075783 0
10.377361 -1.6447475 -0.14076607 0
0.91559047 -1.0239276 -0.093581609 0
1.020318 -1.0278934 -0.091161616 0
1.1346877 -1.0322244 -0.085490488 0
1.1194614 -1.0316478 -0.056328479 0
1.6443715 -1.0515255 -0.091236524 0
2.6022992 -1.0878009 -0.14201221 0
3.4527926 -1.1200078 -0.1405172 0
5.1889086 -1.185752 -0.1407252 0
10.384174 -1.3824892 -0.14061667 0
0.90164161 -1.0006565 -0.090492494 0
1.021836 -1.0021731 -0.091325216 0
1.1226327 -1.0034449 -0.083390363 0
1.1242357 -1.0034651 -0.056899343 0
1.1228619 -1.0034478 -0.030158749 0
1.1326666 -1.0035715 -0.004670551 0
1.1348149 -1.0035986 0.02169794 0
1.1290216 -1.0035255 0.048450366 0
1.145417 -1.0037323 0.074359477 0
1.1355048 -1.0036073 0.10100279 0
1.1383009 -1.0036426 0.12748083 0
1.1237568 -1.0034591 0.15330955 0
1.1294513 -1.0035309 0.17993261 0
1.1327693 -1.0035728 0.20668614 0
1.1461794 -1.003742 0.23489125 0
1.1223392 -1.0034412 0.25863889 0
1.1406446 -1.0036721 0.28835848 0
1.1290541 -1.0035259 0.31352895 0
0.90549237 -0.97787958 -0.09131109 0
1.0228695 -0.97639859 -0.0915199 0
1.1274054 -0.9750796 -0.084174819 0
1.1329733 -0.97500938 -0.058127362 0
1.642424 -0.96858138 -0.090886526 0
2.5845952 -0.95669353 -0.14020486 0
3.4698308 -0.94552404 -0.14155467 0
5.1890321 -0.92383206 -0.14057706 0
10.399912 -0.85808378 -0.14082879 0
0.90385568 -0.95510155 -0.091085441 0
1.0143478 -0.95091736 -0.090036295 0
1.1303232 -0.94652551 -0.084772654 0
1.1330383 -0.9464227 -0.058237869 0
1.6481384 -0.9269166 -0.091677107 0
2.5932767 -0.89112556 -0.14116944 0
3.4560845 -0.85845226 -0.14074752 0
5.1932712 -0.79266751 -0.14092843 0
10.402502 -0.59540141 -0.14104308 0
0.90948409 -0.93190366 -0.09252917 0
1.0164963 -0.9251439 -0.09068539 0
1.1358753 -0.91760296 -0.085923873 0
1.1220177 -0.91847831 -0.056889076 0
1.6486918 -0.88520938 -0.091987602 0
2.5866551 -0.82596016 -0.14085896 0
3.4558396 -0.77105558 -0.14103866 0
5.1828632 -0.66196299 -0.14075148 0
10.372993 -0.33411321 -0.14066428 0
0.90683705 -0.90907991 -0.092335008 0
1.0172688 -0.89930135 -0.09119866 0
1.1576607 -0.88686991 -0.089876406 0
1.3497267 -0.86986285 -0.089317717 0
1.6417674 -0.8440032 -0.091544844 0
2.5723369 -0.761603 -0.13998057 0
3.4444537 -0.68437862 -0.1407032 0
5.1705437 -0.53153658 -0.1406388 0
10.369472 -0.071181267 -0.14104503 0
0.8934691 -0.88751042 -0.089969762 0
1.0192511 -0.87316602 -0.092066206 0
1.1477147 -0.85851574 -0.088719554 0
1.3400288 -0.83658385 -0.08843293 0
1.6314524 -0.80334932 -0.090824135 0
2.5677812 -0.69656849 -0.14016919 0
3.4371667 -0.597422 -0.14080893 0
5.1581297 -0.40115997 -0.14067538 0
10.325719 0.18816224 -0.14064048 0
0.88954109 -0.86517459 -0.089738853 0
1.0272301 -0.84594178 -0.094202526 0
1.1493523 -0.82888335 -0.089599453 0
1.3400013 -0.80225295 -0.089036278 0
1.6245407 -0.76250756 -0.090623386 0
2.5753124 -0.62970084 -0.14165206 0
3.4317932 -0.51006496 -0.14120476 0
5.1501198 -0.27004382 -0.1410736 0
10.30032 0.44935194 -0.14081882 0
0.89756036 -0.84090233 -0.092202313 0
0.99772918 -0.82432383 -0.08932329 0
1.1419244 -0.80045873 -0.089097179 0
1.3404058 -0.76760894 -0.08982686 0
1.6221079 -0.72098571 -0.091074266 0
2.5625522 -0.56533688 -0.14138076 0
3.4193556 -0.4235312 -0.14125761 0
5.120101 -0.14204833 -0.14059074 0
10.265559 0.70955378 -0.14093235 0
0.88764548 -0.81945515 -0.090928547 0
0.99697042 -0.79851454 -0.090036862 0
1.1323829 -0.77257699 -0.088358589 0
1.3250366 -0.73567522 -0.088489033 0
1.3368734 -0.73340791 -0.057998914 0
1.3534106 -0.73024035 -0.027561387 0
1.3400049 -0.73280811 0.0056577418 0
1.3457707 -0.7317037 0.037225712 0
1.3377759 -0.73323506 0.069324121 0
1.3432924 -0.73217839 0.10100941 0
0.88394696 -0.79694837 -0.091117568 0
0.98522013 -0.77488732 -0.088760801 0
1.1315675 -0.74300754 -0.089201741 0
1.2094427 -0.7260434 -0.07284411 0
1.2052461 -0.72695756 -0.043077547 0
1.193509 -0.72951436 -0.012951611 0
1.2042959 -0.72716457 0.014874058 0
1.2018811 -0.72769064 0.043751482 0
1.2110424 -0.72569495 0.07217598 0
1.2080501 -0.72634673 0.10100567 0
0.87801778 -0.77492565 -0.090943597 0
0.99502742 -0.74632621 -0.091772042 0
1.128504 -0.7137019 -0.089795686 0
1.2130359 -0.69304067 -0.074380524 0
1.2094316 -0.69392163 -0.044423614 0
1.2047513 -0.69506556 -0.014698153 0
1.202631 -0.69558382 0.014490331 0
1.1957924 -0.69725531 0.04370863 0
1.2053608 -0.69491661 0.072143562 0
1.2040083 -0.69524717 0.10100576 0
0.87176126 -0.75301951 -0.090818368 0
0.99145001 -0.7205441 -0.092332028 0
1.1228647 -0.68488699 -0.090080597 0
1.2047299 -0.66267431 -0.07431566 0
1.2042935 -0.66279274 -0.044750456 0
1.2108914 -0.66100252 -0.016047036 0
1.2019831 -0.6634196 0.013972754 0
1.204577 -0.66271585 0.042911097 0
1.2037127 -0.66295034 0.071995094 0
1.2057283 -0.66240346 0.10100603 0
0.86298847 -0.73188066 -0.090256177 0
0.98153573 -0.69648051 -0.091778062 0
1.1036295 -0.66002136 -0.088159941 0
1.21152 -0.62780344 -0.076576404 0
1.1986214 -0.63165516 -0.045110155 0
1.2037463 -0.63012481 -0.016195415 0
1.2037497 -0.63012379 0.013216088 0
1.2078273 -0.62890613 0.042334214 0
1.2116745 -0.62775731 0.071592815 0
1.2077895 -0.6289174 0.10100635 0
0.84455454 -0.71401954 -0.087648027 0
0.96977794 -0.67315727 -0.090974145 0
1.1090035 -0.62772596 -0.090585954 0
1.2171422 -0.59243864 -0.0788128 0
1.2013993 -0.59757584 -0.046607871 0
1.2107676 -0.59451878 -0.017812153 0
1.2088531 -0.5951435 0.012146221 0
1.19829 -0.59859043 0.042337164 0
1.2081044 -0.59538788 0.071447603 0
1.2134867 -0.59363151 0.10100681 0
0.85610157 -0.68617254 -0.091879033 0
0.95714313 -0.65035605 -0.090104856 0
1.1001099 -0.59967816 -0.090687402 0
1.2075675 -0.56158733 -0.078935854 0
1.1958436 -0.56574309 -0.047191892 0
1.2027628 -0.56329048 -0.018043963 0
1.1989183 -0.56465322 0.012116963 0
1.2065657 -0.5619424 0.041422669 0
1.2063723 -0.562011 0.071235687 0
1.1979179 -0.56500781 0.10100665 0
0.8469184 -0.66517723 -0.091591544 0
0.95814335 -0.62256253 -0.092092894 0
1.0827605 -0.5748167 -0.089425616 0
1.2132591 -0.52481747 -0.081474312 0
1.2098088 -0.52613938 -0.050324861 0
1.199385 -0.53013319 -0.01881895 0
1.2087853 -0.52653158 0.010547617 0
1.1952504 -0.5317173 0.041430105 0
1.2007146 -0.52962381 0.071098581 0
1.2065957 -0.52737051 0.10100725 0
0.83818692 -0.6440537 -0.091526143 0
0.94001502 -0.60206324 -0.090346731 0
1.0782427 -0.54506272 -0.090542801 0
1.2035514 -0.49338964 -0.081838749 0
1.207706 -0.49167642 -0.051584978 0
1.2061524 -0.49231705 -0.020710437 0
1.204066 -0.49317741 0.0099924747 0
1.2090312 -0.4911299 0.040135607 0
1.2065909 -0.49213624 0.070649505 0
1.1971633 -0.49602383 0.10100733 0
0.82085437 -0.62673473 -0.089584224 0
0.94088125 -0.57365787 -0.092598818 0
1.0685823 -0.51718748 -0.090882607 0
1.2039701 -0.45731786 -0.08388456 0
1.2051306 -0.45680472 -0.052909423 0
1.2105647 -0.4544017 -0.022479637 0
1.2101729 -0.45457497 0.0085395593 0
1.201242 -0.45852432 0.039872721 0
1.2100106 -0.45464674 0.070233919 0
1.2068229 -0.45605639 0.10100804 0
0.81812423 -0.60300666 -0.091154464 0
0.92087543 -0.55443376 -0.090678014 0
1.0545225 -0.49125576 -0.090553902 0
1.2306151 -0.40801272 -0.090172388 0
1.4823198 -0.28902605 -0.090529196 0
1.8537856 -0.11342558 -0.090321578 0
3.1234727 0.48678485 -0.14048345 0
4.6903362 1.2274773 -0.14050506 0
9.4028091 3.4551718 -0.14082055 0
0.80769861 -0.58272338 -0.0910547 0
0.90372294 -0.53432947 -0.089436181 0
1.0447854 -0.46323761 -0.091136239 0
1.2091535 -0.38040009 -0.089164592 0
1.4520663 -0.25797817 -0.088943817 0
1.829302 -0.067860812 -0.090133972 0
3.089004 0.56699771 -0.14077845 0
4.6356874 1.3464875 -0.14064975 0
9.2851162 3.6896832 -0.14075385 0
0.79680312 -0.56270236 -0.090962924 0
0.88972241 -0.51289457 -0.088958777 0
1.0286419 -0.43842927 -0.090662934 0
1.1961832 -0.3486217 -0.089607425 0
1.4379407 -0.2190319 -0.08957874 0
1.8114927 -0.018795934 -0.090771668 0
3.0482616 0.64415222 -0.14073938 0
4.5789776 1.4646657 -0.14084518 0
9.1741562 3.9278295 -0.14101899 0
0.78690386 -0.54212284 -0.091236182 0
0.88030875 -0.48897836 -0.089584894 0
1.0189236 -0.41011086 -0.09151528 0
1.1702117 -0.32403269 -0.08808329 0
1.2016923 -0.30612114 -0.060486037 0
1.229264 -0.29043373 -0.030937007 0
3.0083082 0.72178715 -0.14091875 0
4.5153418 1.5792422 -0.14083111 0
9.0394754 4.1533337 -0.14081311 0
0.77325833 -0.52370918 -0.090711795 0
0.87370032 -0.46315619 -0.090969346 0
1.0058533 -0.38348576 -0.091873594 0
1.16414 -0.28806028 -0.089902423 0
1.1389699 -0.30323449 -0.054330844 0
1.2020915 -0.26518068 -0.029939895 0
2.9606125 0.79497045 -0.14062765 0
4.4532108 1.6948059 -0.14105467 0
8.9075089 4.380147 -0.14083114 0
0.76081705 -0.5046578 -0.090598769 0
0.86309236 -0.43942574 -0.091627203 0
0.98497379 -0.3616887 -0.090845414 0
1.1462063 -0.25885323 -0.08992397 0
1.149037 -0.25704774 -0.058176119 0
1.1874872 -0.23252389 -0.030388063 0
2.9204032 0.87274557 -0.14110456 0
4.3794632 1.8033469 -0.14080025 0
8.7762642 4.6076655 -0.14102602 0
0.747091 -0.48648718 -0.090276726 0
0.84196252 -0.42255369 -0.090041451 0
0.96627021 -0.33878317 -0.090338998 0
1.134187 -0.22562477 -0.09107212 0
1.1417679 -0.22051606 -0.059806962 0
1.160647 -0.20779344 -0.029558709 0
2.8696043 0.94386631 -0.14086106 0
4.3068323 1.9124084 -0.14075668 0
8.6257887 4.8229365 -0.14084478 0
0.73545241 -0.46690795 -0.090611972 0
0.83168328 -0.39846548 -0.091032527 0
0.95298243 -0.3121936 -0.091031261 0
1.1076111 -0.20221677 -0.089874066 0
1.1398463 -0.17929009 -0.062365342 0
1.1534374 -0.16962364 -0.0310337 0
2.8169405 1.0135131 -0.14060584 0
4.2354822 2.0224257 -0.14094141 0
8.4735403 5.0366683 -0.14076333 0
0.7267105 -0.44503883 -0.091853343 0
0.81929886 -0.37560377 -0.091688715 0
0.9322468 -0.29090038 -0.090343334 0
1.0849731 -0.17636594 -0.089447744 0
1.0939673 -0.16962084 -0.058701593 0
1.1100682 -0.15754625 -0.028429454 0
1.1060594 -0.16055259 0.0044036675 0
1.1013291 -0.16410008 0.03693917 0
1.09667 -0.16759399 0.06912715 0
1.1000124 -0.16508743 0.10100961 0
1.0977817 -0.16676041 0.13292426 0
1.0975292 -0.16694972 0.16485894 0
1.0949219 -0.16890493 0.19664235 0
0.71551132 -0.42471722 -0.092602082 0
0.80053407 -0.35753843 -0.090963684 0
0.91776234 -0.26491317 -0.091062434 0
1.0512906 -0.1594089 -0.087150402 0
1.1013757 -0.11983529 -0.062937431 0
1.0940161 -0.12565038 -0.029058358 0
1.0950544 -0.12482998 0.0034898168 0
1.0986049 -0.12202457 0.035844672 0
1.0965862 -0.12361965 0.068504959 0
1.0963427 -0.12381205 0.10101025 0
1.1013703 -0.11983958 0.13365772 0
1.0962236 -0.12390617 0.1660347 0
1.0993317 -0.12145033 0.1989124 0
0.70072705 -0.40712807 -0.092515804 0
0.78418469 -0.33769485 -0.090925686 0
0.90392685 -0.23807457 -0.092074357 0
1.0255678 -0.13687459 -0.086336948 0
1.0999599 -0.074983567 -0.066110604 0
1.0969493 -0.077488154 -0.032102559 0
1.0995255 -0.07534495 0.0010680279 0
1.0972774 -0.077215225 0.034578744 0
1.0968224 -0.077593774 0.067826666 0
1.0895082 -0.083678871 0.10101082 0
1.0995066 -0.075360686 0.13427694 0
1.0987024 -0.076029629 0.16753006 0
1.0893571 -0.083804578 0.20002928 0
0.68027407 -0.39451012 -0.090950154 0
0.75895333 -0.32561997 -0.08878734 0
0.8743667 -0.22456625 -0.089820243 0
1.0005691 -0.11406574 -0.08574573 0
1.0943117 -0.031986561 -0.068871133 0
1.1017832 -0.025444593 -0.035599727 0
1.1011798 -0.025972929 -0.0012609118 0
1.101117 -0.026027884 0.032895576 0
1.1022826 -0.025007274 0.066936269 0
1.0978504 -0.028888073 0.10101202 0
1.0980163 -0.028742876 0.13495597 0
1.0907474 -0.0351074 0.16848645 0
1.1067725 -0.02107605 0.20380571 0
1.1018877 -0.0253531 0.23763776 0
1.090198 -0.03558841 0.37373978 0
0.66789383 -0.3749412 -0.091771789 0
0.75446391 -0.29519477 -0.091987632 0
0.86009568 -0.19788924 -0.09100496 0
0.96286041 -0.10322466 -0.08282084 0
1.0599924 -0.01374897 -0.067311101 0
1.1033511 0.026192103 -0.038929407 0
1.0948788 0.01838759 -0.0030055323 0
1.1070056 0.029558573 0.030962313 0
1.1052208 0.027914438 0.066063195 0
1.0978043 0.021082554 0.10101297 0
1.0968496 0.020203028 0.13569808 0
1.100076 0.023175035 0.17062536 0
1.0985996 0.021815095 0.20538563 0
1.1013056 0.024307881 0.24069679 0
1.0335029 -0.038150396 0.36546934 0
0.64476162 -0.36549851 -0.089575879 0
0.7267977 -0.28601018 -0.089387648 0
0.84241343 -0.17398503 -0.091590606 0
0.83741236 -0.17883077 -0.062707342 0
0.83505666 -0.18111333 -0.034766097 0
0.84269857 -0.17370877 -0.0084281769 0
0.83948219 -0.17682526 0.01934688 0
0.83577609 -0.18041626 0.046855249 0
0.8439936 -0.17245397 0.073678032 0
0.83372086 -0.18240765 0.1010035 0
0.84554648 -0.17094925 0.12838022 0
0.83844978 -0.1778256 0.15532559 0
0.84144288 -0.17492542 0.18285193 0
1.0910231 0.06690374 0.242731 0
1.0079089 -0.013629224 0.29809326 0
0.9955433 -0.025610771 0.32865596 0
