# .PCD v0.7 - Point Cloud Data file format
VERSION 0.7
FIELDS x y z intensity
SIZE 4 4 4 4
TYPE F F F F
COUNT 1 1 1 1
WIDTH 1330
HEIGHT 1
VIEWPOINT 0 0 0 1 0 0 0
POINTS 1330
DATA ascii
0.52826858 -1.7208567 -0.090715937 0
0.60062134 -1.8212383 -0.092189081 0
0.68103486 -1.9328034 -0.090179168 0
0.79478055 -2.0906134 -0.089817323 0
0.96278745 -2.3237047 -0.091276102 0
1.2010422 -2.6542575 -0.090599649 0
1.6083111 -3.2192993 -0.091203786 0
3.0377746 -5.2025266 -0.14081593 0
6.0833764 -9.4279718 -0.14088669 0
0.5503664 -1.7123306 -0.092053689 0
0.61335754 -1.7952313 -0.089678667 0
0.70873415 -1.9207536 -0.091295697 0
0.81721359 -2.0635202 -0.088632278 0
0.98935837 -2.2900746 -0.089964159 0
1.2450237 -2.6265478 -0.090962969 0
1.6646639 -3.1788235 -0.091273032 0
3.1439903 -5.1257195 -0.14088352 0
6.2934232 -9.2705917 -0.14085083 0
0.56301856 -1.6914724 -0.090211444 0
0.63061321 -1.7759206 -0.088809393 0
0.73593086 -1.9074974 -0.092326753 0
0.8525213 -2.0531576 -0.090535708 0
1.0223609 -2.2653437 -0.090057127 0
1.2847934 -2.593209 -0.090792112 0
1.7093673 -3.1236429 -0.090153061 0
3.2427478 -5.0393448 -0.14054024 0
6.5003624 -9.1091881 -0.14085072 0
0.5860672 -1.6836077 -0.092029281 0
0.65558285 -1.7661002 -0.090365164 0
0.74375713 -1.8707343 -0.088473774 0
0.8763538 -2.0280836 -0.08993841 0
1.0472803 -2.2309177 -0.08879637 0
1.3263886 -2.5621285 -0.091014527 0
1.7655367 -3.0832548 -0.090463512 0
3.3440101 -4.9563899 -0.14054801 0
6.7049098 -8.9446859 -0.14091364 0
0.59987515 -1.6646502 -0.09090028 0
0.67316258 -1.7472937 -0.089850925 0
0.769144 -1.8555282 -0.08931195 0
0.90346992 -2.0070026 -0.09018942 0
1.0943078 -2.222203 -0.091620587 0
1.3648854 -2.5273232 -0.090906851 0
1.8166205 -3.0367277 -0.090338416 0
3.4498563 -4.8784661 -0.14102632 0
6.9023194 -8.771678 -0.14087234 0
0.61641926 -1.6489973 -0.090805195 0
0.69812214 -1.7365758 -0.091520973 0
0.79379189 -1.8391256 -0.090043537 0
0.94259256 -1.9986274 -0.093018465 0
1.1073824 -2.1752682 -0.088590659 0
1.3996176 -2.4885194 -0.090408824 0
1.8653375 -2.9877317 -0.090096183 0
3.5462143 -4.7894893 -0.14098048 0
7.1010165 -8.5999355 -0.14102697 0
0.63738137 -1.6378583 -0.09217488 0
0.71058255 -1.7124579 -0.089861058 0
0.81676906 -1.8206731 -0.09046296 0
0.9579739 -1.9645758 -0.091054983 0
1.1468911 -2.1571021 -0.090248935 0
1.4332881 -2.4489708 -0.08991424 0
1.9119302 -2.9367576 -0.089773126 0
3.64148 -4.6993508 -0.14101447 0
7.2806525 -8.4080505 -0.14069077 0
0.64459246 -1.6129222 -0.089525796 0
0.73161525 -1.6972425 -0.090651117 0
0.84373224 -1.8058776 -0.091892429 0
0.97199571 -1.9301577 -0.089043178 0
1.1708642 -2.1228499 -0.089414589 0
1.4813955 -2.4237373 -0.091439344 0
1.9572688 -2.8848319 -0.08946266 0
3.7341254 -4.6065063 -0.14102718 0
7.4700513 -8.226409 -0.14083755 0
0.66495705 -1.6009382 -0.090923049 0
0.7497648 -1.6790612 -0.090784259 0
0.86277914 -1.7831675 -0.091604613 0
1.0076214 -1.9165928 -0.091373496 0
1.2049451 -2.0983629 -0.090344556 0
1.50144 -2.3714871 -0.08944986 0
2.5359292 -3.3244352 -0.1399778 0
3.8072834 -4.4955778 -0.13995624 0
7.655767 -8.0407133 -0.14101122 0
0.67575127 -1.5801146 -0.089672349 0
0.77162695 -1.6640615 -0.09196014 0
0.8840782 -1.7625217 -0.091941707 0
1.0260441 -1.8868244 -0.090504237 0
1.2240096 -2.0601592 -0.089018695 0
1.526159 -2.3247156 -0.088249229 0
2.6091435 -3.2729566 -0.14138119 0
3.907419 -4.4097023 -0.14075325 0
7.8320689 -7.8460526 -0.1410367 0
0.70012397 -1.5709549 -0.09234906 0
0.78253639 -1.6395185 -0.09052185 0
0.90245348 -1.7392844 -0.091759361 0
1.0488636 -1.8610914 -0.090595715 0
1.2510799 -2.0293267 -0.089085706 0
1.5674388 -2.2925236 -0.089229248 0
2.6584277 -3.2001796 -0.14069873 0
3.9855177 -4.3042617 -0.14033189 0
7.9972773 -7.6418734 -0.14087638 0
0.7038458 -1.5446503 -0.089441843 0
0.79870683 -1.6196026 -0.090525053 0
0.91603494 -1.7123066 -0.090700619 0
1.0690523 -1.8332099 -0.090331696 0
1.2768661 -1.9974091 -0.089077212 0
1.5996358 -2.2524381 -0.08920712 0
2.7106881 -3.130311 -0.14046027 0
4.0716548 -4.2056475 -0.14055532 0
8.1639671 -7.4390941 -0.14091738 0
0.7191872 -1.5279039 -0.089854442 0
0.8185308 -1.602405 -0.091507889 0
0.94067198 -1.6940026 -0.092074133 0
1.0915989 -1.8071877 -0.090611629 0
1.3172987 -1.9764473 -0.091327392 0
1.6257766 -2.2077851 -0.08859802 0
2.7746747 -3.0693817 -0.14140657 0
4.1569943 -4.106029 -0.14087442 0
8.3202047 -7.2281566 -0.14080407 0
0.74170572 -1.5161244 -0.092243098 0
0.81580871 -1.5688287 -0.0873634 0
0.95621407 -1.6686895 -0.091683023 0
1.1125145 -1.7798554 -0.090719692 0
1.3183815 -1.9262745 -0.087970667 0
1.6750492 -2.1799481 -0.090779565 0
2.8139451 -2.9899673 -0.14034887 0
4.2327118 -3.9990396 -0.14078313 0
8.4736509 -7.0153308 -0.14076647 0
0.7417475 -1.4884965 -0.08890707 0
0.84937447 -1.561026 -0.091724925 0
0.96403044 -1.6382921 -0.089895092 0
1.1398691 -1.7567891 -0.092035048 0
1.3470082 -1.8963794 -0.088732444 0
1.6956164 -2.131305 -0.089773171 0
2.868166 -2.9214816 -0.1407398 0
4.2996831 -3.8861754 -0.14035533 0
8.6273413 -6.8025665 -0.14088829 0
0.76287591 -1.47524 -0.091117837 0
0.8680014 -1.54229 -0.092723884 0
0.98880804 -1.6193415 -0.091592841 0
1.1530106 -1.7240714 -0.091058172 0
1.370594 -1.8628479 -0.088888757 0
1.7283772 -2.0910454 -0.090269841 0
2.9130898 -2.8466654 -0.14049813 0
4.3798685 -3.7821901 -0.14082262 0
8.7615919 -6.5768919 -0.14062141 0
0.77038229 -1.4531416 -0.08999794 0
0.87270629 -1.5148293 -0.090750717 0
0.99807703 -1.5904109 -0.090381272 0
1.1645824 -1.6907911 -0.089975022 0
1.4058765 -1.836259 -0.090755366 0
1.7453181 -2.0408964 -0.089146398 0
2.9583352 -2.7721822 -0.14044175 0
4.450819 -3.6719489 -0.14092466 0
8.902627 -6.3557882 -0.14069861 0
0.7865662 -1.4362696 -0.091153599 0
0.88169843 -1.490397 -0.089886032 0
1.008424 -1.5624999 -0.089529894 0
1.1870425 -1.6641282 -0.090804644 0
1.4142712 -1.7934144 -0.08907079 0
1.7875479 -2.0057971 -0.090891756 0
3.0047517 -2.6983483 -0.1406327 0
4.5149951 -3.5576298 -0.14081255 0
9.0386858 -6.1314688 -0.140792 0
0.78623658 -1.4102184 -0.088414542 0
0.89903945 -1.4706843 -0.090949871 0
1.0380235 -1.5451843 -0.092412345 0
1.2078639 -1.6362242 -0.091469921 0
1.4425373 -1.7620167 -0.090188272 0
1.8133886 -1.9608051 -0.090972461 0
3.0396414 -2.6181161 -0.14005563 0
4.5696602 -3.4382558 -0.14035302 0
9.1623545 -5.9000878 -0.14070766 0
0.80721641 -1.3956183 -0.090939917 0
0.8987667 -1.4417573 -0.08839082 0
1.0544608 -1.5202233 -0.092916928 0
1.2157313 -1.6014996 -0.090199731 0
1.4583421 -1.7237693 -0.089765154 0
1.8348435 -1.9135168 -0.090713196 0
3.0886261 -2.545392 -0.14074886 0
4.6397896 -3.3271399 -0.14086361 0
9.2768698 -5.6641121 -0.14053915 0
0.81293094 -1.373123 -0.089933448 0
0.91819537 -1.422884 -0.090119652 0
1.0699952 -1.4946432 -0.093366675 0
1.2322307 -1.5713357 -0.090423517 0
1.4818633 -1.6893427 -0.090470158 0
1.8604543 -1.8683115 -0.091010071 0
3.119072 -2.463289 -0.14014316 0
4.7082314 -3.2145216 -0.14142656 0
9.405385 -5.4349742 -0.14088678 0
0.81603521 -1.3497189 -0.088464163 0
0.93836808 -1.4038155 -0.092081241 0
1.0591024 -1.4572052 -0.089179046 0
1.2378397 -1.5362443 -0.089089029 0
1.5042328 -1.6540453 -0.091131859 0
1.8884879 -1.8239661 -0.091668062 0
3.1706035 -2.390928 -0.14131527 0
4.7519784 -3.0902247 -0.14087176 0
9.5046377 -5.1918888 -0.14063455 0
0.83834094 -1.3345945 -0.091561563 0
0.94041449 -1.3766862 -0.090428121 0
1.0775354 -1.4332303 -0.090417065 0
1.2459476 -1.5026779 -0.088283591 0
1.5222502 -1.6166159 -0.091349758 0
1.8972082 -1.7712361 -0.090482898 0
3.2033734 -2.3098552 -0.14119537 0
4.8010287 -2.9686749 -0.14074861 0
9.6116829 -4.9524283 -0.14073603 0
0.83514136 -1.3088951 -0.088910736 0
0.95796973 -1.3559556 -0.092057876 0
1.0781484 -1.4020009 -0.088613875 0
1.2729125 -1.4766228 -0.090451933 0
1.5194577 -1.5710841 -0.089079879 0
1.922999 -1.725697 -0.091149129 0
3.2229812 -2.2237723 -0.14024518 0
4.8479891 -2.8463778 -0.14067614 0
9.7098675 -4.7091579 -0.14076717 0
0.8514452 -1.2907616 -0.090828918 0
0.96015602 -1.3292966 -0.090706937 0
1.09271 -1.3762835 -0.08939708 0
1.2843916 -1.4442295 -0.090390556 0
1.5402056 -1.5349087 -0.08989235 0
1.9387467 -1.6761808 -0.090929218 0
3.2717366 -2.1486902 -0.14162731 0
4.8980055 -2.7251592 -0.14090846 0
9.8120098 -4.467042 -0.14104782 0
0.85420638 -1.2677146 -0.089806102 0
0.97171468 -1.3060594 -0.09135785 0
1.1035922 -1.349093 -0.089650445 0
1.2935207 -1.4110694 -0.090103634 0
1.5593399 -1.4978102 -0.090612493 0
1.9497473 -1.625206 -0.090368263 0
3.2689309 -2.0556753 -0.13934639 0
4.9468184 -2.603195 -0.14123042 0
9.8911591 -4.2166061 -0.14091392 0
0.86007333 -1.2458335 -0.089609496 0
0.98492199 -1.2831154 -0.092443697 0
1.1160536 -1.3222734 -0.090290956 0
1.3135709 -1.3812553 -0.091543876 0
1.5565308 -1.4538071 -0.08876542 0
1.9542494 -1.5725725 -0.089304276 0
3.3147321 -1.978835 -0.14080088 0
4.9739604 -2.474308 -0.14064719 0
9.9645376 -3.9645765 -0.14079499 0
0.873658 -1.2260798 -0.091236107 0
0.9860726 -1.2565815 -0.091282569 0
1.1151977 -1.2916173 -0.088774927 0
1.3021091 -1.3423325 -0.08849562 0
1.565359 -1.4137608 -0.088475175 0
1.957437 -1.5201442 -0.088249378 0
3.3422756 -1.895896 -0.14106391 0
5.0080295 -2.3478692 -0.14055957 0
10.040975 -3.7134707 -0.14090437 0
0.87987894 -1.204114 -0.091350861 0
0.99041402 -1.2311308 -0.09087754 0
1.1345954 -1.2663716 -0.090826266 0
1.3118724 -1.3097016 -0.088679351 0
1.5801898 -1.3752836 -0.089030914 0
1.9750494 -1.4717951 -0.088714577 0
3.3667643 -1.8119576 -0.14125665 0
5.0449157 -2.2221308 -0.14076096 0
10.103798 -3.458621 -0.14083941 0
0.88542539 -1.1819584 -0.09143921 0
0.9871527 -1.2041184 -0.089133345 0
1.1312909 -1.2355169 -0.089155219 0
1.3356231 -1.280028 -0.090992697 0
1.606323 -1.3389964 -0.091052033 0
1.9884247 -1.4222323 -0.088889368 0
3.367795 -1.7227099 -0.13992195 0
5.0894456 -2.0977488 -0.14147709 0
10.155066 -3.2012277 -0.14065336 0
0.88616407 -1.1588458 -0.090607919 0
1.0007811 -1.1808001 -0.090767659 0
1.1516137 -1.2096913 -0.091576658 0
1.3317705 -1.2441993 -0.089452587 0
1.6025547 -1.2960666 -0.089614458 0
2.5460143 -1.4767812 -0.14090313 0
3.3934009 -1.6390938 -0.14050369 0
5.1008706 -1.9661505 -0.14076973 0
10.207868 -2.9443686 -0.14065868 0
0.88482577 -1.1355747 -0.089458592 0
1.0081363 -1.1559832 -0.091310136 0
1.1407443 -1.1779306 -0.088900603 0
1.3364916 -1.2103279 -0.089269288 0
1.630157 -1.2589312 -0.092027791 0
2.5539038 -1.4118165 -0.14056253 0
3.4100502 -1.5535134 -0.14059822 0
5.1238985 -1.8371649 -0.14076996 0
10.265909 -2.6881962 -0.14094058 0
0.89177179 -1.1137217 -0.090217628 0
1.0076181 -1.1299034 -0.090472706 0
1.1420071 -1.1486753 -0.088380538 0
1.3465755 -1.17725 -0.089969151 0
1.619748 -1.2154076 -0.090057813 0
2.560673 -1.346839 -0.14027235 0
3.4335523 -1.4687654 -0.14132893 0
5.1481333 -1.7082634 -0.1409802 0
10.296285 -2.4273729 -0.14072409 0
0.89985549 -1.0918026 -0.091336049 0
1.0071216 -1.1040354 -0.089766778 0
1.1545838 -1.1208524 -0.089855827 0
1.3420144 -1.1422273 -0.088713817 0
1.6287131 -1.1749229 -0.090501912 0
2.5754983 -1.2828963 -0.14089417 0
3.4420991 -1.3817252 -0.14115599 0
5.1659946 -1.5783217 -0.14104392 0
10.332421 -2.1675115 -0.14079735 0
0.89538825 -1.0684911 -0.089891918 0
1.0199543 -1.0795212 -0.091706447 0
1.1447532 -1.0905719 -0.087746732 0
1.1255009 -1.0888671 -0.05768292 0
1.6373435 -1.1341898 -0.091025792 0
2.5782394 -1.2175044 -0.14053367 0
3.4531298 -1.2949743 -0.14131211 0
5.1676612 -1.4467928 -0.14050406 0
10.354196 -1.9060508 -0.14068846 0
0.89869821 -1.0459998 -0.090231933 0
1.01709 -1.0534782 -0.090797432 0
1.1231867 -1.0601802 -0.083834328 0
1.1375158 -1.0610853 -0.059071425 0
1.6438936 -1.0930722 -0.091425724 0
2.573518 -1.1517947 -0.1396303 0
3.4530029 -1.2073499 -0.14083995 0
5.1848364 -1.3167464 -0.14084353 0
10.383678 -1.6451465 -0.14091323 0
0.91127259 -1.023764 -0.092663132 0
1.0223202 -1.0279692 -0.091538973 0
1.1308464 -1.032079 -0.084858708 0
1.1280015 -1.0319712 -0.057529513 0
1.6366185 -1.0512319 -0.090329759 0
2.5789719 -1.0869174 -0.13983326 0
3.4544063 -1.1200689 -0.1406301 0
5.2042918 -1.1863345 -0.14144187 0
10.380022 -1.382332 -0.14052005 0
0.89874047 -1.0006199 -0.08987578 0
1.0233684 -1.0021924 -0.091613866 0
1.1248431 -1.0034728 -0.083753668 0
1.1302801 -1.0035414 -0.057748843 0
1.1220888 -1.003438 -0.030068388 0
1.1378616 -1.0036371 -0.0051555019 0
1.1296787 -1.0035337 0.022057028 0
1.1293272 -1.0035293 0.048436139 0
1.1329598 -1.0035752 0.074649133 0
1.1330305 -1.003576 0.10100272 0
1.1406047 -1.0036716 0.12753454 0
1.1253614 -1.0034792 0.15338436 0
1.1401942 -1.0036664 0.18068431 0
1.1273167 -1.0035039 0.20617683 0
1.1320102 -1.0035632 0.23323429 0
1.1283202 -1.0035167 0.25947982 0
1.1298672 -1.0035361 0.28658646 0
1.1366524 -1.0036218 0.31496063 0
0.90280932 -0.97791344 -0.090740733 0
1.027203 -0.97634393 -0.092336155 0
1.1321445 -0.97501981 -0.084953748 0
1.1316919 -0.97502553 -0.057947282 0
1.6450547 -0.96854818 -0.091194011 0
2.5872798 -0.95665967 -0.14045545 0
3.4638779 -0.9455992 -0.14113849 0
5.2046809 -0.92363459 -0.14130566 0
10.389767 -0.85821182 -0.14059289 0
0.89565426 -0.95541209 -0.089340888 0
1.0267555 -0.9504475 -0.092374973 0
1.1288327 -0.94658196 -0.084527515 0
1.1293572 -0.94656211 -0.057720188 0
1.6391853 -0.92725563 -0.090629973 0
2.5874546 -0.89134604 -0.1406256 0
3.4566083 -0.85843241 -0.14078416 0
5.1887379 -0.79283917 -0.14071725 0
10.387981 -0.59595126 -0.14070523 0
0.90370625 -0.93226862 -0.091298573 0
1.0230811 -0.92472798 -0.091928117 0
1.1273388 -0.9181422 -0.084518097 0
1.1284853 -0.91806978 -0.057799805 0
1.6316719 -0.88628453 -0.089994483 0
2.5765297 -0.82659978 -0.13991198 0
3.4503663 -0.77140129 -0.14065525 0
5.1831465 -0.6619451 -0.14076468 0
10.375582 -0.33394966 -0.14072461 0
0.89406514 -0.91021079 -0.089609571 0
1.0068195 -0.90022665 -0.089222811 0
1.1562545 -0.88699442 -0.08964438 0
1.3541541 -0.86947078 -0.089942358 0
1.6308969 -0.84496576 -0.090269394 0
2.5830112 -0.76065779 -0.14098081 0
3.4400089 -0.68477225 -0.14039125 0
5.1750507 -0.53113747 -0.14084944 0
10.356552 -0.072325319 -0.14074345 0
0.89481378 -0.88735706 -0.090257443 0
1.0071998 -0.87454039 -0.089781605 0
1.1603158 -0.85707873 -0.090803988 0
1.353494 -0.83504826 -0.090337552 0
1.6377296 -0.80263346 -0.091562532 0
2.5807154 -0.69509345 -0.1413843 0
3.4416258 -0.59691346 -0.14112268 0
5.1662917 -0.40022913 -0.14105785 0
10.328341 0.18846133 -0.14070185 0
0.88435346 -0.86589921 -0.088625453 0
1.0095085 -0.84841716 -0.090832241 0
1.1433464 -0.82972229 -0.088602789 0
1.3348589 -0.80297124 -0.088306569 0
1.6262798 -0.76226467 -0.09082862 0
2.5766258 -0.62951738 -0.14177585 0
3.4180207 -0.51198876 -0.14023259 0
5.1409941 -0.27131858 -0.14064462 0
10.301433 0.44950739 -0.14084496 0
0.89782381 -0.84085876 -0.092259057 0
1.0146534 -0.82152277 -0.092554353 0
1.1459632 -0.79979032 -0.089769997 0
1.3245102 -0.77023977 -0.087562568 0
1.6168889 -0.72184944 -0.090456016 0
2.5490525 -0.56757116 -0.14010353 0
3.4108109 -0.42494532 -0.14065215 0
5.1224947 -0.14165214 -0.14070371 0
10.261052 0.70880777 -0.14082612 0
0.8904267 -0.81892246 -0.091530465 0
0.99508202 -0.79887629 -0.089674719 0
1.1417044 -0.77079153 -0.089918442 0
1.3335806 -0.73403865 -0.089711584 0
1.3410754 -0.73260307 -0.058498953 0
1.3550466 -0.72992694 -0.027716866 0
1.351548 -0.73059708 0.0048360992 0
1.3459281 -0.7316736 0.037218262 0
1.3493189 -0.73102409 0.069050863 0
1.3500323 -0.73088741 0.10100961 0
0.88522887 -0.79666913 -0.091396458 0
0.99336845 -0.77311236 -0.090331547 0
1.1330494 -0.74268472 -0.089451008 0
1.1982664 -0.72847801 -0.071236618 0
1.2096825 -0.72599119 -0.043608207 0
1.2025365 -0.72754782 -0.013814 0
1.2009679 -0.72788954 0.015112163 0
1.2065567 -0.72667211 0.043528702 0
1.2014904 -0.72777569 0.072403274 0
1.2089039 -0.72616076 0.10100569 0
0.88659656 -0.77282882 -0.092820801 0
0.98294604 -0.74927914 -0.089429535 0
1.130024 -0.71333039 -0.090052836 0
1.205665 -0.69484222 -0.073314153 0
1.1995732 -0.6963312 -0.043237496 0
1.1997573 -0.6962862 -0.014218291 0
1.2038429 -0.69528759 0.014403114 0
1.2135534 -0.69291413 0.042857431 0
1.2060879 -0.69473886 0.072126158 0
1.2065274 -0.69463146 0.10100583 0
0.86515069 -0.75481319 -0.089362405 0
0.97561222 -0.72484136 -0.08924111 0
1.1175897 -0.68631828 -0.08918228 0
1.2126216 -0.66053307 -0.075464807 0
1.2092437 -0.66144961 -0.045349915 0
1.2154601 -0.65976292 -0.016488893 0
1.2053314 -0.66251111 0.013730207 0
1.2038467 -0.66291398 0.042946324 0
1.1996428 -0.66405463 0.072093144 0
1.2028885 -0.66317397 0.10100595 0
0.86831748 -0.73028934 -0.091438361 0
0.97521913 -0.69836676 -0.090536423 0
1.1172823 -0.65594441 -0.090501703 0
1.2071925 -0.62909573 -0.075941704 0
1.2061319 -0.62941241 -0.046026234 0
1.2116656 -0.62775993 -0.016966855 0
1.2090014 -0.62855554 0.012832912 0
1.1992725 -0.63146073 0.042749859 0
1.2065257 -0.62929481 0.071717747 0
1.200135 -0.63120317 0.10100613 0
0.84834361 -0.7127831 -0.088495232 0
0.97220242 -0.67236614 -0.091454484 0
1.1087892 -0.62779588 -0.09054891 0
1.2078314 -0.59547693 -0.077436395 0
1.2054951 -0.59623927 -0.047111411 0
1.20363 -0.59684789 -0.017111352 0
1.2046551 -0.59651339 0.012454936 0
1.2092986 -0.59499818 0.04179807 0
1.2057467 -0.59615719 0.071505271 0
1.208306 -0.59532207 0.10100665 0
0.84151185 -0.6913442 -0.088588737 0
0.9592427 -0.64961177 -0.090524413 0
1.0910708 -0.60288233 -0.089111231 0
1.2026623 -0.56332606 -0.07820449 0
1.2121857 -0.55995029 -0.049218286 0
1.2065583 -0.56194502 -0.018419845 0
1.2009792 -0.56392264 0.011964099 0
1.2053876 -0.56235999 0.041480862 0
1.2014667 -0.56374991 0.071356699 0
1.212361 -0.55988812 0.10100709 0
0.84124678 -0.66735029 -0.090300523 0
0.95868278 -0.62235582 -0.092201687 0
1.096386 -0.56959623 -0.091823734 0
1.2079421 -0.52685457 -0.080674134 0
1.2124668 -0.52512103 -0.050657529 0
1.2091244 -0.52640164 -0.01979248 0
1.2122626 -0.52519929 0.010287287 0
1.2076023 -0.52698481 0.040814307 0
1.2140776 -0.52450389 0.07076586 0
1.1994922 -0.53009212 0.10100704 0
0.83579105 -0.6450417 -0.090975277 0
0.9444108 -0.60025054 -0.091242321 0
1.079479 -0.54455292 -0.090762593 0
1.2087675 -0.49123862 -0.082631685 0
1.2042865 -0.49308652 -0.051152695 0
1.2027045 -0.49373883 -0.020362316 0
1.2014289 -0.4942649 0.010191897 0
1.2142533 -0.48897651 0.039872635 0
1.2040043 -0.49320289 0.070714556 0
1.2043631 -0.49305493 0.10100756 0
0.82484668 -0.6249693 -0.090512119 0
0.93728584 -0.57524776 -0.091858365 0
1.064419 -0.51902848 -0.090134464 0
1.2090006 -0.45509335 -0.084657557 0
1.2078642 -0.45559588 -0.053258765 0
1.2098889 -0.4547005 -0.022410681 0
1.2132828 -0.45319971 0.0083018336 0
1.209507 -0.45486948 0.039452005 0
1.207917 -0.45557252 0.070287138 0
1.2118231 -0.45384523 0.10100819 0
0.81255198 -0.60564077 -0.089844339 0
0.91227555 -0.55849916 -0.088886358 0
1.0486088 -0.49405137 -0.089478828 0
1.2284415 -0.40904024 -0.089834489 0
1.4732198 -0.2933279 -0.089352794 0
1.8574748 -0.11168167 -0.090702452 0
3.143446 0.4962267 -0.14202793 0
4.6937652 1.2290983 -0.14068164 0
9.4010801 3.4543545 -0.1407761 0
0.80697161 -0.58308977 -0.090881653 0
0.91011471 -0.5311082 -0.090784319 0
1.0331903 -0.46908125 -0.089002244 0
1.2128505 -0.37853697 -0.089746378 0
1.4534092 -0.25730136 -0.089119576 0
1.8414311 -0.061747994 -0.091401763 0
3.0970948 0.57107538 -0.14141186 0
4.6326427 1.3449533 -0.14049104 0
9.2921295 3.693218 -0.14093645 0
0.80653399 -0.55748624 -0.093309753 0
0.9044081 -0.50502259 -0.092097171 0
1.0313641 -0.43697014 -0.091170527 0
1.1981621 -0.34756103 -0.089922942 0
1.4388375 -0.21855119 -0.089697666 0
1.8105897 -0.019279983 -0.090676032 0
3.0424213 0.64102167 -0.14027613 0
4.5724077 1.4611437 -0.14049815 0
9.1623068 3.921478 -0.14070642 0
0.78798419 -0.54150814 -0.091500394 0
0.87979162 -0.48927262 -0.089472823 0
1.0209097 -0.40898088 -0.091890834 0
1.1802191 -0.31833878 -0.089701377 0
1.2132627 -0.29953799 -0.062041853 0
1.215227 -0.29842034 -0.029429561 0
3.0060754 0.72051674 -0.14073917 0
4.5231466 1.583683 -0.14124915 0
9.0322323 4.1492124 -0.14061935 0
0.77296019 -0.52388889 -0.090637781 0
0.86859924 -0.46623144 -0.089847453 0
0.98444128 -0.39639434 -0.087764464 0
1.1612893 -0.28977886 -0.089434631 0
1.1415343 -0.30168846 -0.054680813 0
1.1992285 -0.26690659 -0.029627865 0
2.9646397 0.79739827 -0.14095639 0
4.4438858 1.6891844 -0.14054778 0
8.910984 4.3822422 -0.14092548 0
0.75569856 -0.50792241 -0.089308314 0
0.85413909 -0.44513622 -0.089627035 0
0.98938078 -0.35887787 -0.09170448 0
1.1416624 -0.26175132 -0.089166574 0
1.1445203 -0.25992855 -0.057550002 0
1.1835945 -0.23500666 -0.029957106 0
2.914216 0.86879927 -0.14059153 0
4.3813171 1.8045294 -0.14090262 0
8.7686434 4.6028051 -0.14081587 0
0.75055426 -0.48415336 -0.091164432 0
0.84679186 -0.41929922 -0.091138341 0
0.96036643 -0.34276173 -0.089168929 0
1.1254593 -0.23150632 -0.089593075 0
1.1374367 -0.22343478 -0.05919655 0
1.1589587 -0.20893124 -0.029368674 0
2.8677728 0.94263202 -0.14070667 0
4.2990732 1.9071798 -0.14032111 0
8.6181259 4.8177724 -0.14062992 0
0.73779124 -0.4652445 -0.091222025 0
0.83173734 -0.39842704 -0.091045015 0
0.95083594 -0.31372026 -0.090598352 0
1.108296 -0.20172969 -0.089992188 0
1.1470413 -0.17417279 -0.063397251 0
1.1413312 -0.17823401 -0.029647043 0
2.8237989 1.0183909 -0.14119419 0
4.2323031 2.0201643 -0.1407598 0
8.4672384 5.032186 -0.14058352 0
0.72182989 -0.44869891 -0.090556599 0
0.81395406 -0.379612 -0.090430386 0
0.93524569 -0.28865138 -0.090959407 0
1.0809537 -0.17938021 -0.088741682 0
1.1075132 -0.15946242 -0.060680468 0
1.0967821 -0.16750994 -0.026879331 0
1.1040878 -0.16203114 0.0045759548 0
1.0984988 -0.16622254 0.037103858 0
1.1046323 -0.16162291 0.068895757 0
1.1106054 -0.15714344 0.10100999 0
1.0999972 -0.16509888 0.13298881 0
1.1082596 -0.15890267 0.16548412 0
1.0995336 -0.16544661 0.19704565 0
0.70325989 -0.43439737 -0.089283116 0
0.78607893 -0.36895981 -0.087493725 0
0.91596895 -0.26633021 -0.090686791 0
1.0590979 -0.15324023 -0.088548757 0
1.097435 -0.12294897 -0.062350456 0
1.1006174 -0.12043443 -0.029843664 0
1.1072036 -0.11523059 0.0024073443 0
1.0995442 -0.12128243 0.035788942 0
1.0986986 -0.1219506 0.06844236 0
1.0959463 -0.12412521 0.10101023 0
1.0953199 -0.12462023 0.13347799 0
1.0952141 -0.12470374 0.16597474 0
1.096493 -0.12369326 0.19865927 0
0.6974293 -0.40987167 -0.091603972 0
0.77705032 -0.3436304 -0.089177676 0
0.88981277 -0.24981686 -0.089056872 0
1.0354756 -0.12863168 -0.088148214 0
1.0979713 -0.076637954 -0.065808274 0
1.0931566 -0.080643564 -0.031642053 0
1.1030607 -0.072403759 0.00074652792 0
1.0901693 -0.083128899 0.035009209 0
1.0943176 -0.079677671 0.067902423 0
1.1045834 -0.071136922 0.10101138 0
1.0981275 -0.076508015 0.13423513 0
1.0981475 -0.076491326 0.16749641 0
1.1008587 -0.074235767 0.20107611 0
0.67865562 -0.39592722 -0.090492897 0
0.7638908 -0.32129684 -0.090023421 0
0.8767482 -0.22248098 -0.090340488 0
0.99932289 -0.11515692 -0.085512958 0
1.0893521 -0.036328997 -0.068100698 0
1.1019844 -0.025268462 -0.035624687 0
1.0967889 -0.029817548 -0.00085290312 0
1.1042527 -0.023282375 0.032701548 0
1.1017998 -0.02542999 0.066951193 0
1.1104525 -0.017853942 0.1010125 0
1.1037142 -0.023753848 0.13513249 0
1.1000857 -0.026930954 0.169065 0
1.1072068 -0.020695832 0.2038461 0
1.1013752 -0.025801864 0.23757413 0
1.0865561 -0.038777199 0.37282777 0
0.66247147 -0.37993613 -0.090204693 0
0.74684983 -0.30220869 -0.090037771 0
0.86163533 -0.19647095 -0.091349013 0
0.96413487 -0.10205069 -0.083064355 0
1.0700353 -0.0044975546 -0.06890697 0
1.0909969 0.014811669 -0.037361566 0
1.0939813 0.017560754 -0.0029202157 0
1.0994868 0.022632394 0.031438228 0
1.1027589 0.025646601 0.066141024 0
1.0976613 0.020950828 0.10101297 0
1.0975467 0.020845208 0.13572018 0
1.1028572 0.025737081 0.17080162 0
1.1010224 0.024046931 0.20561609 0
1.0985731 0.021790657 0.2403498 0
1.0353338 -0.036464002 0.36593834 0
0.64689893 -0.36342761 -0.090208463 0
0.73957229 -0.27363232 -0.09273798 0
0.84099245 -0.1753619 -0.091265433 0
0.8375625 -0.17868528 -0.062736742 0
0.84114718 -0.17521194 -0.035757262 0
0.83909136 -0.17720392 -0.0079593342 0
0.83712608 -0.17910817 0.019576238 0
0.83597958 -0.18021908 0.046842057 0
0.84519953 -0.17128548 0.073638991 0
0.84540898 -0.17108247 0.10100397 0
0.84486008 -0.17161438 0.12835795 0
0.84104633 -0.17530969 0.15549411 0
0.84188586 -0.1744962 0.18289508 0
1.0906287 0.066521674 0.24267973 0
1.003842 -0.017569926 0.29729709 0
0.9999792 -0.02131268 0.32967147 0
0.99636126 -0.024818268 0.36210746 0
0.63343185 -0.34475151 -0.090976201 0
0.72060543 -0.25591245 -0.092556469 0
0.82386327 -0.15068182 -0.092127688 0
0.84228879 -0.13190427 -0.067842357 0
0.84079766 -0.13342384 -0.039171088 0
0.84423923 -0.12991658 -0.01141162 0
0.84399414 -0.13016632 0.016823718 0
0.8403548 -0.13387522 0.045176666 0
0.83035982 -0.14406112 0.073437549 0
0.83783758 -0.13644055 0.10100451 0
0.84362894 -0.13053849 0.12901247 0
0.83876079 -0.13549969 0.15672661 0
0.83765846 -0.13662305 0.18455322 0
0.83528888 -0.13903794 0.21222822 0
1.0987194 0.12942544 0.284242 0
0.9502818 -0.021847989 0.29153126 0
0.94811338 -0.024057891 0.32330415 0
0.95425898 -0.017794814 0.35741302 0
0.61704969 -0.32891169 -0.091001637 0
0.69048065 -0.25019994 -0.089411058 0
0.79723769 -0.1357654 -0.090873741 0
0.83544588 -0.094809502 -0.070944495 0
0.83846503 -0.091573209 -0.04251701 0
0.84536636 -0.084175557 -0.014569512 0
0.84108597 -0.088763803 0.014872761 0
0.83545506 -0.094799608 0.044019852 0
0.83495671 -0.095333844 0.072544992 0
0.83268505 -0.097768813 0.1010052 0
0.83649153 -0.093688637 0.12951809 0
0.83860677 -0.091421276 0.1582063 0
0.83844697 -0.09159258 0.18686803 0
0.84296733 -0.08674714 0.21625313 0
1.1002814 0.18907169 0.28940809 0
0.93564314 0.012593422 0.29360735 0
0.9236474 -0.00026496904 0.32334977 0
0.93354756 0.010347161 0.35854653 0
0.59943837 -0.31442699 -0.090760358 0
0.67270666 -0.23180518 -0.089721493 0
0.78290224 -0.10754177 -0.092719994 0
0.85524172 -0.025967266 -0.079974093 0
0.84724909 -0.034980264 -0.048101146 0
0.83943504 -0.043791857 -0.016985646 0
0.83633381 -0.04728898 0.012951234 0
0.84307086 -0.039691951 0.041883249 0
0.83193499 -0.052249398 0.071851172 0
0.84380978 -0.038858678 0.10100666 0
0.8383258 -0.04504272 0.13038567 0
0.84347069 -0.039240982 0.16015826 0
0.84231752 -0.040541437 0.1896928 0
0.84120774 -0.041792836 0.21924876 0
1.1018558 0.25212994 0.29498699 0
1.1011021 0.2512801 0.3340877 0
0.58083886 -0.30118141 -0.090304665 0
0.66065997 -0.20645967 -0.091849156 0
0.73445803 -0.11888531 -0.086102091 0
0.84027231 0.006681833 -0.082069509 0
0.83877832 0.0049089524 -0.050980706 0
0.84012526 0.0065073106 -0.020579783 0
0.83306897 -0.0018662479 0.010698074 0
0.84054184 0.0070016715 0.040315643 0
0.83211023 -0.0030039216 0.070982262 0
0.84839106 0.01631609 0.10100794 0
0.84135407 0.0079655387 0.13136657 0
0.84875667 0.016750012 0.16229391 0
0.84261107 0.0094572045 0.19235286 0
0.83908319 0.005270693 0.22244455 0
0.83658993 0.0023120379 0.25259966 0
1.104771 0.32055584 0.34179372 0
0.57144916 -0.27657959 -0.093079157 0
0.62901485 -0.20466092 -0.088327639 0
0.73367149 -0.073909968 -0.091732539 0
0.8564235 0.079448134 -0.091413282 0
0.85400027 0.076420695 -0.058569048 0
0.83804584 0.05648819 -0.024061969 0
0.83597583 0.053902064 0.0075560603 0
0.83940995 0.058192525 0.038507324 0
0.84079343 0.059920941 0.06972345 0
0.8430019 0.062680036 0.10100886 0
0.83951902 0.058328781 0.13224658 0
0.83903587 0.057725105 0.16348234 0
0.83954549 0.058361802 0.19486108 0
0.83948755 0.058289442 0.22629541 0
0.83873308 0.057346854 0.25773203 0
1.0969894 0.37999478 0.34755751 0
1.1009253 0.38491204 0.39036608 0
0.53858864 -0.28175446 -0.087915681 0
0.61770707 -0.17762908 -0.091032781 0
0.69979215 -0.06959942 -0.088866554 0
0.73060787 -0.02904382 -0.068514787 0
0.72852451 -0.031785633 -0.039576653 0
0.73510575 -0.023124244 -0.012292257 0
0.72967798 -0.030267622 0.016766893 0
0.73603344 -0.021903362 0.044407863 0
0.73304147 -0.025840964 0.072836772 0
0.72914159 -0.030973461 0.10100476 0
0.72455013 -0.037016179 0.12884602 0
0.72940063 -0.030632582 0.15709144 0
0.72480059 -0.036686566 0.18467896 0
0.73250538 -0.026546504 0.2139015 0
0.73072249 -0.028892901 0.24201189 0
0.73211646 -0.027058329 0.27087638 0
0.72399861 -0.037741985 0.29745322 0
0.73295009 -0.025961246 0.3289229 0
0.52819222 -0.25783405 -0.090688176 0
0.59975469 -0.15854874 -0.091909923 0
0.6864537 -0.038263287 -0.091702275 0
0.72137713 0.010189269 -0.072175153 0
0.96122909 0.34295812 -0.090964638 0
0.84677821 0.1841698 -0.034047563 0
0.83942544 0.1739687 0.00072464556 0
0.83798766 0.17197385 0.034328412 0
0.83881634 0.17312351 0.06765493 0
0.84364504 0.17982283 0.10101154 0
0.84804541 0.1859279 0.1347356 0
0.84135717 0.17664865 0.16796289 0
0.839082 0.1734921 0.20125732 0
0.83932728 0.17383245 0.23488152 0
0.84728414 0.1848717 0.27021396 0
0.84672588 0.1840972 0.30432716 0
1.0995021 0.53479701 0.40985173 0
0.51012564 -0.2439498 -0.09089794 0
0.57861829 -0.14368394 -0.09191484 0
0.65514266 -0.031660523 -0.089634307 0
0.76961088 0.13590851 -0.090532489 0
0.92778283 0.36745515 -0.091062717 0
1.1548725 0.69988996 -0.089974336 0
0.8471151 0.24936631 -0.0038990953 0
0.8442198 0.24512795 0.03137381 0
0.83515483 0.23185781 0.066585943 0
0.84107828 0.24052909 0.10101292 0
0.84431773 0.24527124 0.13581796 0
0.84133756 0.24090865 0.17041434 0
0.84151959 0.24117509 0.2052319 0
0.83212644 0.22742453 0.23859264 0
0.83990657 0.23881379 0.27488178 0
0.83863634 0.23695436 0.30975717 0
1.1022652 0.62287861 0.42196745 0
1.1021055 0.62264472 0.46877235 0
0.49245393 -0.22933659 -0.091405265 0
0.55197257 -0.13730523 -0.090136819 0
0.63213283 -0.013356593 -0.090046026 0
0.73609596 0.14739755 -0.089269526 0
0.89270449 0.38955513 -0.090944089 0
1.1065818 0.72026521 -0.089062713 0
1.4787081 1.2956696 -0.089264818 0
0.85036701 0.32409039 0.028153764 0
0.83652526 0.30268744 0.065196753 0
0.84100115 0.30960837 0.10101455 0
0.8447473 0.31540087 0.13718483 0
0.84357232 0.313584 0.17329332 0
0.83655643 0.3027356 0.20862687 0
0.8396455 0.30751219 0.24521115 0
0.83613265 0.3020803 0.28079873 0
0.84188205 0.31097046 0.31867653 0
0.84331083 0.31317964 0.35598955 0
1.1000171 0.71011454 0.48227999 0
0.47186518 -0.21923497 -0.090892754 0
0.5336988 -0.11811724 -0.091363676 0
0.61230391 0.01042727 -0.091619886 0
0.70687139 0.16507533 -0.089185812 0
0.84845042 0.39660242 -0.088887401 0
1.0717094 0.76170212 -0.090603806 0
1.4237477 1.3373973 -0.089688502 0
0.84863681 0.39690712 0.02532688 0
0.84933412 0.3980476 0.063161232 0
0.83635873 0.37682858 0.10101611 0
0.83951855 0.38199583 0.13843393 0
0.83596265 0.37618092 0.1755745 0
0.84164339 0.38547078 0.21371682 0
0.84172183 0.38559905 0.25148842 0
0.84282023 0.38739517 0.28966027 0
0.84190637 0.38590077 0.32759649 0
0.84430176 0.38981798 0.36674291 0
1.0955222 0.80064374 0.49626836 0
0.45280823 -0.20669451 -0.091114782 0
0.50523251 -0.11589321 -0.088984393 0
0.57876533 0.011469159 -0.08895082 0
0.67679709 0.18126479 -0.088982381 0
0.81797528 0.42579213 -0.090000547 0
1.0356767 0.80286127 -0.092188276 0
1.361855 1.3678174 -0.089306109 0
1.368031 1.3785145 -0.026315114 0
0.84973997 0.48081008 0.061502095 0
0.83897775 0.46216932 0.10101824 0
0.84052926 0.46485654 0.14010632 0
0.84169215 0.46687081 0.17934515 0
0.83921736 0.46258429 0.2182686 0
0.83985293 0.46368518 0.25766924 0
0.83543789 0.45603815 0.29611972 0
0.83965349 0.46333972 0.3367947 0
0.83836627 0.46111026 0.3763212 0
0.84123677 0.46608201 0.4175978 0
0.43432668 -0.19295612 -0.091740914 0
0.4860096 -0.097982615 -0.090156429 0
0.55876637 0.035716567 -0.09081962 0
0.64743882 0.19866267 -0.089097403 0
0.78369308 0.44904593 -0.09041176 0
0.98475093 0.81851345 -0.091137968 0
1.2928801 1.384737 -0.087979622 0
1.2909153 1.3811264 -0.024665361 0
1.2912692 1.3817768 0.03820784 0
0.84729761 0.56592685 0.10102095 0
0.83332479 0.54025 0.1415571 0
0.83767825 0.54825002 0.18256262 0
0.83564025 0.54450506 0.22314619 0
0.83953542 0.55166286 0.26482263 0
0.84047818 0.55339521 0.3063387 0
0.83872211 0.55016834 0.34737965 0
0.83878195 0.55027837 0.38914314 0
0.83918071 0.55101103 0.43136695 0
0.41140962 -0.18752417 -0.090487607 0
0.47230515 -0.068567306 -0.093851127 0
0.53509939 0.05409852 -0.091675349 0
0.6187976 0.21759954 -0.089571692 0
0.75030845 0.47450045 -0.091221027 0
0.94014424 0.84533662 -0.091408186 0
1.2425591 1.4360912 -0.089512192 0
1.2461723 1.4431493 -0.026246449 0
1.2422912 1.4355679 0.03763346 0
1.2449447 1.4407511 0.10104834 0
0.84903115 0.66735107 0.14434797 0
0.8394534 0.64864129 0.18673971 0
0.84093422 0.65153402 0.2299419 0
0.84094393 0.65155309 0.27313507 0
0.84134328 0.65233308 0.31661743 0
0.84205705 0.65372735 0.36047509 0
0.83458352 0.63912827 0.40173995 0
0.83951896 0.64876932 0.44768611 0
0.39217812 -0.17507485 -0.091041528 0
0.44174811 -0.071904212 -0.090730064 0
0.50697106 0.063845187 -0.091055818 0
0.59365839 0.24426845 -0.091359235 0
0.7098192 0.48603538 -0.090325646 0
0.89088863 0.86289769 -0.090833344 0
1.1846819 1.4743729 -0.090111531 0
1.7781004 2.7094624 -0.09006805 0
4.5057139 8.3864784 -0.14087643 0
0.84864247 0.77497011 0.19220549 0
0.84036922 0.75775081 0.23658231 0
0.83737534 0.75151974 0.2813516 0
0.84246272 0.76210815 0.32817543 0
0.83987063 0.75671321 0.37331018 0
0.83881688 0.75452 0.41904581 0
0.84836358 0.77438968 0.4696309 0
0.37209862 -0.16415504 -0.091346525 0
0.42040083 -0.056762662 -0.091620706 0
0.47194809 0.057844672 -0.087734185 0
0.55748838 0.24803022 -0.089695074 0
0.67534322 0.51006204 -0.091172911 0
0.84126687 0.87896746 -0.090240352 0
1.1194713 1.4975116 -0.089655958 0
1.6835924 2.7517471 -0.089997806 0
4.2673721 8.4963799 -0.14085674 0
1.0634266 1.372905 0.22170129 0
0.84828293 0.89456671 0.24549644 0
0.83953333 0.87511331 0.29190442 0
0.83782947 0.87132508 0.33952788 0
0.84425467 0.8856104 0.39000359 0
0.8447122 0.88662761 0.43915057 0
0.84484702 0.88692743 0.48857909 0
0.34483922 -0.17011514 -0.08787445 0
0.39757577 -0.044482734 -0.092028059 0
0.44955572 0.079347283 -0.089508213 0
0.52679634 0.26335469 -0.089950673 0
0.63388175 0.51846057 -0.090141244 0
0.79426503 0.90053588 -0.090337716 0
1.0618584 1.5380139 -0.090647154 0
1.5945302 2.8069787 -0.090703063 0
4.0277886 8.6036434 -0.14092325 0
0.99849743 1.3870714 0.22110032 0
0.84782428 1.0281281 0.25405452 0
0.84216827 1.0146539 0.30395591 0
0.83798343 1.0046846 0.35383737 0
0.84185737 1.0139134 0.40641367 0
0.83733803 1.0031471 0.45623749 0
0.83679229 1.001847 0.50783277 0
0.32800946 -0.15158609 -0.090182267 0
0.37160444 -0.039916839 -0.090988792 0
0.42192307 0.088975221 -0.089270033 0
0.49480799 0.27567115 -0.089867435 0
0.59913254 0.54290026 -0.091264255 0
0.7473743 0.92262405 -0.090605669 0
0.9955321 1.5582843 -0.090219967 0
1.4962411 2.8408587 -0.090447254 0
3.7832332 8.699028 -0.14084433 0
0.92901152 1.3878908 0.21991979 0
0.85195321 1.1905048 0.26469392 0
0.83497518 1.1470151 0.31516278 0
0.83769131 1.1539726 0.37000564 0
0.83804071 1.1548676 0.42458156 0
0.84100735 1.1624665 0.48074403 0
0.83929276 1.1580746 0.53529406 0
0.30460188 -0.14959523 -0.088827483 0
0.34966943 -0.024958696 -0.092172287 0
0.39661345 0.10486725 -0.09025123 0
0.43448943 0.20961526 -0.078194208 0
0.43646383 0.21507552 -0.048707444 0
0.43530715 0.21187666 -0.018251641 0
0.93113583 1.5831153 -0.090260737 0
1.402027 2.8853877 -0.090844356 0
3.5329058 8.7784386 -0.14052452 0
0.85892576 1.3834147 0.21857484 0
0.85053372 1.3602061 0.27577394 0
0.83710468 1.3230674 0.3306253 0
0.84323961 1.3400338 0.3906005 0
0.84294081 1.3392074 0.4490853 0
0.84145254 1.3350916 0.50733805 0
0.84247613 1.3379223 0.56722564 0
0.28720564 -0.13054058 -0.091440253 0
0.31967199 -0.033134963 -0.088863216 0
0.36678517 0.10821405 -0.089162029 0
0.40229785 0.21475926 -0.077392451 0
0.40173185 0.21306112 -0.047152881 0
0.40441972 0.22112539 -0.018121025 0
0.86885673 1.6145298 -0.090906598 0
1.3036658 2.9190443 -0.09082178 0
3.2879138 8.8721886 -0.14071435 0
0.79357797 1.3886783 0.21780699 0
0.8500734 1.558176 0.28884873 0
0.8411842 1.5315068 0.34914157 0
0.83628345 1.5168035 0.40986037 0
0.84357494 1.5386794 0.47560802 0
0.83798265 1.5219014 0.53616577 0
0.84072739 1.5301361 0.6013298 0
0.26710719 -0.11815897 -0.092647813 0
0.30018961 -0.0098701976 -0.091921397 0
0.33810762 0.11424688 -0.088672675 0
0.38185358 0.2574406 -0.082232721 0
0.38001758 0.25143078 -0.05065297 0
0.3834523 0.26267365 -0.02122022 0
0.72737575 1.3884389 -0.072839476 0
0.72861505 1.3924954 -0.014971955 0
0.72633088 1.3850186 0.043247942 0
0.72464013 1.3794844 0.10104111 0
0.72735745 1.3883789 0.15891658 0
0.72429037 1.3783395 0.21636531 0
0.84178531 1.7629359 0.30232075 0
0.83659279 1.7459393 0.36809096 0
0.83289194 1.7338252 0.4339155 0
0.83292395 1.7339301 0.50130433 0
0.83553058 1.7424622 0.57058954 0
0.24375506 -0.11635217 -0.09162616 0
0.27261117 -0.012597289 -0.089973278 0
0.31122831 0.12625399 -0.089329831 0
0.36650416 0.32500342 -0.090744101 0
0.43846437 0.5837428 -0.08985322 0
0.54893655 0.98095542 -0.089913197 0
0.65948421 1.3784394 -0.070838891 0
0.66081429 1.3832219 -0.013673341 0
0.66240662 1.3889472 0.043576553 0
0.65895247 1.3765275 0.1010405 0
0.66188508 1.3870721 0.15845989 0
0.66013038 1.3807628 0.21563607 0
0.81037325 1.9209747 0.31232089 0
0.81111586 1.9236448 0.38335875 0
0.81309128 1.9307475 0.45537347 0
0.80980885 1.9189453 0.52536672 0
0.81195116 1.9266481 0.59857601 0
0.21986224 -0.11763415 -0.090063594 0
0.24906613 -0.0013380911 -0.090889208 0
0.28444681 0.13955525 -0.090317465 0
0.33356246 0.33514419 -0.090937756 0
0.39753437 0.58989388 -0.089324646 0
0.49800718 0.9899978 -0.089513235 0
0.59603173 1.3803523 -0.069833495 0
0.59515369 1.3768559 -0.01260489 0
0.5955677 1.3785045 0.04420881 0
0.594971 1.3761282 0.10104002 0
0.59579593 1.3794131 0.15789329 0
0.59646016 1.3820581 0.21493532 0
0.76920658 2.0699711 0.32166296 0
0.76945955 2.0709784 0.39566755 0
0.7670728 2.0614738 0.46877578 0
0.77025008 2.0741267 0.54503745 0
0.1942255 -0.12831309 -0.0865945 0
0.22428843 0.0056242677 -0.091085576 0
0.2577917 0.15488926 -0.091756128 0
0.2982873 0.33530644 -0.089813225 0
0.35592687 0.59210414 -0.08845114 0
0.44989258 1.0107434 -0.090358429 0
0.55327874 1.4713528 -0.075331904 0
0.55049473 1.4589491 -0.015842451 0
0.5532608 1.4712727 0.042337764 0
0.55407465 1.4748986 0.10104249 0
0.553464 1.472178 0.15976872 0
0.55061918 1.4595037 0.21795331 0
0.71432477 2.1888502 0.32886744 0
0.71443087 2.1893229 0.40523294 0
0.71161216 2.1767647 0.48039225 0
0.7136783 2.1859701 0.55849689 0
0.17345659 -0.11858258 -0.087705843 0
0.19744465 0.002511773 -0.089466892 0
0.22649023 0.14913705 -0.089767762 0
0.26581267 0.34764114 -0.090566061 0
0.31839454 0.6130802 -0.089943253 0
0.39777714 1.0138121 -0.089633249 0
0.41552952 1.1034281 -0.048173387 0
0.41637275 1.1076849 0.0014493337 0
0.41449192 1.0981903 0.051492374 0
0.41585717 1.1050823 0.10103135 0
0.41488415 1.1001704 0.15061703 0
0.41559574 1.1037624 0.2004274 0
0.41453958 1.0984309 0.24988015 0
0.416298 1.1073077 0.30059361 0
0.41743049 1.1130245 0.35157362 0
0.40737775 1.0622771 0.39501131 0
0.29699898 0.50507301 0.35143316 0
0.27205104 0.37913302 0.36380556 0
0.15471621 -0.095417887 -0.091823228 0
0.17207894 0.0055311653 -0.089156903 0
0.19598034 0.14449683 -0.088105477 0
0.23407297 0.36597195 -0.092287831 0
0.2778407 0.62044305 -0.089927144 0
0.34885579 1.0333333 -0.090594284 0
0.3686493 1.1484153 -0.050669897 0
0.88039374 4.1237602 -0.14056115 0
1.7644755 9.2639189 -0.14092171 0
0.58195168 2.388581 0.26073128 0
0.5801304 2.3779922 0.3400279 0
0.58167946 2.3869987 0.42093924 0
0.26152405 0.52557606 0.28070667 0
0.27349785 0.59519321 0.32700875 0
0.27257523 0.58982891 0.36440584 0
0.23632969 0.37909284 0.36257362 0
0.1311495 -0.09842363 -0.090405382 0
0.14889582 0.023025189 -0.091725416 0
0.1657376 0.13828388 -0.08631625 0
0.19668269 0.35006002 -0.08925388 0
0.2381088 0.63356417 -0.090712376 0
0.2969088 1.0359685 -0.090075634 0
0.39615113 1.7151446 -0.090103008 0
0.75258762 4.1544571 -0.14103805 0
1.5031916 9.2912979 -0.14059624 0
0.50766212 2.4782822 0.26431695 0
0.50630593 2.4690013 0.34550568 0
0.50562847 2.4643648 0.42696026 0
0.22290461 0.5295127 0.28045201 0
0.27639404 0.89557356 0.36878327 0
0.20143214 0.38256338 0.36218667 0
0.10891748 -0.093040496 -0.090915419 0
0.12299904 0.023878608 -0.091240413 0
0.13731427 0.14273778 -0.086424805 0
0.16448757 0.36835745 -0.091205291 0
0.19681109 0.63673943 -0.09044265 0
0.24584122 1.0438361 -0.090173937 0
0.32761917 1.7228379 -0.090003274 0
0.62086552 4.1576605 -0.14037579 0
1.2424098 9.3183374 -0.1404185 0
0.42439324 2.5263524 0.26602542 0
0.42329499 2.5172336 0.34808379 0
0.4251948 2.5330076 0.43232334 0
0.42503157 2.5316522 0.51565385 0
0.23028249 0.91465217 0.37058589 0
0.16695835 0.3888723 0.36250702 0
0.085844763 -0.095080644 -0.089959227 0
0.097548068 0.028227601 -0.091541745 0
0.11128835 0.17299774 -0.090912022 0
0.13020368 0.37229314 -0.091239475 0
0.15612234 0.64537698 -0.090937369 0
0.19475146 1.0523806 -0.090456463 0
0.25919873 1.7314093 -0.090087064 0
0.49214855 4.1858125 -0.14103751 0
0.98287189 9.3561659 -0.14064707 0
0.34202951 2.60413 0.26921928 0
0.33940727 2.5765016 0.35157877 0
0.34008017 2.5835915 0.43617001 0
0.34074423 2.5905881 0.52145123 0
0.3398861 2.5815465 0.60526109 0
0.17337081 0.82711011 0.40094715 0
0.13170554 0.38811699 0.36165449 0
0.063545644 -0.089055508 -0.09084741 0
0.071628213 0.027231369 -0.090954758 0
0.080688119 0.15757945 -0.087974288 0
0.09617874 0.38044849 -0.091990091 0
0.11521103 0.65427285 -0.091581933 0
0.14273214 1.0502286 -0.08985848 0
0.19189538 1.7575576 -0.09152361 0
0.3617785 4.2017264 -0.14127871 0
0.72140181 9.3757553 -0.14060299 0
0.25335181 2.6417534 0.27062857 0
0.25267053 2.6319513 0.35494849 0
0.13250326 0.90306216 0.27813882 0
0.13323785 0.91363114 0.3240183 0
0.13386422 0.92264277 0.37042338 0
0.12481985 0.79251832 0.39462462 0
0.09647987 0.38478091 0.36048427 0
0.040817685 -0.087631792 -0.09087541 0
0.046358224 0.037751112 -0.092663027 0
0.051379465 0.15138224 -0.086683966 0
0.061103169 0.37143067 -0.09044496 0
0.073403321 0.64978427 -0.090780832 0
0.090884849 1.0453928 -0.089133151 0
0.12180948 1.7452202 -0.090384357 0
0.23027264 4.1997514 -0.14083946 0
0.45928586 9.3823414 -0.14041004 0
0.16339372 2.686275 0.27246267 0
0.16293047 2.6757917 0.35765487 0
0.086815566 0.95330471 0.28258198 0
0.086143382 0.93809301 0.32656178 0
0.086869419 0.95452327 0.37452373 0
0.076676011 0.72384566 0.38290223 0
0.061087817 0.37108317 0.35752898 0
0.018044185 -0.087496668 -0.090751432 0
0.020180777 0.02537838 -0.09017808 0
0.022984074 0.17347518 -0.090166248 0
0.026749983 0.37242606 -0.090432532 0
0.031945165 0.64688486 -0.090289302 0
0.0396364 1.0532086 -0.089711495 0
0.053110935 1.7650611 -0.09161938 0
0.099261284 4.2031603 -0.14080572 0
0.19763249 9.4000587 -0.14062992 0
0.0710501 2.7127781 0.27356175 0
0.070925102 2.7061744 0.3595767 0
0.070870474 2.7032886 0.44591162 0
0.07097391 2.7087531 0.53346467 0
0.032665759 0.68495339 0.37628242 0
0.026934415 0.38216951 0.35941395 0
-0.004653506 -0.097013623 -0.088697933 0
-0.0055201473 0.040392194 -0.092975549 0
-0.0063117314 0.16589752 -0.088890411 0
-0.0076617328 0.37993982 -0.091458015 0
-0.009378613 0.65215081 -0.090874292 0
-0.011794834 1.0352418 -0.08800409 0
-0.016260961 1.7433453 -0.090070538 0
-0.031820882 4.2103662 -0.1411027 0
-0.064618871 9.4104767 -0.14083368 0
-0.022538103 2.7385843 0.27473718 0
-0.022432277 2.7218056 0.3606292 0
-0.02241361 2.7188456 0.4473097 0
-0.022450795 2.7247412 0.53526539 0
-0.009341877 0.64632624 0.36988777 0
-0.0076604038 0.37972906 0.358913 0
-0.027218742 -0.095729262 -0.08906167 0
-0.031461406 0.038739834 -0.09275683 0
-0.035601392 0.16995469 -0.089648224 0
-0.042098776 0.37588611 -0.090979986 0
-0.051160496 0.66309291 -0.092245422 0
-0.063520275 1.0548301 -0.089923628 0
-0.08551681 1.7519994 -0.090767108 0
-0.11898215 2.8126671 -0.076116599 0
-0.11861313 2.8009713 0.012801217 0
-0.11846223 2.7961884 0.10107852 0
-0.11899585 2.8131013 0.18963908 0
-0.11678316 2.7429709 0.27502474 0
-0.11658464 2.7366791 0.36179444 0
-0.1163784 2.7301424 0.44853079 0
-0.11669034 2.7400286 0.53726131 0
-0.050797828 0.65159827 0.37088344 0
-0.042112801 0.37633064 0.35839561 0
-0.049690928 -0.097856551 -0.088820778 0
-0.057085067 0.032240663 -0.091746874 0
-0.064762726 0.16732624 -0.089428209 0
-0.075967029 0.36446193 -0.089586042 0
-0.092271894 0.65134031 -0.091085203 0
-0.11556812 1.061229 -0.090734862 0
-0.15474869 1.7505975 -0.09088286 0
-0.21460807 2.803802 -0.075900786 0
-0.21439441 2.8000426 0.012724483 0
-0.21440092 2.8001571 0.10107876 0
-0.21387368 2.7908807 0.18921925 0
-0.21094975 2.7394352 0.27505386 0
-0.21122888 2.7443464 0.36262274 0
-0.21051033 2.7317035 0.44906458 0
-0.077203929 0.3862249 0.26207083 0
-0.076691404 0.37720719 0.29340056 0
-0.07670363 0.37742224 0.32603455 0
-0.076515488 0.37411192 0.35826409 0
-0.072736248 -0.092487961 -0.090298943 0
-0.082361087 0.024613295 -0.090643696 0
-0.093348503 0.15829256 -0.088272743 0
-0.11011165 0.36224273 -0.089607619 0
-0.13314046 0.64242464 -0.090376832 0
-0.16772641 1.0632172 -0.09125758 0
-0.22362761 1.7433434 -0.090710796 0
-0.42444253 4.1865735 -0.14080277 0
-0.85019541 9.3665285 -0.14061898 0
-0.30562457 2.7409656 0.27543104 0
-0.30506063 2.7341042 0.36236301 0
-0.30359575 2.7162817 0.44823042 0
-0.30488408 2.731956 0.53756768 0
-0.11385232 0.40775397 0.29804751 0
-0.11374134 0.40640345 0.33121052 0
-0.11203861 0.38568726 0.36090401 0
-0.095275946 -0.095228583 -0.090171672 0
-0.10735165 0.016942177 -0.089649953 0
-0.12318876 0.16405228 -0.089678608 0
-0.14513902 0.36794737 -0.090870939 0
-0.17389461 0.63505679 -0.089969583 0
-0.21804526 1.0451703 -0.090024285 0
-0.29188094 1.7310262 -0.090304382 0
-0.55367988 4.1628656 -0.14027242 0
-1.1123203 9.3520527 -0.14085977 0
-0.40009761 2.7362463 0.27562812 0
-0.39841238 2.7205923 0.36203897 0
-0.39872381 2.7234852 0.44973978 0
-0.39743075 2.7114739 0.53620577 0
-0.1491752 0.40543917 0.29819277 0
-0.14869477 0.40097657 0.33086523 0
-0.14507979 0.36739722 0.35806137 0
-0.11775512 -0.098304063 -0.090093978 0
-0.13390191 0.022867355 -0.091356061 0
-0.153642 0.17100421 -0.091411568 0
-0.17953727 0.36533168 -0.091084026 0
-0.21544802 0.63481909 -0.090522729 0
-0.26996818 1.0439579 -0.090491481 0
-0.36030972 1.7219138 -0.090243898 0
-0.68666106 4.1709733 -0.14138751 0
-1.372219 9.315649 -0.14074197 0
-0.49304372 2.717998 0.27530164 0
-0.48931614 2.6900249 0.36067599 0
-0.24115992 0.82777041 0.27218047 0
-0.2401195 0.8199628 0.3143988 0
-0.18467711 0.40390292 0.29857516 0
-0.18516366 0.40755418 0.33265597 0
-0.18209022 0.38448992 0.36209282 0
-0.14211632 -0.08951959 -0.09269049 0
-0.15867253 0.014588032 -0.090487517 0
-0.1799123 0.14814666 -0.08831837 0
-0.21423005 0.36394122 -0.091595642 0
-0.25585663 0.62569469 -0.090150349 0
-0.32077935 1.0339375 -0.090251692 0
-0.42664921 1.6996615 -0.089375071 0
-0.81444055 4.1381459 -0.14073534 0
-1.6322006 9.2803316 -0.14080341 0
-0.58119696 2.6714785 0.27375004 0
-0.58088237 2.6695001 0.3601813 0
-0.27903315 0.77143186 0.2674849 0
-0.27818412 0.76609296 0.30880901 0
-0.27828228 0.76671022 0.35095426 0
-0.21571778 0.37329629 0.36092195 0
-0.16254257 -0.10547152 -0.09008453 0
-0.18413627 0.011244092 -0.090679772 0
-0.20845015 0.14266255 -0.088225089 0
-0.24763799 0.35447565 -0.09108042 0
-0.29647437 0.61844009 -0.090119384 0
-0.37276408 1.0307915 -0.090784825 0
-0.49359328 1.6838825 -0.089081205 0
-0.94465953 4.1219301 -0.14101896 0
-1.8898449 9.2307291 -0.14068221 0
-0.66951662 2.6347618 0.27276108 0
-0.66820902 2.6276939 0.35833409 0
-0.66597444 2.6156158 0.44337523 0
-0.66826409 2.6279917 0.53112179 0
-0.2907759 0.58763939 0.36463356 0
-0.25173801 0.37663653 0.36269265 0
-0.1857726 -0.10522774 -0.091094933 0
-0.2105764 0.01219419 -0.091823079 0
-0.23618853 0.13344255 -0.087624483 0
-0.27871439 0.33476117 -0.089211144 0
-0.33966076 0.62328285 -0.091655485 0
-0.42022583 1.00468 -0.089254744 0
-0.56267089 1.6790187 -0.089686088 0
-0.61605406 1.931736 -0.038017903 0
-0.61915487 1.9464154 0.03120766 0
-0.61853123 1.9434631 0.10105597 0
-0.75384378 2.5840364 0.2712054 0
-0.75235564 2.5769916 0.35599807 0
-0.7505703 2.5685396 0.4405973 0
