# .PCD v0.7 - Point Cloud Data file format
VERSION 0.7
FIELDS x y z intensity
SIZE 4 4 4 4
TYPE F F F F
COUNT 1 1 1 1
WIDTH 1315
HEIGHT 1
VIEWPOINT 0 0 0 1 0 0 0
POINTS 1315
DATA ascii
-0.8393923 -2.0667834 -0.091064103 0
-1.0070186 -2.2817087 -0.090587385 0
-1.2634619 -2.6105123 -0.090937726 0
-1.6918958 -3.1598365 -0.091465659 0
-3.1919038 -5.0830984 -0.14072728 0
-6.3939791 -9.1886978 -0.14079587 0
-0.52909982 -1.7054917 -0.088426985 0
-0.60956395 -1.8142091 -0.092329897 0
-0.6936174 -1.9277763 -0.090920605 0
-0.81199211 -2.0877161 -0.091076739 0
-0.97382796 -2.3063774 -0.090536155 0
-1.2284616 -2.6504209 -0.091927327 0
-1.6276548 -3.1897829 -0.090415411 0
-3.090153 -5.1658087 -0.1409273 0
-6.1901855 -9.3543577 -0.14099602 0
-0.52043319 -1.7322785 -0.09196917 0
-0.57915002 -1.8159477 -0.089245744 0
-0.66694236 -1.9410485 -0.090126641 0
-0.77953589 -2.10149 -0.089979954 0
-0.93834406 -2.3277857 -0.090140991 0
-1.1739976 -2.6635833 -0.089951329 0
-1.5743049 -3.2340064 -0.0907427 0
-2.9905586 -5.2521143 -0.14147575 0
-5.9649262 -9.4904766 -0.14050102 0
-0.49240291 -1.7314812 -0.088468187 0
-0.56192058 -1.8360569 -0.090542905 0
-0.63961399 -1.9529313 -0.089205734 0
-0.75389457 -2.1248438 -0.09065748 0
-0.90708196 -2.3552842 -0.090733893 0
-1.1382031 -2.7029607 -0.091101818 0
-1.5191498 -3.2760198 -0.090993054 0
-2.8792243 -5.3219843 -0.14123805 0
-5.7532768 -9.6454306 -0.14070022 0
-0.48125887 -1.7559979 -0.091558002 0
-0.54204398 -1.8526405 -0.091132723 0
-0.62314093 -1.9815772 -0.091688983 0
-0.72067076 -2.1366403 -0.089513905 0
-0.86915135 -2.3727107 -0.090036668 0
-1.0876027 -2.7200279 -0.089874558 0
-1.4542035 -3.3028889 -0.090104632 0
-2.7537899 -5.3691092 -0.13990898 0
-5.534637 -9.7903957 -0.14076985 0
-0.46124482 -1.7670531 -0.091343381 0
-0.52293777 -1.8708618 -0.092183359 0
-0.59286028 -1.9885181 -0.090065815 0
-0.69234478 -2.1559174 -0.089748405 0
-0.83416492 -2.3945534 -0.090081401 0
-1.0378784 -2.7373354 -0.088831402 0
-1.4005626 -3.3476121 -0.090815745 0
-2.6534646 -5.4558287 -0.14091672 0
-5.3101125 -9.9260817 -0.14073792 0
-0.43512136 -1.7671368 -0.088582151 0
-0.49400565 -1.8721662 -0.089671247 0
-0.56950665 -2.0068338 -0.090753697 0
-0.6611656 -2.1703219 -0.089310639 0
-0.80206925 -2.4216456 -0.090948038 0
-1.0058688 -2.7851539 -0.091203101 0
-1.3377793 -3.3771679 -0.090410553 0
-2.5376513 -5.5173264 -0.14070033 0
-5.0798311 -10.051701 -0.14059024 0
-0.41432795 -1.7759435 -0.088113748 0
-0.47570133 -1.8921949 -0.091337033 0
-0.54354578 -2.0207036 -0.090716504 0
-0.63475329 -2.1934657 -0.090393387 0
-0.76220125 -2.4348733 -0.090078719 0
-0.95966905 -2.8089101 -0.091089569 0
-1.2807981 -3.4171817 -0.09096361 0
-1.9266442 -4.6405215 -0.091245569 0
-4.8506575 -10.179088 -0.14064488 0
-0.40000087 -1.797567 -0.090817668 0
-0.45341 -1.9052277 -0.091608934 0
-0.51311564 -2.0255806 -0.089150943 0
-0.60979223 -2.2204585 -0.092171796 0
-0.72900981 -2.4607742 -0.09100572 0
-0.90929681 -2.8241918 -0.090216734 0
-1.2148532 -3.440124 -0.090290509 0
-1.8264673 -4.6729989 -0.090466268 0
-4.6168022 -10.29768 -0.14062169 0
-0.38260201 -1.814141 -0.092391647 0
-0.42746761 -1.9106208 -0.090408348 0
-0.48344487 -2.0309951 -0.087841101 0
-0.56582862 -2.2081544 -0.087937184 0
-0.68583858 -2.4662259 -0.089394815 0
-0.86309808 -2.8474076 -0.090302475 0
-1.1546712 -3.4744115 -0.090629064 0
-1.7311828 -4.7141514 -0.090272047 0
-4.3857365 -10.422547 -0.14091195 0
-0.35831645 -1.8158457 -0.090604492 0
-0.40529746 -1.9239264 -0.090981089 0
-0.45959532 -2.0488393 -0.088907979 0
-0.54094738 -2.235991 -0.090070777 0
-0.65029967 -2.4875574 -0.089964814 0
-0.81587541 -2.8684669 -0.090287142 0
-1.0901593 -3.4994612 -0.090376191 0
-1.644009 -4.7736001 -0.091131486 0
-4.1424656 -10.521336 -0.14068659 0
-0.34081823 -1.833218 -0.092569895 0
-0.38173655 -1.9342501 -0.091056429 0
-0.43152174 -2.0571756 -0.088385426 0
-0.51040965 -2.2519591 -0.090478905 0
-0.61399269 -2.5077176 -0.090495043 0
-0.76959234 -2.8919115 -0.090632863 0
-1.027288 -3.5281923 -0.090527035 0
-1.5437391 -4.8033705 -0.090602614 0
-3.9028604 -10.628317 -0.14082387 0
-0.31543925 -1.8309934 -0.090167426 0
-0.35709846 -1.9418124 -0.090695627 0
-0.41034272 -2.0834491 -0.09114226 0
-0.4750616 -2.2556098 -0.089150198 0
-0.57529283 -2.5222378 -0.090431027 0
-0.72021037 -2.9077375 -0.090332665 0
-0.96565497 -3.560652 -0.091074027 0
-1.4489328 -4.8462343 -0.090856425 0
-3.6575265 -10.72138 -0.14076512 0
-0.29238516 -1.833768 -0.08905562 0
-0.33591646 -1.9590789 -0.092397489 0
-0.37872058 -2.0822964 -0.089196689 0
-0.44212347 -2.2648106 -0.088792108 0
-0.53809732 -2.5410843 -0.091024257 0
-0.6769008 -2.9406495 -0.091847099 0
-0.90174294 -3.5878887 -0.091345362 0
-1.3506917 -4.88025 -0.090790428 0
-3.4116983 -10.813143 -0.14082795 0
-0.27211237 -1.8444318 -0.089843474 0
-0.31066003 -1.9651393 -0.091976143 0
-0.35527346 -2.104841 -0.09149348 0
-0.41274387 -2.2848032 -0.090152137 0
-0.49938077 -2.5560966 -0.091257967 0
-0.62570006 -2.9516509 -0.091310076 0
-0.83193403 -3.5974491 -0.090436168 0
-1.2532923 -4.9168839 -0.090974621 0
-3.1567459 -10.87733 -0.14036933 0
-0.25090608 -1.8526149 -0.090190031 0
-0.28426829 -1.9669642 -0.090852432 0
-0.32531396 -2.1076486 -0.090496086 0
-0.38157031 -2.3004677 -0.090977617 0
-0.46341527 -2.5809925 -0.092812695 0
-0.57270074 -2.9555695 -0.090214439 0
-0.76663166 -3.62027 -0.090628155 0
-1.1512065 -4.9384046 -0.090544201 0
-2.9102073 -10.967398 -0.14069735 0
-0.22911283 -1.8589576 -0.090247728 0
-0.25689432 -1.9639639 -0.088926323 0
-0.29568562 -2.1105843 -0.089656092 0
-0.3452903 -2.2980762 -0.089287497 0
-0.41947025 -2.5784557 -0.091150753 0
-0.52383584 -2.9729285 -0.090553395 0
-0.7000677 -3.6390359 -0.090645231 0
-1.0522143 -4.9700527 -0.090728857 0
-2.6582646 -11.040476 -0.14076474 0
-0.20751372 -1.8662386 -0.090630613 0
-0.23491891 -1.9815108 -0.091123872 0
-0.26909244 -2.1252522 -0.090929829 0
-0.31470001 -2.3170877 -0.090831898 0
-0.37858665 -2.5858088 -0.090820484 0
-0.47243258 -2.9805455 -0.090074353 0
-0.63588136 -3.668047 -0.091519482 0
-0.94720614 -4.9775472 -0.08987657 0
-2.4033217 -11.102288 -0.14071497 0
-0.18580399 -1.8735056 -0.091127224 0
-0.20892565 -1.9829642 -0.090318702 0
-0.23832241 -2.1221292 -0.089321367 0
-0.28192627 -2.3285508 -0.091395132 0
-0.33786801 -2.5933805 -0.0906417 0
-0.42337331 -2.9981651 -0.090676226 0
-0.5633471 -3.6608047 -0.089914821 0
-0.84715205 -5.0043449 -0.090073742 0
-2.1483254 -11.164134 -0.14081959 0
-0.16432886 -1.8827683 -0.092171662 0
-0.18458919 -1.9922769 -0.091148697 0
-0.2103941 -2.1317544 -0.089981265 0
-0.24495356 -2.3185508 -0.089006729 0
-0.29976016 -2.6147847 -0.092230283 0
-0.37045825 -2.9969132 -0.089601763 0
-0.49828255 -3.6878133 -0.090883188 0
-0.94379985 -6.0958681 -0.14079897 0
-1.8920027 -11.220977 -0.14095798 0
-0.14037237 -1.878099 -0.090330206 0
-0.15800144 -1.9889529 -0.089682706 0
-0.18118961 -2.1347632 -0.089655019 0
-0.21269138 -2.3328507 -0.090218835 0
-0.25741196 -2.6140594 -0.091307752 0
-0.31952834 -3.0046558 -0.089508213 0
-0.42992672 -3.6988556 -0.090833969 0
-0.81514752 -6.1211758 -0.1409449 0
-1.6326259 -11.26159 -0.14086638 0
-0.11997238 -1.8969197 -0.093662076 0
-0.1338938 -2.0013912 -0.091344498 0
-0.15234208 -2.1398337 -0.089794137 0
-0.17806053 -2.3328345 -0.089512862 0
-0.21461125 -2.6071243 -0.08978235 0
-0.2682614 -3.0097344 -0.089285381 0
-0.36040011 -3.7011769 -0.090291746 0
-0.68300045 -6.1220865 -0.14009732 0
-1.3723482 -11.295203 -0.14076471 0
-0.094797924 -1.8789158 -0.089222379 0
-0.10744838 -1.9964254 -0.089820169 0
-0.1227712 -2.1387584 -0.089037471 0
-0.14282076 -2.3249979 -0.087827154 0
-0.17353339 -2.6102862 -0.089575164 0
-0.21842486 -3.027281 -0.090355314 0
-0.29198971 -3.7106216 -0.090375431 0
-0.55494934 -6.1532421 -0.14082459 0
-1.1120772 -11.328379 -0.14080696 0
-0.072760321 -1.8863896 -0.090361409 0
-0.083375551 -2.0155406 -0.09297628 0
-0.094005741 -2.1448736 -0.089591391 0
-0.11032596 -2.3434348 -0.089975305 0
-0.13281541 -2.6170545 -0.089913063 0
-0.16686633 -3.0313377 -0.09027756 0
-0.22414865 -3.7282674 -0.091155477 0
-0.42510393 -6.1732049 -0.14117867 0
-0.85116303 -11.356886 -0.14089362 0
-0.049992785 -1.8860393 -0.089951523 0
-0.056473047 -2.000057 -0.089715384 0
-0.064942233 -2.1490693 -0.08994814 0
-0.075813711 -2.3403492 -0.08920633 0
-0.080801144 -2.4281013 -0.067459337 0
-0.081175551 -2.4346888 -0.034161139 0
-0.080991149 -2.4314444 -1.2336071e-05 0
-0.080868669 -2.4292893 0.03382365 0
-0.081479639 -2.4400392 0.067185454 0
-0.081062593 -2.4327013 0.10101167 0
-0.02766853 -1.8971112 -0.092093416 0
-0.031197928 -2.0089736 -0.091183163 0
-0.035917036 -2.1585436 -0.091293253 0
-0.040576447 -2.3062212 -0.084195875 0
-0.040812571 -2.3137052 -0.05389512 0
-0.040611055 -2.3073182 -0.02211581 0
-0.040690754 -2.3098443 0.0086054299 0
-0.040790685 -2.3130114 0.039314445 0
-0.040539972 -2.3050652 0.070362866 0
-0.040712249 -2.3105254 0.10100813 0
-0.0047444156 -1.8959848 -0.09176179 0
-0.0054788492 -2.012429 -0.091742225 0
-0.0063197101 -2.1457472 -0.089098312 0
-0.0066518257 -2.1984041 -0.068955101 0
-0.0067403298 -2.2124364 -0.041985322 0
-0.0066992999 -2.2059312 -0.012593342 0
-0.0067488179 -2.2137821 0.015365312 0
-0.0066765258 -2.2023203 0.044497181 0
-0.0067417282 -2.2126582 0.07252603 0
-0.0067085233 -2.2073934 0.10100517 0
0.018114777 -1.8948174 -0.091544293 0
0.020225368 -2.0063188 -0.090621866 0
0.022975588 -2.1516116 -0.090092547 0
0.023757005 -2.1928933 -0.068207569 0
0.024032464 -2.2074456 -0.04142471 0
0.024080295 -2.2099726 -0.012988722 0
0.023883052 -2.1995523 0.016346658 0
0.023904759 -2.2006991 0.044563673 0
0.023992602 -2.2053397 0.072691686 0
0.02398352 -2.20486 0.10100511 0
0.041158117 -1.898657 -0.092514597 0
0.045769114 -2.0030041 -0.090149559 0
0.052295532 -2.1506977 -0.09009441 0
0.054079413 -2.191067 -0.068085425 0
0.054904632 -2.2097418 -0.041806761 0
0.054267853 -2.1953316 -0.011711566 0
0.054585066 -2.2025101 0.016072275 0
0.054632142 -2.2035754 0.044384707 0
0.054884631 -2.2092891 0.072577246 0
0.054222785 -2.1943116 0.10100483 0
0.063591942 -1.8901954 -0.090989344 0
0.07202094 -2.0114663 -0.092021562 0
0.080978461 -2.1403413 -0.088662483 0
0.08572796 -2.208674 -0.070808448 0
0.08533822 -2.2030668 -0.041229669 0
0.085322395 -2.2028391 -0.012575766 0
0.084947094 -2.1974394 0.016305747 0
0.085330091 -2.2029498 0.044332679 0
0.0848611 -2.1962023 0.072841503 0
0.085527405 -2.2057886 0.10100521 0
0.086091965 -1.8861086 -0.090515338 0
0.097624458 -2.0076172 -0.091694035 0
0.1108262 -2.1467133 -0.090108134 0
0.11604369 -2.2016854 -0.070178576 0
0.11419623 -2.1822202 -0.039077584 0
0.11656912 -2.2072217 -0.013222424 0
0.11674391 -2.2090633 0.015313694 0
0.11590526 -2.200227 0.044342402 0
0.11648083 -2.2062912 0.072547466 0
0.11639807 -2.2054193 0.10100527 0
0.10860108 -1.8829172 -0.09035296 0
0.12287886 -2.0014653 -0.091051109 0
0.13971819 -2.1412821 -0.089728914 0
0.14634033 -2.1962657 -0.069876991 0
0.1478672 -2.2089434 -0.042604361 0
0.14670892 -2.199326 -0.012790775 0
0.14674096 -2.1995921 0.015747571 0
0.14682338 -2.2002764 0.044186037 0
0.14609519 -2.1942303 0.072752595 0
0.14644952 -2.1971724 0.10100513 0
0.13144614 -1.8821912 -0.09084148 0
0.14772241 -1.9935797 -0.090196855 0
0.16785002 -2.1313252 -0.088717438 0
0.17679906 -2.1925688 -0.069927432 0
0.17803591 -2.2010336 -0.04215372 0
0.17753375 -2.1975968 -0.01301085 0
0.17677888 -2.1924307 0.015966469 0
0.17768756 -2.1986494 0.044071313 0
0.17857918 -2.2047515 0.07241033 0
0.17804559 -2.2010996 0.10100536 0
0.15258214 -1.870759 -0.089147098 0
0.1738138 -1.9942026 -0.091084637 0
0.19581413 -2.1221151 -0.087944336 0
0.20927577 -2.2003827 -0.071728893 0
0.20917128 -2.1997752 -0.042580027 0
0.21050468 -2.2075279 -0.014409771 0
0.20953153 -2.2018697 0.014955083 0
0.20997728 -2.2044613 0.043567959 0
0.20838717 -2.1952162 0.072520435 0
0.20856299 -2.1962385 0.10100536 0
0.17461824 -1.8658663 -0.088976569 0
0.1970107 -1.9789058 -0.089046262 0
0.22489052 -2.1196461 -0.088414736 0
0.24116074 -2.2017801 -0.072737269 0
0.2410126 -2.2010322 -0.043401588 0
0.24180672 -2.2050409 -0.014713107 0
0.24096677 -2.2008009 0.014628733 0
0.23956965 -2.193748 0.043807779 0
0.24105239 -2.2012331 0.072244681 0
0.24019735 -2.1969168 0.10100554 0
0.1980108 -1.867136 -0.090268426 0
0.22449985 -1.9851509 -0.091267399 0
0.2558558 -2.1248488 -0.090303324 0
0.27269223 -2.1998591 -0.073389061 0
0.27303335 -2.2013791 -0.044214759 0
0.2736606 -2.2041736 -0.015248423 0
0.27438468 -2.2073996 0.013694467 0
0.27212578 -2.1973355 0.043331083 0
0.27127385 -2.1935399 0.072274469 0
0.27160007 -2.1949935 0.10100567 0
0.22126766 -1.8665472 -0.091290168 0
0.24738969 -1.9705707 -0.089592747 0
0.28551203 -2.1223819 -0.091036297 0
0.30497149 -2.1998737 -0.074440368 0
0.30849046 -2.2138867 -0.046595637 0
0.30671418 -2.2068133 -0.01620183 0
0.30539206 -2.2015483 0.013591023 0
0.30520201 -2.2007916 0.042818345 0
0.30540985 -2.2016191 0.071908109 0
0.30645868 -2.205796 0.1010062 0
0.24085943 -1.8518211 -0.089329086 0
0.27561152 -1.9767754 -0.092082329 0
0.31168145 -2.106468 -0.089607768 0
0.33742905 -2.1990459 -0.075494669 0
0.33598804 -2.1938646 -0.045155291 0
0.33473596 -2.1893625 -0.015296062 0
0.33630633 -2.195009 0.013480196 0
0.33451104 -2.1885538 0.043020133 0
0.33964676 -2.2070198 0.071583092 0
0.33480936 -2.1896265 0.10100596 0
0.26096672 -1.8403262 -0.088180475 0
0.29770273 -1.9605743 -0.09031821 0
0.34046063 -2.1005337 -0.089996271 0
0.37095472 -2.20035 -0.076990359 0
0.36538029 -2.1821034 -0.044797827 0
0.36848673 -2.1922717 -0.01643916 0
0.36982262 -2.1966443 0.01271412 0
0.37309399 -2.2073526 0.041676801 0
0.36784059 -2.1901565 0.071775891 0
0.36973649 -2.1963625 0.10100643 0
0.28734091 -1.8484501 -0.09153121 0
0.32266295 -1.9544233 -0.090644799 0
0.37200084 -2.1024468 -0.091872908 0
0.43348134 -2.2869008 -0.09125153 0
0.51834244 -2.541501 -0.090253122 0
0.65129811 -2.9403949 -0.090996049 0
0.86545998 -3.5829237 -0.090155624 0
1.3039349 -4.8984365 -0.090861417 0
3.2916918 -10.862107 -0.14099213 0
0.31223327 -1.8500946 -0.093597867 0
0.34539744 -1.9418117 -0.089806028 0
0.39958075 -2.0916581 -0.091685407 0
0.46398544 -2.2697725 -0.090384416 0
0.55905151 -2.5326824 -0.090840854 0
0.69905072 -2.919857 -0.090647824 0
0.93641573 -3.5763018 -0.091346212 0
1.4022126 -4.8644857 -0.090869762 0
3.5399437 -10.776486 -0.14100572 0
0.32734314 -1.8252918 -0.089792795 0
0.37018108 -1.9350219 -0.090251587 0
0.42529875 -2.0762067 -0.090795599 0
0.49654946 -2.2587166 -0.090540387 0
0.59327024 -2.5064685 -0.089380227 0
0.74892116 -2.9051709 -0.091002695 0
0.99954492 -3.5471482 -0.090991385 0
1.4965338 -4.8201933 -0.090484731 0
3.7869737 -10.687194 -0.14108348 0
0.35173094 -1.8248874 -0.09165927 0
0.394804 -1.9274989 -0.090679236 0
0.45153484 -2.0626466 -0.090348594 0
0.52970237 -2.2488625 -0.091005839 0
0.63447779 -2.4984651 -0.09032122 0
0.79969531 -2.8920569 -0.091647275 0
1.0613067 -3.5152843 -0.090547495 0
1.5945251 -4.7855511 -0.090702452 0
4.0265846 -10.579359 -0.14085093 0
0.37030995 -1.8104528 -0.090419628 0
0.42082435 -1.9227637 -0.091815166 0
0.47563455 -2.0446255 -0.089211233 0
0.55349469 -2.2177355 -0.088326804 0
0.66639221 -2.4687455 -0.088622563 0
0.84088206 -2.8566966 -0.090152808 0
1.1270663 -3.4929826 -0.090950377 0
1.6886901 -4.7416654 -0.090576358 0
4.2705164 -10.481955 -0.14103495 0
0.39190277 -1.8029368 -0.090906389 0
0.4417451 -1.9066743 -0.090728752 0
0.50664616 -2.0417535 -0.090932496 0
0.58624089 -2.2074151 -0.088952221 0
0.7070359 -2.4588273 -0.089574523 0
0.89010382 -2.8398488 -0.090664186 0
1.194834 -3.4740872 -0.091750346 0
1.7836542 -4.6996064 -0.09066508 0
4.499969 -10.353106 -0.14056802 0
0.40984151 -1.7879974 -0.089756124 0
0.46472439 -1.8952087 -0.090717666 0
0.53431094 -2.0311432 -0.09139099 0
0.62136626 -2.2012019 -0.090363882 0
0.7458213 -2.4443195 -0.090070151 0
0.93556249 -2.814971 -0.090469666 0
1.2497452 -3.4287136 -0.090614669 0
1.8818818 -4.6635656 -0.091194324 0
4.7407808 -10.248303 -0.14087343 0
0.42622471 -1.7707403 -0.088137977 0
0.49059498 -1.8890283 -0.091963284 0
0.55725044 -2.0115154 -0.090298377 0
0.65204293 -2.1857078 -0.090451054 0
0.78417057 -2.428508 -0.090528511 0
0.98077458 -2.7897911 -0.090361468 0
1.3105191 -3.3957355 -0.090559445 0
1.9693024 -4.6063275 -0.090737917 0
4.9723392 -10.124763 -0.14084686 0
0.4496766 -1.766466 -0.089783452 0
0.50903416 -1.8692762 -0.090416484 0
0.58402437 -1.9991628 -0.090679474 0
0.67765868 -2.1613417 -0.089224555 0
0.81806326 -2.4045291 -0.090021096 0
1.0248946 -2.7627707 -0.090175442 0
1.3706573 -3.3616481 -0.090536825 0
2.6018252 -5.4940891 -0.14119267 0
5.2065859 -10.005658 -0.14109482 0
0.4735902 -1.7621707 -0.091595612 0
0.53008842 -1.8545634 -0.090060197 0
0.60744703 -1.9810693 -0.090089791 0
0.71189588 -2.1518767 -0.090539329 0
0.84866029 -2.3755302 -0.088934414 0
1.0756879 -2.746793 -0.091315649 0
1.4349202 -3.3342528 -0.091185696 0
2.7114899 -5.4218531 -0.14091 0
5.426476 -9.8617229 -0.14082988 0
0.49723399 -1.7566394 -0.093276285 0
0.55527812 -1.8463907 -0.091283314 0
0.63669729 -1.972286 -0.091427438 0
0.73509008 -2.1244268 -0.089009218 0
0.88330323 -2.3536031 -0.08892078 0
1.1115891 -2.7065926 -0.089923389 0
1.4879465 -3.2885392 -0.090454109 0
2.8161914 -5.3423524 -0.14037217 0
5.6529832 -9.7287722 -0.14101717 0
0.51073152 -1.7355219 -0.091126271 0
0.58102942 -1.8384304 -0.09271995 0
0.65745676 -1.9503117 -0.090308554 0
0.76651567 -2.1099622 -0.089761324 0
0.92418444 -2.3407722 -0.090317138 0
1.166599 -2.6956408 -0.091914795 0
1.5482949 -3.2544024 -0.090802319 0
2.9305706 -5.2779045 -0.14082144 0
5.8655953 -9.5744629 -0.14076598 0
0.52601212 -1.717726 -0.089895658 0
0.60352284 -1.8252637 -0.093123712 0
0.67845339 -1.9292219 -0.089453571 0
0.79820484 -2.0953641 -0.090640344 0
0.95616698 -2.3145196 -0.089952819 0
1.1974698 -2.6493013 -0.090029381 0
1.6056585 -3.2156193 -0.090886645 0
3.039572 -5.2050204 -0.14095905 0
6.0758505 -9.4175301 -0.14058743 0
0.54654515 -1.7073016 -0.090711124 0
0.61407393 -1.7961742 -0.089901693 0
0.70957136 -1.9218554 -0.091523118 0
0.8243944 -2.0729704 -0.090300284 0
0.98100752 -2.2790842 -0.088350959 0
1.2482522 -2.6307967 -0.091461055 0
1.667003 -3.1819019 -0.091543324 0
3.1430032 -5.1244206 -0.14080758 0
6.2937841 -9.2710676 -0.14086471 0
0.56112456 -1.6891062 -0.089567207 0
0.63347042 -1.7794902 -0.089670591 0
0.72897595 -1.8988085 -0.090497591 0
0.85277593 -2.0534756 -0.090592958 0
1.0219914 -2.2648821 -0.08998803 0
1.2883095 -2.5976019 -0.091317303 0
1.7116554 -3.1265016 -0.090409048 0
3.2428682 -5.039495 -0.14054921 0
6.4932909 -9.1003532 -0.14058763 0
0.57494527 -1.6704094 -0.08836057 0
0.65802485 -1.768998 -0.09107893 0
0.7537306 -1.8825697 -0.091017492 0
0.88510323 -2.0384662 -0.091846548 0
1.0554531 -2.2406161 -0.090278633 0
1.3252349 -2.5607595 -0.090847425 0
1.770674 -3.0893509 -0.091020845 0
3.3429155 -4.955091 -0.14046893 0
6.7021289 -8.9413862 -0.14081331 0
0.59164828 -1.6553731 -0.088264637 0
0.68233818 -1.7576406 -0.092455693 0
0.77438045 -1.8614331 -0.090609066 0
0.90643549 -2.0103467 -0.090817578 0
1.0911514 -2.2186437 -0.091064595 0
1.364884 -2.5273216 -0.090906642 0
1.8196584 -3.0401535 -0.090658523 0
3.4488137 -4.8772902 -0.14095315 0
6.9011316 -8.7703381 -0.14083071 0
0.61637193 -1.6489465 -0.090790443 0
0.69558066 -1.7338516 -0.090819232 0
0.8019973 -1.8479211 -0.092020459 0
0.93522781 -1.990733 -0.091501214 0
1.1177499 -2.1863811 -0.090366937 0
1.3977097 -2.4864743 -0.090147771 0
1.8583368 -2.9802275 -0.089378722 0
3.5421467 -4.7851291 -0.14070286 0
7.0908084 -8.588994 -0.14067905 0
0.63258445 -1.6329696 -0.090719037 0
0.71145689 -1.713349 -0.090096198 0
0.8136813 -1.8175263 -0.089738391 0
0.95483541 -1.9613773 -0.090425245 0
1.1348898 -2.1448717 -0.088246293 0
1.443346 -2.4592209 -0.091254659 0
1.9094663 -2.9342465 -0.089527197 0
3.6448164 -4.7027512 -0.14123625 0
7.279994 -8.4073792 -0.14066891 0
0.65698594 -1.6249309 -0.093193971 0
0.73456508 -1.7001007 -0.091424756 0
0.84095448 -1.8031861 -0.091256745 0
0.98090291 -1.9387882 -0.090786181 0
1.1702129 -2.1222188 -0.089308582 0
1.4774501 -2.4199145 -0.09092655 0
1.9611888 -2.8886302 -0.089844249 0
3.7350562 -4.607408 -0.14108753 0
7.4693036 -8.2256842 -0.14081335 0
0.65832198 -1.5948262 -0.089005493 0
0.74572474 -1.6753396 -0.089749657 0
0.86802405 -1.7879989 -0.092776604 0
1.0019382 -1.9113575 -0.090287574 0
1.2039568 -2.0974524 -0.090187527 0
1.5146625 -2.3836675 -0.09112788 0
2.5355196 -3.3240578 -0.13993885 0
3.8218207 -4.5089693 -0.1408764 0
7.6534829 -8.0386095 -0.14093901 0
0.6796183 -1.5835004 -0.090764873 0
0.76182806 -1.6554818 -0.089507021 0
0.88151646 -1.7602787 -0.091382094 0
1.0303305 -1.8905774 -0.091304921 0
1.2253764 -2.0613561 -0.089231022 0
1.5328031 -2.330533 -0.089073516 0
2.603291 -3.2678325 -0.1408374 0
3.9063859 -4.4087977 -0.14068933 0
7.8246269 -7.8395367 -0.14080673 0
0.69914895 -1.5701437 -0.092079468 0
0.79260522 -1.6478953 -0.092988826 0
0.8939535 -1.7322128 -0.08994212 0
1.0441966 -1.8572085 -0.089742504 0
1.2469103 -2.0258574 -0.08845178 0
1.5576516 -2.2843809 -0.088040896 0
2.6570029 -3.1989944 -0.14056917 0
3.9895205 -4.3075914 -0.14057429 0
7.994822 -7.6398306 -0.14080212 0
0.71011961 -1.5496074 -0.09114144 0
0.79900301 -1.6198366 -0.090596147 0
0.9067089 -1.7049379 -0.088747151 0
1.0749937 -1.8379043 -0.091395847 0
1.271059 -1.9928209 -0.088212244 0
1.6054847 -2.2570596 -0.0899029 0
2.7100763 -3.1298275 -0.14040574 0
4.0757909 -4.2089157 -0.14080073 0
8.1581907 -7.4345303 -0.14074622 0
0.7272262 -1.5339327 -0.091990359 0
0.80695844 -1.5937264 -0.088783391 0
0.9296115 -1.685708 -0.08980196 0
1.0939554 -1.808955 -0.091025598 0
1.3106743 -1.9714795 -0.090359651 0
1.6246631 -2.2069499 -0.088468097 0
2.7659676 -3.0628521 -0.14064571 0
4.1538062 -4.1036377 -0.14068888 0
8.3152971 -7.2244768 -0.14066146 0
0.73773217 -1.5132982 -0.091206618 0
0.82930291 -1.5784262 -0.090482347 0
0.95462328 -1.6675581 -0.091362186 0
1.1130091 -1.7802072 -0.090804972 0
1.3260928 -1.9317591 -0.089076631 0
1.6743804 -2.1794724 -0.090702958 0
2.8116176 -2.988312 -0.14014919 0
4.2298498 -3.9970043 -0.14061964 0
8.4788275 -7.0190125 -0.14091417 0
0.74769455 -1.4925042 -0.090431444 0
0.84172612 -1.5558717 -0.089987777 0
0.97638524 -1.646618 -0.092343666 0
1.1237986 -1.7459593 -0.089311637 0
1.3452457 -1.8951916 -0.088484041 0
1.699405 -2.1338582 -0.090199597 0
2.8664806 -2.9203458 -0.14059772 0
4.3053255 -3.8899777 -0.14067209 0
8.6259022 -6.8015966 -0.14084794 0
0.76371694 -1.4757764 -0.09132988 0
0.86236066 -1.5386922 -0.091463737 0
0.98318738 -1.6157566 -0.090497173 0
1.1564939 -1.7262931 -0.091638796 0
1.373888 -1.8649489 -0.089345373 0
1.7419968 -2.0997319 -0.091777645 0
2.9202185 -2.8512123 -0.14108925 0
4.3743229 -3.7786531 -0.14051642 0
8.7750969 -6.5855055 -0.14099385 0
0.76920706 -1.4524331 -0.08970625 0
0.87208837 -1.5144567 -0.090614818 0
0.99219543 -1.5868651 -0.089252554 0
1.1640811 -1.6904889 -0.089892752 0
1.4084927 -1.8378361 -0.091112398 0
1.7652477 -2.0529113 -0.091318555 0
2.9616251 -2.7741656 -0.14071029 0
4.4470196 -3.6696582 -0.14071812 0
8.9074135 -6.3586736 -0.14082855 0
0.78853685 -1.4373909 -0.091635548 0
0.87615234 -1.4872415 -0.088684179 0
1.0146536 -1.5660443 -0.090707861 0
1.186076 -1.6635784 -0.090648375 0
1.4170808 -1.7950128 -0.089448564 0
1.7853115 -2.0045247 -0.090651579 0
3.0066175 -2.69941 -0.14078277 0
4.5069103 -3.5530298 -0.14037949 0
9.0275755 -6.1251473 -0.14049478 0
0.79587197 -1.4153832 -0.090738364 0
0.90603912 -1.4744364 -0.092445724 0
1.0344632 -1.5432758 -0.091748439 0
1.2029214 -1.6335748 -0.090681843 0
1.4464216 -1.7640989 -0.090703361 0
1.8111914 -1.9596273 -0.090739764 0
3.0440834 -2.6204972 -0.14040795 0
4.5759864 -3.4416468 -0.14068718 0
9.1666613 -5.9023962 -0.14082126 0
0.79234987 -1.3881259 -0.087401234 0
0.90795869 -1.4463899 -0.09032958 0
1.0405606 -1.5132179 -0.090358697 0
1.2136712 -1.6004614 -0.089875542 0
1.4542069 -1.7216854 -0.089223973 0
1.8257954 -1.9089568 -0.089767449 0
3.0902379 -2.5462041 -0.14087504 0
4.6402154 -3.3273544 -0.14088582 0
9.2876492 -5.6695447 -0.1408198 0
0.80782616 -1.3707099 -0.088733219 0
0.92615795 -1.426648 -0.091778554 0
1.0536133 -1.4868991 -0.090388604 0
1.2221197 -1.566556 -0.088851802 0
1.4848071 -1.6907344 -0.090850733 0
1.8671622 -1.8714825 -0.091702633 0
3.1284912 -2.4677417 -0.14087151 0
4.6894603 -3.2056479 -0.14045995 0
9.409543 -5.4369397 -0.14099373 0
0.81382823 -1.348743 -0.087951235 0
0.92702252 -1.3987983 -0.08974468 0
1.0629812 -1.4589204 -0.089876093 0
1.2429395 -1.5384994 -0.089872681 0
1.5032709 -1.65362 -0.091008954 0
1.882954 -1.821519 -0.091103278 0
3.168412 -2.3899589 -0.14114775 0
4.7480397 -3.0884831 -0.14067127 0
9.5087605 -5.1937118 -0.14073935 0
0.83799326 -1.3344511 -0.091481619 0
0.94348174 -1.377951 -0.091053031 0
1.0810556 -1.4346819 -0.091042884 0
1.2478974 -1.5034819 -0.08857999 0
1.5071744 -1.6103991 -0.089443885 0
1.8965105 -1.7709483 -0.090412445 0
3.2015724 -2.3091123 -0.14105916 0
4.8170772 -2.9752927 -0.14155675 0
9.6203594 -4.9560061 -0.14095423 0
0.84333569 -1.3120347 -0.090776019 0
0.94969749 -1.3527862 -0.090389349 0
1.0767114 -1.4014503 -0.088360988 0
1.2683945 -1.4748918 -0.089772008 0
1.5350512 -1.5770587 -0.091031529 0
1.9211115 -1.7249738 -0.090960465 0
3.2325652 -2.2274442 -0.14096269 0
4.8501248 -2.8471963 -0.14078264 0
9.7045479 -4.7071199 -0.14063472 0
0.84164566 -1.2872878 -0.088618912 0
0.95985764 -1.3291909 -0.090647303 0
1.0937952 -1.3766681 -0.089586295 0
1.2797571 -1.4425867 -0.089699544 0
1.5521095 -1.5391283 -0.0913684 0
1.9408838 -1.6769384 -0.091140844 0
3.2643654 -2.1460772 -0.14108056 0
4.8867178 -2.7211578 -0.14035094 0
9.8044014 -4.464345 -0.14086014 0
0.85699612 -1.268625 -0.090429865 0
0.97566956 -1.3073499 -0.092141412 0
1.0980586 -1.3472873 -0.08869379 0
1.2918746 -1.4105324 -0.089860313 0
1.5667057 -1.5002137 -0.091518037 0
1.9702604 -1.6318997 -0.092382304 0
3.2895911 -2.062417 -0.14086568 0
4.9313154 -2.5981359 -0.14047123 0
9.8830347 -4.2139549 -0.14071523 0
0.85686088 -1.2448742 -0.088896863 0
0.97202885 -1.2792653 -0.089909293 0
1.1223032 -1.3241396 -0.091362916 0
1.3093406 -1.3799921 -0.090923436 0
1.5418894 -1.449435 -0.086979561 0
1.9614923 -1.5747353 -0.090009831 0
3.3192787 -1.9801928 -0.14113261 0
4.9871697 -2.4782524 -0.14128898 0
9.9500036 -3.9602365 -0.14044234 0
0.87682021 -1.2269378 -0.091932572 0
0.99243814 -1.2583088 -0.092524879 0
1.1214993 -1.2933272 -0.089848079 0
1.3006209 -1.3419287 -0.088278912 0
1.5609967 -1.4125772 -0.087946899 0
1.9669042 -1.5227131 -0.08916501 0
3.3408964 -1.8955218 -0.14096402 0
5.0045295 -2.3469195 -0.14039075 0
10.031631 -3.7109354 -0.14067927 0
0.88249993 -1.2047546 -0.091924377 0
0.98396111 -1.2295537 -0.089626335 0
1.135376 -1.2665625 -0.090958349 0
1.3287807 -1.3138343 -0.091125481 0
1.5773549 -1.3745908 -0.088689826 0
1.9891423 -1.4752396 -0.090068735 0
3.3570931 -1.8095938 -0.14056064 0
5.0481358 -2.2229178 -0.14091527 0
10.102575 -3.4583223 -0.14081015 0
0.87954152 -1.1806767 -0.090159185 0
0.99681604 -1.2062234 -0.090996124 0
1.1449373 -1.2384896 -0.091450609 0
1.3311639 -1.2790567 -0.090351321 0
1.6067829 -1.3390965 -0.091107048 0
1.9844115 -1.421358 -0.088505991 0
3.3840568 -1.7262523 -0.14108545 0
5.0731163 -2.0941918 -0.14069906 0
10.156101 -3.201453 -0.14067799 0
0.8944217 -1.1604275 -0.09239509 0
1.0045751 -1.1815268 -0.091495253 0
1.1346613 -1.2064441 -0.08873985 0
1.3432903 -1.2464058 -0.091100939 0
1.6230257 -1.2999877 -0.092050456 0
2.5502324 -1.4775892 -0.141304 0
3.3932741 -1.6390694 -0.14049466 0
5.1068931 -1.9673041 -0.14105521 0
10.213377 -2.9454241 -0.14078909 0
0.8942154 -1.1371287 -0.091481619 0
1.0048335 -1.1554366 -0.090679578 0
1.134602 -1.1769141 -0.08787737 0
1.3451324 -1.211758 -0.090500124 0
1.6183963 -1.2569847 -0.090634577 0
2.5668278 -1.4139555 -0.14178525 0
3.4124405 -1.5539091 -0.1407676 0
5.1230612 -1.8370262 -0.14073043 0
10.261168 -2.6874115 -0.14082886 0
0.88097328 -1.1122134 -0.08789999 0
1.0103223 -1.1302812 -0.090987019 0
1.1446451 -1.1490438 -0.088818304 0
1.3359808 -1.1757702 -0.088465758 0
1.6249862 -1.2161393 -0.090675958 0
2.5686145 -1.3479483 -0.14102083 0
3.431272 -1.4684469 -0.14116797 0
5.1503615 -1.7085747 -0.14108495 0
10.299024 -2.4277556 -0.14078841 0
0.90284282 -1.0921433 -0.091975175 0
1.0227895 -1.1058222 -0.092736967 0
1.1586784 -1.1213193 -0.09053313 0
1.3594469 -1.1442153 -0.091179557 0
1.6347945 -1.1756165 -0.091217272 0
2.5790915 -1.283306 -0.14123175 0
3.428906 -1.3802207 -0.14022768 0
5.1601229 -1.5776521 -0.1407688 0
10.337277 -2.1680651 -0.14091097 0
0.90303171 -1.0691679 -0.091522969 0
1.0167149 -1.0792342 -0.09109392 0
1.1274171 -1.0890367 -0.084886365 0
1.1297073 -1.0892396 -0.058276374 0
1.6327971 -1.1337873 -0.090492345 0
2.5798094 -1.2176434 -0.1406808 0
3.4431484 -1.2940905 -0.14061159 0
5.1796155 -1.4478514 -0.14106277 0
10.362218 -1.9067612 -0.14087571 0
0.90237606 -1.0462321 -0.091015257 0
1.0152251 -1.0533605 -0.090445496 0
1.1295741 -1.0605837 -0.084886186 0
1.1270272 -1.0604228 -0.057594482 0
1.6413062 -1.0929087 -0.091122709 0
2.5760143 -1.1519524 -0.13986379 0
3.4512615 -1.20724 -0.14071797 0
5.1797366 -1.3164241 -0.14060563 0
10.381524 -1.6450104 -0.14086305 0
0.92030096 -1.0241059 -0.094583593 0
1.0216638 -1.0279444 -0.091415264 0
1.125826 -1.0318888 -0.084033005 0
1.1241947 -1.0318271 -0.056994159 0
1.6427339 -1.0514635 -0.091045015 0
2.5828745 -1.0870652 -0.14019778 0
3.4561598 -1.1201353 -0.14075279 0
5.197403 -1.1860737 -0.14112093 0
10.397949 -1.3830109 -0.14093715 0
0.90669817 -1.0007203 -0.091567405 0
1.0247654 -1.00221 -0.091877021 0
1.1266187 -1.0034952 -0.084045522 0
1.1285011 -1.0035189 -0.057498816 0
1.1332461 -1.0035788 -0.031372476 0
1.1310891 -1.0035516 -0.0045233052 0
1.1332422 -1.0035788 0.021807889 0
1.1236533 -1.0034578 0.048700307 0
1.1349813 -1.0036007 0.074602135 0
1.1298467 -1.0035359 0.10100263 0
1.1329684 -1.0035753 0.12735653 0
1.138315 -1.0036428 0.1539882 0
1.1212858 -1.0034279 0.17936125 0
1.1273931 -1.003505 0.20618397 0
1.139854 -1.0036621 0.23415156 0
1.1254801 -1.0034808 0.2590805 0
1.1346447 -1.0035964 0.28737196 0
1.1268891 -1.0034986 0.31312102 0
0.89869869 -0.9779653 -0.089866884 0
1.009274 -0.97657013 -0.088958971 0
1.1311028 -0.97503299 -0.084782533 0
1.1289707 -0.97505987 -0.057564829 0
1.634982 -0.96867526 -0.090016685 0
2.5918827 -0.95660156 -0.14088514 0
3.4652584 -0.94558173 -0.14123499 0
5.2004437 -0.92368805 -0.14110838 0
10.403513 -0.85803837 -0.1409125 0
0.90369344 -0.95510769 -0.091050945 0
1.016276 -0.95084435 -0.09039975 0
1.1307783 -0.94650829 -0.084847517 0
1.1339741 -0.94638729 -0.058369461 0
1.6339958 -0.92745215 -0.090023018 0
2.5918882 -0.89117813 -0.14103973 0
3.4460423 -0.85883254 -0.14004497 0
5.1821103 -0.79309016 -0.14040849 0
10.392025 -0.59579813 -0.14079933 0
0.90604109 -0.93212116 -0.091795869 0
1.0251883 -0.92459482 -0.092325814 0
1.1260436 -0.91822404 -0.084304802 0
1.1273166 -0.91814363 -0.057635237 0
1.6285053 -0.88648456 -0.089623652 0
2.5907483 -0.82570159 -0.1412418 0
3.4465034 -0.77164531 -0.14038466 0
5.1863146 -0.66174501 -0.14091247 0
10.384913 -0.33336017 -0.14094202 0
0.90487963 -0.90925324 -0.091917314 0
1.0157859 -0.89943266 -0.090918265 0
1.1612844 -0.88654906 -0.0904743 0
1.3554616 -0.86935502 -0.09012682 0
1.6356183 -0.84454769 -0.09082336 0
2.5740867 -0.76144803 -0.14014454 0
3.4572532 -0.68324524 -0.14160152 0
5.1650887 -0.53201962 -0.14038384 0
10.346542 -0.07321164 -0.14050983 0
0.90074939 -0.88668019 -0.091527291 0
1.0202106 -0.87305659 -0.09224809 0
1.1607481 -0.85702938 -0.090875484 0
1.3509276 -0.83534092 -0.08997453 0
1.632815 -0.80319393 -0.090984412 0
2.5773036 -0.69548255 -0.14106378 0
3.4344721 -0.59772933 -0.14061932 0
5.1791167 -0.39876649 -0.14165878 0
10.329207 0.18856016 -0.14072214 0
0.89367843 -0.86459666 -0.090626843 0
1.0110729 -0.84819865 -0.091129757 0
1.1566787 -0.82786 -0.090815239 0
1.3423405 -0.8019262 -0.089368187 0
1.627086 -0.76215208 -0.090923764 0
2.5776141 -0.62937933 -0.14186901 0
3.4319746 -0.51003963 -0.14121757 0
5.1589832 -0.26880571 -0.14149025 0
10.286616 0.44743779 -0.14049712 0
0.89268804 -0.84170872 -0.091152541 0
1.0001051 -0.82393062 -0.089776896 0
1.1427925 -0.80031508 -0.08924178 0
1.3399305 -0.76768762 -0.089759149 0
1.6175011 -0.72174811 -0.090528525 0
2.5541294 -0.56673092 -0.14058387 0
3.402519 -0.42631772 -0.14006457 0
5.1256924 -0.14112291 -0.14085461 0
10.262862 0.70910722 -0.14086877 0
0.88667065 -0.81964189 -0.090717562 0
0.99992579 -0.79794848 -0.090603642 0
1.1508887 -0.7690323 -0.091455333 0
1.3358834 -0.73359758 -0.090041094 0
1.3464453 -0.73157448 -0.059137959 0
1.3510629 -0.73069 -0.027338257 0
1.34518 -0.73181683 0.0052893702 0
1.3592618 -0.72911954 0.036586229 0
1.3522681 -0.73045915 0.068981044 0
1.3492519 -0.7310369 0.10100958 0
0.88203043 -0.79736584 -0.090700634 0
0.99605763 -0.7725265 -0.090849929 0
1.1291454 -0.7435351 -0.088794343 0
1.2085824 -0.7262308 -0.072720371 0
1.2003791 -0.72801781 -0.042495389 0
1.2154077 -0.72474402 -0.015043592 0
1.2107729 -0.72575366 0.014410632 0
1.2091168 -0.72611439 0.043406725 0
1.1956055 -0.72905767 0.072543308 0
1.2121089 -0.72546262 0.10100579 0
0.86798757 -0.77737725 -0.088748805 0
0.98955363 -0.74766409 -0.090710707 0
1.1402401 -0.71083337 -0.091781281 0
1.1991098 -0.69644445 -0.072365798 0
1.2052388 -0.69494641 -0.04391915 0
1.1965899 -0.69706035 -0.01391395 0
1.204537 -0.69511795 0.014353158 0
1.2018547 -0.69577354 0.043418091 0
1.1913717 -0.69833583 0.072478384 0
1.2052959 -0.69493246 0.10100579 0
0.87561721 -0.75197327 -0.091667615 0
0.97591299 -0.72475976 -0.08929982 0
1.1326998 -0.68221843 -0.091755457 0
1.2094117 -0.66140401 -0.074997403 0
1.2127162 -0.66050738 -0.045770455 0
1.1964138 -0.66493076 -0.014646834 0
1.2093306 -0.66142601 0.013440521 0
1.2051717 -0.66255444 0.042882405 0
1.2036599 -0.66296464 0.071996368 0
1.2093819 -0.66141206 0.10100614 0
0.86671758 -0.73076713 -0.09108343 0
0.98174447 -0.69641817 -0.0918191 0
1.111909 -0.6575489 -0.089580081 0
1.2001622 -0.63119507 -0.074910589 0
1.2096988 -0.62834728 -0.046461288 0
1.2035975 -0.63016921 -0.016180916 0
1.212135 -0.6276198 0.012604298 0
1.2059274 -0.62947351 0.04242653 0
1.2122071 -0.62759829 0.071579888 0
1.200227 -0.6311757 0.10100613 0
0.84993947 -0.71226239 -0.088852055 0
0.96146697 -0.67586929 -0.089327507 0
1.1070075 -0.62837726 -0.090240888 0
1.2095174 -0.59492677 -0.077685617 0
1.2000962 -0.598001 -0.046447668 0
1.2025552 -0.59719867 -0.017005814 0
1.2078251 -0.59547901 0.012221823 0
1.207761 -0.59549987 0.041873362 0
1.1998658 -0.59807622 0.071649097 0
1.2072756 -0.5956583 0.10100662 0
0.84548038 -0.68993747 -0.08948373 0
0.96927345 -0.64605618 -0.092528902 0
1.1012946 -0.59925818 -0.090893991 0
1.2158867 -0.55863833 -0.080176286 0
1.2060333 -0.56213111 -0.048455406 0
1.2017108 -0.5636633 -0.017939797 0
1.2027535 -0.5632937 0.011832492 0
1.2043971 -0.56271112 0.041529786 0
1.2019385 -0.56358266 0.071345061 0
1.2132748 -0.55956423 0.10100712 0
0.83864766 -0.66834611 -0.089708887 0
0.95394063 -0.62417275 -0.091245197 0
1.085052 -0.57393873 -0.089828931 0
1.1920192 -0.53295529 -0.078277789 0
1.2113376 -0.5255537 -0.050516192 0
1.2143505 -0.52439928 -0.020314856 0
1.2013173 -0.52939284 0.011106702 0
1.1951922 -0.53173965 0.041433007 0
1.2062292 -0.52751088 0.070961274 0
1.2120062 -0.52529746 0.10100742 0
0.85313749 -0.63788861 -0.094963662 0
0.93655205 -0.60349125 -0.089641191 0
1.0786062 -0.54491282 -0.090607442 0
1.2044692 -0.49301112 -0.081978269 0
1.2069217 -0.4919998 -0.051485855 0
1.213691 -0.48920837 -0.021471551 0
1.2067152 -0.49208495 0.009792136 0
1.2034711 -0.49342272 0.0404156 0
1.2073433 -0.49182594 0.07063058 0
1.2049063 -0.4928309 0.10100757 0
0.8264249 -0.62427139 -0.090878911 0
0.93549293 -0.57604063 -0.091489129 0
1.0671365 -0.5178268 -0.090622805 0
1.2017758 -0.45828822 -0.083547376 0
1.2077774 -0.45563427 -0.053247664 0
1.2107157 -0.45433494 -0.022495052 0
1.2062501 -0.45630971 0.0088394228 0
1.1992046 -0.45942524 0.039976429 0
1.2090378 -0.4550769 0.070258647 0
1.2044345 -0.45711252 0.10100796 0
0.8175348 -0.60328525 -0.091015883 0
0.91765743 -0.55595499 -0.090007596 0
1.0566562 -0.49024713 -0.090941779 0
1.2256991 -0.41033664 -0.089408197 0
1.4743239 -0.29280594 -0.089495532 0
1.8573025 -0.11176309 -0.090684675 0
3.1258149 0.48789206 -0.14066456 0
4.6943579 1.2293787 -0.14071217 0
9.4082823 3.4577596 -0.14096132 0
0.80383807 -0.58466893 -0.090135776 0
0.91191447 -0.5302012 -0.091163926 0
1.0461267 -0.46256158 -0.091383122 0
1.2097846 -0.38008204 -0.089263909 0
1.4644922 -0.25171581 -0.09057007 0
1.8375463 -0.063705772 -0.090995707 0
3.087728 0.56635469 -0.14067855 0
4.631465 1.3443596 -0.14042963 0
9.2820129 3.6881192 -0.14067304 0
0.79419428 -0.56410074 -0.090333737 0
0.89473462 -0.51020789 -0.090029903 0
1.0286361 -0.43843243 -0.090661831 0
1.1985025 -0.34737852 -0.089977242 0
1.4340979 -0.22109178 -0.089069165 0
1.8090937 -0.020081904 -0.090517603 0
3.0521162 0.64621836 -0.14104511 0
4.5775247 1.4638865 -0.14076842 0
9.1643934 3.9225967 -0.14076146 0
0.78782797 -0.54159707 -0.091462187 0
0.88409048 -0.48682669 -0.090404399 0
1.0184622 -0.41037336 -0.091428034 0
1.1787808 -0.31915709 -0.089468829 0
1.2226226 -0.29421243 -0.063300468 0
1.2162483 -0.29783925 -0.029539248 0
2.9996698 0.71687216 -0.14022394 0
4.5154724 1.5793166 -0.14083812 0
9.0399609 4.1536098 -0.14082609 0
0.77276248 -0.5240081 -0.090588711 0
0.87626737 -0.46160862 -0.091533907 0
1.0012633 -0.38625303 -0.090992711 0
1.1599281 -0.2905995 -0.089211263 0
1.1435218 -0.30049029 -0.054952044 0
1.2020148 -0.26522687 -0.029931551 0
2.9768128 0.80473715 -0.1419501 0
4.4581285 1.6977706 -0.141322 0
8.9057741 4.3791013 -0.14078404 0
0.76338434 -0.50302041 -0.091246031 0
0.85717589 -0.44319937 -0.090305455 0
0.97685546 -0.36686662 -0.089262865 0
1.139922 -0.26286134 -0.088876493 0
1.1405325 -0.262472 -0.056997214 0
1.1813291 -0.23645154 -0.029706305 0
2.9110794 0.8667987 -0.14033145 0
4.3834901 1.8059154 -0.14102261 0
8.7611132 4.598002 -0.14060821 0
0.74801826 -0.48586234 -0.090514414 0
0.83464611 -0.42748418 -0.088379703 0
0.98086423 -0.32894835 -0.093231343 0
1.1333168 -0.22621122 -0.090924658 0
1.1282218 -0.22964475 -0.05789784 0
1.1611377 -0.20746282 -0.029613918 0
2.868608 0.94319481 -0.14077707 0
4.3065233 1.9122002 -0.14073932 0
8.6272802 4.8239412 -0.14088657 0
0.73995882 -0.46370283 -0.091787435 0
0.82578641 -0.40265951 -0.089669563 0
0.95613718 -0.30994985 -0.091667511 0
1.1137584 -0.19784465 -0.09093421 0
1.1456776 -0.17514274 -0.063201658 0
1.1538371 -0.16933945 -0.031079477 0
2.8127184 1.0105102 -0.14024362 0
4.2257214 2.0154831 -0.14038378 0
8.4722281 5.0357347 -0.14072588 0
0.72185761 -0.44867817 -0.090563945 0
0.80975968 -0.38275751 -0.089442886 0
0.93233413 -0.29083493 -0.09036126 0
1.0868807 -0.17493537 -0.089782827 0
1.0970931 -0.16727677 -0.059158225 0
1.0985774 -0.16616365 -0.027088782 0
1.095589 -0.16840473 0.0053186137 0
1.1034679 -0.162496 0.036814701 0
1.1002053 -0.16494283 0.069024414 0
1.0911942 -0.17170057 0.1010093 0
1.0972419 -0.16716519 0.13290854 0
1.0990183 -0.16583291 0.16494571 0
1.0993785 -0.16556284 0.19703209 0
0.71252888 -0.42707369 -0.091794141 0
0.79391152 -0.36277106 -0.089373954 0
0.91092473 -0.2703158 -0.089630209 0
1.0569944 -0.15490213 -0.088172026 0
1.0956483 -0.12436071 -0.062084321 0
1.110304 -0.11278084 -0.030995971 0
1.1025568 -0.11890212 0.0028213656 0
1.1033556 -0.11827096 0.035562802 0
1.0990912 -0.12164035 0.068430729 0
1.0961117 -0.12399462 0.10101024 0
1.1021994 -0.11918446 0.13368234 0
1.0973358 -0.12302735 0.16610079 0
1.1071346 -0.11528507 0.19960819 0
0.69029301 -0.41580871 -0.089630745 0
0.79089636 -0.33211109 -0.092570134 0
0.90436137 -0.23771307 -0.092167251 0
1.0114182 -0.14864632 -0.083750255 0
1.0975913 -0.076954097 -0.065750502 0
1.0913787 -0.082122713 -0.03142618 0
1.1052613 -0.070572942 0.00054640532 0
1.104574 -0.071144789 0.034136865 0
1.0912189 -0.082255572 0.067996137 0
1.1040622 -0.071570545 0.10101136 0
1.1012361 -0.07392171 0.13432939 0
1.101209 -0.0739443 0.16768205 0
1.0969256 -0.077507883 0.20071813 0
0.67062879 -0.40295532 -0.088225104 0
0.76178879 -0.32313731 -0.089497186 0
0.87553281 -0.22354522 -0.090074979 0
0.99686038 -0.11731306 -0.085052975 0
1.095627 -0.030834939 -0.069075443 0
1.0986 -0.028231766 -0.035204802 0
1.0983909 -0.028414872 -0.0010017657 0
1.1031296 -0.024265673 0.03277104 0
1.1020825 -0.025182571 0.066942461 0
1.0965836 -0.029997315 0.10101197 0
1.0985682 -0.028259601 0.13497308 0
1.0994124 -0.027520385 0.16902329 0
1.0945146 -0.031808879 0.20266578 0
1.0951569 -0.031246509 0.23680219 0
1.0905788 -0.035254981 0.37383515 0
0.66399843 -0.37852952 -0.090645991 0
0.75168747 -0.29775241 -0.091276623 0
0.85424471 -0.20327899 -0.089697532 0
0.97156036 -0.095210463 -0.084483184 0
1.0634884 -0.010528531 -0.067866616 0
1.0980539 0.021312509 -0.038257156 0
1.0978812 0.021153364 -0.0032909119 0
1.1024311 0.025344525 0.031251874 0
1.1056844 0.028341446 0.06604854 0
1.0977741 0.021054778 0.10101297 0
1.096839 0.020193253 0.13569775 0
1.1096108 0.031958494 0.17122963 0
1.0994648 0.022612128 0.20546792 0
1.0947795 0.018296156 0.23986806 0
1.0402404 -0.031944063 0.36719525 0
0.64842165 -0.36195222 -0.090659134 0
0.72947913 -0.28341201 -0.090090908 0
0.83837402 -0.17789897 -0.090666212 0
0.83685482 -0.17937103 -0.062598251 0
0.83642286 -0.17978957 -0.034988422 0
0.84741735 -0.16913649 -0.009041464 0
0.83754879 -0.17869863 0.019535089 0
0.8360067 -0.1801928 0.046840299 0
0.83979058 -0.17652646 0.073814102 0
0.84354001 -0.17289343 0.10100389 0
0.8432411 -0.17318305 0.12830541 0
0.83727074 -0.17896804 0.15524906 0
0.83993429 -0.17638716 0.18270494 0
1.0977217 0.073394209 0.24360216 0
1.0002636 -0.021037068 0.29659659 0
1.0117645 -0.0098933242 0.33236948 0
0.9927665 -0.028301325 0.36116439 0
0.63734961 -0.34075883 -0.092165239 0
0.71256632 -0.26410511 -0.090394564 0
0.81302434 -0.16172782 -0.089584239 0
0.83124238 -0.14316168 -0.065625869 0
0.84303129 -0.13114753 -0.039543811 0
0.84166807 -0.1325368 -0.011068976 0
0.83891308 -0.13534448 0.017330887 0
0.84247369 -0.13171586 0.045035824 0
0.84373993 -0.13042542 0.072993375 0
0.84060431 -0.13362095 0.10100462 0
0.84287852 -0.13130328 0.12898749 0
0.83927631 -0.13497433 0.15676093 0
0.84526902 -0.12886712 0.18531349 0
0.83891666 -0.13534084 0.21271199 0
1.1102107 0.1411362 0.28616053 0
0.94354194 -0.02871665 0.2901783 0
0.94437975 -0.027862813 0.32242772 0
0.94805342 -0.024118986 0.35574368 0
0.61507052 -0.3310332 -0.090384923 0
0.69650841 -0.24373868 -0.091075398 0
0.80283242 -0.12976834 -0.09222167 0
0.83971834 -0.090229779 -0.071824692 0
0.83869022 -0.091331869 -0.042555589 0
0.83765215 -0.092444569 -0.013513951 0
0.84013563 -0.089782506 0.014970155 0
0.83722293 -0.092904657 0.043899201 0
0.83818251 -0.09187606 0.072435044 0
0.84193683 -0.087851793 0.10100559 0
0.83747786 -0.09263137 0.12955178 0
0.84218276 -0.087588102 0.15845065 0
0.83697122 -0.093174428 0.18671666 0
0.83879828 -0.091215998 0.21568231 0
1.0923053 0.18052188 0.28804088 0
0.92442685 0.00057056884 0.29129565 0
0.93261731 0.0093500353 0.32551166 0
0.93283963 0.0095883347 0.35835099 0
0.59404421 -0.32050982 -0.089032225 0
0.67734474 -0.22657499 -0.091038145 0
0.76643461 -0.12611172 -0.088640817 0
0.85243559 -0.029131617 -0.079379715 0
0.83410335 -0.049804237 -0.04578552 0
0.84527338 -0.037208226 -0.017806983 0
0.84576041 -0.036659028 0.01195799 0
0.84272063 -0.040086832 0.041907821 0
0.83826876 -0.045107093 0.071629219 0
0.83944023 -0.043786075 0.10100648 0
0.84061229 -0.042464342 0.130466 0
0.84658206 -0.035732415 0.16037685 0
0.84134299 -0.041640367 0.18959002 0
0.8359533 -0.047718134 0.21850909 0
1.0955683 0.24503985 0.29387891 0
1.0983143 0.24813643 0.33349696 0
0.58142471 -0.30048618 -0.090497904 0
0.66129589 -0.20570502 -0.092035033 0
0.72921771 -0.12510392 -0.084765546 0
0.84969848 0.017867599 -0.084125228 0
0.83944881 0.0057045552 -0.051102314 0
0.8462345 0.013757024 -0.021464696 0
0.84528899 0.012635026 0.009372348 0
0.84862268 0.016590986 0.039731838 0
0.84432256 0.011488233 0.070541628 0
0.84525454 0.012594137 0.1010078 0
0.83538502 0.00088224153 0.13115066 0
0.84149933 0.0081379153 0.16176896 0
0.8428973 0.0097968914 0.19238394 0
0.84173763 0.0084207393 0.22282928 0
0.84234846 0.0091455318 0.25364459 0
1.0985078 0.31312326 0.34042722 0
0.5634194 -0.28661147 -0.090347789 0
0.63510484 -0.19705251 -0.090163223 0
0.72127885 -0.089392513 -0.088473208 0
0.85033387 0.071840078 -0.090043761 0
0.85063189 0.072212368 -0.057939071 0
0.83899075 0.057668719 -0.024203112 0
0.84737664 0.068145543 0.0062806178 0
0.83509213 0.052798066 0.038829003 0
0.84013265 0.059095416 0.069748037 0
0.84409928 0.064051062 0.10100891 0
0.8328588 0.050007973 0.13199817 0
0.83855033 0.057118569 0.16344613 0
0.83660161 0.054683957 0.19453147 0
0.83786815 0.056266222 0.22605337 0
0.83693826 0.055104528 0.25739619 0
1.0984744 0.38184991 0.3478916 0
1.101162 0.38520756 0.3904283 0
0.54656047 -0.27126291 -0.090716533 0
0.61817425 -0.1770142 -0.091178216 0
0.69663537 -0.073753923 -0.088009007 0
0.73076111 -0.028842058 -0.0685504 0
0.73162931 -0.027699497 -0.04017644 0
0.73169738 -0.027609911 -0.011766402 0
0.7323103 -0.026803222 0.016462715 0
0.73009127 -0.02972367 0.044865113 0
0.73112684 -0.02836081 0.072910354 0
0.72850811 -0.03180721 0.10100473 0
0.73216039 -0.027000573 0.1291392 0
0.73411274 -0.024431136 0.15745448 0
0.72981584 -0.030086186 0.18525895 0
0.72670037 -0.03418633 0.21300533 0
0.7383827 -0.01881155 0.24349239 0
0.73514235 -0.023076084 0.27157953 0
0.7264877 -0.034466173 0.29812965 0
0.72704375 -0.033734407 0.32708356 0
0.52395272 -0.26371589 -0.089146994 0
0.59989554 -0.15835342 -0.091955282 0
0.67684758 -0.051590707 -0.089002214 0
0.73051977 0.022873674 -0.074372537 0
0.95984858 0.34104279 -0.090688698 0
0.85190403 0.19128135 -0.0348658 0
0.84159201 0.17697456 0.00046560378 0
0.84096819 0.17610899 0.034091104 0
0.84191924 0.17742851 0.067531548 0
0.84001929 0.17479256 0.10101137 0
0.83956105 0.1741567 0.1343974 0
0.84192336 0.17743424 0.16800803 0
0.8419559 0.1774793 0.20160119 0
0.84239578 0.17808965 0.23537165 0
0.83612859 0.16939464 0.26798311 0
0.83692533 0.17049995 0.30197066 0
1.1026496 0.53916365 0.41073671 0
0.51201671 -0.24118146 -0.091610573 0
0.57225323 -0.1530017 -0.089789428 0
0.65009075 -0.039056029 -0.08816234 0
0.76499522 0.12915173 -0.089382507 0
0.92350256 0.3611894 -0.09017586 0
1.1528513 0.69693106 -0.089639865 0
0.85247928 0.25721899 -0.0045639332 0
0.84018421 0.23922029 0.031706888 0
0.83499229 0.23161986 0.066592641 0
0.84328705 0.24376252 0.10101303 0
0.84157908 0.24126223 0.13570479 0
0.84045482 0.23961642 0.1703414 0
0.83788627 0.23585632 0.20478122 0
0.83742785 0.2351853 0.23947044 0
0.84085846 0.24020723 0.2750791 0
0.83519429 0.23191562 0.30889925 0
1.0982195 0.61695594 0.4207882 0
1.1023461 0.62299675 0.46885267 0
0.49473873 -0.2258037 -0.092299588 0
0.55949885 -0.12566766 -0.092747234 0
0.63033265 -0.016140129 -0.08950121 0
0.73601604 0.14727405 -0.089248843 0
0.88287777 0.37436047 -0.088829212 0
1.1063122 0.71984833 -0.089016385 0
1.4843512 1.304395 -0.089991264 0
0.84634739 0.31787506 0.028498361 0
0.84009892 0.30821326 0.065043747 0
0.84138441 0.31020096 0.10101458 0
0.83638149 0.30246511 0.13682577 0
0.83719045 0.30371597 0.17274554 0
0.84420425 0.31456116 0.20961222 0
0.84053195 0.30888286 0.24536361 0
0.84231871 0.31164566 0.28213072 0
0.8408469 0.30936983 0.31840855 0
0.84045523 0.30876425 0.35512501 0
1.1000335 0.71013981 0.48228568 0
0.47198373 -0.21904114 -0.090941049 0
0.53297549 -0.1193001 -0.091102533 0
0.60284197 -0.005045977 -0.088639058 0
0.70481771 0.16171697 -0.088632591 0
0.85394603 0.40558949 -0.090118565 0
1.0617121 0.7453534 -0.088815115 0
1.4280306 1.3444014 -0.09026245 0
0.84663445 0.39363268 0.02550556 0
0.85164851 0.40183225 0.063058093 0
0.84015757 0.38304093 0.10101632 0
0.84536499 0.39155677 0.13869514 0
0.8411516 0.38466647 0.1760381 0
0.84411091 0.38950589 0.21404774 0
0.84170824 0.38557675 0.251486 0
0.84015894 0.3830432 0.28906378 0
0.83833569 0.38006154 0.32663423 0
