# .PCD v0.7 - Point Cloud Data file format
VERSION 0.7
FIELDS x y z intensity
SIZE 4 4 4 4
TYPE F F F F
COUNT 1 1 1 1
WIDTH 1314
HEIGHT 1
VIEWPOINT 0 0 0 1 0 0 0
POINTS 1314
DATA ascii
-3.2732978 -2.1036468 -0.1408257 0
-4.9097481 -2.6605906 -0.14052412 0
-9.8475504 -4.3411055 -0.14091034 0
-0.84688586 -1.3019348 -0.091114633 0
-0.96088862 -1.3439726 -0.092121802 0
-1.082351 -1.3887609 -0.088794492 0
-1.2808157 -1.4619434 -0.091022007 0
-1.5408818 -1.5578409 -0.091092236 0
-1.9326816 -1.7023144 -0.091397353 0
-3.2333853 -2.1819396 -0.14002444 0
-4.8723111 -2.7862821 -0.14083648 0
-9.7511101 -4.5853052 -0.14069389 0
-0.83805531 -1.3229603 -0.090960823 0
-0.94859493 -1.36692 -0.091505893 0
-1.0764043 -1.4177476 -0.08958637 0
-1.2611128 -1.4912031 -0.08990746 0
-1.5170126 -1.5929701 -0.089956053 0
-1.9137418 -1.7507427 -0.09136381 0
-3.2076995 -2.2653277 -0.14043337 0
-4.8274889 -2.9094906 -0.14094013 0
-9.6569624 -4.830091 -0.14068608 0
-0.82514507 -1.3422189 -0.08998438 0
-0.93917733 -1.3909346 -0.091590412 0
-1.0697477 -1.4467156 -0.090390034 0
-1.2571794 -1.5267884 -0.091303043 0
-1.5020241 -1.6313884 -0.090048335 0
-1.8978291 -1.8004804 -0.091760583 0
-3.1833401 -2.3496635 -0.14110674 0
-4.7811804 -3.0322771 -0.14112628 0
-9.562788 -5.0750279 -0.14083289 0
-0.81989688 -1.364743 -0.090900533 0
-0.91712552 -1.4092135 -0.089183979 0
-1.047967 -1.4690579 -0.08860109 0
-1.2393663 -1.5566002 -0.090707906 0
-1.4909167 -1.6716546 -0.090764411 0
-1.8570083 -1.8390979 -0.089733519 0
-3.1408796 -2.4263158 -0.14055915 0
-4.733057 -3.1545472 -0.14137948 0
-9.4569492 -5.3151646 -0.14084038 0
-0.82305562 -1.3916299 -0.093950324 0
-0.91110605 -1.4346211 -0.090204291 0
-1.0492346 -1.5020633 -0.091107957 0
-1.2242755 -1.587528 -0.090648137 0
-1.4576377 -1.7014686 -0.088737108 0
-1.845347 -1.8907701 -0.090810828 0
-3.1044695 -2.5055442 -0.1406251 0
-4.667079 -3.2684979 -0.14086971 0
-9.3432922 -5.5516877 -0.14080156 0
-0.79223645 -1.4016842 -0.089061715 0
-0.90061742 -1.4580315 -0.090424605 0
-1.0320899 -1.5263845 -0.0903906 0
-1.1998405 -1.6135982 -0.089230396 0
-1.450323 -1.7438246 -0.090201713 0
-1.8163247 -1.9341097 -0.090212308 0
-3.0636835 -2.5826137 -0.14050369 0
-4.6006632 -3.3816924 -0.14048021 0
-9.2295141 -5.7882414 -0.14091453 0
-0.7844981 -1.4231788 -0.089770608 0
-0.8889783 -1.4808925 -0.090526737 0
-1.0159767 -1.5510452 -0.089971326 0
-1.1845276 -1.644151 -0.089362241 0
-1.4361874 -1.7831651 -0.090917893 0
-1.7994719 -1.9838395 -0.091018923 0
-3.0278986 -2.6624091 -0.1409343 0
-4.5441585 -3.4999752 -0.14076331 0
-9.0911579 -6.0116887 -0.14053375 0
-0.78154278 -1.4476871 -0.09180104 0
-0.86814696 -1.4984195 -0.088748895 0
-0.99806452 -1.5745246 -0.089320876 0
-1.1678079 -1.6739595 -0.089391626 0
-1.408874 -1.8151749 -0.089993365 0
-1.7767818 -2.0306935 -0.091340907 0
-2.9906371 -2.7417643 -0.14141372 0
-4.4850202 -3.617167 -0.14106846 0
-8.9642715 -6.2410917 -0.14060727 0
-0.76782531 -1.4661049 -0.091325141 0
-0.87072068 -1.5299211 -0.09222772 0
-0.9900223 -1.6039124 -0.090682723 0
-1.1504396 -1.7034038 -0.089437701 0
-1.3914341 -1.8528695 -0.090522386 0
-1.7472446 -2.0735447 -0.091044836 0
-2.9406598 -2.8137054 -0.14101815 0
-4.4090681 -3.7244182 -0.14061815 0
-8.8330526 -6.4681907 -0.14072061 0
-0.74942726 -1.4813359 -0.08976882 0
-0.85101062 -1.5479448 -0.090923183 0
-0.96951306 -1.6256477 -0.089761712 0
-1.1282605 -1.7297395 -0.088799976 0
-1.3777421 -1.8933263 -0.091715939 0
-1.7212193 -2.1185467 -0.091255568 0
-2.8856304 -2.8820591 -0.14034426 0
-4.3414273 -3.8366354 -0.14077251 0
-8.6902351 -6.688179 -0.14067148 0
-0.74434412 -1.5053544 -0.091726117 0
-0.8428874 -1.5735862 -0.0923535 0
-0.95907915 -1.654038 -0.090947323 0
-1.1143743 -1.7615651 -0.089681216 0
-1.3473855 -1.9229033 -0.090705507 0
-1.6869251 -2.1580021 -0.090659104 0
-2.8481014 -2.9620061 -0.14129205 0
-4.2674308 -3.944757 -0.14072876 0
-8.5432014 -6.9053211 -0.14065795 0
-0.72559375 -1.5199835 -0.090280376 0
-0.82003033 -1.5889609 -0.090523444 0
-0.93710786 -1.6744752 -0.089951389 0
-1.1030636 -1.7956908 -0.091165625 0
-1.3228691 -1.9562385 -0.090628617 0
-1.6563454 -2.1998122 -0.090594985 0
-2.790776 -3.0284097 -0.14071681 0
-4.1885109 -4.0493264 -0.14055626 0
-8.3983154 -7.1242027 -0.14086241 0
-0.71222103 -1.5383379 -0.090347044 0
-0.80994886 -1.6135726 -0.091785662 0
-0.92222041 -1.7000036 -0.090511195 0
-1.0776775 -1.8196806 -0.090334095 0
-1.2962302 -1.987931 -0.090360112 0
-1.6378028 -2.2508869 -0.092070691 0
-2.7378821 -3.0977709 -0.14066772 0
-4.1102381 -4.154264 -0.14057204 0
-8.2367449 -7.3310108 -0.14074191 0
-0.68931931 -1.5490048 -0.087932922 0
-0.79508054 -1.6347594 -0.092062347 0
-0.90270907 -1.7220281 -0.090239204 0
-1.0610582 -1.8504229 -0.091180049 0
-1.2724777 -2.0218487 -0.090639554 0
-1.5941371 -2.2826605 -0.090711243 0
-2.6847401 -3.1669569 -0.14075133 0
-4.0279603 -4.2560835 -0.1405053 0
-8.0680599 -7.5319281 -0.14056067 0
-0.68635982 -1.5759587 -0.091113873 0
-0.77106857 -1.648261 -0.090211846 0
-0.89101368 -1.7506387 -0.091769017 0
-1.0420237 -1.8795316 -0.09174002 0
-1.2510602 -2.0579524 -0.091414027 0
-1.5648043 -2.3257453 -0.091178574 0
-2.6263165 -3.2317872 -0.14051016 0
-3.9530909 -4.3642406 -0.14104623 0
-7.9027042 -7.7353888 -0.14063066 0
-0.67579794 -1.5971189 -0.092387863 0
-0.75591356 -1.6690727 -0.090646572 0
-0.8622703 -1.7645944 -0.089725666 0
-1.0096172 -1.8969307 -0.089924239 0
-1.2234422 -2.0889723 -0.091373809 0
-1.5282643 -2.3627408 -0.090887301 0
-2.576293 -3.3040023 -0.14120486 0
-3.8612452 -4.4580512 -0.14070621 0
-7.7343607 -7.9365954 -0.14076765 0
-0.66138428 -1.6150761 -0.092720605 0
-0.73205513 -1.6818445 -0.088971131 0
-0.84702611 -1.7904669 -0.090763979 0
-0.98980474 -1.9253614 -0.090583481 0
-1.1932598 -2.1175818 -0.091044746 0
-1.4953635 -2.4030037 -0.091174863 0
-1.9849371 -2.8655434 -0.09002649 0
-3.7809398 -4.5623722 -0.14124703 0
-7.5593266 -8.1321201 -0.14085451 0
-0.64482826 -1.6310362 -0.092553966 0
-0.72666454 -1.7123582 -0.092241578 0
-0.82317597 -1.8082631 -0.089984141 0
-0.96613008 -1.9503187 -0.090634711 0
-1.1685737 -2.1514902 -0.091730483 0
-1.4572049 -2.4383075 -0.09091001 0
-1.9363999 -2.9144909 -0.08997079 0
-3.6809258 -4.6480527 -0.14067882 0
-7.3763494 -8.3202524 -0.14084303 0
-0.62324566 -1.6417067 -0.090959661 0
-0.70174432 -1.7237509 -0.090485655 0
-0.79782146 -1.8241677 -0.088931285 0
-0.94489223 -1.9778813 -0.091309153 0
-1.1359338 -2.1775517 -0.091232739 0
-1.4196377 -2.4740698 -0.090836681 0
-1.8845016 -2.9599307 -0.089697041 0
-3.5968623 -4.7496343 -0.14131336 0
-7.193295 -8.5085096 -0.14098637 0
-0.6066975 -1.6573714 -0.090994932 0
-0.68636996 -1.744964 -0.091431923 0
-0.77443624 -1.8417847 -0.088426597 0
-0.91553277 -1.9969074 -0.090449639 0
-1.1005989 -2.2003706 -0.090365656 0
-1.3789357 -2.5063763 -0.090450041 0
-1.8474002 -3.02141 -0.091070555 0
-3.4896433 -4.8269048 -0.14053871 0
-6.9983377 -8.684391 -0.14088443 0
-0.58407158 -1.6660407 -0.089182548 0
-0.66833472 -1.7635117 -0.091791905 0
-0.76506627 -1.8754052 -0.091539286 0
-0.89291531 -2.023294 -0.091115244 0
-1.0768282 -2.2360342 -0.091641046 0
-1.3392609 -2.5396016 -0.090313323 0
-1.7920395 -3.0633507 -0.090696432 0
-3.3933983 -4.9157128 -0.14065921 0
-6.8027735 -8.8594885 -0.14091356 0
-0.57737267 -1.6934465 -0.09271992 0
-0.64629012 -1.7773556 -0.091110177 0
-0.74152952 -1.8933122 -0.091297068 0
-0.85798264 -2.0350974 -0.08922004 0
-1.0428265 -2.2601502 -0.091235556 0
-1.2981305 -2.5709901 -0.090079792 0
-1.7403988 -3.1094646 -0.090835281 0
-3.3055925 -5.0151334 -0.14156452 0
-6.5969372 -9.0224409 -0.14072682 0
-0.56055862 -1.7092719 -0.093112759 0
-0.62013692 -1.7856612 -0.089253135 0
-0.71601182 -1.908589 -0.090636455 0
-0.84251273 -2.0707843 -0.091777153 0
-1.0085406 -2.2836602 -0.090876646 0
-1.2597843 -2.6057968 -0.090379573 0
-1.6800061 -3.1445918 -0.090114094 0
-3.1907277 -5.0815907 -0.14063825 0
-6.3934569 -9.1880274 -0.14077611 0
-0.53366685 -1.7116623 -0.090058811 0
-0.60667729 -1.8103089 -0.091415964 0
-0.69512904 -1.9298187 -0.091338225 0
-0.81416923 -2.0906577 -0.091591038 0
-0.9652499 -2.2947874 -0.088850923 0
-1.2283593 -2.6502826 -0.091911279 0
-1.6305548 -3.1937013 -0.0907562 0
-3.0981507 -5.1766148 -0.14155319 0
-6.1856685 -9.3482542 -0.14081948 0
-0.52007341 -1.7317657 -0.091836043 0
-0.58383322 -1.822621 -0.090781309 0
-0.66950667 -1.9447025 -0.090860315 0
-0.78058237 -2.1029813 -0.090235986 0
-0.94392246 -2.3357348 -0.091275953 0
-1.1842961 -2.6782582 -0.091624729 0
-1.5780088 -3.239284 -0.091193445 0
-2.9861729 -5.2458649 -0.14112033 0
-5.9658418 -9.4917812 -0.14053807 0
-0.49661541 -1.7378181 -0.090085618 0
-0.56418175 -1.8394583 -0.091312207 0
-0.64946735 -1.9677538 -0.092130981 0
-0.75159526 -2.1213851 -0.090073802 0
-0.9134323 -2.3648372 -0.092074536 0
-1.1376153 -2.7020764 -0.091002695 0
-1.5172058 -3.2730958 -0.090747572 0
-2.870553 -5.3089399 -0.14050885 0
-5.7506866 -9.6415348 -0.14059144 0
-0.48030463 -1.7544807 -0.091177024 0
-0.53710443 -1.8447871 -0.089385279 0
-0.6148451 -1.9683875 -0.089128129 0
-0.71873325 -2.1335599 -0.089002497 0
-0.87550509 -2.3828125 -0.091431402 0
-1.089993 -2.7238283 -0.090293609 0
-1.457368 -3.3079202 -0.090520151 0
-2.7573061 -5.3746996 -0.14021645 0
-5.5350223 -9.7910089 -0.14078669 0
-0.46221039 -1.7686778 -0.091745131 0
-0.51304352 -1.8542131 -0.088535614 0
-0.59913898 -1.999083 -0.092085652 0
-0.69610012 -2.1622365 -0.090781443 0
-0.82897168 -2.3858149 -0.088893361 0
-1.0446568 -2.7487411 -0.090069823 0
-1.3936282 -3.3359442 -0.089866854 0
-2.6520429 -5.4534364 -0.14078717 0
-5.3134165 -9.9316416 -0.14088829 0
-0.44119346 -1.7779673 -0.091221444 0
-0.496802 -1.8771539 -0.090748258 0
-0.56684995 -2.0020952 -0.089860849 0
-0.66168022 -2.1712399 -0.089458518 0
-0.8000524 -2.4180481 -0.090466045 0
-1.0079408 -2.7888496 -0.091598578 0
-1.3353778 -3.3728845 -0.09006726 0
-2.5344365 -5.5115924 -0.14039429 0
-5.0839162 -10.058987 -0.14078444 0
-0.41732731 -1.7816249 -0.089479335 0
-0.47213849 -1.8854463 -0.089899652 0
-0.54069799 -2.0153093 -0.089713983 0
-0.63564062 -2.1951463 -0.09066049 0
-0.75621712 -2.4235384 -0.08858069 0
-0.95460194 -2.7993121 -0.090076499 0
-1.2819935 -3.419446 -0.091142617 0
-1.9195921 -4.6271634 -0.090542369 0
-4.8569088 -10.190928 -0.14095618 0
-0.40260196 -1.8028102 -0.092061765 0
-0.45248187 -1.9033568 -0.091215573 0
-0.51790184 -2.0352285 -0.090920977 0
-0.60114777 -2.2030334 -0.089438178 0
-0.72795433 -2.4586465 -0.090728156 0
-0.91233534 -2.8303168 -0.09085492 0
-1.2226466 -3.4558339 -0.091516487 0
-1.8288083 -4.6777182 -0.090711512 0
-4.6172709 -10.298624 -0.1406462 0
-0.37955901 -1.8075973 -0.090857647 0
-0.42917454 -1.9142914 -0.091170795 0
-0.49034342 -2.0458298 -0.090529941 0
-0.56977844 -2.2166483 -0.089253612 0
-0.68759477 -2.4700024 -0.089881577 0
-0.867208 -2.8562458 -0.091212265 0
-1.1557063 -3.4766374 -0.090800665 0
-1.7315506 -4.7149425 -0.090312652 0
-4.3838587 -10.418509 -0.1408084 0
-0.35577059 -1.809989 -0.08924704 0
-0.40445158 -1.9219803 -0.090581439 0
-0.4639813 -2.0589292 -0.090716191 0
-0.54012471 -2.2340984 -0.08978077 0
-0.64489901 -2.4751329 -0.088381477 0
-0.81881899 -2.8752384 -0.090976335 0
-1.0969731 -3.5151362 -0.091571085 0
-1.6409932 -4.7666621 -0.090779297 0
-4.1420021 -10.520268 -0.14065954 0
-0.33786586 -1.8259282 -0.090898134 0
-0.37749058 -1.9237664 -0.088925995 0
-0.43446752 -2.0644491 -0.089675151 0
-0.50682694 -2.243113 -0.089137651 0
-0.61528379 -2.5109055 -0.090897016 0
-0.76642275 -2.8840854 -0.089844726 0
-1.0230892 -3.5178249 -0.089745067 0
-1.5436045 -4.8030381 -0.090585925 0
-3.8991153 -10.61907 -0.1405919 0
-0.31765968 -1.8369001 -0.091508739 0
-0.35561484 -1.9378659 -0.089901499 0
-0.40865132 -2.0789497 -0.09035226 0
-0.47863853 -2.2651248 -0.090578757 0
-0.57224035 -2.514118 -0.089417182 0
-0.72138494 -2.910862 -0.090644218 0
-0.96015364 -3.5460176 -0.089981057 0
-1.4498634 -4.8487096 -0.090979554 0
-3.6539152 -10.711774 -0.1405265 0
-0.29526877 -1.8420689 -0.09092351 0
-0.33657303 -1.960969 -0.092774354 0
-0.38128784 -2.0896866 -0.090482496 0
-0.44318718 -2.2678726 -0.089247651 0
-0.53920972 -2.5442867 -0.091420464 0
-0.67395854 -2.9321797 -0.091010191 0
-0.89999771 -3.582865 -0.090973563 0
-1.349799 -4.8776803 -0.090663783 0
-3.4093146 -10.806281 -0.14065905 0
-0.2750605 -1.8536634 -0.091903411 0
-0.30899715 -1.9599322 -0.090946577 0
-0.35204205 -2.0947223 -0.089747719 0
-0.40796736 -2.269846 -0.087945573 0
-0.49915272 -2.5553825 -0.091170363 0
-0.62438047 -2.9475188 -0.090905197 0
-0.82842207 -3.5864515 -0.089629106 0
-1.2527841 -4.9152927 -0.090896852 0
-3.1618862 -10.893426 -0.14076219 0
-0.25194606 -1.8561794 -0.0909793 0
-0.28350207 -1.9643379 -0.09033715 0
-0.3246713 -2.1054459 -0.090118982 0
-0.37796408 -2.2881074 -0.089168124 0
-0.45852587 -2.5642338 -0.090772398 0
-0.57358676 -2.9586062 -0.090509705 0
-0.76654321 -3.6199667 -0.090606071 0
-1.1502242 -4.9350376 -0.090380915 0
-2.9114635 -10.971704 -0.14080164 0
-0.2290279 -1.8586366 -0.090177141 0
-0.25738248 -1.965809 -0.089285813 0
-0.29744568 -2.1172369 -0.090787075 0
-0.34622476 -2.3016081 -0.089800946 0
-0.41918248 -2.577368 -0.09101925 0
-0.5229513 -2.9695854 -0.090230606 0
-0.70419258 -3.6546271 -0.091772683 0
-1.0553505 -4.9819064 -0.091299705 0
-2.6596379 -11.045667 -0.1408896 0
-0.20974967 -1.8756435 -0.092685468 0
-0.23640764 -1.9877727 -0.092336185 0
-0.26769358 -2.1193683 -0.089935847 0
-0.31463528 -2.3168151 -0.090792559 0
-0.37904117 -2.5877206 -0.091050155 0
-0.47569826 -2.9942815 -0.091392227 0
-0.63342136 -3.6576996 -0.090775944 0
-0.94846171 -4.9828281 -0.090129279 0
-2.4045277 -11.107362 -0.14083621 0
-0.18805991 -1.8841852 -0.093447395 0
-0.21039191 -1.9899055 -0.091654949 0
-0.23910616 -2.1258395 -0.089944623 0
-0.2803483 -2.3210807 -0.090322159 0
-0.33773607 -2.592756 -0.090567105 0
-0.42383534 -3.0003524 -0.090884887 0
-0.56710374 -3.6785889 -0.091185533 0
-0.84539205 -4.9960132 -0.089677297 0
-2.1478081 -11.161685 -0.14076139 0
-0.16295892 -1.8753636 -0.090571009 0
-0.18402389 -1.9892213 -0.090563409 0
-0.20881613 -2.1232252 -0.088555716 0
-0.24619462 -2.3252587 -0.089965425 0
-0.29820609 -2.6063848 -0.09123189 0
-0.37076414 -2.9985664 -0.089758717 0
-0.49919844 -3.6927638 -0.091235153 0
-0.9446162 -6.1002803 -0.14100787 0
-1.8913486 -11.217441 -0.14087439 0
-0.14085372 -1.8811257 -0.090981655 0
-0.1584498 -1.9917723 -0.090220414 0
-0.17912231 -2.1217637 -0.087491699 0
-0.21136284 -2.3244965 -0.08903005 0
-0.25781611 -2.6166008 -0.091608487 0
-0.31938455 -3.0037515 -0.08942274 0
-0.430287 -3.7011211 -0.090994351 0
-0.81434351 -6.1161199 -0.14070657 0
-1.6320016 -11.257665 -0.14077397 0
-0.11660723 -1.8716664 -0.08824674 0
-0.13324562 -1.9965271 -0.090420224 0
-0.15185699 -2.1361935 -0.089190565 0
-0.17594944 -2.316992 -0.08726678 0
-0.21595757 -2.6172276 -0.090973593 0
-0.26913393 -3.0162821 -0.089901961 0
-0.36216551 -3.7144251 -0.091226108 0
-0.68573457 -6.1426048 -0.14106098 0
-1.3717821 -11.290955 -0.14066507 0
-0.095884889 -1.8890126 -0.091380976 0
-0.10811137 -2.0025837 -0.090986826 0
-0.12425379 -2.15253 -0.091313936 0
-0.14506872 -2.3458791 -0.090778656 0
-0.17558666 -2.6293588 -0.091817133 0
-0.21776354 -3.021138 -0.08977861 0
-0.29313007 -3.7212141 -0.091120236 0
-0.55493522 -6.1531105 -0.14081843 0
-1.1117818 -11.325635 -0.14074279 0
-0.072569124 -1.8840635 -0.08986529 0
-0.082421429 -2.0039322 -0.090782456 0
-0.094316319 -2.1486523 -0.090214513 0
-0.11072558 -2.3482969 -0.090660878 0
-0.13404025 -2.6319566 -0.091660596 0
-0.16773888 -3.0419538 -0.091271795 0
-0.22332391 -3.7182331 -0.090451621 0
-0.42413917 -6.1614671 -0.14063036 0
-0.8500458 -11.343292 -0.14057651 0
-0.05015453 -1.888885 -0.090557419 0
-0.056918446 -2.0078938 -0.091193803 0
-0.064553112 -2.1422229 -0.088821106 0
-0.076136418 -2.3460271 -0.090005569 0
-0.081000775 -2.4316137 -0.067870505 0
-0.081466772 -2.4398127 -0.034640182 0
-0.081437111 -2.439291 -0.00056176423 0
-0.081212588 -2.4353404 0.033541489 0
-0.080802888 -2.4281318 0.067462742 0
-0.080987655 -2.4313829 0.10101163 0
-0.027533032 -1.8928167 -0.091180108 0
-0.030898694 -1.9994897 -0.089395933 0
-0.035800699 -2.1548564 -0.090686955 0
-0.040346365 -2.298929 -0.083170541 0
-0.040645294 -2.3084035 -0.053275187 0
-0.040679518 -2.3094881 -0.022318451 0
-0.040435158 -2.3017433 0.0091720466 0
-0.040867321 -2.3154404 0.039201312 0
-0.040798482 -2.3132586 0.070172273 0
-0.040552825 -2.3054726 0.10100799 0
-0.0046858476 -1.8866988 -0.089787923 0
-0.0054610004 -2.009599 -0.091209196 0
-0.0063825068 -2.1557035 -0.090734698 0
-0.0066922433 -2.2048123 -0.069855697 0
-0.0067734085 -2.2176809 -0.042598296 0
-0.0067476458 -2.2135963 -0.013308836 0
-0.0067834049 -2.2192659 0.014981942 0
-0.006674422 -2.2019868 0.044512708 0
-0.0066545205 -2.1988313 0.072847515 0
-0.0067370897 -2.2119226 0.1010053 0
0.018118398 -1.8950087 -0.091584973 0
0.020192711 -2.0045936 -0.090296842 0
0.023059539 -2.1560466 -0.090821587 0
0.023886302 -2.199724 -0.069167696 0
0.023927331 -2.2018914 -0.040775467 0
0.023953307 -2.203264 -0.012362426 0
0.023955049 -2.2033558 0.016080702 0
0.023904627 -2.2006922 0.044563998 0
0.02395704 -2.2034612 0.072735377 0
0.02396163 -2.2037036 0.10100507 0
0.041087795 -1.8970656 -0.092175998 0
0.045736112 -2.0022573 -0.090008743 0
0.051779132 -2.1390114 -0.088171907 0
0.054280493 -2.1956174 -0.068725549 0
0.0544153 -2.1986682 -0.040511284 0
0.054770578 -2.2067082 -0.012774503 0
0.054525279 -2.2011571 0.016166957 0
0.054382142 -2.1979179 0.044648346 0
0.054104745 -2.1916404 0.072987989 0
0.054404464 -2.1984229 0.10100495 0
0.0632364 -1.88508 -0.089899398 0
0.070943043 -1.9959583 -0.089093573 0
0.081119984 -2.1423776 -0.088997938 0
0.085246973 -2.2017539 -0.069833584 0
0.085063748 -2.1991179 -0.040767048 0
0.084540009 -2.1915827 -0.01152253 0
0.084725849 -2.1942563 0.016528817 0
0.084989004 -2.1980424 0.044561692 0
0.084900394 -2.1967676 0.07282833 0
0.085384801 -2.203737 0.10100515 0
0.085491732 -1.8797845 -0.089165024 0
0.096872583 -1.9996953 -0.090195216 0
0.11077604 -2.1461847 -0.090020902 0
0.11610641 -2.2023463 -0.070271857 0
0.11584624 -2.1996052 -0.041118536 0
0.11539 -2.1947982 -0.012057601 0
0.11626287 -2.2039948 0.015669623 0
0.11592574 -2.2004428 0.044332314 0
0.1155974 -2.1969833 0.072764859 0
0.11607031 -2.201966 0.10100517 0
0.1088348 -1.8848577 -0.090768434 0
0.12187553 -1.9931349 -0.089470677 0
0.14051652 -2.1479106 -0.090826191 0
0.14844909 -2.2137747 -0.072355397 0
0.14710437 -2.2026095 -0.041858751 0
0.14723825 -2.2037213 -0.013203984 0
0.14634719 -2.1963227 0.015977787 0
0.14622566 -2.1953137 0.044418752 0
0.1469405 -2.2012489 0.072588228 0
0.14637421 -2.196547 0.10100511 0
0.12941353 -1.8682808 -0.08785326 0
0.14832443 -1.9976996 -0.090981089 0
0.16969688 -2.1439643 -0.090816773 0
0.17906988 -2.2081096 -0.072134621 0
0.17708699 -2.1945393 -0.041386668 0
0.17718586 -2.1952159 -0.01278626 0
0.1794256 -2.2105439 0.01468675 0
0.1778269 -2.1996031 0.044026449 0
0.17958383 -2.2116268 0.072248772 0
0.17876862 -2.2060478 0.1010055 0
0.15565364 -1.8886172 -0.09299878 0
0.17426841 -1.9968457 -0.091589786 0
0.19761546 -2.1325884 -0.089690872 0
0.20852487 -2.196017 -0.071106337 0
0.20692466 -2.1867132 -0.041031007 0
0.20962839 -2.2024329 -0.013927227 0
0.2092934 -2.2004852 0.015053296 0
0.20899165 -2.1987307 0.043838665 0
0.2099725 -2.2044337 0.072302975 0
0.20819214 -2.1940825 0.10100529 0
0.17762364 -1.8810378 -0.092264138 0
0.19866213 -1.9872425 -0.09064699 0
0.22690326 -2.1298068 -0.090117089 0
0.24095723 -2.2007527 -0.07259009 0
0.24078839 -2.1999004 -0.043266732 0
0.24101034 -2.2010207 -0.014330557 0
0.24018739 -2.1968665 0.014909128 0
0.24267997 -2.2094493 0.043062609 0
0.24084246 -2.2001734 0.072269797 0
0.24265678 -2.2093322 0.1010059 0
0.20011368 -1.8765048 -0.092309423 0
0.22474998 -1.9862653 -0.091482528 0
0.25550497 -2.123286 -0.09004005 0
0.27225924 -2.1979301 -0.073111214 0
0.27521521 -2.2110996 -0.045379121 0
0.27077645 -2.191324 -0.014019197 0
0.27290627 -2.2008128 0.014166387 0
0.27449426 -2.2078876 0.04282761 0
0.27255431 -2.1992447 0.072138526 0
0.27285343 -2.2005775 0.10100584 0
0.22200929 -1.8695005 -0.09193743 0
0.25107616 -1.9852509 -0.092443652 0
0.28358072 -2.114691 -0.089733042 0
0.3040936 -2.1963778 -0.073933803 0
0.30866829 -2.2145948 -0.046680976 0
0.30501989 -2.2000663 -0.015552504 0
0.30487573 -2.1994922 0.01373923 0
0.30633086 -2.2052867 0.042602569 0
0.30553764 -2.2021282 0.071895905 0
0.3059558 -2.2037933 0.10100614 0
0.24334252 -1.8607492 -0.091298886 0
0.27467716 -1.9734159 -0.091425531 0
0.31284016 -2.1106343 -0.090318508 0
0.3390556 -2.2048943 -0.076347776 0
0.33996886 -2.208178 -0.046891633 0
0.3386147 -2.2033091 -0.01664724 0
0.33786237 -2.200604 0.013074214 0
0.33670267 -2.196434 0.042639352 0
0.33434558 -2.187959 0.072043084 0
0.33978036 -2.2075002 0.10100649 0
0.26339313 -1.8482685 -0.089945756 0
0.29882112 -1.9642351 -0.091039188 0
0.34119618 -2.1029413 -0.090410046 0
0.37027803 -2.1981351 -0.076664858 0
0.37069714 -2.199507 -0.046924639 0
0.37271065 -2.2060978 -0.01778858 0
0.3725825 -2.2056782 0.012053752 0
0.3682549 -2.1915128 0.042447865 0
0.36914656 -2.1944313 0.071671963 0
0.3689585 -2.1938157 0.10100635 0
0.28873619 -1.8526361 -0.092469133 0
0.3209019 -1.9491397 -0.089595817 0
0.37112126 -2.099808 -0.091415741 0
0.43067798 -2.2784901 -0.090005629 0
0.52126545 -2.5502708 -0.091333486 0
0.65393108 -2.9482942 -0.091773249 0
0.86437953 -3.5796821 -0.089916758 0
1.3025156 -4.8941784 -0.090652458 0
3.2892456 -10.854769 -0.14081228 0
0.30816573 -1.8388455 -0.091055237 0
0.34819835 -1.9495577 -0.091357462 0
0.40059882 -2.0944738 -0.092177473 0
0.45934919 -2.2569506 -0.088468321 0
0.55818784 -2.5302939 -0.090544008 0
0.69932157 -2.9206061 -0.090722181 0
0.9336412 -3.5686285 -0.090775795 0
1.4028147 -4.8661509 -0.090952195 0
3.5340986 -10.760322 -0.14060608 0
0.32812619 -1.8272976 -0.0902505 0
0.36871219 -1.9312594 -0.089490823 0
0.42349452 -2.0715852 -0.089980222 0
0.49259573 -2.248589 -0.089012511 0
0.59663785 -2.5150948 -0.090462498 0
0.74819386 -2.9033079 -0.090816028 0
0.9990707 -3.5459332 -0.09090022 0
1.4985704 -4.8254099 -0.090745457 0
3.7812762 -10.6726 -0.14071922 0
0.35062113 -1.8222436 -0.091049783 0
0.39405137 -1.9257059 -0.090312995 0
0.45504582 -2.0710108 -0.09183944 0
0.53062582 -2.2510624 -0.09134113 0
0.6315068 -2.4913874 -0.089424111 0
0.80122542 -2.8957021 -0.092016272 0
1.0664647 -3.5275717 -0.09147913 0
1.5929462 -4.7817898 -0.090512536 0
4.0261049 -10.578217 -0.1408221 0
0.3756696 -1.8223691 -0.093196996 0
0.42027885 -1.9215509 -0.091564693 0
0.48005453 -2.0544529 -0.090982191 0
0.55354494 -2.2178473 -0.08834403 0
0.66807139 -2.4724789 -0.089100994 0
0.84008878 -2.8549328 -0.08997228 0
1.1293241 -3.4980025 -0.09133517 0
1.6901054 -4.7448125 -0.090736993 0
4.2663231 -10.472631 -0.14079726 0
0.38813296 -1.7950906 -0.089056067 0
0.43979159 -1.9026084 -0.089879148 0
0.50208634 -2.0322633 -0.089202054 0
0.58743858 -2.2099078 -0.089340873 0
0.71118385 -2.4674604 -0.090693943 0
0.89045322 -2.8405762 -0.090739496 0
1.1929712 -3.4702106 -0.091449656 0
1.7870145 -4.7065997 -0.091026299 0
4.5035896 -10.360641 -0.1407624 0
0.41354421 -1.7952304 -0.091483347 0
0.46314451 -1.8921224 -0.090064637 0
0.53546602 -2.0333996 -0.091807596 0
0.61827427 -2.1951618 -0.089410283 0
0.73931199 -2.4316039 -0.08840061 0
0.93558574 -2.8150163 -0.090474419 0
1.2515118 -3.4321647 -0.090885691 0
1.8781128 -4.6562028 -0.090809263 0
4.7395439 -10.245889 -0.14081034 0
0.4294292 -1.776629 -0.08956302 0
0.49028692 -1.8884622 -0.091841884 0
0.55602622 -2.0092659 -0.089877464 0
0.64997149 -2.1819015 -0.089842044 0
0.78192532 -2.4243822 -0.089979537 0
0.98125082 -2.7906663 -0.090454482 0
1.3079567 -3.3910267 -0.090184681 0
1.9702543 -4.6080766 -0.090830617 0
4.971056 -10.122404 -0.14078444 0
0.4532409 -1.7726396 -0.091298722 0
0.51090544 -1.8725172 -0.091121398 0
0.58046919 -1.993005 -0.089510866 0
0.68146682 -2.1679375 -0.090294905 0
0.81637532 -2.4016056 -0.089626543 0
1.0236342 -2.7605877 -0.089940168 0
1.3748838 -3.3689685 -0.091127761 0
2.5979464 -5.487371 -0.14083152 0
5.1970673 -9.989171 -0.14065218 0
0.46907118 -1.7547807 -0.08975435 0
0.52657264 -1.8488139 -0.088790856 0
0.61303651 -1.9902101 -0.091850691 0
0.70899242 -2.1471286 -0.089757182 0
0.84983891 -2.3774576 -0.089198463 0
1.0693884 -2.7364912 -0.090188541 0
1.4276582 -3.3223772 -0.090212546 0
2.7102406 -5.4198098 -0.14079851 0
5.4265871 -9.8619051 -0.14083484 0
0.48913863 -1.7441218 -0.090107597 0
0.5533753 -1.8434485 -0.090623356 0
0.63382941 -1.9678515 -0.09055949 0
0.73971766 -2.1315823 -0.09020678 0
0.88907695 -2.3625307 -0.090163387 0
1.117722 -2.7160757 -0.090977527 0
1.4939752 -3.2978611 -0.091230206 0
2.8162186 -5.3423944 -0.14037451 0
5.6469822 -9.7194929 -0.14076026 0
0.51357651 -1.7396866 -0.092198379 0
0.57901347 -1.8354793 -0.092046775 0
0.66290081 -1.9582813 -0.091894798 0
0.76941031 -2.1141996 -0.090482511 0
0.92595357 -2.3433621 -0.090683706 0
1.157313 -2.6820471 -0.090378173 0
1.5507456 -3.2579899 -0.091106065 0
2.9285173 -5.2748985 -0.14065199 0
5.8625007 -9.5699329 -0.14063843 0
0.5281626 -1.7207096 -0.090677403 0
0.59989315 -1.820228 -0.091954522 0
0.68027204 -1.9317451 -0.08996477 0
0.79867965 -2.0960228 -0.090754457 0
0.95632952 -2.3147452 -0.089985304 0
1.2018425 -2.6553679 -0.090727411 0
1.605293 -3.2151122 -0.09084294 0
3.0306203 -5.1926007 -0.14024632 0
6.0759568 -9.4176779 -0.14059167 0
0.54342902 -1.7032006 -0.089616306 0
0.61820328 -1.8016087 -0.091187261 0
0.70942211 -1.921659 -0.091482572 0
0.82936138 -2.0795074 -0.091454051 0
0.99281806 -2.2946277 -0.090632491 0
1.2426485 -2.6234219 -0.090596505 0
1.6624861 -3.1759574 -0.091021381 0
3.141818 -5.1228609 -0.14071637 0
6.2923403 -9.2691669 -0.14080921 0
0.56565022 -1.6947603 -0.091106631 0
0.63271666 -1.7785486 -0.089443393 0
0.73676521 -1.9085398 -0.092546202 0
0.85626668 -2.0578368 -0.091378011 0
1.0251466 -2.2688239 -0.090578131 0
1.2848265 -2.5932505 -0.090797059 0
1.7176088 -3.1339393 -0.09107507 0
3.2449875 -5.0421429 -0.14070709 0
6.497395 -9.1054802 -0.14074032 0
0.58507514 -1.6824304 -0.091702051 0
0.6551078 -1.7655364 -0.090226315 0
0.74673933 -1.8742733 -0.089234389 0
0.88024849 -2.0327053 -0.090787791 0
1.0513304 -2.235724 -0.089530937 0
1.3265083 -2.5622706 -0.091031872 0
1.7717521 -3.0906305 -0.091137819 0
3.3467824 -4.9596801 -0.14074831 0
6.7058716 -8.9458275 -0.14094836 0
0.60215896 -1.6672256 -0.091631956 0
0.68336982 -1.758804 -0.09274856 0
0.77574337 -1.8629701 -0.090946682 0
0.90321243 -2.0067122 -0.090134881 0
1.0853701 -2.2121243 -0.09004622 0
1.367231 -2.5299683 -0.091236837 0
1.825488 -3.0467274 -0.091272764 0
3.4522076 -4.8811173 -0.14119129 0
6.9014025 -8.7706442 -0.1408402 0
0.62203747 -1.6550195 -0.092555858 0
0.69165313 -1.7296416 -0.0897348 0
0.79774046 -1.8433582 -0.090994857 0
0.9306134 -1.9857867 -0.090550564 0
1.1070529 -2.1749148 -0.088534199 0
1.3996233 -2.4885254 -0.090409614 0
1.8642141 -2.9865274 -0.089981042 0
3.5400524 -4.7828841 -0.14055994 0
7.1001425 -8.598999 -0.14099719 0
0.62995631 -1.6302913 -0.089921407 0
0.7097702 -1.7116301 -0.089642622 0
0.82378513 -1.8278233 -0.092109345 0
0.95620453 -1.9627726 -0.090699963 0
1.1387248 -2.1487799 -0.088886224 0
1.4434165 -2.4592927 -0.091264047 0
1.9138726 -2.9387372 -0.08996702 0
3.6402266 -4.6980734 -0.14093116 0
7.2762804 -8.403595 -0.14054562 0
0.63785458 -1.6063937 -0.087531544 0
0.73992777 -1.7052969 -0.092831217 0
0.83830607 -1.8006198 -0.090650655 0
0.9753722 -1.9334292 -0.08970391 0
1.1719586 -2.1239104 -0.089592673 0
1.4812773 -2.4236228 -0.091423981 0
1.9580668 -2.8856051 -0.08954034 0
3.7337234 -4.6061168 -0.14100114 0
7.4670043 -8.2234564 -0.1407389 0
0.66261619 -1.5987819 -0.090246536 0
0.74600303 -1.675596 -0.089820929 0
0.86256111 -1.7829666 -0.091555886 0
1.0104423 -1.9191912 -0.091912471 0
1.2062674 -2.099581 -0.090554677 0
1.5136598 -2.3827438 -0.091000639 0
2.5473611 -3.3349662 -0.14106441 0
3.8211784 -4.5083776 -0.14083575 0
7.6466255 -8.0322924 -0.14072224 0
0.6746816 -1.579178 -0.089370139 0
0.76854426 -1.6613624 -0.091188394 0
0.8876428 -1.7656428 -0.092720382 0
1.0290742 -1.8894774 -0.091070242 0
1.2298479 -2.0652711 -0.089925624 0
1.5247422 -2.3234751 -0.08807347 0
2.6029689 -3.2675505 -0.14080745 0
3.9089181 -4.411015 -0.14084603 0
7.8195605 -7.8351002 -0.14065015 0
0.69598091 -1.5675081 -0.091203474 0
0.78019893 -1.6375738 -0.089949124 0
0.89003235 -1.7289505 -0.08910381 0
1.0511098 -1.86296 -0.091006331 0
1.2541115 -2.0318487 -0.089546598 0
1.5591583 -2.2856345 -0.088223837 0
2.6633582 -3.2042816 -0.14114712 0
3.9914188 -4.3091707 -0.14068925 0
7.9954481 -7.6403513 -0.14082104 0
0.7077415 -1.5477284 -0.090497203 0
0.80269325 -1.6227523 -0.091481991 0
0.91714013 -1.7131798 -0.090932108 0
1.0690457 -1.8332045 -0.090330474 0
1.273244 -1.9945472 -0.0885377 0
1.5944788 -2.2483635 -0.088593639 0
2.717782 -3.135916 -0.14109232 0
4.0809321 -4.2129779 -0.14110576 0
8.1552238 -7.4321856 -0.1406583 0
0.72479409 -1.5321087 -0.091344155 0
0.82025671 -1.6036993 -0.091914229 0
0.94304705 -1.6957839 -0.092562057 0
1.0876433 -1.8042213 -0.089916788 0
1.3108193 -1.9715883 -0.09038084 0
1.6254953 -2.2075741 -0.088565193 0
2.7679684 -3.0643525 -0.14082055 0
4.1616669 -4.1095328 -0.1411463 0
8.3237238 -7.2307959 -0.14090635 0
0.73838723 -1.5137641 -0.091377489 0
0.83427483 -1.5819625 -0.091631509 0
0.95330846 -1.666623 -0.09109702 0
1.1156043 -1.7820529 -0.091252528 0
1.341024 -1.9423788 -0.091218047 0
1.6739051 -2.1791344 -0.090648524 0
2.8232975 -2.9966192 -0.14115119 0
4.2337556 -3.9997821 -0.14084277 0
8.4883099 -7.0257568 -0.14118472 0
0.74590379 -1.4912975 -0.089972414 0
0.83945411 -1.5543406 -0.089471735 0
0.96827739 -1.6411542 -0.090736799 0
1.1299216 -1.7500855 -0.090349264 0
1.3420738 -1.893054 -0.088037007 0
1.7012473 -2.1350996 -0.090406962 0
2.8701572 -2.9228234 -0.14090768 0
4.3075304 -3.8914635 -0.14079587 0
8.628335 -6.803236 -0.14091615 0
0.76076585 -1.4738942 -0.090585865 0
0.87616998 -1.5475 -0.094548754 0
0.98527634 -1.617089 -0.090904392 0
1.1552829 -1.7255206 -0.09143693 0
1.3618925 -1.857298 -0.087682523 0
1.7355776 -2.0956378 -0.091066979 0
2.9114993 -2.8456511 -0.14036626 0
4.3825254 -3.7838848 -0.14096934 0
8.7627382 -6.5776234 -0.14065303 0
0.77623296 -1.4566689 -0.091450103 0
0.8734374 -1.51527 -0.090911515 0
0.99769503 -1.5901806 -0.090307958 0
1.1681522 -1.6929432 -0.090560816 0
1.4092052 -1.8382657 -0.091209613 0
1.7556756 -2.0471406 -0.09027528 0
2.9580109 -2.7719867 -0.14041528 0
4.4433341 -3.6674364 -0.14051777 0
8.8997574 -6.3540583 -0.14062069 0
0.78628194 -1.436108 -0.091084085 0
0.89155561 -1.4960054 -0.092022128 0
1.0137218 -1.5655142 -0.09053167 0
1.1797816 -1.659997 -0.089630641 0
1.4143155 -1.7934395 -0.089076735 0
1.7909023 -2.0077057 -0.091251977 0
3.0105803 -2.7016644 -0.14110151 0
4.5026751 -3.5506201 -0.14015265 0
9.0377359 -6.1309285 -0.14076658 0
0.79521817 -1.4150327 -0.090580679 0
0.88704258 -1.4642537 -0.088386081 0
1.0238941 -1.5376104 -0.089777581 0
1.2078257 -1.6362038 -0.091463841 0
1.4501904 -1.7661191 -0.091203131 0
1.80888 -1.9583882 -0.090494968 0
3.0492961 -2.6232915 -0.14082143 0
4.574894 -3.4410613 -0.14062949 0
9.161561 -5.8996625 -0.14068674 0
0.81119305 -1.3976225 -0.091886483 0
0.90661764 -1.445714 -0.090046726 0
1.0426193 -1.5142555 -0.090737589 0
1.2138422 -1.6005476 -0.089902438 0
1.4496251 -1.7193763 -0.088624321 0
1.8373824 -1.9147962 -0.09097857 0
3.0954139 -2.5488129 -0.14128026 0
4.6383834 -3.326431 -0.1407903 0
9.2888756 -5.6701627 -0.14085174 0
0.81393445 -1.3735974 -0.090169378 0
0.92523199 -1.4262103 -0.091585644 0
1.0560639 -1.4880576 -0.090834104 0
1.2211777 -1.5661107 -0.088705383 0
1.499285 -1.6975784 -0.092722349 0
1.8599384 -1.8680676 -0.090956815 0
3.120697 -2.4640574 -0.14026883 0
4.6975923 -3.2094922 -0.14087871 0
9.398839 -5.4318795 -0.14071845 0
0.82517999 -1.3537627 -0.09058959 0
0.93094659 -1.4005337 -0.090552814 0
1.0666096 -1.4605249 -0.090528123 0
1.2457674 -1.5397499 -0.090307213 0
1.5024407 -1.653253 -0.090902857 0
1.8901297 -1.8246921 -0.091835625 0
3.169486 -2.3904338 -0.14122985 0
4.7514849 -3.0900066 -0.14084664 0
9.5137854 -5.1959338 -0.1408671 0
0.84916806 -1.3390592 -0.094050996 0
0.94845062 -1.38 -0.092065386 0
1.0728974 -1.4313177 -0.089592539 0
1.2536978 -1.5058738 -0.089461721 0
1.5144213 -1.6133875 -0.090360053 0
1.8952613 -1.7704332 -0.090286322 0
3.2077069 -2.3116422 -0.14152306 0
4.8030181 -2.9694953 -0.14084879 0
9.6074286 -4.9506741 -0.14062904 0
0.85234773 -1.3154876 -0.092827417 0
0.95660388 -1.3554323 -0.091782384 0
1.0767444 -1.401463 -0.088366799 0
1.2684036 -1.4748952 -0.089773379 0
1.5181507 -1.5705835 -0.088916309 0
1.9245358 -1.7262858 -0.09130273 0
3.2239468 -2.2241423 -0.14031747 0
4.8609948 -2.8513608 -0.14132454 0
9.7134333 -4.7105241 -0.14085594 0
0.84301317 -1.2877727 -0.088927306 0
0.96658099 -1.3315741 -0.091990866 0
1.1064754 -1.3811629 -0.091797359 0
1.2796375 -1.4425442 -0.089681678 0
1.5364457 -1.5335759 -0.089426123 0
1.9324173 -1.6739372 -0.0903024 0
3.2587569 -2.1440892 -0.14066458 0
4.8929248 -2.7233579 -0.1406575 0
9.8077097 -4.4655175 -0.14094174 0
0.85664815 -1.2685114 -0.090352081 0
0.96990067 -1.3054674 -0.090998448 0
1.1025885 -1.3487654 -0.089476921 0
1.2891743 -1.4096512 -0.089461125 0
1.5579439 -1.4973547 -0.090440892 0
1.9457339 -1.6238962 -0.089974202 0
3.2834883 -2.0604255 -0.14041689 0
4.9393415 -2.600755 -0.14086427 0
9.8917084 -4.2167859 -0.14092737 0
0.87414944 -1.2500368 -0.092732094 0
0.97398335 -1.2798489 -0.090293504 0
1.1099644 -1.3204551 -0.089246519 0
1.2995205 -1.3770596 -0.089483149 0
1.5516014 -1.4523351 -0.088164158 0
1.956246 -1.5731688 -0.089498781 0
3.3112502 -1.9777954 -0.14054684 0
4.9752059 -2.4746799 -0.1407077 0
9.9635448 -3.9642801 -0.14077091 0
0.87358856 -1.226061 -0.091220818 0
0.98362708 -1.255918 -0.0908053 0
1.1182431 -1.2924436 -0.089293562 0
1.3137766 -1.3454982 -0.09019459 0
1.5701065 -1.415049 -0.089050092 0
1.955449 -1.5196048 -0.088057108 0
3.3260713 -1.8914992 -0.13989012 0
5.0116506 -2.3488517 -0.14073426 0
10.038739 -3.7128642 -0.14085051 0
0.87787414 -1.2036239 -0.090912156 0
0.99416548 -1.2320478 -0.091604926 0
1.1300441 -1.2652591 -0.090056248 0
1.3209758 -1.3119266 -0.089996345 0
1.5777035 -1.374676 -0.088731773 0
1.9735059 -1.4714178 -0.088566251 0
3.3553722 -1.8091732 -0.1404368 0
5.041431 -2.2212791 -0.14059396 0
10.095245 -3.4565306 -0.1406347 0
0.87948191 -1.1806637 -0.090146206 0
0.99543101 -1.2059216 -0.09072914 0
1.1399205 -1.2373967 -0.090606757 0
1.3259096 -1.277912 -0.089595594 0
1.6015893 -1.3379653 -0.090485819 0
1.9716878 -1.4185864 -0.087290503 0
3.3848262 -1.7264199 -0.14114051 0
5.083384 -2.0964284 -0.14118826 0
10.153112 -3.2008018 -0.14060685 0
0.89307958 -1.1601704 -0.092104621 0
1.0028445 -1.1811953 -0.091163345 0
1.1361959 -1.206738 -0.088996641 0
1.3377244 -1.2453398 -0.090304531 0
1.6044931 -1.2964379 -0.089845128 0
2.5399861 -1.4756267 -0.14033024 0
3.3966691 -1.6397197 -0.14073633 0
5.0918889 -1.9644302 -0.14034401 0
10.221742 -2.947026 -0.1409871 0
0.88902813 -1.1362702 -0.090364002 0
1.0110049 -1.156458 -0.091857798 0
1.1453692 -1.178696 -0.089671038 0
1.336248 -1.2102876 -0.089234583 0
1.6158471 -1.2565628 -0.09033259 0
2.5541513 -1.4118574 -0.14058594 0
3.420747 -1.5552838 -0.14135621 0
5.1284389 -1.8379164 -0.14098419 0
10.265863 -2.6881888 -0.1409395 0
0.89880365 -1.1147039 -0.091726832 0
1.01975 -1.1315981 -0.092779957 0
1.1504869 -1.1498598 -0.089787744 0
1.3414296 -1.1765313 -0.089238934 0
1.6284648 -1.2166252 -0.09108647 0
2.5658379 -1.3475604 -0.14075913 0
3.4255371 -1.4676459 -0.14076315 0
5.1433287 -1.7075922 -0.14075436 0
10.294883 -2.4271772 -0.14069119 0
0.89757037 -1.091542 -0.090847187 0
1.0028291 -1.1035459 -0.088953041 0
1.1571376 -1.1211436 -0.090278275 0
1.3554708 -1.1437619 -0.090617158 0
1.6223184 -1.1741937 -0.089749686 0
2.5724699 -1.2825509 -0.14060968 0
3.4408383 -1.3815814 -0.14106727 0
5.1692524 -1.5786933 -0.14119656 0
10.34813 -2.1693029 -0.14116496 0
0.89597762 -1.0685432 -0.090017684 0
1.0186296 -1.0794039 -0.091455944 0
1.1352092 -1.0897267 -0.086172037 0
1.1428347 -1.090402 -0.060128454 0
1.632188 -1.1337333 -0.090420879 0
2.5749984 -1.2172174 -0.14022999 0
3.4492092 -1.2946271 -0.14103696 0
5.1688643 -1.4468994 -0.1405603 0
10.352733 -1.9059212 -0.14065433 0
0.900958 -1.0461425 -0.09071324 0
1.0125662 -1.0531925 -0.089943685 0
1.1389962 -1.0611789 -0.086437844 0
1.1334645 -1.0608294 -0.058500934 0
1.6543441 -1.0937324 -0.092649527 0
2.5971088 -1.1532849 -0.14183667 0
3.4639812 -1.2080435 -0.14160897 0
5.1800008 -1.3164408 -0.14061794 0
10.382957 -1.645101 -0.14089644 0
0.90579045 -1.0235565 -0.091496997 0
1.0305637 -1.0282815 -0.093092777 0
1.1248132 -1.0318506 -0.083866425 0
1.1280465 -1.031973 -0.057535846 0
1.6465228 -1.0516069 -0.09148813 0
2.5892899 -1.0873082 -0.14079705 0
3.4499302 -1.1198994 -0.14031696 0
5.1907263 -1.1858208 -0.14080988 0
10.389274 -1.3826823 -0.14073531 0
0.89223701 -1.0005379 -0.08849328 0
1.0225151 -1.0021816 -0.091453128 0
1.1286998 -1.0035214 -0.084387563 0
1.1225787 -1.0034442 -0.056666452 0
1.1358893 -1.0036122 -0.031681422 0
1.1302156 -1.0035405 -0.0044417661 0
1.1307751 -1.0035475 0.021980377 0
1.1444229 -1.0037198 0.047733307 0
1.1275153 -1.0035064 0.074775733 0
1.1355592 -1.003608 0.10100279 0
1.1407238 -1.0036732 0.12753731 0
1.1242093 -1.0034648 0.15333065 0
1.1274267 -1.0035053 0.17979094 0
1.130579 -1.0035452 0.20648153 0
1.1301055 -1.0035392 0.23301156 0
1.1367487 -1.003623 0.26066491 0
1.1337234 -1.0035849 0.28722051 0
1.137774 -1.0036359 0.31517199 0
0.90161043 -0.97792858 -0.090485863 0
1.011827 -0.97653794 -0.089439861 0
1.1263458 -0.97509301 -0.08400064 0
1.134197 -0.97499394 -0.058299351 0
1.6452167 -0.96854615 -0.091212936 0
2.5987804 -0.95651454 -0.14152902 0
3.4518864 -0.94575047 -0.14030011 0
5.1892447 -0.92382938 -0.14058696 0
10.392652 -0.8581754 -0.14065997 0
0.91614705 -0.9546361 -0.093699999 0
1.0254589 -0.95049661 -0.092130594 0
1.1413054 -0.94610965 -0.086578913 0
1.1358421 -0.94631654 -0.058632184 0
1.6410981 -0.92718321 -0.090853684 0
2.5998917 -0.89087504 -0.14178732 0
3.4624631 -0.85821074 -0.14119376 0
5.1972451 -0.79251701 -0.14111358 0
10.387506 -0.59596926 -0.14069419 0
0.90332162 -0.93229294 -0.091216646 0
1.019935 -0.9249267 -0.091334365 0
1.1313114 -0.91789126 -0.085172303 0
1.1231341 -0.9184078 -0.057046268 0
1.6321567 -0.88625389 -0.090051241 0
2.5940816 -0.82549107 -0.14155357 0
3.4650421 -0.77047426 -0.14168328 0
5.1900506 -0.66150898 -0.14108674 0
10.378128 -0.33378878 -0.14078394 0
0.88850039 -0.91070354 -0.088422082 0
1.0230561 -0.89878893 -0.092292957 0
1.1560328 -0.88701409 -0.089607798 0
1.3623525 -0.86874485 -0.091099016 0
1.6302594 -0.8450222 -0.09019459 0
2.5808983 -0.76084489 -0.14078283 0
3.4453502 -0.68429923 -0.14076613 0
5.1760397 -0.53104991 -0.14089565 0
10.361289 -0.071905822 -0.14085403 0
0.90745246 -0.88591576 -0.092961349 0
1.0040044 -0.87490475 -0.089175858 0
1.1507767 -0.85816658 -0.089226075 0
1.3485324 -0.83561409 -0.089635752 0
1.6325724 -0.80322158 -0.090955876 0
2.5716727 -0.69612467 -0.14053479 0
3.4500835 -0.59594893 -0.14171779 0
5.1607161 -0.40086493 -0.1407966 0
10.333237 0.18901971 -0.14081642 0
0.88945597 -0.86518651 -0.089720584 0
1.0117867 -0.84809893 -0.091265507 0
1.1586152 -0.82758951 -0.091136612 0
1.3410856 -0.80210149 -0.089190118 0
1.6238252 -0.76260751 -0.090538956 0
2.5672731 -0.63082379 -0.1408944 0
3.4168713 -0.51214927 -0.14015146 0
5.1421208 -0.27116117 -0.14069758 0
10.287289 0.44753173 -0.1405129 0
0.89108783 -0.8419736 -0.090807773 0
0.99687397 -0.82446539 -0.089160018 0
1.1486492 -0.79934573 -0.090217449 0
1.3380378 -0.76800084 -0.089489542 0
1.6252027 -0.72047347 -0.091440879 0
2.5535436 -0.56682789 -0.14052843 0
3.404242 -0.42603257 -0.14018667 0
5.1246939 -0.14128819 -0.14080748 0
10.265742 0.70958394 -0.14093664 0
0.88260084 -0.82042146 -0.089836739 0
0.9978773 -0.79834086 -0.090210788 0
1.1331723 -0.77242583 -0.088490672 0
1.3250403 -0.7356745 -0.088489555 0
1.3580621 -0.72934932 -0.06052034 0
1.3471475 -0.73144001 -0.02696616 0
1.3527136 -0.73037386 0.0047531296 0
1.3481028 -0.73125702 0.037115175 0
1.3389555 -0.7330091 0.069296196 0
1.3419721 -0.73243129 0.10100938 0
0.87859082 -0.79811513 -0.089952372 0
1.0058572 -0.77039182 -0.092738979 0
1.135973 -0.74204785 -0.089942776 0
1.1973807 -0.72867095 -0.071109213 0
1.2000296 -0.72809392 -0.042453591 0
1.2121545 -0.72545272 -0.014732806 0
1.1936004 -0.72949445 0.0156393 0
1.2134513 -0.7251702 0.043200202 0
1.2080308 -0.72635096 0.072247639 0
1.2037752 -0.72727799 0.10100554 0
0.86727637 -0.77755105 -0.088593163 0
0.9912017 -0.74726129 -0.091030262 0
1.1214641 -0.71542257 -0.088604607 0
1.2099113 -0.69380438 -0.073928483 0
1.2061819 -0.69471592 -0.044032607 0
1.2175013 -0.69194925 -0.015923275 0
1.2004865 -0.69610798 0.014644662 0
1.2061909 -0.69471371 0.043210283 0
1.2074271 -0.69441158 0.072094105 0
1.2168777 -0.69210166 0.10100613 0
0.86664551 -0.75440758 -0.089691617 0
0.983482 -0.72270608 -0.090776987 0
1.1352056 -0.68153852 -0.092182167 0
1.207106 -0.66202962 -0.074661635 0
1.1986303 -0.66432935 -0.044064645 0
1.200459 -0.6638332 -0.015038056 0
1.2091266 -0.66148138 0.013455296 0
1.2010292 -0.66367847 0.043082237 0
1.211466 -0.66084659 0.071808308 0
1.1965461 -0.66489488 0.10100576 0
0.86167789 -0.73227203 -0.089965455 0
0.97156775 -0.69945711 -0.089818664 0
1.1087629 -0.65848845 -0.089040436 0
1.2086494 -0.62866068 -0.076155372 0
1.2015353 -0.63078505 -0.045465562 0
1.2026261 -0.63045931 -0.016086293 0
1.2184625 -0.62573028 0.012142638 0
1.2160569 -0.62644863 0.041934371 0
1.2187487 -0.6256448 0.071421154 0
1.2029836 -0.63035256 0.10100621 0
0.86033338 -0.70887071 -0.091176055 0
0.96912432 -0.6733706 -0.090844639 0
1.1065084 -0.62854016 -0.090154596 0
1.2009618 -0.5977186 -0.076420881 0
1.2072591 -0.59566367 -0.047328267 0
1.2041926 -0.59666431 -0.01716659 0
1.1978607 -0.5987305 0.012954572 0
1.2125844 -0.59392595 0.041637164 0
1.2032667 -0.59696645 0.071565919 0
1.1923664 -0.60052341 0.10100617 0
0.84692478 -0.68942547 -0.08980947 0
0.96419168 -0.64785749 -0.091513388 0
1.104763 -0.59802878 -0.09149877 0
1.1987646 -0.5647077 -0.077623315 0
1.2028171 -0.56327122 -0.048056591 0
1.2096701 -0.56084204 -0.018727994 0
1.1992654 -0.56453019 0.012091221 0
1.2013268 -0.56379944 0.041681435 0
1.2132516 -0.55957246 0.071065992 0
1.2043319 -0.56273425 0.10100684 0
0.84311074 -0.66663611 -0.090724818 0
0.95449793 -0.62395918 -0.091357611 0
1.1009141 -0.56786132 -0.092620693 0
1.2106956 -0.52579963 -0.081088506 0
1.2080617 -0.5268088 -0.050106201 0
1.2020046 -0.52912951 -0.019080801 0
1.2096542 -0.52619869 0.010482566 0
1.2025894 -0.52890545 0.041064221 0
1.1965696 -0.53121191 0.071201786 0
1.2091525 -0.52639085 0.10100733 0
0.82531703 -0.64936084 -0.088567041 0
0.94139999 -0.60149211 -0.0906289 0
1.0783243 -0.5450291 -0.090557314 0
1.2051175 -0.49274382 -0.08207681 0
1.2075387 -0.49174538 -0.051563848 0
1.2102348 -0.49063361 -0.02112261 0
1.2012496 -0.49433881 0.010205457 0
1.205883 -0.49242812 0.040294144 0
1.2054511 -0.49260625 0.070678167 0
1.2113656 -0.49016729 0.10100777 0
0.83238697 -0.6216349 -0.0922646 0
0.92358977 -0.58130431 -0.089037724 0
1.064677 -0.5189144 -0.090180807 0
1.2057779 -0.45651844 -0.084162347 0
1.1998128 -0.4591563 -0.052229855 0
1.1961952 -0.46075597 -0.021013102 0
1.2162097 -0.45190546 0.0080781076 0
1.2201501 -0.45016292 0.038910229 0
1.2131345 -0.45326534 0.070154503 0
1.2094103 -0.45491222 0.10100812 0
0.81955552 -0.60233003 -0.091490991 0
0.92133564 -0.55421621 -0.090773903 0
1.0588545 -0.48920795 -0.091341399 0
1.2282815 -0.40911588 -0.089809619 0
1.4712391 -0.29426423 -0.089096747 0
1.8673086 -0.10703298 -0.091717757 0
3.1218607 0.48602286 -0.14035881 0
4.6956291 1.2299795 -0.14077763 0
9.3911905 3.4496796 -0.14052176 0
0.79471481 -0.5892669 -0.087964155 0
0.91545022 -0.5284192 -0.091909684 0
1.0448053 -0.46322754 -0.091139905 0
1.2202659 -0.37479982 -0.090913363 0
1.4613489 -0.25329998 -0.090158679 0
1.8334205 -0.06578514 -0.090564467 0
3.0861888 0.56557888 -0.14055805 0
4.6330752 1.345171 -0.14051357 0
9.2867203 3.6904919 -0.14079562 0
0.79898161 -0.56153458 -0.091488324 0
0.90361291 -0.50544882 -0.091927223 0
1.0272728 -0.43916318 -0.090407617 0
1.2017779 -0.34562275 -0.090499513 0
1.4332575 -0.22154227 -0.08895772 0
1.8119853 -0.018531945 -0.090823822 0
3.0393977 0.6394009 -0.1400363 0
4.5786915 1.4645121 -0.14083005 0
9.162405 3.9215305 -0.140709 0
0.79210806 -0.5391618 -0.09250892 0
0.87959826 -0.48938262 -0.089430921 0
1.0133634 -0.4132745 -0.090463869 0
1.1791677 -0.31893691 -0.089531399 0
1.1933264 -0.31088117 -0.059361074 0
1.2194819 -0.29599944 -0.029886505 0
3.0067496 0.72090036 -0.14079338 0
4.5121946 1.5774517 -0.14066255 0
9.0489588 4.1587291 -0.14106677 0
0.77635396 -0.5218429 -0.091480128 0
0.87394869 -0.46300647 -0.091023959 0
0.99853176 -0.38789967 -0.090468548 0
1.1700389 -0.28450397 -0.090870433 0
1.144573 -0.29985657 -0.055095498 0
1.1952175 -0.26932469 -0.02919071 0
2.9588265 0.79389387 -0.14048186 0
4.4520655 1.6941154 -0.14099242 0
8.8953657 4.3728266 -0.14050148 0
0.76793009 -0.50012106 -0.09239208 0
0.85364717 -0.44544998 -0.089517139 0
0.98870188 -0.35931084 -0.091572143 0
1.1423604 -0.26130608 -0.089282952 0
1.1514801 -0.25548956 -0.058514778 0
1.1793983 -0.23768303 -0.029492548 0
2.9166934 0.87037939 -0.14079696 0
4.3849783 1.8068645 -0.14110479 0
8.767499 4.6020751 -0.14078432 0
0.74321204 -0.4891012 -0.089282475 0
0.84572566 -0.42001769 -0.090896167 0
0.96415377 -0.34020945 -0.089919545 0
1.1280048 -0.2297909 -0.090024449 0
1.1361626 -0.22429338 -0.059016991 0
1.1605351 -0.20786896 -0.029546103 0
2.8660185 0.9414497 -0.14055876 0
4.3139696 1.9172184 -0.14115737 0
8.6269064 4.8236895 -0.14087611 0
0.73514968 -0.46712324 -0.090532996 0
0.83903605 -0.39323595 -0.092731975 0
0.9531098 -0.312103 -0.09105695 0
1.1069336 -0.20269868 -0.089757226 0
1.147904 -0.17355916 -0.06352099 0
1.1388521 -0.17999718 -0.029363101 0
2.8266661 1.0204303 -0.14144018 0
4.2321801 2.020077 -0.14075278 0
8.4688759 5.0333505 -0.14063023 0
0.72783428 -0.44419608 -0.092151918 0
0.81043077 -0.38225421 -0.089600883 0
0.93584079 -0.28820512 -0.091081657 0
1.0904578 -0.1722528 -0.090411179 0
1.1053553 -0.16108069 -0.060365219 0
1.0996245 -0.16537836 -0.027210971 0
1.1028993 -0.16292253 0.0046798158 0
1.1080312 -0.15907392 0.036549155 0
1.1037951 -0.16225073 0.068920083 0
1.096225 -0.16792777 0.10100948 0
1.0995005 -0.16547135 0.13297434 0
1.1005725 -0.16466752 0.16503625 0
1.0990478 -0.16581085 0.19700317 0
0.70397586 -0.43383172 -0.089477055 0
0.79375821 -0.36289218 -0.089337148 0
0.91203684 -0.26943704 -0.089863159 0
1.0534065 -0.15773711 -0.087529384 0
1.0958709 -0.12418482 -0.062117476 0
1.1060979 -0.11610422 -0.030495619 0
1.1069355 -0.11544237 0.0024312234 0
1.1001641 -0.12079266 0.035752166 0
1.1020651 -0.11929062 0.068342604 0
1.1003798 -0.12062225 0.1010104 0
1.1005766 -0.12046674 0.13363414 0
1.095006 -0.12486818 0.16596237 0
1.1031537 -0.11843053 0.19925322 0
0.697537 -0.40978202 -0.091633759 0
0.77709168 -0.34359595 -0.089187823 0
0.89529115 -0.24525908 -0.090228103 0
1.030349 -0.13289681 -0.087211005 0
1.105275 -0.070561498 -0.066918693 0
1.0984197 -0.076264948 -0.03228109 0
1.1031091 -0.072363526 0.00074213953 0
1.1006695 -0.074393123 0.034373317 0
1.1061239 -0.069855362 0.067545339 0
1.1105959 -0.066134781 0.1010116 0
1.095947 -0.078322083 0.13416903 0
1.0972465 -0.077240914 0.16744179 0
1.094515 -0.079513401 0.20049874 0
0.68294102 -0.39217493 -0.091703646 0
0.75679159 -0.32751277 -0.088246144 0
0.88172668 -0.21812198 -0.091428019 0
0.99243975 -0.12118366 -0.084227242 0
1.0963701 -0.030184235 -0.069190897 0
1.0993413 -0.027582671 -0.035296772 0
1.1050359 -0.022596624 -0.0016192251 0
1.0962601 -0.030280557 0.033196118 0
1.0972303 -0.029431071 0.067092411 0
1.0959452 -0.030556228 0.10101195 0
1.0949421 -0.031434502 0.13486074 0
1.097526 -0.029172208 0.16890641 0
1.1026702 -0.024668004 0.20342422 0
1.096722 -0.029876139 0.23699649 0
