# .PCD v0.7 - Point Cloud Data file format
VERSION 0.7
FIELDS x y z intensity
SIZE 4 4 4 4
TYPE F F F F
COUNT 1 1 1 1
WIDTH 1318
HEIGHT 1
VIEWPOINT 0 0 0 1 0 0 0
POINTS 1318
DATA ascii
1.6373969 -0.88592291 -0.090664916 0
2.5895591 -0.82577676 -0.14113058 0
3.4624758 -0.77063638 -0.14150351 0
5.1914034 -0.66142356 -0.14114985 0
10.389408 -0.33307627 -0.14104672 0
0.8982324 -0.90984184 -0.090498842 0
1.0072601 -0.90018761 -0.089306124 0
1.1606256 -0.88660741 -0.090365596 0
1.3467972 -0.87012225 -0.088904403 0
1.6352043 -0.84458435 -0.090774782 0
2.5824573 -0.76070684 -0.14092892 0
3.4385524 -0.68490118 -0.14028902 0
5.1762233 -0.53103369 -0.14090423 0
10.349651 -0.072936326 -0.1405824 0
0.8986848 -0.88691562 -0.091085605 0
1.0127767 -0.87390435 -0.090838842 0
1.160416 -0.85706729 -0.090820573 0
1.3497496 -0.83547527 -0.089807905 0
1.6244129 -0.80415213 -0.089996062 0
2.5763524 -0.69559103 -0.14097442 0
3.4431338 -0.5967415 -0.14122878 0
5.161891 -0.400731 -0.14085163 0
10.332004 0.18887904 -0.14078756 0
0.89701706 -0.86413032 -0.091343381 0
1.0095714 -0.8484084 -0.090844192 0
1.1490426 -0.82892662 -0.089548059 0
1.3433975 -0.80177855 -0.089518197 0
1.6236268 -0.76263523 -0.090515547 0
2.5689492 -0.63058966 -0.14105235 0
3.4226537 -0.51134163 -0.14055961 0
5.1440525 -0.27089134 -0.14078839 0
10.299565 0.44924644 -0.1408011 0
0.89247084 -0.84174472 -0.091105737 0
1.0066885 -0.82284105 -0.091033734 0
1.1389463 -0.80095166 -0.088601075 0
1.3294255 -0.76942629 -0.088262729 0
1.624415 -0.72060388 -0.091347568 0
2.5524275 -0.56701261 -0.14042285 0
3.411763 -0.42478779 -0.14071959 0
5.1312885 -0.14019677 -0.14111866 0
10.263044 0.7091375 -0.14087307 0
0.89068216 -0.81887352 -0.091585748 0
1.0015355 -0.79764014 -0.09091232 0
1.1375887 -0.77157986 -0.089229725 0
1.3458071 -0.73169672 -0.09146107 0
1.347982 -0.73128015 -0.059320826 0
1.3465277 -0.73155874 -0.026907256 0
1.3336738 -0.73402077 0.0061083827 0
1.3529519 -0.7303282 0.036885317 0
1.3446501 -0.73191833 0.069161385 0
1.3419087 -0.73244345 0.10100938 0
0.87465358 -0.79897279 -0.089095823 0
0.99403965 -0.77296615 -0.090460934 0
1.1329796 -0.74269992 -0.08943928 0
1.2069148 -0.72659409 -0.072480522 0
1.2142444 -0.72499746 -0.044153873 0
1.2066205 -0.72665823 -0.01420415 0
1.2035962 -0.72731698 0.014924118 0
1.2071147 -0.72655052 0.043502118 0
1.2096349 -0.72600156 0.07220947 0
1.1994619 -0.7282176 0.10100541 0
0.87789917 -0.77495468 -0.090917639 0
0.99754375 -0.74571115 -0.092259966 0
1.1364763 -0.71175337 -0.091144495 0
1.2123342 -0.69321221 -0.074278988 0
1.2067173 -0.69458508 -0.044097025 0
1.2141688 -0.69276375 -0.015603064 0
1.2171057 -0.69204587 0.013448613 0
1.2113636 -0.69344944 0.04296238 0
1.200768 -0.69603914 0.072253488 0
1.202556 -0.69560218 0.10100571 0
0.87622958 -0.75180715 -0.0918025 0
0.97657746 -0.72457945 -0.08942949 0
1.1149335 -0.68703902 -0.088729955 0
1.2070096 -0.66205579 -0.074647613 0
1.2043808 -0.66276908 -0.044761021 0
1.2040526 -0.66285813 -0.015385626 0
1.2044441 -0.66275191 0.013794491 0
1.2104601 -0.66111952 0.042627309 0
1.2021261 -0.6633808 0.072033316 0
1.2109253 -0.66099328 0.10100619 0
0.87206328 -0.7291708 -0.092269309 0
0.97415799 -0.69868362 -0.090327822 0
1.098411 -0.66157967 -0.087264858 0
1.2036539 -0.6301524 -0.075422712 0
1.1989354 -0.6315614 -0.045148436 0
1.2141192 -0.62702727 -0.01720587 0
1.2018034 -0.630705 0.013358081 0
1.2089036 -0.62858474 0.042281926 0
1.2088302 -0.62860662 0.07166183 0
1.1992248 -0.63147497 0.1010061 0
0.85149181 -0.71175581 -0.089199148 0
0.97602141 -0.67111999 -0.09221112 0
1.101519 -0.63016826 -0.089292027 0
1.2187907 -0.59190077 -0.079056464 0
1.2046461 -0.59651637 -0.047007028 0
1.2066838 -0.59585142 -0.017411171 0
1.2049236 -0.59642577 0.012435192 0
1.2099568 -0.59478337 0.041765835 0
1.2139958 -0.59346539 0.071303517 0
1.1996694 -0.5981403 0.1010064 0
0.8502447 -0.68824869 -0.090558179 0
0.96329641 -0.64817488 -0.091334485 0
1.0948701 -0.60153556 -0.089773722 0
1.199674 -0.56438529 -0.077758931 0
1.2105968 -0.5605135 -0.049021263 0
1.2133492 -0.55953783 -0.019092357 0
1.2138104 -0.55937433 0.011012385 0
1.2109133 -0.56040132 0.041207932 0
1.2042068 -0.56277859 0.071289107 0
1.2100588 -0.56070423 0.10100702 0
0.83123881 -0.67118472 -0.088022403 0
0.9535535 -0.6243211 -0.0911671 0
1.0925912 -0.57105017 -0.091155834 0
1.2020835 -0.52909929 -0.079792432 0
1.2110329 -0.52567041 -0.05047806 0
1.2034434 -0.52857822 -0.019224627 0
1.2078164 -0.52690279 0.010620156 0
1.2038265 -0.52843148 0.041002542 0
1.2076391 -0.52697074 0.070926167 0
1.2170027 -0.52338314 0.10100757 0
0.83581096 -0.64503348 -0.090979867 0
0.94074619 -0.6017617 -0.090495698 0
1.0719693 -0.54764968 -0.089427553 0
1.2137158 -0.48919818 -0.083383895 0
1.2083045 -0.4914296 -0.051660661 0
1.2144595 -0.48889145 -0.021549163 0
1.212338 -0.48976633 0.0093669537 0
1.2036517 -0.49334827 0.040406507 0
1.1990205 -0.49525803 0.070839897 0
1.194523 -0.49711266 0.10100725 0
0.83066392 -0.62239683 -0.091864146 0
0.93512607 -0.57620287 -0.091413565 0
1.0700532 -0.51653701 -0.091146939 0
1.2054249 -0.45667461 -0.084108092 0
1.2194495 -0.4504728 -0.054739241 0
1.2118441 -0.45383593 -0.022610223 0
1.1974225 -0.46021327 0.0095141921 0
1.2010019 -0.45863047 0.03988494 0
1.2058462 -0.45648828 0.070339784 0
1.2088004 -0.45518187 0.1010081 0
0.82416177 -0.60015255 -0.092573993 0
0.92174196 -0.55402416 -0.090858556 0
1.0449471 -0.49578226 -0.088813193 0
1.2212425 -0.41244337 -0.088715456 0
1.4752368 -0.29237446 -0.089613535 0
1.8594456 -0.11075005 -0.090905927 0
3.1345718 0.49203172 -0.14134172 0
4.7022729 1.2331202 -0.14111975 0
9.4008636 3.454252 -0.14077051 0
0.8087393 -0.58219892 -0.091302402 0
0.90704626 -0.53265464 -0.090137132 0
1.04108 -0.46510503 -0.090454288 0
1.2075105 -0.38122824 -0.088905998 0
1.4638537 -0.25203755 -0.090486519 0
1.8375995 -0.06367901 -0.091001265 0
3.0901098 0.56755501 -0.14086501 0
4.6385689 1.3479397 -0.14079997 0
9.3061171 3.7002676 -0.14130065 0
0.79015982 -0.56626338 -0.089360721 0
0.89863002 -0.50811982 -0.090862371 0
1.0282807 -0.43862286 -0.090595581 0
1.2033057 -0.34480384 -0.090743117 0
1.4454418 -0.21501103 -0.090573438 0
1.8213578 -0.013507869 -0.091816433 0
3.0378132 0.63855153 -0.13991061 0
4.5752468 1.4626656 -0.14064811 0
9.1599426 3.9202106 -0.14064404 0
0.78287733 -0.54441381 -0.090251468 0
0.90004152 -0.47775105 -0.093861051 0
1.0194538 -0.40980926 -0.09161552 0
1.1781225 -0.31953165 -0.08936239 0
1.2073876 -0.30288073 -0.061251853 0
1.222446 -0.29431298 -0.030204808 0
3.0040247 0.71935004 -0.14057423 0
4.5187364 1.5811737 -0.14101294 0
9.0363617 4.1515622 -0.14072981 0
0.77052736 -0.52535558 -0.090033971 0
0.86835229 -0.46638033 -0.089793138 0
0.99163985 -0.39205459 -0.089145921 0
1.1623887 -0.28911605 -0.08961504 0
1.1395159 -0.30290529 -0.054405365 0
1.1982751 -0.26748142 -0.029523944 0
2.9614189 0.79545659 -0.14069347 0
4.4525557 1.694411 -0.14101908 0
8.9046621 4.3784308 -0.14075387 0
0.76122612 -0.50439692 -0.0907019 0
0.85788661 -0.44274601 -0.090464242 0
0.9851898 -0.3615509 -0.090887524 0
1.1402487 -0.26265308 -0.088930927 0
1.1414695 -0.26187435 -0.057127092 0
1.1804334 -0.23702285 -0.029607138 0
2.9168839 0.87050086 -0.14081275 0
4.3689613 1.7966487 -0.14022037 0
8.7668409 4.601655 -0.14076614 0
0.74810725 -0.48580238 -0.090537213 0
0.85032392 -0.41691896 -0.091940574 0
0.97082734 -0.33571216 -0.091242157 0
1.1233118 -0.23295352 -0.089229129 0
1.1475432 -0.21662411 -0.060620893 0
1.165271 -0.20467731 -0.030079177 0
2.8612418 0.93823081 -0.14015609 0
4.3120599 1.9159312 -0.14105015 0
8.6194401 4.8186574 -0.14066675 0
0.73374832 -0.46811995 -0.09016747 0
0.83862638 -0.3935273 -0.092637293 0
0.95372468 -0.31166568 -0.091180958 0
1.1058046 -0.20350167 -0.089562528 0
1.1431807 -0.17691854 -0.062843584 0
1.144909 -0.17568931 -0.030056855 0
2.8175206 1.0139258 -0.14065561 0
4.2298856 2.018445 -0.14062168 0
8.4766445 5.0388756 -0.14085187 0
0.72479969 -0.44647178 -0.091345645 0
0.81090504 -0.38189855 -0.089712538 0
0.93327266 -0.29013106 -0.090554081 0
1.0836879 -0.17732975 -0.089221977 0
1.1031064 -0.1627672 -0.060036693 0
1.0967674 -0.16752097 -0.026877617 0
1.104847 -0.16146186 0.0045096222 0
1.0929682 -0.17037013 0.037425693 0
1.0892097 -0.17318878 0.069343969 0
1.1079092 -0.15916541 0.1010099 0
1.1021881 -0.16345581 0.13305265 0
1.0972145 -0.16718575 0.16484061 0
1.1009418 -0.16439047 0.19716881 0
0.71039909 -0.42875656 -0.091217153 0
0.80369097 -0.3550441 -0.091721497 0
0.90856361 -0.27218136 -0.089135639 0
1.0588953 -0.15340015 -0.088512488 0
1.1001081 -0.12083682 -0.062748633 0
1.0956753 -0.12433937 -0.029255738 0
1.1025157 -0.1189346 0.0028250313 0
1.1006423 -0.12041476 0.035723787 0
1.1082729 -0.11438569 0.068158656 0
1.0993259 -0.12145492 0.10101036 0
1.1047333 -0.11718234 0.13375762 0
1.0958012 -0.12423983 0.16600962 0
1.0889626 -0.12964335 0.19798777 0
0.6974746 -0.40983394 -0.091616504 0
0.78270745 -0.33892384 -0.090563752 0
0.89900553 -0.24216887 -0.091022216 0
1.0250289 -0.13732287 -0.086238451 0
1.1084688 -0.067904443 -0.067404233 0
1.0981245 -0.076510519 -0.032245252 0
1.0998336 -0.075088531 0.0010399988 0
1.1027918 -0.072627515 0.034244794 0
1.1003997 -0.074617654 0.067718469 0
1.0972176 -0.077264994 0.1010111 0
1.1049001 -0.070873469 0.13444047 0
1.0957401 -0.078494221 0.16735044 0
1.1087238 -0.067692369 0.20179194 0
0.68179548 -0.39317796 -0.091380008 0
0.76502949 -0.32029983 -0.090308495 0
0.88161206 -0.21822229 -0.091402985 0
0.99812019 -0.11620995 -0.085288294 0
1.0973884 -0.02929261 -0.069349073 0
1.0977368 -0.028987553 -0.035097707 0
1.0898161 -0.035922851 -0.00020498573 0
1.1002728 -0.026767101 0.03294782 0
1.0972881 -0.029380407 0.067090623 0
1.0963957 -0.030161764 0.10101196 0
1.0938483 -0.03239223 0.13482685 0
1.1045643 -0.023009505 0.16934247 0
1.110366 -0.017929699 0.20413989 0
1.0996592 -0.027304377 0.2373611 0
1.0950512 -0.031339075 0.37495515 0
0.66585326 -0.37682089 -0.091182061 0
0.74981874 -0.29947379 -0.090798073 0
0.85541439 -0.20220152 -0.089958914 0
0.9612093 -0.10474566 -0.082505368 0
1.0587071 -0.014932957 -0.067106865 0
1.1003406 0.023418937 -0.038547356 0
1.1010814 0.024101291 -0.0035950893 0
1.0971862 0.02051321 0.031583849 0
1.1044027 0.027160797 0.066089064 0
1.0966702 0.020037685 0.10101292 0
1.0951526 0.018639836 0.1356443 0
1.107187 0.029725704 0.17107603 0
1.1014867 0.024474654 0.20566027 0
1.0909199 0.01474062 0.23937793 0
1.0361454 -0.035716202 0.36614627 0
0.6463272 -0.36398157 -0.090039231 0
0.7300213 -0.28288665 -0.090233095 0
0.83848095 -0.17779538 -0.09069068 0
0.83848149 -0.1777949 -0.062916555 0
0.84322578 -0.1731979 -0.036095519 0
0.84418327 -0.17227015 -0.0086211469 0
0.83895612 -0.17733499 0.019398095 0
0.83978671 -0.17653015 0.046595264 0
0.84370273 -0.17273578 0.073687449 0
0.83482462 -0.18133816 0.10100354 0
0.84246445 -0.17393562 0.12828019 0
0.84071428 -0.17563137 0.15547256 0
0.83108896 -0.18495777 0.18184321 0
1.1032848 0.078784734 0.24432565 0
1.0160446 -0.0057462719 0.29968593 0
1.0068558 -0.014649596 0.33124572 0
0.9872871 -0.033610549 0.35972688 0
0.62805498 -0.35023108 -0.08934436 0
0.71861136 -0.25794461 -0.092020221 0
0.81683499 -0.15784439 -0.090478443 0
0.83387637 -0.14047739 -0.066154383 0
0.83974612 -0.13449553 -0.038995612 0
0.83167344 -0.1427224 -0.0097369906 0
0.83645684 -0.13784763 0.017576056 0
0.84363288 -0.1305345 0.044958774 0
0.83753806 -0.13674578 0.073199257 0
0.84049958 -0.13372764 0.10100462 0
0.84478283 -0.12936255 0.12905087 0
0.8373149 -0.13697317 0.1566304 0
0.8327359 -0.14163968 0.18406147 0
0.84299695 -0.13118258 0.21325611 0
1.0929666 0.12356272 0.28328156 0
0.94253224 -0.029745664 0.28997564 0
0.9537257 -0.018338289 0.32462159 0
0.95908034 -0.012881424 0.35871002 0
0.6202774 -0.32545188 -0.092007406 0
0.69796115 -0.24218145 -0.091476522 0
0.79497498 -0.13819084 -0.090328582 0
0.84021974 -0.089692324 -0.071927987 0
0.8341549 -0.096193284 -0.041778553 0
0.84279054 -0.086936623 -0.014217054 0
0.839589 -0.09036842 0.015026176 0
0.83750331 -0.092604131 0.043880068 0
0.84191138 -0.087879032 0.072307952 0
0.84924573 -0.080017179 0.1010059 0
0.8417834 -0.088016182 0.1296989 0
0.84711415 -0.082302123 0.15878761 0
0.83965063 -0.090302378 0.18699148 0
0.83629698 -0.093897194 0.21533985 0
1.1022338 0.1911644 0.28974277 0
0.92597443 0.0022294258 0.29161459 0
0.94173205 0.01912025 0.32770848 0
0.92758775 0.0039587351 0.35690042 0
0.5991677 -0.31473222 -0.090673633 0
0.6765489 -0.22747245 -0.090812229 0
0.77520829 -0.116218 -0.090814121 0
0.84667015 -0.035633113 -0.078158535 0
0.83542651 -0.048312154 -0.046018589 0
0.84028572 -0.042832579 -0.017105317 0
0.84410226 -0.038528826 0.012132699 0
0.84138823 -0.041589405 0.042001314 0
0.84046334 -0.042632248 0.071552314 0
0.84639782 -0.035940256 0.10100678 0
0.83887625 -0.044421997 0.13040501 0
0.84122843 -0.041769531 0.16000074 0
0.84312356 -0.039632466 0.18977781 0
0.83421785 -0.049675133 0.2182648 0
1.1009946 0.25115874 0.29483521 0
1.0975796 0.24730793 0.3333413 0
0.58623439 -0.29477867 -0.09208443 0
0.65610659 -0.21186307 -0.090518244 0
0.73344874 -0.12008306 -0.085844673 0
0.85608816 0.025450144 -0.08551874 0
0.84202021 0.0087560154 -0.051568691 0
0.84626877 0.013797674 -0.021469666 0
0.8332265 -0.0016792681 0.010680983 0
0.84680313 0.014431749 0.039863296 0
0.83921617 0.0054285261 0.070725873 0
0.83506143 0.0004982088 0.10100735 0
0.83820349 0.0042268368 0.1312526 0
0.83727616 0.0031263565 0.16146348 0
0.83760124 0.0035121178 0.19180891 0
0.83906835 0.0052531096 0.22244239 0
0.84206706 0.0088116266 0.25359353 0
1.0981489 0.31269756 0.34034893 0
0.56728303 -0.28178445 -0.091662042 0
0.64027148 -0.19059762 -0.091720499 0
0.71868575 -0.092632204 -0.087791212 0
0.84269851 0.062300954 -0.08832664 0
0.84713125 0.067838937 -0.057284344 0
0.84402353 0.06395641 -0.024954861 0
0.83946037 0.058255468 0.0071662311 0
0.83900839 0.057690773 0.038537242 0
0.8406955 0.059798632 0.069727093 0
0.8402006 0.059180174 0.10100874 0
0.838579 0.057154331 0.13221152 0
0.84041935 0.059453521 0.16358554 0
0.84549171 0.065790683 0.19552685 0
0.84139091 0.06066731 0.22657987 0
0.83744842 0.05574194 0.25749168 0
1.0965197 0.37940791 0.34745184 0
1.098285 0.38161328 0.38967139 0
0.54552948 -0.27261975 -0.090354301 0
0.61645097 -0.17928222 -0.090641715 0
0.70952874 -0.056785371 -0.09151154 0
0.72642672 -0.034546461 -0.067543559 0
0.73052365 -0.029154565 -0.039962862 0
0.73174518 -0.027546968 -0.011773771 0
0.7277844 -0.032759633 0.016985694 0
0.73080844 -0.028779771 0.044809923 0
0.72440124 -0.0372121 0.073168822 0
0.73050481 -0.029179361 0.10100482 0
0.73110521 -0.028389242 0.12909855 0
0.72301871 -0.039031651 0.15659975 0
0.73179042 -0.027487423 0.18548732 0
0.72984624 -0.030046072 0.21349099 0
0.72454935 -0.037017133 0.24081877 0
0.73099947 -0.028528359 0.2706168 0
0.73473305 -0.02361479 0.30037031 0
0.72610348 -0.034971859 0.32679072 0
0.53361595 -0.2503092 -0.092659853 0
0.60220981 -0.15514264 -0.092700757 0
0.67892969 -0.048702028 -0.089587457 0
0.72866124 0.020295177 -0.073925845 0
0.95421571 0.33322778 -0.089562796 0
0.85267383 0.19234934 -0.03498869 0
0.83701533 0.17062488 0.0010128042 0
0.84315062 0.1791369 0.033917349 0
0.83730388 0.17102519 0.067715071 0
0.84238058 0.17806855 0.10101148 0
0.83616167 0.16944054 0.13426191 0
0.83849812 0.17268208 0.16773498 0
0.84444666 0.18093506 0.20189925 0
0.83684868 0.17039362 0.23448561 0
0.84037244 0.17528251 0.26883176 0
0.84032458 0.17521611 0.30278799 0
1.1077501 0.54624015 0.41217089 0
0.51620758 -0.23504654 -0.093189858 0
0.5778898 -0.14475039 -0.091671579 0
0.65479732 -0.03216609 -0.089533679 0
0.76297557 0.12619522 -0.088879324 0
0.92376715 0.36157671 -0.090230681 0
1.1524926 0.69640595 -0.089580514 0
0.85039651 0.25416997 -0.004305793 0
0.83829463 0.23645404 0.031862844 0
0.84564215 0.24721017 0.06615366 0
0.8345688 0.23099998 0.10101259 0
0.83752096 0.23532155 0.1355371 0
0.83834392 0.23652628 0.17016697 0
0.84108317 0.24053624 0.20517775 0
0.83988953 0.23878887 0.23987806 0
0.83596814 0.23304835 0.27406535 0
0.84076989 0.24007764 0.31028897 0
1.1003712 0.62010592 0.42141539 0
1.0922279 0.60818487 0.465473 0
0.48781097 -0.23651579 -0.089587919 0
0.55412 -0.13398471 -0.090881638 0
0.6311326 -0.014903214 -0.089743309 0
0.73371083 0.14370945 -0.088652276 0
0.88823628 0.38264611 -0.089982457 0
1.1180499 0.73799795 -0.091033883 0
1.4824942 1.3015239 -0.08975222 0
0.84733617 0.31940392 0.028413588 0
0.83944088 0.30719581 0.065071918 0
0.8389805 0.30648389 0.10101445 0
0.83353126 0.29805794 0.13670343 0
0.84108895 0.30974403 0.17308016 0
0.84521294 0.31612089 0.20974217 0
0.84326905 0.31311515 0.24583437 0
0.83513248 0.30053392 0.28058338 0
0.84284699 0.31246248 0.31892636 0
0.8369627 0.30336383 0.35406762 0
1.0971713 0.70571417 0.48129264 0
0.4727436 -0.2177985 -0.091250665 0
0.53390956 -0.11777255 -0.091439761 0
0.60814768 0.0036305522 -0.090310536 0
0.70113289 0.15569118 -0.087639965 0
0.8489666 0.39744642 -0.089003034 0
1.0720562 0.76226932 -0.090665869 0
1.4257423 1.3406591 -0.089955799 0
0.85347396 0.40481749 0.024895223 0
0.8511557 0.4010264 0.06308005 0
0.83707541 0.37800065 0.10101615 0
0.83957696 0.38209143 0.13843654 0
0.84101713 0.38444653 0.17602609 0
0.84481108 0.3906509 0.21414165 0
0.84047568 0.38356104 0.25126532 0
0.83829987 0.38000301 0.28864709 0
0.83951247 0.38198605 0.32695135 0
0.83622104 0.37660339 0.3641963 0
1.1049548 0.81606919 0.49967498 0
0.45275202 -0.20679185 -0.091090895 0
0.50688297 -0.11303452 -0.089606129 0
0.58001912 0.013640795 -0.089362927 0
0.6816479 0.18966654 -0.090345792 0
0.81740874 0.4248108 -0.089868106 0
1.0296826 0.79247922 -0.091069289 0
1.3667088 1.3762243 -0.089984737 0
1.3681443 1.3787105 -0.026325664 0
0.85041565 0.48198035 0.061470676 0
0.84246975 0.46821764 0.10101844 0
0.83851504 0.46136799 0.14001243 0
0.83772117 0.4599928 0.17897496 0
0.84399003 0.47085074 0.21893646 0
0.84220105 0.46775225 0.25810784 0
0.84136486 0.46630386 0.29750583 0
0.84037292 0.46458593 0.336997 0
0.8324905 0.45093313 0.37438914 0
0.8441481 0.47112456 0.41869485 0
0.42622364 -0.20784637 -0.0881375 0
0.48581561 -0.098339051 -0.090079986 0
0.55304378 0.025200639 -0.088851981 0
0.65217268 0.20736173 -0.090489216 0
0.78093058 0.44396952 -0.089736305 0
0.98206782 0.81358296 -0.090614013 0
1.2954755 1.3895066 -0.088359229 0
1.2903411 1.3800714 -0.024609452 0
1.2938917 1.386596 0.038080279 0
0.85080433 0.57237083 0.10102116 0
0.83399308 0.5414781 0.14158967 0
0.83246464 0.53866941 0.18205421 0
0.84404415 0.55994815 0.22437631 0
0.83708364 0.54715747 0.26434356 0
0.83843029 0.54963201 0.30583772 0
0.83563119 0.54448837 0.34647053 0
0.84448975 0.56076711 0.3911064 0
0.83495539 0.54324645 0.42970148 0
0.41134304 -0.18765423 -0.090456553 0
0.46179038 -0.089107484 -0.08950492 0
0.53029031 0.044704232 -0.089940839 0
0.61495274 0.21008876 -0.088385902 0
0.75023079 0.47434869 -0.091201104 0
0.93106145 0.82759374 -0.089547686 0
1.2503051 1.4512224 -0.090700544 0
1.2458283 1.4424772 -0.026211312 0
1.2440506 1.4390047 0.037543688 0
1.2462134 1.4432297 0.10104841 0
0.85091096 0.67102319 0.14444411 0
0.84351438 0.65657431 0.18715513 0
0.8386246 0.64702231 0.22958727 0
0.84190398 0.65342849 0.27333185 0
0.83910125 0.64795345 0.3160421 0
0.8397277 0.64917713 0.35975641 0
0.84054595 0.65077549 0.40389121 0
0.83865136 0.64707452 0.44732738 0
0.39735532 -0.16429946 -0.093582623 0
0.44337067 -0.068527132 -0.091435753 0
0.50415796 0.057990108 -0.089988224 0
0.59169698 0.24018624 -0.090722747 0
0.71215779 0.49090281 -0.09095677 0
0.8882916 0.85749239 -0.090273596 0
1.184016 1.4729869 -0.090004034 0
1.7803328 2.7141087 -0.090308033 0
4.4988379 8.3721676 -0.14050728 0
0.85191834 0.78178829 0.19255808 0
0.83835399 0.75355655 0.23625673 0
0.83628219 0.74924463 0.28111586 0
0.84056491 0.75815827 0.327663 0
0.83905435 0.75501424 0.37304518 0
0.83671474 0.75014478 0.41824773 0
0.83997464 0.75692958 0.46598125 0
0.36883494 -0.17141131 -0.089655288 0
0.4145706 -0.069725186 -0.088943608 0
0.4758496 0.066519052 -0.089297406 0
0.55741841 0.24787465 -0.089671098 0
0.67500716 0.50931507 -0.091077171 0
0.84401214 0.88507122 -0.090865053 0
1.1208616 1.500603 -0.089892916 0
1.6926138 2.7718048 -0.091021679 0
4.2691274 8.5002823 -0.14095622 0
1.0672009 1.3812964 0.22213016 0
0.84608734 0.88968521 0.24512193 0
0.84007788 0.876324 0.2920284 0
0.83981711 0.87574428 0.34009448 0
0.83795017 0.87159342 0.38784274 0
0.83800566 0.8717168 0.43646252 0
0.84139872 0.87926072 0.48699522 0
0.35113487 -0.15511724 -0.091331922 0
0.39358294 -0.053994682 -0.090085037 0
0.45120949 0.083286911 -0.09021043 0
0.52448332 0.25784448 -0.089110844 0
0.63596457 0.52342242 -0.090770178 0
0.79952043 0.9130556 -0.09160509 0
1.0603498 1.53442 -0.090374671 0
1.5919077 2.8007312 -0.090387635 0
4.0232348 8.5927944 -0.14064969 0
0.99879128 1.3877714 0.22113571 0
0.84862274 1.0300303 0.25419885 0
0.84000283 1.0094954 0.30343336 0
0.84067613 1.0110993 0.35465086 0
0.83911705 1.0073853 0.40541828 0
0.8380605 1.0048683 0.4565444 0
0.84219068 1.0147073 0.51046062 0
0.33013022 -0.14615372 -0.091421865 0
0.36872467 -0.047293391 -0.089497276 0
0.42635697 0.10033277 -0.091273852 0
0.49458992 0.27511254 -0.089783154 0
0.59569341 0.53409082 -0.090158992 0
0.746158 0.91950852 -0.090293504 0
0.99273998 1.5511322 -0.089683227 0
1.4980698 2.8455431 -0.090681367 0
3.7805433 8.6921387 -0.14067237 0
0.92598754 1.3801448 0.21953219 0
0.85020149 1.1860175 0.26435691 0
0.8404758 1.1611052 0.31657547 0
0.83998042 1.1598363 0.37074167 0
0.83946651 1.1585197 0.42513278 0
0.83760113 1.1537416 0.47920412 0
0.8411051 1.1627171 0.53623301 0
0.30930534 -0.13658759 -0.091767602 0
0.34880719 -0.027343299 -0.09169469 0
0.39193067 0.091916829 -0.087987952 0
0.43276352 0.20484212 -0.077480905 0
0.43487072 0.21066967 -0.048159886 0
0.43694696 0.21641162 -0.01870176 0
0.9287523 1.5765233 -0.089770697 0
1.402904 2.8878131 -0.090964429 0
3.5361667 8.7874556 -0.14074747 0
0.85914564 1.3840227 0.21860498 0
0.84995061 1.3585935 0.27565396 0
0.83933049 1.3292232 0.33123666 0
0.83983326 1.3306134 0.38942915 0
0.83751351 1.324198 0.44684136 0
0.84384644 1.341712 0.50849551 0
0.83972442 1.3303125 0.56570095 0
0.28486079 -0.13757554 -0.089864008 0
0.32299551 -0.023163702 -0.09084288 0
0.36863306 0.11375812 -0.090122484 0
0.40452331 0.22143605 -0.078381531 0
0.40219909 0.21446291 -0.04732557 0
0.40277019 0.21617642 -0.017634107 0
0.86825913 1.6127369 -0.090774484 0
1.3042312 2.9207406 -0.090905033 0
3.2898023 8.8778543 -0.14085321 0
0.78973985 1.3771632 0.21724123 0
0.84716272 1.5494435 0.2882047 0
0.83557236 1.5146699 0.34748402 0
0.83879906 1.5243509 0.41079062 0
0.83671635 1.5181022 0.47255856 0
0.84215897 1.5344312 0.53833717 0
0.83702177 1.5190184 0.59912187 0
0.264323 -0.1272724 -0.090622269 0
0.3000074 -0.010466602 -0.091803931 0
0.33954808 0.11896196 -0.089482956 0
0.38267002 0.26011303 -0.082625411 0
0.38019118 0.25199905 -0.050722409 0
0.38053679 0.25313035 -0.020288801 0
0.72653311 1.3856807 -0.072637863 0
0.7253589 1.3818371 -0.014453126 0
0.72705513 1.3873894 0.0431903 0
0.72689158 1.3868539 0.10104132 0
0.72681957 1.3866184 0.15887368 0
0.72654688 1.3857257 0.2167253 0
0.8419022 1.7633185 0.30234873 0
0.83290613 1.7338717 0.36691242 0
0.83449787 1.7390821 0.43455821 0
0.83586979 1.7435727 0.50272185 0
0.83209836 1.7312276 0.56865823 0
0.24238268 -0.12128666 -0.090537451 0
0.27306396 -0.010969307 -0.090291537 0
0.31073982 0.12449756 -0.089030199 0
0.3653188 0.32074133 -0.090122394 0
0.4429369 0.59982425 -0.09180405 0
0.54975712 0.98390585 -0.090199061 0
0.66203952 1.3876274 -0.071505599 0
0.66205537 1.3876843 -0.013888961 0
0.66064328 1.382607 0.043729566 0
0.65977526 1.3794861 0.10104059 0
0.66414988 1.3952153 0.1586569 0
0.65920645 1.3774409 0.21547535 0
0.81209284 1.9271576 0.31276992 0
0.81222653 1.9276383 0.38374588 0
0.81308252 1.9307158 0.45536965 0
0.81186593 1.9263418 0.5264461 0
0.81062001 1.9218619 0.59775919 0
0.22079669 -0.11391297 -0.090879135 0
0.25186479 0.0098069049 -0.093053542 0
0.28329971 0.13498738 -0.08954341 0
0.33121473 0.32579497 -0.089583077 0
0.39695829 0.58759981 -0.089048214 0
0.49775648 0.98899955 -0.089417167 0
0.59730095 1.3854065 -0.070197828 0
0.5971114 1.3846519 -0.012979103 0
0.5979709 1.3880746 0.043979391 0
0.59707958 1.3845248 0.10104027 0
0.59636885 1.3816948 0.15794812 0
0.59808296 1.3885205 0.21524589 0
0.77078617 2.0762613 0.32211673 0
0.76904339 2.0693214 0.39550796 0
0.76755744 2.0634038 0.46900845 0
0.76893014 2.0688703 0.54427552 0
0.19972932 -0.10379228 -0.091936372 0
0.22556281 0.011301909 -0.092181586 0
0.25523484 0.14349774 -0.089837335 0
0.29882622 0.33770755 -0.090159051 0
0.35803932 0.60151571 -0.089578457 0
0.44796741 1.0021662 -0.089537911 0
0.55281693 1.4692953 -0.075184487 0
0.55276489 1.4690635 -0.016325032 0
0.55157596 1.4637663 0.042516638 0
0.55212498 1.4662125 0.10104224 0
0.55235839 1.4672523 0.15965106 0
0.5529536 1.4699042 0.21845016 0
0.71408492 2.1877818 0.32879081 0
0.71260339 2.1811812 0.40445361 0
0.71309632 2.1833773 0.48118466 0
0.71368921 2.1860185 0.55850387 0
0.17539707 -0.10878685 -0.089828514 0
0.19713254 0.00093618373 -0.089164369 0
0.22626834 0.14801684 -0.089580081 0
0.26664209 0.35182813 -0.091165923 0
0.31923243 0.61730987 -0.09044721 0
0.39901209 1.0200462 -0.090226449 0
0.41549829 1.1032705 -0.048162151 0
0.41557485 1.103657 0.0016404933 0
0.41413814 1.0964043 0.051534705 0
0.41574121 1.1044967 0.10103133 0
0.41534877 1.1025157 0.15067276 0
0.41693702 1.1105332 0.20074913 0
0.41551185 1.103339 0.25023022 0
0.4144018 1.0977354 0.2996822 0
0.41328728 1.092109 0.34908044 0
0.40624318 1.0565495 0.39419043 0
0.29619846 0.50103194 0.35075584 0
0.27123147 0.37499574 0.36301091 0
0.15275635 -0.10681275 -0.089365564 0
0.17437407 0.018875394 -0.091707207 0
0.19491869 0.13832429 -0.087076105 0
0.22939691 0.33878484 -0.088411011 0
0.27967671 0.63111776 -0.091193058 0
0.3472259 1.0238569 -0.089696772 0
0.36980864 1.1551559 -0.051148031 0
0.88217485 4.1341157 -0.14105032 0
1.7633927 9.2576237 -0.14077319 0
0.58432502 2.4023802 0.26138392 0
0.58003646 2.3774459 0.33998913 0
0.5815863 2.386457 0.42088792 0
0.26137212 0.52469283 0.28060189 0
0.27304053 0.59253436 0.32662946 0
0.2711488 0.58153552 0.3630223 0
0.23624347 0.37859157 0.36247778 0
0.13138779 -0.096792907 -0.090755679 0
0.14847708 0.020159516 -0.091179945 0
0.1676587 0.15143123 -0.088499986 0
0.1976006 0.35634187 -0.090146072 0
0.23729649 0.62800521 -0.090055771 0
0.29697776 1.0364404 -0.090120144 0
0.39528525 1.7092187 -0.089684345 0
0.75159913 4.1476927 -0.14071977 0
1.5055915 9.307723 -0.14098218 0
0.50817096 2.4817643 0.26448101 0
0.50564951 2.4645088 0.34518802 0
0.50538045 2.4626677 0.42680007 0
0.22252171 0.52689224 0.28014234 0
0.2766028 0.89700228 0.36898625 0
0.20034517 0.3751246 0.36077026 0
0.10800417 -0.1006237 -0.089291878 0
0.12302182 0.024067674 -0.091276295 0
0.13872284 0.15443304 -0.088360824 0
0.16367979 0.3616505 -0.090255894 0
0.19657452 0.63477522 -0.090211429 0
0.24694638 1.0530124 -0.091036625 0
0.32609442 1.7101781 -0.089111842 0
0.62208962 4.1678238 -0.14085238 0
1.2424647 9.3187933 -0.14042915 0
0.42440686 2.5264654 0.26603073 0
0.42535624 2.534348 0.34928989 0
0.42489287 2.5305007 0.43208748 0
0.42406833 2.5236547 0.51471192 0
0.2302696 0.91454512 0.37057072 0
0.16685151 0.38798514 0.36233863 0
0.086898774 -0.083975405 -0.092330374 0
0.097794294 0.030821834 -0.092032574 0
0.11126032 0.17270246 -0.09086325 0
0.13000087 0.37015632 -0.090937831 0
0.15645526 0.64888483 -0.091349177 0
0.19395037 1.0439403 -0.089665107 0
0.25866172 1.7257512 -0.089689739 0
0.49253461 4.1898804 -0.14122774 0
0.98358494 9.3636789 -0.14082253 0
0.3416155 2.5997679 0.26901504 0
0.34064564 2.5895491 0.35249579 0
0.34063295 2.5894153 0.43671638 0
0.33893245 2.5714989 0.51920903 0
0.33969834 2.5795684 0.60498172 0
0.17409137 0.83470207 0.40220094 0
0.13027726 0.37306836 0.35880643 0
0.063571602 -0.088682026 -0.090926997 0
0.071959868 0.032002959 -0.091855682 0
0.081005946 0.16215208 -0.088727616 0
0.095295176 0.36773625 -0.090199284 0
0.11501344 0.65143007 -0.091248877 0
0.14299951 1.0540755 -0.090218402 0
0.19143966 1.7510011 -0.091064133 0
0.36076111 4.187089 -0.14059563 0
0.72168922 9.3798895 -0.14069936 0
0.25379026 2.6480615 0.27092332 0
0.25264874 2.6316381 0.35492653 0
0.13274737 0.90657419 0.27846763 0
0.13334368 0.91515356 0.32419676 0
0.1347371 0.93520135 0.37219328 0
0.12457584 0.78900748 0.39404601 0
0.095834665 0.37549821 0.35873109 0
0.041188888 -0.079231411 -0.092662744 0
0.045959633 0.028731022 -0.090962417 0
0.052063458 0.16686109 -0.089230411 0
0.061059061 0.37043241 -0.090304546 0
0.074173026 0.66720289 -0.092818595 0
0.09091226 1.0460131 -0.089191101 0
0.12216324 1.7532258 -0.090944581 0
0.23004957 4.1947031 -0.14060421 0
0.45969716 9.3916492 -0.14062665 0
0.16340218 2.6864665 0.27247161 0
0.16250759 2.6662216 0.35698462 0
0.086503118 0.94623381 0.28192097 0
0.086477309 0.9456498 0.32744625 0
0.086528435 0.94680685 0.37343779 0
0.077190012 0.73547751 0.3848165 0
0.061495733 0.38031438 0.35926995 0
0.018051071 -0.087132901 -0.090828769 0
0.020226808 0.027810249 -0.090636186 0
0.023062963 0.17764273 -0.090851314 0
0.026852323 0.37783268 -0.091192476 0
0.031936716 0.64643854 -0.090237118 0
0.039590769 1.0507979 -0.089486457 0
0.053070106 1.7629042 -0.091468565 0
0.0992769 4.2039852 -0.14084415 0
0.19774759 9.4061403 -0.14077131 0
0.071041279 2.712312 0.27354002 0
0.070793346 2.699214 0.35908961 0
0.070813298 2.7002678 0.44562945 0
0.07079377 2.6992362 0.53235167 0
0.032682456 0.68583566 0.3764275 0
0.026964581 0.38376322 0.35971427 0
-0.0046767029 -0.093335718 -0.089479722 0
-0.0054225503 0.024918113 -0.090060942 0
-0.0063125277 0.16602376 -0.088911153 0
-0.0076597407 0.37962404 -0.091413639 0
-0.0093634836 0.64975208 -0.090593942 0
-0.011900771 1.0520382 -0.089571886 0
-0.016295806 1.7488697 -0.090456761 0
-0.031766992 4.2018223 -0.14070493 0
-0.064573579 9.4032965 -0.14066672 0
-0.022444896 2.7238061 0.27404833 0
-0.022374306 2.7126138 0.3599861 0
-0.022365697 2.7112491 0.4466002 0
-0.022450423 2.7246823 0.53525847 0
-0.0093317581 0.64472193 0.36962402 0
-0.0077850651 0.3994942 0.36263701 0
-0.027564658 -0.084765643 -0.091393284 0
-0.03119833 0.030401859 -0.091185577 0
-0.035345275 0.16183713 -0.088313453 0
-0.041924499 0.37036243 -0.090203322 0
-0.050595216 0.64517659 -0.090150453 0
-0.063928299 1.0677621 -0.091131307 0
-0.085725181 1.7586036 -0.091229029 0
-0.11872432 2.8044951 -0.075735964 0
-0.11910961 2.8167067 0.012435185 0
-0.11895231 2.8117211 0.10107896 0
-0.11907324 2.8155541 0.18969627 0
-0.11656 2.735898 0.27469492 0
-0.11652921 2.7349222 0.36167145 0
-0.11670467 2.7404833 0.44949707 0
-0.11636117 2.7295964 0.53604084 0
-0.050658237 0.64717406 0.37015569 0
-0.042061608 0.37470821 0.35808975 0
-0.050602 -0.081826538 -0.09223365 0
-0.056945063 0.029777322 -0.091282152 0
-0.065253563 0.17596248 -0.090849869 0
-0.076461017 0.3731536 -0.090809502 0
-0.091876425 0.6443823 -0.090270691 0
-0.1156786 1.0631731 -0.090916611 0
-0.15469322 1.7496214 -0.090814508 0
-0.2144845 2.8016279 -0.075799398 0
-0.21388467 2.7910738 0.012933346 0
-0.21510258 2.8125029 0.10107911 0
-0.21392825 2.7918408 0.18924166 0
-0.21054038 2.7322323 0.2747176 0
-0.21118 2.7434864 0.36256248 0
-0.21089137 2.7384079 0.44969177 0
-0.07800094 0.40024796 0.26371321 0
-0.077057913 0.3836557 0.29430863 0
-0.076203331 0.36861971 0.32458499 0
-0.076596439 0.37553623 0.35853288 0
-0.073336527 -0.085184664 -0.091856591 0
-0.08267995 0.028492842 -0.091376878 0
-0.094007932 0.16631559 -0.089595772 0
-0.11003666 0.3613303 -0.089478962 0
-0.13319509 0.64308923 -0.090454765 0
-0.16670015 1.0507309 -0.090088196 0
-0.22285253 1.7339132 -0.090049334 0
-0.4241499 4.1830134 -0.14063647 0
-0.84987724 9.3626575 -0.14052868 0
-0.30613342 2.7471564 0.27572057 0
-0.30441609 2.7262623 0.3618125 0
-0.30480197 2.7309573 0.44960573 0
-0.30503976 2.7338502 0.53778994 0
-0.11417753 0.41171053 0.29860565 0
-0.11336503 0.40182522 0.33045527 0
-0.11213879 0.38690594 0.36113441 0
-0.095265999 -0.09532097 -0.090151913 0
-0.10779368 0.021048222 -0.090427794 0
-0.12299419 0.16224495 -0.089379855 0
-0.14493206 0.36602488 -0.090599202 0
-0.17420956 0.63798243 -0.090313487 0
-0.21786255 1.043473 -0.089864947 0
-0.29081318 1.721108 -0.089606978 0
-0.55611718 4.1855054 -0.14133249 0
-1.1134061 9.3621368 -0.14109559 0
-0.39863971 2.7227039 0.27499324 0
-0.39774373 2.7143812 0.36160189 0
-0.39812219 2.7178969 0.44921485 0
-0.3988502 2.7246592 0.53775644 0
-0.15001738 0.41326228 0.29929897 0
-0.14922652 0.40591589 0.331682 0
-0.14651389 0.38071862 0.36058575 0
-0.11885315 -0.090064019 -0.091860972 0
-0.13427944 0.025700603 -0.091894396 0
-0.15319286 0.16763368 -0.09085273 0
-0.17857502 0.3581107 -0.090060256 0
-0.21625893 0.64090437 -0.091240235 0
-0.2701624 1.0454156 -0.090628751 0
-0.35879403 1.7105393 -0.089441694 0
-0.68380243 4.1495209 -0.14037998 0
-1.3726211 9.3186665 -0.14081274 0
-0.49246514 2.7136559 0.27509746 0
-0.4905262 2.6991055 0.36131698 0
-0.24241601 0.83719665 0.27306864 0
-0.24190834 0.83338696 0.31598237 0
-0.18672726 0.41928795 0.30075732 0
-0.18584974 0.41270283 0.33350992 0
-0.18225516 0.38572779 0.36232811 0
-0.14081925 -0.097675711 -0.090935029 0
-0.15943588 0.019388232 -0.091402985 0
-0.18091761 0.15446809 -0.089370377 0
-0.21301712 0.35631421 -0.090510301 0
-0.25857922 0.64281482 -0.09217637 0
-0.31981641 1.0278823 -0.089679413 0
-0.42831704 1.710149 -0.090117462 0
-0.81558907 4.1453676 -0.14107579 0
-1.6293416 9.2623539 -0.14038017 0
-0.58087629 2.6694622 0.27365488 0
-0.58019811 2.6651976 0.35987648 0
-0.2782976 0.76680654 0.26704746 0
-0.2797448 0.77590686 0.30997097 0
-0.27956134 0.77475315 0.35209921 0
-0.21705258 0.3816897 0.36252323 0
-0.16397676 -0.09771964 -0.091760255 0
-0.18437111 0.012513433 -0.0909229 0
-0.20973432 0.14960352 -0.089385219 0
-0.24760678 0.35430709 -0.091056325 0
-0.29748979 0.62392849 -0.090771727 0
-0.37096485 1.0210667 -0.089861698 0
-0.49569231 1.6952279 -0.08988782 0
-0.94445825 4.120842 -0.14096744 0
-1.8899903 9.2315149 -0.1407008 0
-0.67034191 2.6392224 0.27297255 0
-0.6680128 2.6266334 0.35825863 0
-0.66779399 2.6254506 0.44430935 0
-0.66637975 2.6178064 0.52991062 0
-0.29176369 0.59297842 0.36552626 0
-0.25377432 0.38764301 0.36480159 0
-0.18333143 -0.1167843 -0.088584252 0
-0.20970254 0.0080572106 -0.091026701 0
-0.23590231 0.13208762 -0.087396868 0
-0.2823976 0.35219756 -0.091715641 0
-0.33829018 0.61679453 -0.090880446 0
-0.4216674 1.0115044 -0.089905776 0
-0.56287289 1.6799748 -0.08975441 0
-0.61745375 1.9383624 -0.038333196 0
-0.61663198 1.9344721 0.031491484 0
-0.61830676 1.9424005 0.10105594 0
-0.75403976 2.5849643 0.27124962 0
-0.75126964 2.5718503 0.3556304 0
-0.7533406 2.5816543 0.4418492 0
-0.75299931 2.5800388 0.52754653 0
-0.28684339 0.37324396 0.36335093 0
-0.20840241 -0.1086081 -0.091447331 0
-0.23418051 -0.00017979402 -0.09052258 0
-0.26822528 0.14301994 -0.090313651 0
-0.3110736 0.32324937 -0.088628493 0
-0.37372568 0.58677775 -0.088364251 0
-0.47253674 1.0023987 -0.090116374 0
-0.52179003 1.2095687 -0.057035316 0
-0.61939603 1.6201212 -0.023895903 0
-0.6207068 1.6256347 0.038477581 0
-0.61690372 1.609638 0.10104666 0
-0.83562988 2.5296483 0.2695666 0
-0.83165002 2.5129082 0.35283798 0
-0.83423358 2.5237751 0.43822896 0
-0.83172053 2.5132046 0.52193671 0
-0.83349186 2.5206554 0.6081984 0
-0.22861406 -0.12151226 -0.089833222 0
-0.26190287 0.0043100449 -0.092614658 0
-0.29371798 0.12456229 -0.088391729 0
-0.34423134 0.31548873 -0.088705622 0
-0.4142248 0.58004469 -0.088753857 0
-0.51830786 0.97344977 -0.088536032 0
-0.57903773 1.2029917 -0.057564143 0
-0.64666414 1.4586008 -0.01691143 0
-0.64727604 1.4609134 0.042041928 0
-0.64735663 1.4612181 0.10104276 0
-0.91453403 2.4710746 0.26781419 0
-0.91219872 2.4622476 0.35077259 0
-0.91092193 2.4574218 0.43396243 0
-0.91053015 2.455941 0.51768649 0
-0.91062391 2.4562955 0.602063 0
-0.25215682 -0.12168297 -0.09113925 0
-0.2848793 -0.0095263384 -0.091263331 0
-0.32441354 0.12597778 -0.089967735 0
-0.34603319 0.20007935 -0.073146276 0
-0.45645463 0.57855004 -0.089908101 0
-0.57149374 0.97284776 -0.089812182 0
-0.71625751 1.469027 -0.07805448 0
-0.71454144 1.4631453 -0.017962066 0
-0.71174163 1.4535489 0.041805264 0
-0.71383566 1.4607263 0.10104325 0
-0.98531824 2.3912358 0.26511267 0
-0.98199666 2.3798509 0.34652656 0
-0.98001677 2.3730648 0.42810044 0
-0.98391223 2.3864164 0.51215291 0
-0.98140973 2.3778393 0.59410191 0
-0.27468047 -0.12611136 -0.091637857 0
-0.30830616 -0.020816293 -0.09051875 0
-0.35527685 0.12626699 -0.091495313 0
-0.38269275 0.21211675 -0.076269634 0
-0.39435172 0.24862543 -0.050907496 0
-0.39491642 0.25039378 -0.020499466 0
-0.39574054 0.25297442 0.0098033193 0
-0.39595366 0.25364175 0.040227067 0
-0.39724699 0.25769165 0.070534959 0
-0.39651114 0.25538746 0.1010077 0
-0.39563766 0.2526522 0.13135731 0
-0.39641047 0.25507227 0.16185838 0
-0.39513269 0.25107089 0.1920725 0
-0.39914364 0.26363078 0.22381304 0
-0.39761686 0.25884989 0.25417852 0
-0.39508256 0.25091401 0.28400984 0
-0.39344174 0.24577597 0.31413081 0
-0.39509326 0.25094751 0.34627023 0
-0.29437232 -0.13909641 -0.090342812 0
-0.3311722 -0.033162799 -0.089674376 0
-0.38058522 0.10907939 -0.09013059 0
-0.42611435 0.2401413 -0.081935979 0
-0.43136615 0.25525931 -0.053011093 0
-0.42978778 0.25071576 -0.021557285 0
-0.42685375 0.24226978 0.0098254997 0
-0.43266314 0.25899294 0.039450269 0
-0.43342796 0.2611945 0.070191666 0
-0.43184781 0.25664583 0.10100805 0
-0.43124709 0.25491658 0.13166985 0
-0.43121257 0.25481716 0.16236009 0
-0.43070537 0.2533572 0.19301133 0
-0.43285239 0.25953761 0.22444592 0
-0.43131191 0.25510326 0.25500882 0
-0.4289979 0.24844196 0.28518799 0
-0.43175057 0.25636593 0.31777447 0
-0.43418965 0.26338711 0.35082331 0
-0.31613347 -0.14574453 -0.090586804 0
-0.35423306 -0.044394698 -0.089161851 0
-0.41077903 0.10602501 -0.091346033 0
-0.47658193 0.28106931 -0.08975739 0
-0.48519963 0.30399349 -0.060507465 0
-0.51057798 0.37150326 -0.034725089 0
-0.51263058 0.37696353 -0.001069715 0
-0.50937605 0.36830595 0.033449609 0
-0.50978482 0.36939326 0.067221984 0
-0.5104174 0.37107602 0.10101189 0
-1.2011846 2.2086072 0.18059826 0
-1.1934261 2.1879685 0.25918719 0
-1.1611578 2.1021307 0.33204573 0
-1.1569809 2.0910194 0.40832171 0
-1.1586171 2.095372 0.48630798 0
-1.161631 2.103389 0.56548744 0
-0.33813158 -0.1520004 -0.091048576 0
-0.38246188 -0.042543676 -0.09142036 0
-0.4346891 0.086411506 -0.089772157 0
-0.50379699 0.25704685 -0.0880033 0
-0.51141161 0.27584842 -0.058557186 0
-0.51304531 0.2798821 -0.02684181 0
-0.51000643 0.27237883 0.0058084 0
-0.51371539 0.28153661 0.037139375 0
-0.51374108 0.28160003 0.06909015 0
-0.51454067 0.28357437 0.1010096 0
-1.2755215 2.1625252 0.25947404 0
-1.1985894 1.9725709 0.32455334 0
-1.2016557 1.9801421 0.40019178 0
-1.1986979 1.9728389 0.47466451 0
-1.1968806 1.9683518 0.54960304 0
-0.35924906 -0.16059348 -0.091101758 0
-0.40054056 -0.065601736 -0.088733591 0
-0.46415457 0.080743223 -0.090787627 0
-0.51063031 0.18766132 -0.079383232 0
-0.50954306 0.18516007 -0.048698921 0
-0.51123834 0.18906 -0.01895926 0
-0.51292723 0.19294539 0.010850104 0
-0.51265967 0.19232991 0.040987998 0
-0.50644857 0.17804113 0.071376085 0
-0.51105851 0.18864647 0.10100707 0
-1.3493906 2.1172416 0.25886044 0
-1.2291911 1.8407209 0.31687534 0
-1.2268158 1.8352566 0.38862309 0
-1.2263943 1.8342869 0.46097857 0
-1.2314057 1.8458157 0.53559572 0
-1.2316461 1.8463686 0.60932243 0
-0.38034597 -0.1692951 -0.091254361 0
-0.42569187 -0.0717825 -0.089615144 0
-0.48921275 0.064813763 -0.090089239 0
-0.50666499 0.10234335 -0.06821876 0
-0.51274526 0.11541858 -0.041418213 0
-0.51024497 0.11004177 -0.012194162 0
-0.50896144 0.10728171 0.016425962 0
-0.50877613 0.1068832 0.044690344 0
-0.51334012 0.1166977 0.072611205 0
-0.51255965 0.11501935 0.10100517 0
-1.4293852 2.0865762 0.25908634 0
-1.2458494 1.6918979 0.30785632 0
-1.2426565 1.6850317 0.37643299 0
-1.2438891 1.6876824 0.4461824 0
-1.242515 1.6847274 0.51557994 0
-1.2416236 1.6828108 0.58546925 0
-0.40098682 -0.17903027 -0.091289245 0
-0.45045036 -0.079323024 -0.090354554 0
-0.51358265 0.047937308 -0.089323647 0
-0.51287848 0.046517882 -0.061524842 0
-0.51269972 0.046157513 -0.034119029 0
-0.5134095 0.047588263 -0.0070672538 0
-0.51161492 0.043970857 0.020335378 0
-0.51440233 0.049589667 0.046981275 0
-0.50975758 0.040226851 0.074250013 0
-0.51558381 0.051971231 0.10100358 0
-1.2476534 1.527657 0.29755229 0
-1.2399777 1.5121846 0.3617723 0
-1.2374486 1.5070865 0.42682046 0
-1.2412683 1.5147862 0.49396652 0
-1.2420726 1.5164075 0.56083953 0
-0.42440194 -0.18355933 -0.092700355 0
-0.47451118 -0.088644117 -0.090856887 0
-0.53684545 0.029427323 -0.088357784 0
-0.53574646 0.027345691 -0.060590807 0
-0.53088075 0.018129144 -0.032171208 0
-0.53378171 0.023624096 -0.005942544 0
-0.53342873 0.02295557 0.0209483 0
-0.53491139 0.025763903 0.047533594 0
-0.52827126 0.013186369 0.074613534 0
-0.52949095 0.015496764 0.10100283 0
-1.2519239 1.3839045 0.28873473 0
-1.2401091 1.3615253 0.34925142 0
-1.2389966 1.3594184 0.41153154 0
-1.2406483 1.3625467 0.47487277 0
-1.2423364 1.3657441 0.53880811 0
-1.2389493 1.3593285 0.60135549 0
-0.44037598 -0.20207545 -0.090866126 0
-0.50082123 -0.094261914 -0.092296265 0
-0.56120229 0.013437066 -0.087962814 0
-0.55819541 0.0080738403 -0.05971979 0
-0.56208271 0.01500741 -0.033593927 0
-0.56260705 0.015942726 -0.0065988805 0
-0.55385429 0.00033077938 0.021655122 0
-0.55482602 0.0020640229 0.04805962 0
-0.55789924 0.0075456235 0.074399449 0
-0.55745184 0.0067475769 0.101003 0
-1.2955858 1.3233247 0.1627652 0
-1.2961067 1.3242538 0.22460102 0
-1.2465482 1.2358584 0.27945581 0
-1.2430217 1.2295685 0.33855516 0
-1.2364383 1.2178259 0.39684466 0
-1.24107 1.2260871 0.45804811 0
-1.2450683 1.2332187 0.51988298 0
-1.2438741 1.2310886 0.58057457 0
-0.46085453 -0.21218833 -0.091181003 0
-0.51765472 -0.11661252 -0.090235643 0
-0.58314645 -0.0064117578 -0.086940877 0
-0.58751065 0.00093171338 -0.060910542 0
-0.58068991 -0.010545339 -0.03209481 0
-0.58191806 -0.0084786676 -0.0055259299 0
-0.58044052 -0.010964897 0.021409662 0
-0.58528668 -0.0028105045 0.047547065 0
-0.58525109 -0.0028703476 0.074291199 0
-0.58492547 -0.0034182931 0.10100314 0
-1.3529031 1.2888324 0.16273695 0
-1.3552127 1.2927186 0.22470553 0
-1.245746 1.1085227 0.27171147 0
-1.2407963 1.100194 0.32798594 0
-1.2356889 1.0915999 0.3840175 0
-1.241558 1.1014755 0.44290885 0
-1.2378457 1.0952291 0.4996402 0
-1.2395453 1.098089 0.55846375 0
-0.48365277 -0.21878079 -0.092513733 0
-0.53964937 -0.12975135 -0.090285592 0
-0.60757208 -0.021760609 -0.086883001 0
-0.61090821 -0.016456511 -0.060541142 0
-0.61161458 -0.01533344 -0.033503044 0
-0.61174822 -0.01512095 -0.0064496454 0
-0.61806148 -0.0050834683 0.019686671 0
-0.61164284 -0.015288498 0.047402531 0
-0.60921031 -0.019155946 0.074323624 0
-0.60332215 -0.02851763 0.1010028 0
-1.2497489 0.99924058 0.26533389 0
-1.2392185 0.98249811 0.31853017 0
-1.2422494 0.98731691 0.37401381 0
-1.2395065 0.98295599 0.42854145 0
-1.2455603 0.99258107 0.48590297 0
-1.2382637 0.98098034 0.53951228 0
-0.4977175 -0.23910871 -0.090508781 0
-0.56154823 -0.14308801 -0.0904162 0
-0.63561505 -0.031669047 -0.088018529 0
-0.63149649 -0.037864592 -0.059586007 0
-0.64182091 -0.022333529 -0.034733299 0
-0.63523191 -0.032245364 -0.00629781 0
-0.6370616 -0.029492941 0.020398313 0
-0.63388878 -0.034265783 0.047581997 0
-0.63536251 -0.032048848 0.074245133 0
-0.6361286 -0.030896392 0.10100325 0
-1.248914 0.89091879 0.25893763 0
-1.2413416 0.87952751 0.31056163 0
-1.2419558 0.88045138 0.36350149 0
-1.2366105 0.8724106 0.41526875 0
-1.2457703 0.88618976 0.47123268 0
-1.2413408 0.87952632 0.52377504 0
-0.51403463 -0.25542405 -0.089601465 0
-0.58748835 -0.15075526 -0.091979779 0
-0.65835077 -0.049778964 -0.087668516 0
-0.66254658 -0.043800022 -0.061358739 0
-0.65987164 -0.047611739 -0.033483673 0
-0.65907019 -0.048753764 -0.0062805247 0
-0.65930635 -0.048417237 0.020613575 0
-0.66160256 -0.045145299 0.047272444 0
-0.66160893 -0.04513618 0.074152164 0
-0.66289264 -0.043306913 0.10100339 0
-1.2932972 0.85499603 0.25861382 0
-1.2448796 0.78600281 0.30353466 0
-1.2416674 0.78142554 0.3539204 0
-1.2483521 0.79095083 0.40674236 0
-1.2414271 0.78108305 0.4565596 0
-1.24043 0.77966231 0.5081405 0
-0.53220004 -0.2689043 -0.089534692 0
-0.60658514 -0.16840032 -0.091386788 0
-0.69788039 -0.045048501 -0.092098318 0
-0.68650395 -0.060419526 -0.061432663 0
-0.68732762 -0.059306648 -0.034251187 0
-0.69053781 -0.054969218 -0.0075274166 0
-0.69019353 -0.055434432 0.019748891 0
-0.68844473 -0.057797279 0.047019567 0
-0.69083691 -0.054565098 0.07393264 0
-0.68622792 -0.060792532 0.10100337 0
-1.342575 0.82601815 0.25898507 0
-1.2491444 0.69978136 0.29723427 0
-1.2442012 0.69310242 0.34571475 0
-1.2392724 0.68644291 0.39407539 0
-1.2407597 0.68845242 0.44413981 0
-1.2368218 0.68313187 0.49298757 0
-0.5573473 -0.27343032 -0.092002816 0
-0.61974794 -0.19342223 -0.089134 0
-0.71223211 -0.074841887 -0.089626379 0
-0.71657169 -0.069277912 -0.062998019 0
-0.72089124 -0.063739449 -0.036212076 0
-0.71871424 -0.066530734 -0.0082593616 0
-0.71335298 -0.073404819 0.019769663 0
-0.71727055 -0.068381816 0.046599988 0
-0.72028643 -0.064514905 0.073702566 0
-0.71062732 -0.076899499 0.10100343 0
-1.393278 0.79837352 0.25959131 0
-1.255972 0.62232405 0.29185945 0
-1.2419826 0.60438734 0.33729744 0
-1.2380505 0.59934562 0.38422069 0
-1.2410887 0.60324138 0.43301687 0
-1.2454284 0.60880548 0.48281759 0
-0.57068783 -0.29327711 -0.090481155 0
-0.64190209 -0.20657173 -0.08980801 0
-0.73495549 -0.093276531 -0.089594759 0
-0.74600768 -0.079820186 -0.064426519 0
-0.74624777 -0.079527825 -0.036623392 0
-0.74615461 -0.079641253 -0.0089045744 0
-0.7428422 -0.083674222 0.019041823 0
-0.74119097 -0.085684687 0.046532977 0
-0.74064732 -0.086346537 0.07380303 0
-0.75623626 -0.06736657 0.10100446 0
-1.4338027 0.75759035 0.25913537 0
-1.2453709 0.5281691 0.28437468 0
-1.2358044 0.51652175 0.32882416 0
-1.249776 0.53353244 0.37802655 0
-1.2448375 0.52751988 0.42368197 0
-1.2449932 0.52770931 0.47083667 0
-0.58654809 -0.3096793 -0.089987479 0
-0.66100973 -0.22354624 -0.089682288 0
-0.75057513 -0.11994204 -0.087897591 0
-0.76922154 -0.098372847 -0.064534999 0
-0.77529001 -0.091353208 -0.037753869 0
-0.76705998 -0.10087326 -0.0086465012 0
-0.77202916 -0.095125169 0.018339077 0
-0.77500635 -0.091681331 0.045731947 0
-0.77606803 -0.090453237 0.073345318 0
-0.77341008 -0.093527764 0.1010042 0
-1.4850835 0.72969633 0.25995508 0
-1.2455885 0.45266202 0.27899459 0
-1.2433056 0.45002118 0.3234427 0
-1.2360218 0.44159558 0.36689544 0
-1.2338644 0.43910018 0.41140205 0
-1.2382469 0.44416955 0.45798054 0
-0.61384684 -0.31335321 -0.093253441 0
-0.68311858 -0.23719534 -0.09052179 0
-0.77939337 -0.13135001 -0.089637406 0
-0.80200648 -0.10648903 -0.066738747 0
-0.80324167 -0.10513106 -0.038716633 0
-0.79950196 -0.10924253 -0.010071261 0
-0.79763311 -0.1112971 0.017997319 0
-0.80745506 -0.10049883 0.045036733 0
-0.80041009 -0.10824409 0.073279291 0
-0.79839593 -0.11045852 0.10100431 0
-1.2526938 0.38900021 0.27498591 0
-1.2409471 0.37608579 0.31679085 0
-1.2410787 0.37623063 0.36049089 0
-1.2409703 0.37611118 0.40442836 0
-1.2439749 0.37941459 0.44956762 0
-0.62162399 -0.33857283 -0.090461068 0
-0.70505881 -0.25136945 -0.091388695 0
-0.80060273 -0.15151009 -0.089592494 0
-0.82713014 -0.12378451 -0.06736999 0
-0.82486576 -0.12615117 -0.038644258 0
-0.83204377 -0.11864892 -0.011501385 0
-0.8285197 -0.12233219 0.0170884 0
-0.83277971 -0.11787978 0.044824142 0
-0.833211 -0.11742899 0.072915182 0
-0.83518922 -0.11536136 0.10100493 0
-1.2482678 0.31637493 0.26974368 0
-1.2424566 0.31030121 0.31128612 0
-1.2410858 0.30886856 0.35356596 0
-1.2506944 0.31891111 0.39864197 0
-1.2273599 0.29452267 0.43573573 0
-0.64103007 -0.3513228 -0.091415785 0
-0.72004569 -0.27280375 -0.09048406 0
-0.82398623 -0.16951647 -0.090171866 0
-0.85170722 -0.14196971 -0.067964979 0
-0.85526145 -0.13843784 -0.040107492 0
-0.85460591 -0.13908926 -0.011614567 0
