# .PCD v0.7 - Point Cloud Data file format
VERSION 0.7
FIELDS x y z intensity
SIZE 4 4 4 4
TYPE F F F F
COUNT 1 1 1 1
WIDTH 1320
HEIGHT 1
VIEWPOINT 0 0 0 1 0 0 0
POINTS 1320
DATA ascii
-0.4776665 -2.2625391 -0.090190537 0
-0.57760161 -2.5283794 -0.091197871 0
-0.72276956 -2.9145453 -0.091011517 0
-0.96405077 -3.5563846 -0.090755321 0
-1.4460024 -4.8384385 -0.090468712 0
-3.6594856 -10.726592 -0.14089456 0
-0.29443422 -1.8396665 -0.090382911 0
-0.33416665 -1.9540417 -0.091393121 0
-0.37962535 -2.0849009 -0.089649849 0
-0.44482696 -2.2725928 -0.089949913 0
-0.53566766 -2.5340905 -0.090158932 0
-0.67257524 -2.9281976 -0.090616725 0
-0.90285909 -3.5911016 -0.091583155 0
-1.3514212 -4.88235 -0.090893932 0
-3.4115238 -10.81264 -0.14081557 0
-0.2717382 -1.84326 -0.089582019 0
-0.30615103 -1.9510198 -0.089184411 0
-0.35287985 -2.0973458 -0.090200327 0
-0.409738 -2.2753906 -0.088763542 0
-0.49827918 -2.5526471 -0.090834759 0
-0.62374121 -2.9455171 -0.090709053 0
-0.82964951 -3.5902953 -0.08991117 0
-1.2515405 -4.9113984 -0.09070655 0
-3.1658621 -10.905876 -0.14106607 0
-0.25130633 -1.8539867 -0.090493791 0
-0.28440666 -1.9674385 -0.09094549 0
-0.32261828 -2.0984092 -0.088914268 0
-0.37980011 -2.2944005 -0.090089388 0
-0.45923355 -2.5666595 -0.091067709 0
-0.5703609 -2.9475496 -0.089434646 0
-0.76654381 -3.6199687 -0.090606205 0
-1.1576927 -4.9606357 -0.09162233 0
-2.9089296 -10.963019 -0.14059129 0
-0.22674692 -1.8500152 -0.08828149 0
-0.2588577 -1.9713849 -0.090372182 0
-0.29702231 -2.1156363 -0.09051501 0
-0.34633207 -2.3020136 -0.08985991 0
-0.41907433 -2.5769591 -0.090969838 0
-0.52401119 -2.9735913 -0.090617381 0
-0.70042169 -3.6403739 -0.090741985 0
-1.0543575 -4.9781532 -0.091118969 0
-2.6591339 -11.043761 -0.14084378 0
-0.20935147 -1.8739685 -0.092319511 0
-0.23757072 -1.9926649 -0.093283318 0
-0.26916784 -2.1255691 -0.090983398 0
-0.31406066 -2.3143983 -0.090443425 0
-0.37763712 -2.5818148 -0.090340696 0
-0.47498718 -2.9912906 -0.09110526 0
-0.63384318 -3.6594739 -0.090903454 0
-0.9483192 -4.9822288 -0.090100594 0
-2.4045544 -11.107473 -0.14083889 0
-0.1849671 -1.8695437 -0.090266488 0
-0.20927545 -1.9846201 -0.090637483 0
-0.23696004 -2.1156797 -0.088238008 0
-0.27967498 -2.3178933 -0.089864321 0
-0.33744791 -2.5913918 -0.090404145 0
-0.42513302 -3.0064955 -0.091470949 0
-0.56547016 -3.6708553 -0.090632953 0
-0.84819925 -5.0093021 -0.090309627 0
-2.1477695 -11.161502 -0.14075704 0
-0.16438007 -1.8830451 -0.092231505 0
-0.1851293 -1.9951962 -0.091707878 0
-0.21107292 -2.1354234 -0.090594523 0
-0.24551515 -2.3215864 -0.089440562 0
-0.2978189 -2.6042919 -0.090983145 0
-0.37018797 -2.9954524 -0.089463107 0
-0.49820906 -3.6874161 -0.09085495 0
-0.94436711 -6.0989337 -0.14094412 0
-1.8918083 -11.219926 -0.14093314 0
-0.14145175 -1.8848861 -0.091791041 0
-0.16022703 -2.0029478 -0.092351772 0
-0.18068217 -2.1315722 -0.089124002 0
-0.21227928 -2.3302593 -0.089850076 0
-0.2565068 -2.6083677 -0.090634175 0
-0.31867179 -2.9992697 -0.088999145 0
-0.43003225 -3.6995192 -0.090880953 0
-0.8152709 -6.1219511 -0.14098147 0
-1.6301901 -11.246274 -0.14050579 0
-0.11822359 -1.8837962 -0.090847842 0
-0.1348847 -2.0088272 -0.092757471 0
-0.15219077 -2.1386983 -0.08960589 0
-0.17845653 -2.3358061 -0.089934193 0
-0.216004 -2.6175759 -0.091014676 0
-0.26910213 -3.0160434 -0.089879476 0
-0.3627533 -3.7188361 -0.0915372 0
-0.68488538 -6.1362319 -0.14076166 0
-1.3751177 -11.315986 -0.1412522 0
-0.095486261 -1.8853098 -0.090589337 0
-0.10713642 -1.9935277 -0.089271225 0
-0.12281889 -2.1392014 -0.089110695 0
-0.14325435 -2.3290255 -0.088396452 0
-0.17528269 -2.6265354 -0.09148524 0
-0.21748747 -3.0185738 -0.089537866 0
-0.29292142 -3.719276 -0.090983965 0
-0.55439907 -6.1481304 -0.14058524 0
-1.1122199 -11.329704 -0.14083795 0
-0.072635412 -1.8848698 -0.090037279 0
-0.082741752 -2.0078294 -0.091518991 0
-0.093849666 -2.1429746 -0.089278243 0
-0.11012857 -2.3410332 -0.089636661 0
-0.13299805 -2.6192765 -0.090173639 0
-0.1662405 -3.0237234 -0.08956445 0
-0.22324347 -3.7172544 -0.090382971 0
-0.42463678 -6.167521 -0.14091317 0
-0.85014617 -11.344514 -0.140605 0
-0.050119475 -1.8882682 -0.090426095 0
-0.057318084 -2.0149252 -0.092520319 0
-0.065081999 -2.1515284 -0.090352945 0
-0.076066993 -2.3448055 -0.08983364 0
-0.081365488 -2.4380307 -0.068621688 0
-0.080572762 -2.424083 -0.033169571 0
-0.080872029 -2.4293485 0.00013442547 0
-0.080899604 -2.4298337 0.033798266 0
-0.081022449 -2.4319949 0.067372784 0
-0.081682637 -2.4436109 0.10101198 0
-0.027395321 -1.8884521 -0.090251885 0
-0.031056408 -2.0044882 -0.090337925 0
-0.035941094 -2.159306 -0.091418631 0
-0.04101707 -2.3201866 -0.086159475 0
-0.040733714 -2.3112059 -0.053602878 0
-0.040812742 -2.3137105 -0.022712773 0
-0.040857427 -2.3151269 0.0082359407 0
-0.040901095 -2.3165109 0.039151449 0
-0.040613249 -2.3073876 0.070308842 0
-0.040720336 -2.3107817 0.10100814 0
-0.0047525498 -1.8972745 -0.092035942 0
-0.0054666144 -2.0104892 -0.091376863 0
-0.0063149654 -2.144995 -0.088974677 0
-0.0066603618 -2.1997573 -0.069145299 0
-0.0067194747 -2.2091298 -0.041598875 0
-0.0066946596 -2.2051954 -0.01252467 0
-0.0067363353 -2.211803 0.015503669 0
-0.006766079 -2.2165189 0.043836154 0
-0.0067087272 -2.2074258 0.072647691 0
-0.0067615118 -2.2157948 0.10100541 0
0.018107712 -1.8944442 -0.091464959 0
0.020090496 -1.9991937 -0.08927957 0
0.023016088 -2.1537509 -0.090444244 0
0.023721807 -2.1910338 -0.067946203 0
0.023868386 -2.1987774 -0.040411461 0
0.023855258 -2.1980839 -0.011878846 0
0.023805935 -2.1954782 0.016631523 0
0.023802994 -2.1953228 0.044814005 0
0.023867432 -2.1987271 0.072845459 0
0.023906011 -2.2007651 0.10100499 0
0.040704753 -1.8883973 -0.090331651 0
0.045600962 -1.9991989 -0.089432128 0
0.052373078 -2.1524525 -0.090383105 0
0.054601982 -2.2028928 -0.069748975 0
0.054631308 -2.2035565 -0.041083146 0
0.054963764 -2.2110801 -0.013182973 0
0.054685663 -2.2047865 0.015912967 0
0.05416837 -2.1930802 0.044873785 0
0.054078996 -2.1910577 0.073001549 0
0.054568857 -2.2021432 0.10100506 0
0.062925093 -1.8806012 -0.088945068 0
0.072358578 -2.016324 -0.092938744 0
0.081366345 -2.1459219 -0.08958187 0
0.085533172 -2.2058716 -0.070413657 0
0.085251108 -2.2018135 -0.041082833 0
0.084830396 -2.1957605 -0.011913447 0
0.085513741 -2.2055919 0.015734436 0
0.085096017 -2.1995821 0.044489842 0
0.084947944 -2.1974516 0.072812386 0
0.085128285 -2.2000463 0.10100505 0
0.086884387 -1.8944577 -0.092298009 0
0.097882316 -2.0103338 -0.092208035 0
0.1107635 -2.1460524 -0.089999072 0
0.11643922 -2.205853 -0.070766874 0
0.11548304 -2.1957784 -0.040669281 0
0.11594112 -2.2006049 -0.012602052 0
0.11616257 -2.2029381 0.015743831 0
0.11584113 -2.1995513 0.044374004 0
0.11650048 -2.2064984 0.07254263 0
0.11619098 -2.2032375 0.10100521 0
0.10888475 -1.8852725 -0.090857245 0
0.12289315 -2.0015841 -0.091073625 0
0.1387658 -2.1333745 -0.088419877 0
0.14676477 -2.19979 -0.070375852 0
0.14513549 -2.1862619 -0.039934356 0
0.14620101 -2.1951089 -0.0123943 0
0.14762489 -2.2069316 0.015230777 0
0.14676848 -2.1998208 0.044207409 0
0.14732474 -2.2044394 0.072513513 0
0.14704672 -2.2021308 0.10100527 0
0.13120048 -1.88051 -0.09048032 0
0.14990367 -2.0085073 -0.093038343 0
0.16911948 -2.1400127 -0.090160437 0
0.17802535 -2.2009611 -0.071119361 0
0.17746559 -2.1971304 -0.041692693 0
0.17800967 -2.2008538 -0.01331809 0
0.17717706 -2.1951556 0.015773946 0
0.17814621 -2.2017882 0.043923631 0
0.17773181 -2.1989522 0.072546594 0
0.17919976 -2.2089982 0.10100558 0
0.15414684 -1.8798565 -0.091109239 0
0.17435455 -1.9973466 -0.091685511 0
0.19806325 -2.1351919 -0.090125062 0
0.20793843 -2.1926072 -0.070620127 0
0.20920587 -2.1999762 -0.042603884 0
0.21004063 -2.2048297 -0.014154246 0
0.20780478 -2.1918302 0.015667247 0
0.20777401 -2.1916513 0.044173084 0
0.21029587 -2.2063138 0.072258621 0
0.20823908 -2.1943552 0.10100531 0
0.17694426 -1.8776083 -0.091520958 0
0.19866049 -1.9872341 -0.090645395 0
0.22556616 -2.1230569 -0.088986196 0
0.23986678 -2.1952481 -0.071801461 0
0.24050607 -2.1984751 -0.043096934 0
0.24086568 -2.2002904 -0.014261065 0
0.24221957 -2.2071252 0.014178017 0
0.24103186 -2.2011294 0.043457463 0
0.24050316 -2.1984606 0.072310396 0
0.23992752 -2.1955547 0.1010055 0
0.19802284 -1.8671896 -0.090280108 0
0.22488733 -1.9868772 -0.091600649 0
0.25554866 -2.1234806 -0.090072848 0
0.27148509 -2.1944811 -0.072614454 0
0.27264857 -2.1996646 -0.044009421 0
0.27173734 -2.195605 -0.014428733 0
0.27276376 -2.2001779 0.014211887 0
0.2718918 -2.1962931 0.043380823 0
0.27342772 -2.203136 0.072045803 0
0.27078059 -2.1913424 0.10100557 0
0.22126865 -1.8665512 -0.091291048 0
0.2488101 -1.976227 -0.090691201 0
0.283593 -2.1147399 -0.089741312 0
0.30455354 -2.1982093 -0.074199207 0
0.30638221 -2.2054913 -0.045583967 0
0.30390382 -2.195622 -0.015124796 0
0.30714759 -2.2085392 0.013087118 0
0.30478624 -2.1991358 0.042897817 0
0.30494928 -2.1997852 0.071952075 0
0.30594888 -2.2037659 0.10100614 0
0.24107325 -1.8525898 -0.089498691 0
0.27468213 -1.9734337 -0.091429032 0
0.3121672 -2.1082146 -0.089905731 0
0.33630204 -2.1949935 -0.07490357 0
0.33554602 -2.1922753 -0.044962484 0
0.33794084 -2.200886 -0.016412495 0
0.33688369 -2.1970849 0.01332956 0
0.33753917 -2.1994417 0.042494014 0
0.33881682 -2.2040358 0.071655102 0
0.33786401 -2.2006099 0.10100629 0
0.26302704 -1.8470702 -0.089679413 0
0.29836947 -1.9627566 -0.090748034 0
0.33818904 -2.0930982 -0.088718481 0
0.37151709 -2.2021909 -0.077260859 0
0.37096545 -2.2003851 -0.047031973 0
0.37278113 -2.2063284 -0.017811095 0
0.36922425 -2.1946857 0.012857297 0
0.37023884 -2.1980066 0.042131744 0
0.37223783 -2.20455 0.071425967 0
0.37209612 -2.2040863 0.10100666 0
0.284688 -1.8404907 -0.089747854 0
0.32572383 -1.9636065 -0.092468016 0
0.3697443 -2.0956767 -0.090700068 0
0.42687592 -2.2670832 -0.088315852 0
0.52076757 -2.5487771 -0.091149472 0
0.64902353 -2.9335709 -0.090324633 0
0.86286122 -3.5751269 -0.08958108 0
1.3040217 -4.8986969 -0.090874188 0
3.2885327 -10.85263 -0.14075986 0
0.3083818 -1.8394431 -0.091190316 0
0.34940162 -1.9528854 -0.092023946 0
0.39822346 -2.0879045 -0.091029383 0
0.46031573 -2.2596238 -0.088867776 0
0.55884933 -2.5321233 -0.09077137 0
0.70087814 -2.9249108 -0.091149442 0
0.93661112 -3.5768421 -0.091386385 0
1.4011981 -4.86168 -0.090730868 0
3.5377128 -10.770316 -0.1408532 0
0.33042002 -1.8331733 -0.091591246 0
0.37440872 -1.9458511 -0.092441209 0
0.42788431 -2.0828297 -0.091964103 0
0.49590418 -2.2570636 -0.090291031 0
0.59911901 -2.5214503 -0.091259904 0
0.74610239 -2.8979506 -0.090279214 0
0.99601668 -3.5381105 -0.090313129 0
1.5017476 -4.8335485 -0.091152199 0
3.7815235 -10.673233 -0.14073503 0
0.35356295 -1.8292518 -0.092665382 0
0.39475557 -1.9273834 -0.090655662 0
0.45010626 -2.0592434 -0.089741983 0
0.52613121 -2.240355 -0.08970917 0
0.631001 -2.4901824 -0.089271374 0
0.79343861 -2.877152 -0.090138428 0
1.0615361 -3.5158305 -0.09058892 0
1.593701 -4.7835879 -0.090603329 0
4.0289035 -10.584884 -0.14099023 0
0.37397069 -1.818592 -0.09231662 0
0.42016321 -1.9212939 -0.0915116 0
0.47711965 -2.0479276 -0.089806266 0
0.55605644 -2.2234313 -0.089204483 0
0.67173505 -2.4806247 -0.090144865 0
0.84167385 -2.8584571 -0.090332977 0
1.128269 -3.4956565 -0.091155343 0
1.6894932 -4.7434511 -0.090667509 0
4.2694168 -10.479509 -0.14097261 0
0.38990515 -1.7987791 -0.089925908 0
0.44318295 -1.9096668 -0.091354094 0
0.51179695 -2.052474 -0.092887245 0
0.58635056 -2.2076435 -0.08898782 0
0.70919102 -2.4633129 -0.090156145 0
0.89107728 -2.8418748 -0.090874009 0
1.1834546 -3.4504035 -0.08991342 0
1.7882277 -4.709125 -0.091156714 0
4.5023375 -10.358035 -0.14069517 0
0.41585401 -1.7997425 -0.092560805 0
0.47033134 -1.9061617 -0.093035273 0
0.53259355 -2.0277882 -0.090771563 0
0.61704361 -2.1927578 -0.089030735 0
0.74732006 -2.4472473 -0.090454556 0
0.93825758 -2.8202357 -0.091021724 0
1.25021 -3.4296217 -0.090685971 0
1.876009 -4.6520934 -0.090594329 0
4.73945 -10.245705 -0.14080553 0
0.4323267 -1.7819535 -0.090851538 0
0.49078667 -1.8893806 -0.092038818 0
0.56106031 -2.0185165 -0.091608368 0
0.64603168 -2.1746614 -0.088683687 0
0.77967894 -2.4202542 -0.089430265 0
0.98679918 -2.8008621 -0.091537945 0
1.3063303 -3.3880382 -0.089946814 0
1.9710571 -4.6095519 -0.090908818 0
4.9746785 -10.129062 -0.14096065 0
0.45270514 -1.7717117 -0.091070957 0
0.50563282 -1.863385 -0.089135207 0
0.58891517 -2.0076339 -0.092287086 0
0.68045735 -2.1661892 -0.090011187 0
0.81752563 -2.4035978 -0.08989542 0
1.0284535 -2.7689347 -0.090839826 0
1.3723304 -3.3645461 -0.090770759 0
2.601392 -5.4933386 -0.14115232 0
5.2043777 -10.001833 -0.14099213 0
0.47485486 -1.7642388 -0.092110895 0
0.53143853 -1.8567712 -0.090547629 0
0.61009198 -1.9853948 -0.090923063 0
0.7078495 -2.1452596 -0.089449309 0
0.85525829 -2.3863201 -0.09041255 0
1.075444 -2.7463942 -0.091272004 0
1.4255077 -3.3188603 -0.089924358 0
2.7159591 -5.4291611 -0.14130881 0
5.4200606 -9.8512325 -0.14054398 0
0.48823124 -1.7427188 -0.089752413 0
0.55284101 -1.8426224 -0.090438046 0
0.63349861 -1.96734 -0.090459369 0
0.73875475 -2.1300933 -0.089957587 0
0.88506931 -2.356334 -0.089300878 0
1.1178601 -2.716289 -0.09100125 0
1.4954793 -3.3001869 -0.091423847 0
2.8213017 -5.3502541 -0.14081028 0
5.6475348 -9.7203474 -0.14078391 0
0.51053101 -1.7352283 -0.091050707 0
0.57805151 -1.834071 -0.091725565 0
0.65935725 -1.9530938 -0.090862297 0
0.76510197 -2.1078928 -0.089409105 0
0.92662627 -2.3443468 -0.090823077 0
1.1565969 -2.6809988 -0.090259679 0
1.5441508 -3.2483358 -0.090288706 0
2.9380429 -5.2888432 -0.14143817 0
5.873281 -9.5857143 -0.14108278 0
0.53028107 -1.7236487 -0.09144751 0
0.59760612 -1.817055 -0.091217823 0
0.6817227 -1.9337578 -0.09037251 0
0.80331892 -2.1024594 -0.091869481 0
0.95495808 -2.3128424 -0.089711182 0
1.1996237 -2.6522896 -0.090373211 0
1.6073759 -3.2180018 -0.091091968 0
3.0396729 -5.2051601 -0.14096707 0
6.0843244 -9.429287 -0.14092439 0
0.54503131 -1.7053093 -0.090179272 0
0.62112737 -1.805457 -0.092097603 0
0.70838445 -1.9202935 -0.091200702 0
0.83183736 -2.0827661 -0.092029192 0
0.98518264 -2.284579 -0.089157499 0
1.2388973 -2.618485 -0.090017773 0
1.6558211 -3.1671858 -0.09025123 0
3.1444163 -5.1262808 -0.14091632 0
6.2908854 -9.2672529 -0.14075331 0
0.56694096 -1.6963729 -0.091545694 0
0.63212568 -1.7778102 -0.089265265 0
0.73517525 -1.9065534 -0.092128031 0
0.86034441 -2.0629313 -0.092295058 0
1.0203764 -2.2628644 -0.089685984 0
1.2861643 -2.5949216 -0.090996884 0
1.7116561 -3.1265023 -0.090409122 0
3.2506156 -5.0491743 -0.14112638 0
6.5028801 -9.1123333 -0.14094441 0
0.58057547 -1.6770908 -0.090217777 0
0.66072893 -1.7722069 -0.091869317 0
0.74611688 -1.8735346 -0.089075617 0
0.87875414 -2.0309319 -0.090461902 0
1.0514632 -2.2358816 -0.089555018 0
1.321642 -2.5564959 -0.090327002 0
1.7620343 -3.0790987 -0.090083547 0
3.3459513 -4.9586935 -0.14068826 0
6.7044253 -8.9441118 -0.14089616 0
0.60490042 -1.6703171 -0.092510246 0
0.67668462 -1.7512653 -0.090850748 0
0.77672464 -1.8640766 -0.091189735 0
0.90772325 -2.0117989 -0.091090329 0
1.0789024 -2.2048309 -0.088906936 0
1.3578844 -2.5194285 -0.089921929 0
1.8237642 -3.0447834 -0.091091134 0
3.4538438 -4.8829627 -0.1413061 0
6.9030714 -8.7725258 -0.14089869 0
0.62115377 -1.6540723 -0.092280485 0
0.69569147 -1.7339703 -0.090849824 0
0.8009252 -1.846772 -0.091762163 0
0.92966419 -1.9847692 -0.090355001 0
1.1093686 -2.177397 -0.088930927 0
1.4010024 -2.4900038 -0.090598308 0
1.8669349 -2.989444 -0.090259887 0
3.5407386 -4.7836199 -0.14060678 0
7.0999689 -8.5988131 -0.14099129 0
0.62625384 -1.6265181 -0.088797741 0
0.70877725 -1.7106181 -0.089375578 0
0.80723715 -1.8109591 -0.088226222 0
0.96116763 -1.9678305 -0.091695823 0
1.1448509 -2.1550229 -0.089908473 0
1.4378469 -2.4536169 -0.090521805 0
1.9149272 -2.9398119 -0.090072297 0
3.643445 -4.7013535 -0.1411451 0
7.290895 -8.4184885 -0.14103079 0
0.64782459 -1.6160541 -0.090482436 0
0.72786409 -1.6936078 -0.089667313 0
0.83657312 -1.7989408 -0.090254091 0
0.98192739 -1.939781 -0.090986662 0
1.1690651 -2.1211069 -0.089121811 0
1.4788454 -2.4212663 -0.091107897 0
1.9588976 -2.88641 -0.089621209 0
3.7363183 -4.6086311 -0.14116934 0
7.4691954 -8.2255793 -0.14080985 0
0.66869658 -1.604383 -0.09200377 0
0.75788856 -1.6865447 -0.09286464 0
0.86421502 -1.7844901 -0.091925465 0
1.0064392 -1.9155037 -0.091147594 0
1.2170279 -2.1094933 -0.092264555 0
1.5095437 -2.378952 -0.090478264 0
2.5610123 -3.3475411 -0.14236194 0
3.8175948 -4.5050764 -0.14060892 0
7.6453962 -8.0311604 -0.1406834 0
0.67799807 -1.5820818 -0.090307139 0
0.76355708 -1.6569957 -0.089939855 0
0.88024658 -1.7591668 -0.091104694 0
1.0216324 -1.8829615 -0.089680173 0
1.2234626 -2.0596802 -0.088933729 0
1.5374949 -2.334641 -0.0896556 0
2.6015072 -3.2662706 -0.14067163 0
3.9130309 -4.4146161 -0.14110051 0
7.8216696 -7.8369474 -0.14071535 0
0.69758183 -1.5688399 -0.091646142 0
0.7852366 -1.641765 -0.091183417 0
0.9071548 -1.7431957 -0.092764474 0
1.0563344 -1.8673066 -0.091961436 0
1.2622187 -2.0385935 -0.090779133 0
1.5596503 -2.2860439 -0.088283576 0
2.654063 -3.1965485 -0.14030181 0
3.9936767 -4.3110495 -0.14082599 0
7.9970555 -7.6416888 -0.14086968 0
0.71180636 -1.5509402 -0.091598399 0
0.80468911 -1.6243293 -0.091961093 0
0.91245496 -1.709478 -0.089950748 0
1.0632046 -1.8285893 -0.089284308 0
1.2792426 -1.9992869 -0.089431204 0
1.6039212 -2.2558241 -0.089716904 0
2.7188804 -3.1367838 -0.14119019 0
4.0768137 -4.2097235 -0.14086139 0
8.1650209 -7.4399266 -0.14094861 0
0.72514474 -1.5323716 -0.091437332 0
0.82350075 -1.606132 -0.092677958 0
0.93443501 -1.6893253 -0.090792857 0
1.086651 -1.803477 -0.089742474 0
1.3066605 -1.9684695 -0.089773305 0
1.6284117 -2.2097611 -0.088905446 0
2.7742915 -3.0690944 -0.14137307 0
4.1500115 -4.1007924 -0.14046808 0
8.3313837 -7.2365403 -0.14112896 0
0.74142385 -1.5159239 -0.09216956 0
0.82775211 -1.5773233 -0.090123914 0
0.94972503 -1.6640743 -0.090374298 0
1.1209086 -1.7858255 -0.092167296 0
1.3280123 -1.9331243 -0.089351915 0
1.6725142 -2.1781449 -0.090489201 0
2.8110991 -2.9879432 -0.14010471 0
4.2344909 -4.0003052 -0.14088477 0
8.4727535 -7.0146928 -0.14074087 0
0.75054538 -1.4944254 -0.091162167 0
0.8457253 -1.5585668 -0.090896107 0
0.96201581 -1.6369345 -0.08949583 0
1.1301665 -1.7502506 -0.090390794 0
1.3516686 -1.8995199 -0.089389242 0
1.6877602 -2.1260107 -0.088888906 0
2.8675239 -2.9210489 -0.14068568 0
4.3042011 -3.88922 -0.14060897 0
8.6296911 -6.8041501 -0.14095417 0
0.76766455 -1.4782943 -0.092325129 0
0.85932964 -1.536759 -0.090786614 0
0.98338395 -1.615882 -0.090535499 0
1.1613445 -1.7293868 -0.092447318 0
1.3612938 -1.8569163 -0.087599538 0
1.7320765 -2.0934048 -0.09067937 0
2.9169774 -2.8491452 -0.1408205 0
4.3775558 -3.7807152 -0.14069493 0
8.775197 -6.5855689 -0.14099659 0
0.78199416 -1.460142 -0.092880033 0
0.86916441 -1.512694 -0.089971744 0
1.0040497 -1.5940115 -0.091527455 0
1.1627569 -1.6896906 -0.089675464 0
1.4015697 -1.8336625 -0.090167604 0
1.7722381 -2.0571256 -0.092080437 0
2.9650466 -2.7762284 -0.14098962 0
4.4459414 -3.6690083 -0.14065951 0
8.9081192 -6.3590994 -0.14084771 0
0.79596466 -1.4416171 -0.093452089 0
0.88476628 -1.4921426 -0.090550862 0
1.019743 -1.56894 -0.091670208 0
1.1790695 -1.6595919 -0.089515515 0
1.4106736 -1.7913674 -0.088587023 0
1.7902714 -2.0073466 -0.091184221 0
3.0086176 -2.7005479 -0.14094365 0
4.5105906 -3.5551238 -0.14057663 0
9.0358133 -6.1298342 -0.14071515 0
0.79424167 -1.4145093 -0.090345167 0
0.90382427 -1.4732491 -0.091972388 0
1.0313237 -1.541593 -0.091163002 0
1.2065548 -1.6355225 -0.091261186 0
1.4452989 -1.7634971 -0.090554483 0
1.8102396 -1.9591171 -0.090638943 0
3.0427454 -2.6197801 -0.14030182 0
4.5740457 -3.4406064 -0.14058466 0
9.1685791 -5.9034243 -0.14087187 0
0.81175065 -1.3979034 -0.092019208 0
0.91233784 -1.4485968 -0.091253228 0
1.0439633 -1.5149329 -0.090984948 0
1.2155887 -1.6014277 -0.090177305 0
1.4577233 -1.7234576 -0.089684181 0
1.8380204 -1.9151177 -0.091045253 0
3.0856354 -2.5438848 -0.14051473 0
4.6413112 -3.3279066 -0.14094295 0
9.2947779 -5.6731372 -0.1410054 0
0.82699734 -1.3797725 -0.093240671 0
0.90959895 -1.4188203 -0.088328727 0
1.0523038 -1.4862801 -0.090150543 0
1.2270917 -1.5689063 -0.089624681 0
1.4974558 -1.6967138 -0.092485882 0
1.8623034 -1.8691856 -0.091200985 0
3.1294556 -2.4681978 -0.14094609 0
4.6994638 -3.210377 -0.14097507 0
9.4009876 -5.4328952 -0.1407737 0
0.81843323 -1.3507793 -0.089021511 0
0.9309485 -1.4005345 -0.090553217 0
1.0599949 -1.4575999 -0.089339443 0
1.2388651 -1.5366976 -0.089246593 0
1.4888247 -1.6472318 -0.089162864 0
1.8783158 -1.8194679 -0.090629898 0
3.1599576 -2.3862205 -0.1405015 0
4.7495861 -3.0891671 -0.14074999 0
9.5137491 -5.1959181 -0.14086619 0
0.82671463 -1.3298001 -0.088888384 0
0.94179481 -1.3772554 -0.090709351 0
1.078357 -1.4335691 -0.090563126 0
1.2454515 -1.5024732 -0.088208161 0
1.5266857 -1.6184449 -0.091910519 0
1.9053438 -1.7745908 -0.091304295 0
3.2062485 -2.3110406 -0.14141278 0
4.808404 -2.9717162 -0.14112 0
9.6158209 -4.9541345 -0.14084008 0
0.8392818 -1.3104815 -0.089853235 0
0.95154339 -1.3534935 -0.090761669 0
1.0861828 -1.4050792 -0.090027951 0
1.2588154 -1.4712217 -0.088330381 0
1.5190002 -1.5709089 -0.089022614 0
1.9219978 -1.7253134 -0.091049053 0
3.2251067 -2.2245867 -0.14040433 0
4.8545909 -2.8489072 -0.14100528 0
9.7093287 -4.7089515 -0.14075375 0
0.86264962 -1.2947332 -0.093355753 0
0.95997649 -1.3292331 -0.090671055 0
1.0929524 -1.3763694 -0.08943934 0
1.2828321 -1.4436767 -0.090158023 0
1.5521957 -1.5391588 -0.091379099 0
1.9411781 -1.6770427 -0.091170006 0
3.2715518 -2.1486247 -0.1416136 0
4.8970828 -2.7248318 -0.14086288 0
9.7985859 -4.4622836 -0.14071669 0
0.85773128 -1.2688649 -0.090594254 0
0.97546035 -1.3072816 -0.092099972 0
1.0944004 -1.3460935 -0.088061355 0
1.2875979 -1.4091368 -0.089228086 0
1.5691249 -1.5010033 -0.091815449 0
1.9590015 -1.6282257 -0.091276877 0
3.2913322 -2.0629849 -0.14099371 0
4.9226527 -2.5953093 -0.14004701 0
9.8975992 -4.2187076 -0.14107142 0
0.85148644 -1.2432693 -0.087704606 0
0.96659708 -1.2776432 -0.08884158 0
1.1074903 -1.3197162 -0.088822164 0
1.2975852 -1.3764818 -0.089199312 0
1.5506659 -1.4520558 -0.088050045 0
1.9686261 -1.5768656 -0.090704761 0
3.3159268 -1.9791918 -0.14088805 0
4.9788136 -2.4757571 -0.14088298 0
9.9707108 -3.9664199 -0.14094479 0
0.86774933 -1.2244766 -0.089934744 0
0.99007529 -1.2576675 -0.092063732 0
1.1229725 -1.2937269 -0.090098955 0
1.3118254 -1.3449688 -0.08991047 0
1.5839446 -1.4188036 -0.090725861 0
1.966507 -1.5226053 -0.089126594 0
3.3371274 -1.8944991 -0.140691 0
5.0179496 -2.3505607 -0.1410381 0
10.046915 -3.7150824 -0.14104746 0
0.88460886 -1.2052701 -0.092385851 0
0.99096799 -1.2312663 -0.090984948 0
1.131536 -1.2656238 -0.090308659 0
1.3176192 -1.3111062 -0.089510746 0
1.5750355 -1.3740238 -0.088410772 0
1.982522 -1.4736215 -0.089432605 0
3.3569961 -1.8095701 -0.14055365 0
5.0494399 -2.2232366 -0.1409778 0
10.108632 -3.4598024 -0.14095511 0
0.8822391 -1.1812643 -0.090746038 0
1.0043157 -1.2078571 -0.09244182 0
1.1418554 -1.2378182 -0.090932228 0
1.3310081 -1.2790227 -0.090328909 0
1.6091864 -1.3396201 -0.091394521 0
1.9869288 -1.4219064 -0.088746481 0
3.3792558 -1.7252065 -0.14074196 0
5.070786 -2.093684 -0.14058802 0
10.167629 -3.203964 -0.14095229 0
0.88638633 -1.1588883 -0.09065602 0
1.0066259 -1.1819196 -0.091888539 0
1.1451318 -1.2084497 -0.090491973 0
1.3433918 -1.2464253 -0.091115467 0
1.6076837 -1.297049 -0.090224795 0
2.5429685 -1.476198 -0.14061368 0
3.4012656 -1.6406002 -0.1410635 0
5.1050901 -1.9669588 -0.14096975 0
10.227557 -2.9481401 -0.14112478 0
0.89075571 -1.1365561 -0.090736218 0
0.99588895 -1.1539563 -0.088971965 0
1.1350342 -1.1769856 -0.087949373 0
1.3492353 -1.212437 -0.091084577 0
1.6294595 -1.2588158 -0.091945164 0
2.5537159 -1.4117854 -0.14054474 0
3.4185612 -1.5549221 -0.14120132 0
5.1227055 -1.8369673 -0.14071365 0
10.259768 -2.6871798 -0.14079586 0
0.90165228 -1.1151018 -0.092338227 0
1.0079331 -1.1299474 -0.090532638 0
1.1512438 -1.1499655 -0.089913331 0
1.335463 -1.1756978 -0.088392295 0
1.6304251 -1.216899 -0.091317795 0
2.5687523 -1.3479675 -0.1410338 0
3.4131906 -1.4659213 -0.13989164 0
5.1396976 -1.707085 -0.14058366 0
10.298415 -2.4276707 -0.14077413 0
0.89759487 -1.0915447 -0.090852417 0
1.0210869 -1.105628 -0.092414238 0
1.162784 -1.1217874 -0.091212265 0
1.3511642 -1.1432707 -0.090007998 0
1.6283691 -1.1748837 -0.09046144 0
2.5706134 -1.2823392 -0.14043526 0
3.4444079 -1.3819884 -0.14131843 0
5.1627779 -1.5779549 -0.14089319 0
10.3289 -2.16711 -0.14071496 0
0.90139002 -1.0690225 -0.091172658 0
1.014869 -1.0790708 -0.09074486 0
1.1111555 -1.0875968 -0.082203306 0
1.1368909 -1.0898757 -0.059289876 0
1.6281539 -1.1333761 -0.089947559 0
2.5857966 -1.2181735 -0.14124182 0
3.4466455 -1.2944001 -0.14085703 0
5.1734819 -1.4473083 -0.14077613 0
10.349441 -1.9056298 -0.14057748 0
0.91091043 -1.0467712 -0.09283296 0
1.0196673 -1.0536411 -0.091283865 0
1.1251056 -1.0603014 -0.084150352 0
1.1372895 -1.061071 -0.059039567 0
1.6420085 -1.0929531 -0.091204964 0
2.584384 -1.1524811 -0.14064656 0
3.4579625 -1.2076632 -0.14118735 0
5.174149 -1.3160713 -0.14034498 0
10.378712 -1.6448327 -0.14079753 0
0.89615726 -1.0231917 -0.089447893 0
1.0209141 -1.027916 -0.091273956 0
1.1306289 -1.0320708 -0.084822945 0
1.1375948 -1.0323346 -0.058878679 0
1.6407027 -1.0513865 -0.090807445 0
2.5987234 -1.0876654 -0.1416782 0
3.4538019 -1.120046 -0.14058782 0
5.2070704 -1.1864398 -0.14157131 0
10.381222 -1.3823774 -0.14054796 0
0.89865583 -1.0006188 -0.089857779 0
1.0260535 -1.0022262 -0.092119657 0
1.1276141 -1.0035077 -0.084209122 0
1.1240944 -1.0034633 -0.056879479 0
1.1263527 -1.0034918 -0.030566772 0
1.1291459 -1.003527 -0.0043419059 0
1.1353048 -1.0036048 0.02166369 0
1.1342328 -1.0035912 0.048207745 0
1.1316376 -1.0035585 0.074679881 0
1.1282419 -1.0035156 0.10100258 0
1.1309339 -1.0035496 0.12730911 0
1.134022 -1.0035886 0.15378807 0
1.1290085 -1.0035254 0.17990163 0
1.1381212 -1.0036403 0.20718604 0
1.1314662 -1.0035564 0.23317067 0
1.1314682 -1.0035564 0.25992244 0
1.1335847 -1.0035831 0.28719768 0
1.1276984 -1.0035088 0.31327349 0
0.89704633 -0.97798616 -0.089515634 0
1.0291983 -0.97631872 -0.092712022 0
1.1424247 -0.97489011 -0.08664345 0
1.1372519 -0.97495538 -0.058728699 0
1.6413138 -0.96859539 -0.090756752 0
2.5951378 -0.95656049 -0.14118898 0
3.47157 -0.9455021 -0.14167628 0
5.1930833 -0.92378092 -0.14076567 0
10.403197 -0.85804236 -0.14090517 0
0.89589655 -0.95540291 -0.089392431 0
1.0148102 -0.95089984 -0.090123452 0
1.1233088 -0.94679117 -0.083619021 0
1.1309154 -0.9465031 -0.05793931 0
1.6407609 -0.92719597 -0.090814255 0
2.5948763 -0.891065 -0.14131886 0
3.4632945 -0.85817921 -0.14125192 0
5.1839156 -0.7930218 -0.14049259 0
10.388927 -0.59591544 -0.14072724 0
0.90195268 -0.93237936 -0.09092509 0
1.0119731 -0.92542964 -0.089831762 0
1.133287 -0.91776645 -0.08549764 0
1.1333622 -0.91776174 -0.05848654 0
1.6343162 -0.88611746 -0.090304144 0
2.5836487 -0.82615006 -0.14057779 0
3.4461112 -0.7716701 -0.1403572 0
5.1844196 -0.6618647 -0.14082406 0
10.376046 -0.33392027 -0.14073546 0
0.90441656 -0.90929419 -0.091818504 0
1.009289 -0.90000796 -0.089689769 0
1.1540043 -0.88719368 -0.089273117 0
1.3610522 -0.86886001 -0.090915568 0
1.6377006 -0.84436327 -0.091067664 0
2.586561 -0.76034343 -0.14131346 0
3.4513631 -0.68376684 -0.14118811 0
5.1751704 -0.53112686 -0.14085503 0
10.36028 -0.071995109 -0.14083049 0
0.89746135 -0.88705516 -0.090823866 0
1.0122874 -0.8739602 -0.090746067 0
1.1579223 -0.85735166 -0.09040805 0
1.3553219 -0.83483982 -0.090596072 0
1.6401676 -0.80235541 -0.091849305 0
2.5701656 -0.69629657 -0.14039321 0
3.4458308 -0.59643394 -0.14141855 0
5.1549292 -0.40152493 -0.14052543 0
10.339561 0.18974093 -0.14096442 0
0.89397126 -0.86455578 -0.090689681 0
1.0066265 -0.84881973 -0.090284131 0
1.1445532 -0.82955372 -0.088803045 0
1.350587 -0.80077428 -0.090538375 0
1.6227615 -0.76275611 -0.090413429 0
2.5653944 -0.63108623 -0.14071733 0
3.4324405 -0.50997454 -0.14125045 0
5.1489644 -0.27020523 -0.14101927 0
10.300486 0.44937506 -0.14082271 0
0.89136785 -0.84192723 -0.090868108 0
1.0032426 -0.82341135 -0.090375878 0
1.1438596 -0.80013847 -0.089419581 0
1.3366096 -0.76823723 -0.089286096 0
1.6231246 -0.72081745 -0.091194712 0
2.5608563 -0.56561756 -0.1412203 0
3.4116073 -0.42481354 -0.14070857 0
5.1256366 -0.14113215 -0.14085196 0
10.266017 0.70962936 -0.14094312 0
0.89359754 -0.81831509 -0.092216723 0
1.0134523 -0.79535753 -0.093197681 0
1.142957 -0.77055162 -0.090128042 0
1.3281307 -0.73508257 -0.088931762 0
1.3516392 -0.73057961 -0.059756014 0
1.3473489 -0.73140138 -0.026985308 0
1.3465273 -0.73155874 0.0051934663 0
1.3399341 -0.7328217 0.037502382 0
1.34605 -0.73165023 0.069128253 0
1.3405043 -0.73271245 0.10100933 0
0.88517773 -0.79668027 -0.091385327 0
0.99279863 -0.77323645 -0.090221696 0
1.1338408 -0.74251229 -0.08958412 0
1.1920741 -0.72982693 -0.070345975 0
1.1948571 -0.72922069 -0.04183488 0
1.2009678 -0.72788954 -0.013664154 0
1.2035391 -0.72732943 0.014928201 0
1.2124448 -0.72538948 0.043248158 0
1.2094088 -0.72605079 0.072214849 0
1.2069508 -0.72658628 0.10100564 0
0.87447 -0.77579284 -0.090167277 0
0.99306417 -0.74680609 -0.091391392 0
1.1240646 -0.71478701 -0.089044578 0
1.2111602 -0.69349909 -0.074109159 0
1.206262 -0.69469631 -0.044042263 0
1.2035021 -0.69537091 -0.01457811 0
1.1967767 -0.69701469 0.014911639 0
1.209342 -0.6939435 0.043059263 0
1.2107427 -0.69360113 0.072014742 0
1.2101207 -0.69375318 0.10100593 0
0.87547666 -0.75201142 -0.091636665 0
0.99139136 -0.72056001 -0.092320584 0
1.1245035 -0.68444234 -0.090359665 0
1.2062714 -0.66225606 -0.074540116 0
1.2045374 -0.66272658 -0.044780005 0
1.2060685 -0.66231114 -0.015580593 0
1.2061372 -0.66229248 0.01367184 0
1.210955 -0.66098523 0.042603429 0
1.2033278 -0.66305476 0.072004363 0
1.214924 -0.65990835 0.10100631 0
0.86605126 -0.73096609 -0.090935625 0
0.98141223 -0.69651741 -0.091753788 0
1.107114 -0.65898079 -0.088757612 0
1.2040569 -0.63003206 -0.07548181 0
1.2011101 -0.63091201 -0.045413706 0
1.2116346 -0.62776923 -0.01696383 0
1.2026442 -0.63045388 0.013296733 0
1.2036726 -0.6301468 0.042536076 0
1.2058256 -0.62950391 0.071734734 0
1.2023021 -0.63055605 0.10100619 0
0.85151881 -0.71174699 -0.089205183 0
0.96145588 -0.67587292 -0.089325316 0
1.1003417 -0.63055241 -0.089088492 0
1.210189 -0.59470761 -0.077784903 0
1.2085432 -0.59524465 -0.04748613 0
1.2065887 -0.59588242 -0.01740185 0
1.2046787 -0.59650576 0.012453208 0
1.198125 -0.59864426 0.042345244 0
1.1922393 -0.6005649 0.071835622 0
1.2028258 -0.59711033 0.10100649 0
0.85928988 -0.68504238 -0.092598058 0
0.96431607 -0.64781344 -0.091538258 0
1.1075233 -0.59705031 -0.091980092 0
1.2095131 -0.56089765 -0.079225965 0
1.2075908 -0.56157905 -0.048648525 0
1.2150105 -0.55894899 -0.019256866 0
1.2110528 -0.56035191 0.011216933 0
1.2096931 -0.56083387 0.041268203 0
1.2102985 -0.56061924 0.071138836 0
1.2116991 -0.56012273 0.10100707 0
0.83909583 -0.66817439 -0.0898109 0
0.94646591 -0.62703663 -0.089737527 0
1.0798051 -0.57594901 -0.088905476 0
1.2164251 -0.52360445 -0.081950776 0
1.2220227 -0.52145982 -0.051853511 0
1.2128378 -0.52497888 -0.020163661 0
1.207131 -0.52716535 0.010671454 0
1.2069602 -0.52723086 0.040846314 0
1.2054704 -0.52780163 0.070980161 0
1.1944695 -0.53201652 0.10100689 0
0.83871609 -0.64383548 -0.091647826 0
0.94419861 -0.60033804 -0.091199078 0
1.0846621 -0.54241562 -0.091684021 0
1.217822 -0.48750493 -0.08400809 0
1.1997535 -0.49495575 -0.050579641 0
1.2070307 -0.49195486 -0.020799106 0
1.1978886 -0.49572477 0.010459611 0
1.205761 -0.49247849 0.040300291 0
1.192515 -0.49794069 0.071003504 0
1.2145811 -0.48884133 0.10100787 0
0.8296988 -0.62282366 -0.091639824 0
0.92575073 -0.58034873 -0.089482762 0
1.0729482 -0.51525682 -0.091667183 0
1.2012757 -0.45850936 -0.083470531 0
1.1995788 -0.45925978 -0.052199963 0
1.1999266 -0.45910594 -0.021393931 0
1.2055743 -0.4566085 0.0088910777 0
1.2082757 -0.45541391 0.039514679 0
1.2033341 -0.45759913 0.07040365 0
1.2128474 -0.4533923 0.10100823 0
0.80670291 -0.60840577 -0.088469125 0
0.91781002 -0.55588287 -0.09003938 0
1.057789 -0.48971164 -0.091147698 0
1.2330832 -0.40684596 -0.090556048 0
1.4820442 -0.28915635 -0.090493567 0
1.8589418 -0.11098823 -0.090853922 0
3.1305285 0.49012032 -0.14102906 0
4.6891398 1.2269118 -0.14044344 0
9.4008741 3.4542572 -0.14077078 0
0.80700976 -0.58307052 -0.090890728 0
0.91434664 -0.52897543 -0.091676928 0
1.0375293 -0.46689448 -0.089800812 0
1.2183176 -0.37578169 -0.090606757 0
1.4540642 -0.25697121 -0.089205302 0
1.8415427 -0.061691727 -0.091413431 0
3.088155 0.56656986 -0.14071199 0
4.6444054 1.3508811 -0.14110425 0
9.2750654 3.6846182 -0.14049219 0
0.79732215 -0.56242412 -0.091088109 0
0.89475739 -0.51019567 -0.090034775 0
1.0262619 -0.43970504 -0.090219118 0
1.1941524 -0.34971032 -0.089283593 0
1.4409394 -0.21742448 -0.089976393 0
1.798362 -0.025834408 -0.089381061 0
3.0567062 0.64867884 -0.1414092 0
4.5807056 1.4655917 -0.14093645 0
9.1646461 3.9227316 -0.14076813 0
0.77820444 -0.54707253 -0.089108653 0
0.89379764 -0.4813036 -0.092507981 0
1.0167689 -0.41133681 -0.091107868 0
1.1812174 -0.31777069 -0.089862816 0
1.2053907 -0.30401692 -0.060983334 0
1.2139704 -0.29913536 -0.029294616 0
3.00665 0.72084361 -0.14078538 0
4.5114188 1.5770102 -0.14062098 0
9.0382404 4.1526313 -0.14078008 0
0.77205616 -0.52443391 -0.090413414 0
0.87428308 -0.46280488 -0.091097511 0
1.0012219 -0.38627794 -0.090984769 0
1.1665932 -0.28658131 -0.090304993 0
1.1406387 -0.30222842 -0.054558579 0
1.1826731 -0.27688733 -0.027823484 0
2.9605343 0.79492337 -0.14062126 0
4.4489193 1.6922188 -0.1408214 0
8.9098091 4.3815341 -0.14089359 0
0.76178348 -0.50404143 -0.090842418 0
0.85039425 -0.44752476 -0.088790439 0
0.98447609 -0.3620061 -0.090748392 0
1.1347525 -0.26615855 -0.088014789 0
1.1374547 -0.26443502 -0.056570563 0
1.1798617 -0.23738751 -0.029543852 0
2.9148808 0.86922318 -0.14064665 0
4.3691692 1.7967813 -0.14023183 0
8.7691507 4.6031284 -0.14082985 0
0.74137783 -0.49033728 -0.088812314 0
0.85444999 -0.41413841 -0.092877708 0
0.96996677 -0.33629212 -0.091071598 0
1.1213553 -0.23427203 -0.088897578 0
1.1370518 -0.22369424 -0.059142295 0
1.1614482 -0.20725355 -0.029648876 0
2.8740053 0.94683212 -0.14123209 0
4.3065701 1.9122317 -0.14074196 0
8.6212187 4.8198566 -0.14071664 0
0.73261684 -0.46892467 -0.089872338 0
0.83222914 -0.39807722 -0.091158681 0
0.95076036 -0.31377402 -0.090583108 0
1.102814 -0.20562866 -0.089046799 0
1.1432074 -0.17689958 -0.062847398 0
1.1437761 -0.17649516 -0.02992708 0
2.8192222 1.015136 -0.14080158 0
4.2381454 2.0243196 -0.14109355 0
8.4694853 5.0337844 -0.14064763 0
0.72485173 -0.44643274 -0.091359474 0
0.81264365 -0.3805947 -0.090121858 0
0.93740642 -0.28703102 -0.091403283 0
1.0850977 -0.17627254 -0.089469619 0
1.098464 -0.16624871 -0.059358496 0
1.0981234 -0.16650411 -0.027035823 0
1.1002023 -0.16494504 0.0049154852 0
1.094277 -0.16938856 0.037349533 0
1.1117491 -0.15628573 0.068688922 0
1.098363 -0.16632435 0.10100956 0
1.0983815 -0.16631052 0.13294174 0
1.0941383 -0.16949263 0.16466138 0
1.1013217 -0.16410562 0.19720204 0
0.71198398 -0.42750427 -0.091646515 0
0.8091746 -0.35071132 -0.093037836 0
0.91838419 -0.26442185 -0.0911927 0
1.0588741 -0.15341696 -0.088508688 0
1.1026624 -0.11881867 -0.06312909 0
1.1064738 -0.11580715 -0.030540338 0
1.0981935 -0.12234971 0.0032101294 0
1.1063797 -0.11588153 0.03538337 0
1.0970365 -0.12326387 0.068491615 0
1.0965469 -0.1236507 0.10101026 0
1.1014807 -0.11975232 0.133661 0
1.0967275 -0.12350795 0.16606463 0
1.1043162 -0.1175119 0.19935688 0
0.7044096 -0.40406433 -0.09353406 0
0.78137481 -0.34003255 -0.090237238 0
0.88943619 -0.25013021 -0.088976346 0
1.0265722 -0.13603893 -0.086520575 0
1.1053516 -0.0704979 -0.066930316 0
1.0990666 -0.075726718 -0.032359634 0
1.1012802 -0.073885113 0.00090844394 0
1.0944042 -0.079605609 0.034752745 0
1.1026121 -0.072776943 0.067651555 0
1.0934799 -0.080374569 0.10101097 0
1.0923399 -0.081323117 0.13405965 0
1.1014231 -0.073766142 0.16769503 0
1.0921625 -0.081470639 0.20028462 0
0.67768145 -0.39678016 -0.090217672 0
0.76753002 -0.31811044 -0.090934478 0
0.8821435 -0.21775702 -0.091519065 0
0.98847371 -0.12465623 -0.083486415 0
1.0997273 -0.027244773 -0.069712393 0
1.0985478 -0.028277483 -0.03519832 0
1.0971524 -0.029499318 -0.0008866766 0
1.1060623 -0.021697965 0.032589581 0
1.0968963 -0.029723492 0.06710273 0
1.1077818 -0.020192351 0.10101239 0
1.0919403 -0.034062948 0.13476774 0
1.0927199 -0.033380296 0.16860865 0
1.0952835 -0.031135645 0.20273727 0
1.1119137 -0.016574528 0.23888239 0
1.0960679 -0.03044882 0.37520975 0
0.6682061 -0.37465349 -0.09186203 0
0.74719071 -0.30189469 -0.090125076 0
0.84615576 -0.21073034 -0.087890022 0
0.96713912 -0.099283248 -0.083638392 0
1.0596678 -0.014047887 -0.067259528 0
1.103424 0.026259217 -0.038938645 0
1.1044449 0.027199659 -0.003914794 0
1.1078334 0.030321036 0.03090992 0
1.1062644 0.028875742 0.066030212 0
1.1004258 0.023497377 0.10101307 0
1.1012989 0.024301682 0.13583909 0
1.1033877 0.026225839 0.17083526 0
1.102941 0.025814328 0.20579861 0
1.0983629 0.021597061 0.2403231 0
1.0350107 -0.036761489 0.3658556 0
0.64396113 -0.36627415 -0.089338936 0
0.73265284 -0.28033689 -0.090923257 0
0.83874035 -0.17754403 -0.090750046 0
0.83745503 -0.17878947 -0.062715702 0
0.84067941 -0.17566523 -0.035681132 0
0.83915824 -0.17713913 -0.0079680365 0
0.83656126 -0.17965546 0.019631216 0
0.84413141 -0.1723204 0.046313625 0
0.83763045 -0.17861947 0.073884033 0
0.84355807 -0.17287591 0.10100389 0
0.83535892 -0.18082049 0.1280496 0
0.83959883 -0.17671224 0.15540017 0
0.84275967 -0.17364952 0.18298021 0
1.1085984 0.083933145 0.24501666 0
1.0128332 -0.0088579319 0.29905725 0
1.0104696 -0.011148121 0.332073 0
0.99504328 -0.026095238 0.36176169 0
0.62761235 -0.35068217 -0.089210041 0
0.71755093 -0.25902531 -0.091735043 0
0.81675434 -0.15792659 -0.090459503 0
0.83988762 -0.13435128 -0.067360558 0
0.83800763 -0.13626722 -0.038705517 0
0.84760088 -0.12649068 -0.011859646 0
0.83359051 -0.14076874 0.017862165 0
0.84475642 -0.12938949 0.044884089 0
0.84353817 -0.130631 0.073000066 0
0.834508 -0.13983372 0.10100437 0
0.84749842 -0.12659511 0.12914124 0
0.838857 -0.13540164 0.15673302 0
0.84129256 -0.13291952 0.18491626 0
0.83303803 -0.14133176 0.21192805 0
1.0992696 0.1299862 0.28433388 0
0.9499802 -0.022155371 0.29147071 0
0.94697666 -0.025216307 0.3230373 0
0.96395618 -0.0079124235 0.36002165 0
0.61533993 -0.33074442 -0.090468861 0
0.694664 -0.24571571 -0.090566136 0
0.79812825 -0.13481084 -0.091088288 0
0.83890015 -0.091106802 -0.07165613 0
0.83833915 -0.091708153 -0.042495433 0
0.8475427 -0.081842691 -0.014867304 0
0.83678925 -0.093369514 0.015313106 0
0.84224731 -0.08751896 0.043556303 0
0.84212261 -0.087652653 0.072300754 0
0.83170778 -0.098816425 0.10100517 0
0.83615375 -0.094050735 0.12950654 0
0.83999765 -0.089930385 0.15830134 0
0.83851135 -0.091523618 0.18687463 0
0.84392613 -0.085719377 0.21638441 0
1.0974171 0.18600145 0.28891712 0
0.93377262 0.010588441 0.29322183 0
0.92615944 0.0024277901 0.32395524 0
0.93125337 0.0078880526 0.35791287 0
0.59793729 -0.31611976 -0.090279438 0
0.67146134 -0.23320946 -0.089367978 0
0.77070528 -0.12129584 -0.089698695 0
0.8548041 -0.026460793 -0.079881392 0
0.84686947 -0.035408344 -0.048034284 0
0.84023774 -0.0428867 -0.017098567 0
0.84832972 -0.033761647 0.011687266 0
0.83536786 -0.048378315 0.042423744 0
0.8399114 -0.043254759 0.071571656 0
0.83929348 -0.043951478 0.10100647 0
0.84330469 -0.03942826 0.13056058 0
0.83976579 -0.04341891 0.15989798 0
0.84414065 -0.038485553 0.18988505 0
0.83575308 -0.047943916 0.21848091 0
1.099304 0.24925235 0.29453728 0
1.0981849 0.24799052 0.33346957 0
0.5864383 -0.29453668 -0.092151694 0
0.65902442 -0.20840058 -0.091371097 0
0.73057026 -0.12349889 -0.085110523 0
0.84931368 0.017410908 -0.084041305 0
0.84219223 0.0089601614 -0.051599894 0
0.83936673 0.0056072208 -0.02046991 0
0.8396464 0.0059390995 0.0099845026 0
0.84208786 0.0088363029 0.040203948 0
0.83984208 0.0061712596 0.07070329 0
0.83793527 0.003908548 0.10100748 0
0.83431572 -0.00038668173 0.13111199 0
0.83878654 0.004918668 0.16157274 0
0.83880842 0.0049446556 0.19193998 0
0.83941382 0.0056630704 0.22249247 0
0.83151102 -0.0037149454 0.25167805 0
1.0990647 0.31378415 0.34054872 0
0.56453478 -0.28521797 -0.090727203 0
0.64114183 -0.18951026 -0.091982834 0
0.72621047 -0.083231241 -0.089770265 0
0.8522684 0.074256927 -0.09047883 0
0.85858643 0.082150251 -0.059426788 0
0.843521 0.063328534 -0.024879789 0
0.84288031 0.062528163 0.0067836288 0
0.83739674 0.055677328 0.038657308 0
0.83462501 0.052214537 0.069952957 0
0.83550853 0.053318296 0.10100852 0
0.83513343 0.052849684 0.13208301 0
0.83295304 0.050125632 0.16302861 0
0.84259129 0.062166963 0.1952021 0
0.83524323 0.052986775 0.22566104 0
0.84309936 0.062801749 0.25854906 0
1.1076379 0.3932983 0.34995326 0
1.0979325 0.38117293 0.38957864 0
0.54739046 -0.2701706 -0.091008134 0
0.61457348 -0.18175313 -0.090057217 0
0.70380992 -0.064311773 -0.089958005 0
0.72777849 -0.032767441 -0.067857556 0
0.73120457 -0.028258529 -0.040094394 0
0.72767669 -0.032901432 -0.011146082 0
0.72829771 -0.032084133 0.01692638 0
0.72928643 -0.030782904 0.044927046 0
0.73201525 -0.027191546 0.072876208 0
0.72616589 -0.034889784 0.10100462 0
0.73037761 -0.02934685 0.12907052 0
0.7299875 -0.029860225 0.15713665 0
0.73078954 -0.028804626 0.18537156 0
0.73113227 -0.028353658 0.21368952 0
0.72757316 -0.033037689 0.24140319 0
0.7339462 -0.024650302 0.27130157 0
0.73145926 -0.027923252 0.29948065 0
0.72496015 -0.036476579 0.32643467 0
0.528822 -0.25696024 -0.090917133 0
0.59474218 -0.16550311 -0.090295278 0
0.68063837 -0.046331372 -0.090067737 0
0.73135161 0.024027739 -0.074572466 0
0.95271403 0.33114436 -0.089262642 0
0.85805595 0.19981638 -0.035847846 0
0.83815038 0.17219964 0.00087709934 0
0.83771449 0.17159489 0.034350161 0
0.84176004 0.17720762 0.067537881 0
0.83714926 0.17081061 0.10101122 0
0.84862155 0.1867272 0.13475856 0
0.84181863 0.17728892 0.16799968 0
0.84271389 0.17853096 0.20169191 0
0.84212989 0.17772081 0.23532918 0
0.83410877 0.16659227 0.26757917 0
0.8408919 0.17600313 0.30292439 0
1.0968767 0.53115457 0.40911353 0
0.50947851 -0.2448971 -0.090654083 0
0.57639122 -0.14694414 -0.091171168 0
0.65965831 -0.02505013 -0.090950035 0
0.7680434 0.13361397 -0.090141959 0
0.91652155 0.35096982 -0.088729404 0
1.151758 0.69533056 -0.089458935 0
0.84858578 0.25151923 -0.004081374 0
0.84196466 0.24182668 0.03155994 0
0.83512044 0.2318075 0.066587359 0
0.84224045 0.24223033 0.10101297 0
0.83682477 0.23430243 0.13550834 0
0.8410778 0.24052837 0.17039289 0
0.83906627 0.23758367 0.20492758 0
0.83769143 0.23557106 0.23951408 0
0.8371377 0.23476055 0.27430779 0
0.83798468 0.23600045 0.30959475 0
1.1012177 0.6213451 0.42166212 0
1.1034745 0.62464863 0.46922958 0
0.48957929 -0.23378149 -0.090280078 0
0.54926133 -0.14149752 -0.089196466 0
0.63415593 -0.010228302 -0.090658315 0
0.73707253 0.14890757 -0.08952225 0
0.88558674 0.37854925 -0.089412235 0
1.1164914 0.73558813 -0.090766005 0
1.4846376 1.3048382 -0.090028144 0
0.8396017 0.30744436 0.029076653 0
0.84330189 0.31316593 0.064906612 0
0.84093761 0.30951014 0.10101455 0
0.83567166 0.30136755 0.1367953 0
0.84271491 0.31225827 0.17321973 0
0.84119225 0.30990377 0.20922415 0
0.8447898 0.31546667 0.24609591 0
0.84246504 0.31187192 0.28216225 0
0.83351511 0.29803303 0.31651038 0
0.8396073 0.30745307 0.35486829 0
1.1003076 0.71056372 0.48238078 0
0.47537759 -0.21349105 -0.092323877 0
0.53677565 -0.1130856 -0.092474528 0
0.60168505 -0.0069379476 -0.088274576 0
0.71027958 0.17064884 -0.090103917 0
0.85597992 0.40891555 -0.090574212 0
1.0705748 0.75984675 -0.090400808 0
1.4301996 1.3479483 -0.090553097 0
0.84610599 0.39276853 0.025552722 0
0.85039425 0.39978126 0.063113987 0
0.83512735 0.3748149 0.10101604 0
0.83942914 0.38184968 0.13842994 0
0.83905953 0.38124529 0.17585118 0
0.83875006 0.38073924 0.21332878 0
0.83838731 0.38014594 0.25089145 0
0.84043312 0.38349155 0.28912523 0
0.8409524 0.38434079 0.32733941 0
0.8374871 0.37867382 0.36459529 0
1.1059703 0.81772965 0.50004172 0
0.45308182 -0.20622066 -0.091231085 0
0.50370795 -0.11853376 -0.088410102 0
0.58090419 0.015173707 -0.089653857 0
0.68367773 0.19318238 -0.090916313 0
0.8145411 0.41984394 -0.089197807 0
1.0300692 0.7931487 -0.091141455 0
1.3623347 1.3686481 -0.089373164 0
1.3676449 1.3778458 -0.026279157 0
0.85595107 0.491568 0.061213274 0
0.83735931 0.45936611 0.10101815 0
0.83757019 0.45973137 0.13996838 0
0.83959305 0.46323517 0.17914948 0
0.83990055 0.46376768 0.21836421 0
0.84119493 0.46600953 0.25791991 0
0.84224761 0.46783283 0.29771227 0
0.83741516 0.45946279 0.33616534 0
0.84563428 0.47369877 0.37871104 0
0.84610659 0.4745169 0.41943285 0
0.42991075 -0.20107087 -0.089777164 0
0.49238563 -0.086265892 -0.092668884 0
0.55179858 0.022912417 -0.088423841 0
0.64912409 0.20175949 -0.089592896 0
0.78113759 0.4443498 -0.08978691 0
0.98386747 0.81688994 -0.090965442 0
1.2883847 1.376476 -0.087322138 0
1.2947575 1.3881869 -0.025039589 0
1.2873219 1.3745232 0.038399849 0
0.84751272 0.56632215 0.10102095 0
0.83846736 0.54970008 0.14180785 0
0.83779466 0.548464 0.18257397 0
0.83897495 0.55063289 0.2236343 0
0.83692878 0.54687291 0.26431331 0
0.83850509 0.54976946 0.30585602 0
0.83746552 0.54785913 0.34701005 0
0.83954221 0.55167526 0.38940462 0
0.84251666 0.55714124 0.43268189 0
0.40752739 -0.19510797 -0.088676639 0
0.4675144 -0.077925831 -0.091870897 0
0.52905917 0.042299185 -0.089496784 0
0.61890817 0.21781543 -0.089605786 0
0.75168544 0.47719029 -0.091574199 0
0.93798721 0.84112293 -0.090966336 0
1.2478442 1.4464154 -0.090323023 0
1.2446874 1.4402487 -0.026094755 0
1.2427236 1.4364123 0.037611399 0
1.2461922 1.4431882 0.10104841 0
0.8530497 0.67520112 0.14455351 0
0.84154624 0.65272957 0.1869538 0
0.83767915 0.6451754 0.2294421 0
0.83632225 0.64252478 0.27218777 0
0.8458907 0.66121632 0.31778434 0
0.84175831 0.65314382 0.36038291 0
0.84220302 0.65401262 0.4044891 0
0.8361991 0.6422841 0.44631344 0
0.38927919 -0.18110844 -0.089618661 0
0.44113854 -0.073172957 -0.090464942 0
0.50596237 0.061745677 -0.090673007 0
0.58835751 0.23323575 -0.089639075 0
0.70782059 0.48187581 -0.089786299 0
0.89036798 0.86181396 -0.090721123 0
1.1872137 1.4796424 -0.09052024 0
1.7863845 2.7267039 -0.090958573 0
4.4950428 8.3642683 -0.14030354 0
0.84929758 0.77633363 0.192276 0
0.83928013 0.75548416 0.23640636 0
0.84663677 0.77079564 0.28334898 0
0.83640945 0.74950939 0.32654101 0
0.84540427 0.76823038 0.37510663 0
0.83874053 0.75436109 0.41901681 0
0.84108692 0.75924474 0.46646518 0
0.36929196 -0.17039523 -0.089892097 0
0.42010164 -0.05742785 -0.091483317 0
0.47643661 0.067824274 -0.089532591 0
0.55805725 0.24929503 -0.089889966 0
0.67226779 0.50322431 -0.090296648 0
0.84227157 0.88120133 -0.09046898 0
1.1216556 1.502368 -0.090028219 0
1.6871536 2.7596648 -0.09040197 0
4.2636504 8.4881048 -0.14064576 0
1.0625141 1.3708761 0.22159758 0
0.85160595 0.90195483 0.24606323 0
0.8427875 0.88234848 0.29264536 0
0.83785188 0.87137479 0.33953425 0
0.84009826 0.8763693 0.38857898 0
0.83962953 0.87532717 0.43711337 0
0.83821052 0.87217218 0.48553082 0
0.35002738 -0.15775558 -0.090723701 0
0.39594629 -0.048364606 -0.091235109 0
0.44977021 0.079858214 -0.089599289 0
0.52597135 0.2613894 -0.08965113 0
0.64175117 0.53720754 -0.092517473 0
0.79405433 0.90003401 -0.090286903 0
1.066911 1.5500503 -0.091559745 0
1.5972476 2.8134522 -0.091029905 0
4.0264854 8.6005392 -0.14084497 0
0.99985039 1.3902946 0.22126324 0
0.85050786 1.0345211 0.25453961 0
0.84356552 1.0179827 0.30429307 0
0.84017581 1.0099075 0.3544997 0
0.84066337 1.0110688 0.40597996 0
0.83927143 1.0077529 0.45705876 0
0.84084153 1.0114934 0.50980383 0
0.32784489 -0.15200767 -0.09008608 0
0.37141919 -0.040391352 -0.090892844 0
0.4223406 0.090044767 -0.089458726 0
0.49970022 0.28820267 -0.09175799 0
0.59656346 0.53631955 -0.090438612 0
0.7476995 0.92345697 -0.090689145 0
0.99703908 1.5621445 -0.090509675 0
1.5009861 2.853013 -0.0910547 0
3.7824547 8.6970339 -0.14079458 0
