# .PCD v0.7 - Point Cloud Data file format
VERSION 0.7
FIELDS x y z intensity
SIZE 4 4 4 4
TYPE F F F F
COUNT 1 1 1 1
WIDTH 1315
HEIGHT 1
VIEWPOINT 0 0 0 1 0 0 0
POINTS 1315
DATA ascii
-1.0195258 -1.0926501 -0.092225127 0
-1.1577578 -1.1066505 -0.090443052 0
-1.2401305 -1.1149932 -0.074340157 0
-1.2399746 -1.1149775 -0.044805381 0
-1.2416128 -1.1151434 -0.015606476 0
-1.2378607 -1.1147634 0.013921084 0
-1.2340492 -1.1143774 0.043180168 0
-1.2372272 -1.1146992 0.072034381 0
-1.2420803 -1.1151907 0.10100607 0
-1.2338068 -1.1143528 0.12989739 0
-1.2528583 -1.1162823 0.15971287 0
-1.2523997 -1.1162359 0.1891136 0
-1.9964991 -1.1915994 0.28848469 0
-2.0014784 -1.1921037 0.33631742 0
-1.935154 -1.1853863 0.37456882 0
-1.4756799 -1.1388501 0.38061026 0
-0.89077497 -1.102406 -0.090100415 0
-1.0132262 -1.1179383 -0.091585897 0
-1.1450385 -1.134658 -0.08888755 0
-1.2007648 -1.1417266 -0.069268845 0
-1.2362469 -1.1462274 -0.044786353 0
-1.2481276 -1.1477343 -0.016555427 0
-1.2403293 -1.1467452 0.013496244 0
-1.2306662 -1.1455195 0.043172367 0
-1.2371255 -1.1463388 0.071953364 0
-1.2402405 -1.1467339 0.10100611 0
-1.2463057 -1.1475033 0.1302744 0
-1.2369127 -1.1463118 0.15913296 0
-1.2483031 -1.1477566 0.18907872 0
-1.6039308 -1.1928661 0.36694708 0
-1.4765468 -1.1767081 0.38158086 0
-0.90052176 -1.1268356 -0.092870899 0
-0.9982506 -1.1417463 -0.089412518 0
-1.1461796 -1.1643162 -0.089747675 0
-1.1869184 -1.1705317 -0.067901574 0
-1.6175479 -1.2362338 -0.090380661 0
-2.5589418 -1.3798643 -0.14073813 0
-3.4214721 -1.5114625 -0.14105962 0
-5.1371789 -1.7732316 -0.14100267 0
-10.272443 -2.55673 -0.14065528 0
-1.3436646 -1.1944468 0.29220477 0
-1.3535542 -1.1959558 0.32624552 0
-1.3676039 -1.1980993 0.36180827 0
-0.87932962 -1.1464254 -0.089106359 0
-1.0031737 -1.1685313 -0.091151275 0
-1.1441157 -1.1936892 -0.090201326 0
-1.1907023 -1.2020049 -0.069148533 0
-1.6143633 -1.2776278 -0.090803452 0
-2.5503867 -1.4447066 -0.14093859 0
-3.4031444 -1.5969226 -0.14077108 0
-5.1055503 -1.9007996 -0.14051968 0
-10.233603 -2.8161497 -0.14074925 0
-1.3257377 -1.2261086 0.29044488 0
-1.3247775 -1.2259371 0.32238239 0
-1.3274353 -1.2264116 0.35521218 0
-0.88695592 -1.1710157 -0.091682009 0
-0.99106771 -1.1923232 -0.089754738 0
-1.1408175 -1.222971 -0.090574332 0
-1.1974607 -1.2345636 -0.070942305 0
-1.6076441 -1.3185115 -0.090931095 0
-2.5384231 -1.5090044 -0.14097092 0
-3.3936863 -1.6840421 -0.14126749 0
-5.0929575 -2.0318143 -0.14109138 0
-10.1803 -3.0729878 -0.14065546 0
-1.24939 -1.2451913 0.31080389 0
-1.2378663 -1.2428329 0.33921859 0
-0.88096941 -1.1931027 -0.091437928 0
-0.99599349 -1.2196839 -0.091758303 0
-1.1352117 -1.2518562 -0.0906846 0
-1.1939422 -1.2654283 -0.071382441 0
-1.6076478 -1.3610325 -0.091989361 0
-2.5193808 -1.5717269 -0.14048034 0
-3.3609095 -1.7661977 -0.140251 0
-5.0548754 -2.15766 -0.14060608 0
-10.133471 -3.3312845 -0.14086992 0
-0.86994946 -1.213847 -0.090209343 0
-0.99002188 -1.2448059 -0.091789193 0
-1.1282402 -1.2804435 -0.090687133 0
-1.3235139 -1.330792 -0.091253631 0
-1.5822334 -1.3974988 -0.090115823 0
-1.9816796 -1.5004902 -0.090143569 0
-3.3476629 -1.8526887 -0.14078711 0
-5.0291986 -2.2862475 -0.14086626 0
-10.075759 -3.5874281 -0.14098047 0
-0.86629391 -1.2364016 -0.090714924 0
-0.97715771 -1.2679899 -0.090594165 0
-1.1132008 -1.3067523 -0.089433812 0
-1.3109211 -1.3630885 -0.090734191 0
-1.5763993 -1.4387307 -0.090719722 0
-1.9688354 -1.5505469 -0.090210058 0
-3.3192997 -1.9353324 -0.14038637 0
-4.9943094 -2.41259 -0.14083895 0
-9.9913549 -3.83639 -0.14060231 0
-0.86561847 -1.260028 -0.092014454 0
-0.97152048 -1.2931134 -0.090930797 0
-1.1096598 -1.33627 -0.090264358 0
-1.3021637 -1.3964109 -0.0908949 0
-1.5625695 -1.4777653 -0.090476327 0
-1.9571158 -1.6010271 -0.090510122 0
-3.29391 -2.0186603 -0.14035244 0
-4.9470115 -2.5351124 -0.14036115 0
-9.9290962 -4.0915852 -0.14091305 0
-0.84172833 -1.2760948 -0.088245995 0
-0.96404183 -1.3177226 -0.091029622 0
-1.0975629 -1.3631647 -0.089745484 0
-1.2862066 -1.4273671 -0.090112515 0
-1.5480287 -1.5164747 -0.090264164 0
-1.9449741 -1.6515697 -0.090896256 0
-3.2797303 -2.1058359 -0.14130072 0
-4.9201965 -2.6641467 -0.14103794 0
-9.8435221 -4.3397346 -0.14081141 0
-0.84560084 -1.301461 -0.090823509 0
-0.95269877 -1.3409525 -0.090477712 0
-1.0891476 -1.3912672 -0.08998505 0
-1.2705079 -1.4581425 -0.089478068 0
-1.5420688 -1.5582787 -0.091240086 0
-1.9244442 -1.6992769 -0.090577878 0
-3.2588053 -2.1913133 -0.14191851 0
-4.8708315 -2.7857366 -0.14076306 0
-9.7484016 -4.5843067 -0.14062676 0
-0.85379303 -1.3292189 -0.094560884 0
-0.94087195 -1.3638487 -0.089940466 0
-1.0814722 -1.4197631 -0.090482734 0
-1.2571505 -1.4896274 -0.08930821 0
-1.5310203 -1.5985408 -0.091717891 0
-1.9101655 -1.7493204 -0.091004573 0
-3.2084262 -2.2656167 -0.14048804 0
-4.8222437 -2.9074047 -0.14067735 0
-9.6593704 -4.8310485 -0.14074631 0
-0.83024806 -1.3443989 -0.091163911 0
-0.93824345 -1.3905356 -0.091399141 0
-1.0657111 -1.4449911 -0.089668609 0
-1.253952 -1.5254096 -0.09080983 0
-1.5037261 -1.6321156 -0.090264656 0
-1.8918341 -1.7979193 -0.091152079 0
-3.1789439 -2.3477855 -0.14077255 0
-4.7773552 -3.030643 -0.14093263 0
-9.5607157 -5.0741429 -0.14078049 0
-0.82531261 -1.36722 -0.092166401 0
-0.92222035 -1.4115437 -0.090239204 0
-1.0485479 -1.4693235 -0.088706069 0
-1.2348329 -1.5545268 -0.090007342 0
-1.4931092 -1.6726574 -0.091046192 0
-1.8635112 -1.8420721 -0.090400971 0
-3.1503313 -2.4306388 -0.14128575 0
-4.7217689 -3.149384 -0.14080158 0
-9.4523182 -5.3130465 -0.14072199 0
-0.80784965 -1.3842056 -0.090353407 0
-0.90766484 -1.432941 -0.089483 0
-1.0428087 -1.4989258 -0.089932673 0
-1.2243848 -1.5875814 -0.090665244 0
-1.4731661 -1.7090504 -0.090756737 0
-1.8413308 -1.8888091 -0.09039367 0
-3.1050289 -2.5058174 -0.14066862 0
-4.6603727 -3.2652235 -0.14052226 0
-9.3389635 -5.5495739 -0.14068957 0
-0.79594839 -1.4036139 -0.089951001 0
-0.89402658 -1.454605 -0.08902546 0
-1.0296681 -1.5251253 -0.089941971 0
-1.2041637 -1.6158459 -0.089915149 0
-1.4441099 -1.7405944 -0.089383282 0
-1.8211071 -1.936596 -0.090715431 0
-3.0662096 -2.5839269 -0.14070271 0
-4.5992508 -3.3809581 -0.14040609 0
-9.2250633 -5.7859268 -0.14079788 0
-0.78299588 -1.422349 -0.089405812 0
-0.88031083 -1.4761047 -0.088661708 0
-1.0191183 -1.5527806 -0.090561204 0
-1.1879779 -1.6460568 -0.089916192 0
-1.4343082 -1.782127 -0.090666987 0
-1.7996658 -1.9839467 -0.091039605 0
-3.0243163 -2.6604304 -0.1406482 0
-4.5462499 -3.5011303 -0.14087453 0
-9.0963583 -6.0145612 -0.14067188 0
-0.78153658 -1.4476836 -0.091799505 0
-0.87434703 -1.5020515 -0.090102307 0
-0.999973 -1.5756426 -0.089684404 0
-1.1614431 -1.670231 -0.088354968 0
-1.4062954 -1.8136644 -0.089644097 0
-1.7690263 -2.0261505 -0.090501957 0
-2.9809713 -2.7361019 -0.14063057 0
-4.4691181 -3.6078515 -0.14021046 0
-8.9708929 -6.2449698 -0.14078566 0
-0.76275831 -1.4629623 -0.090057768 0
-0.86429799 -1.5259377 -0.090804227 0
-0.98522562 -1.6009375 -0.089755081 0
-1.1538099 -1.705494 -0.089995034 0
-1.3861529 -1.8495941 -0.089796089 0
-1.74341 -2.0711663 -0.090623654 0
-2.9308312 -2.8076098 -0.14020965 0
-4.4166422 -3.7291155 -0.14103304 0
-8.8375053 -6.4709525 -0.14084242 0
-0.76060176 -1.4886631 -0.092609175 0
-0.85654771 -1.5515755 -0.092170306 0
-0.97434968 -1.6288191 -0.090712272 0
-1.1323382 -1.7324133 -0.089485236 0
-1.3684024 -1.8872023 -0.090410657 0
-1.7192956 -2.1172853 -0.091040842 0
-2.884954 -2.8816156 -0.14028773 0
-4.3363719 -3.8333204 -0.14049107 0
-8.7005768 -6.6949606 -0.14095901 0
-0.73500746 -1.4988897 -0.089312188 0
-0.83766043 -1.569967 -0.091156028 0
-0.95819545 -1.6534262 -0.090770669 0
-1.11335 -1.7608559 -0.089506142 0
-1.3516377 -1.9258475 -0.091309987 0
-1.6941794 -2.1630251 -0.091482691 0
-2.8450294 -2.9598792 -0.14103085 0
-4.263247 -3.94186 -0.14049184 0
-8.5454235 -6.9068604 -0.1407208 0
-0.72625101 -1.5204636 -0.090453394 0
-0.80728221 -1.5796496 -0.087550037 0
-0.94936651 -1.6834291 -0.09244632 0
-1.0970142 -1.7912722 -0.090112858 0
-1.3237427 -1.9568766 -0.090755068 0
-1.6594682 -2.2020931 -0.090955935 0
-2.7998753 -3.0350559 -0.14150454 0
-4.195838 -4.0546784 -0.14097868 0
-8.393117 -7.1204057 -0.14071272 0
-0.71198863 -1.538159 -0.090284698 0
-0.80836087 -1.6123501 -0.091408201 0
-0.92295134 -1.7005663 -0.0906628 0
-1.0899118 -1.8290991 -0.092503943 0
-1.3064905 -1.9958298 -0.09187346 0
-1.6302717 -2.2450893 -0.091183551 0
-2.734031 -3.0948062 -0.14032796 0
-4.1064143 -4.1513205 -0.14034741 0
-8.2304516 -7.3261652 -0.14055723 0
-0.7012068 -1.5586436 -0.091186009 0
-0.78966612 -1.6303693 -0.09074942 0
-0.91074216 -1.7285417 -0.09193892 0
-1.0574807 -1.847522 -0.090532787 0
-1.2720284 -2.0214844 -0.090571962 0
-1.5951066 -2.2834468 -0.090827771 0
-2.6788085 -3.1621473 -0.14021745 0
-4.0389161 -4.2649665 -0.14116193 0
-8.0805559 -7.5420599 -0.14093472 0
-0.67753643 -1.5684276 -0.088648044 0
-0.77323192 -1.6501074 -0.090747572 0
-0.88298005 -1.7437817 -0.090033136 0
-1.0430613 -1.8804172 -0.091931738 0
-1.2391888 -2.0478199 -0.089589901 0
-1.5604374 -2.3220179 -0.090642668 0
-2.630614 -3.235455 -0.14090514 0
-3.9457862 -4.3580055 -0.14059913 0
-7.9104362 -7.7419887 -0.14086701 0
-0.66970694 -1.5916483 -0.090647615 0
-0.7528072 -1.6662829 -0.089860149 0
-0.8693558 -1.7709582 -0.091290899 0
-1.005139 -1.8929087 -0.08907833 0
-1.2130756 -2.0796618 -0.08974532 0
-1.5249767 -2.3597882 -0.090474851 0
-2.5680795 -3.2966256 -0.14043307 0
-3.8551867 -4.4526095 -0.14032711 0
-7.7354188 -7.9375458 -0.1408007 0
-0.66325831 -1.6168466 -0.093268611 0
-0.73789668 -1.6873635 -0.090484791 0
-0.84046072 -1.784264 -0.089279525 0
-0.98741645 -1.923105 -0.090121724 0
-1.1897418 -2.1142581 -0.090479098 0
-1.4953798 -2.4030192 -0.091176979 0
-1.9802732 -2.8611372 -0.089577936 0
-3.7738338 -4.5556583 -0.14079192 0
-7.5559158 -8.1288977 -0.1407454 0
-0.64599681 -1.6321974 -0.092904143 0
-0.7199139 -1.70565 -0.090449072 0
-0.82309777 -1.8081853 -0.089966021 0
-0.97905189 -1.9631594 -0.09319482 0
-1.1630507 -2.1460018 -0.090820484 0
-1.4587567 -2.4398494 -0.091114201 0
-1.9259034 -2.9040604 -0.088936277 0
-3.6835451 -4.6506557 -0.14085072 0
-7.3704505 -8.3143902 -0.14064968 0
-0.6217742 -1.6401688 -0.090507247 0
-0.70062172 -1.7225777 -0.090179808 0
-0.80413055 -1.8307618 -0.090431161 0
-0.94201314 -1.9748722 -0.09072388 0
-1.1302447 -2.1716058 -0.090270959 0
-1.4181122 -2.4724755 -0.090630732 0
-1.8865073 -2.9620268 -0.08989986 0
-3.5897682 -4.7422199 -0.14083564 0
-7.188622 -8.5036249 -0.14082921 0
-0.59807026 -1.6478866 -0.088269569 0
-0.69127268 -1.7503541 -0.09280429 0
-0.77886552 -1.8466543 -0.089508466 0
-0.91749215 -1.9990616 -0.090858869 0
-1.0999167 -2.1996205 -0.090247162 0
-1.3820117 -2.509758 -0.090876736 0
-1.8394755 -3.0126975 -0.090247206 0
-3.501462 -4.8398981 -0.14135641 0
-7.0024166 -8.6888752 -0.14102536 0
-0.58943892 -1.6722493 -0.090927057 0
-0.66224462 -1.7564669 -0.090037934 0
-0.76086825 -1.8705492 -0.090484314 0
-0.88438267 -2.0134237 -0.089281686 0
-1.0720271 -2.2304804 -0.090783052 0
-1.3452369 -2.5465143 -0.091166221 0
-1.7928433 -3.0642805 -0.090782352 0
-3.3981493 -4.9212084 -0.14099741 0
-6.798666 -8.8547363 -0.14076751 0
-0.57479835 -1.6903123 -0.091857783 0
-0.64584655 -1.7768154 -0.090978555 0
-0.74239433 -1.8943652 -0.091521017 0
-0.86738592 -2.046546 -0.091302119 0
-1.0384113 -2.2547746 -0.090422533 0
-1.3019792 -2.575676 -0.090645768 0
-1.7416559 -3.1109953 -0.090973742 0
-3.2902503 -4.9964538 -0.14043917 0
-6.6025391 -9.0292616 -0.14093202 0
-0.54781604 -1.6929338 -0.088708527 0
-0.63035166 -1.7987583 -0.09238153 0
-0.71046478 -1.9014767 -0.089154057 0
-0.8417114 -2.069757 -0.091594048 0
-1.0091521 -2.2844441 -0.090992831 0
-1.2684735 -2.6169379 -0.091698356 0
-1.6942079 -3.162801 -0.091728486 0
-3.1933079 -5.0848989 -0.14083356 0
-6.3909883 -9.1848621 -0.14068279 0
-0.5356068 -1.7142835 -0.090751953 0
-0.60058957 -1.8020836 -0.089488558 0
-0.69238079 -1.9261055 -0.090578981 0
-0.80756825 -2.0817387 -0.090031691 0
-0.97254902 -2.3046494 -0.090284891 0
-1.215728 -2.6332161 -0.089929424 0
-1.6278943 -3.1901066 -0.090443559 0
-3.096103 -5.1738477 -0.14139295 0
-6.1825905 -9.3440952 -0.14069918 0
-0.51512867 -1.7247196 -0.090006299 0
-0.58280134 -1.8211507 -0.090442963 0
-0.66834199 -1.9430429 -0.090527095 0
-0.77756214 -2.0986774 -0.089497082 0
-0.94152951 -2.3323247 -0.090789087 0
-1.1766545 -2.6673691 -0.09038303 0
-1.5732343 -3.2324808 -0.090612389 0
-2.9794052 -5.2362208 -0.14057185 0
-5.9653587 -9.4910927 -0.14051853 0
-0.49772069 -1.7394807 -0.090510003 0
-0.56786728 -1.8450025 -0.092566125 0
-0.64438748 -1.9601121 -0.09062288 0
-0.74774194 -2.1155884 -0.089095615 0
-0.90619844 -2.3539553 -0.09054736 0
-1.1356944 -2.6991868 -0.090678819 0
-1.5184258 -3.274931 -0.090901636 0
-2.8727 -5.3121696 -0.14068939 0
-5.750391 -9.6410894 -0.14057903 0
-0.47537366 -1.7466409 -0.089208357 0
-0.54127139 -1.8514122 -0.090859406 0
-0.61886787 -1.9747833 -0.090369932 0
-0.72332561 -2.1408613 -0.090214677 0
-0.87504697 -2.3820841 -0.091330849 0
-1.0924761 -2.7277763 -0.090728961 0
-1.4632723 -3.3173077 -0.091295443 0
-2.7624094 -5.3828135 -0.1406627 0
-5.5329008 -9.7876358 -0.14069405 0
-0.45386919 -1.7546424 -0.088274635 0
-0.52498835 -1.8743123 -0.092939384 0
-0.59146893 -1.986177 -0.089618213 0
-0.69674587 -2.1633229 -0.090959065 0
-0.83367836 -2.3937347 -0.089970089 0
-1.0450873 -2.7494657 -0.090148501 0
-1.3978566 -3.3430591 -0.090445466 0
-2.6499569 -5.4499264 -0.14059709 0
-5.3090053 -9.9242191 -0.14068754 0
-0.43454 -1.7660998 -0.088329472 0
-0.49649805 -1.8766117 -0.090631194 0
-0.56477863 -1.9984007 -0.089164726 0
-0.66347092 -2.1744337 -0.089973129 0
-0.7996515 -2.4173331 -0.090370215 0
-1.0002077 -2.7750564 -0.090122573 0
-1.3380848 -3.377713 -0.090454243 0
-2.539475 -5.5205789 -0.14087392 0
-5.0844736 -10.05998 -0.14081095 0
-0.42167825 -1.7898662 -0.09146028 0
-0.4734872 -1.888001 -0.090443783 0
-0.54154724 -2.0169179 -0.090012945 0
-0.63007599 -2.1846061 -0.088985451 0
-0.76123351 -2.4330401 -0.089836456 0
-0.95824403 -2.8062108 -0.090804659 0
-1.2792898 -3.414325 -0.090737782 0
-1.9178427 -4.6238499 -0.090367921 0
-4.8510895 -10.179905 -0.14066638 0
-0.40459248 -1.8068227 -0.093013845 0
-0.4510099 -1.9003897 -0.090591706 0
-0.5190295 -2.0375016 -0.091338016 0
-0.60371858 -2.2082155 -0.09025114 0
-0.72340256 -2.4494712 -0.089531086 0
-0.91434598 -2.8343699 -0.091277219 0
-1.2208713 -3.4522555 -0.09123724 0
-1.8293085 -4.6787262 -0.090763904 0
-4.6226306 -10.309428 -0.14092661 0
-0.3801066 -1.8087748 -0.091133706 0
-0.43036124 -1.9168433 -0.091700874 0
-0.48687094 -2.0383627 -0.089176483 0
-0.5737372 -2.2251613 -0.090573005 0
-0.69480693 -2.4855115 -0.091880597 0
-0.86216688 -2.8454053 -0.090096347 0
-1.1529783 -3.4707711 -0.090348385 0
-1.7378874 -4.728569 -0.091012277 0
-4.384912 -10.420774 -0.14086647 0
-0.35788652 -1.8148568 -0.090375267 0
-0.40274745 -1.9180599 -0.089776285 0
-0.46204558 -2.054476 -0.089918159 0
-0.53954065 -2.2327547 -0.089574866 0
-0.64603573 -2.4777482 -0.088714741 0
-0.81399244 -2.864135 -0.089846261 0
-1.0893371 -3.4975698 -0.090232007 0
-1.6436427 -4.7727571 -0.091088705 0
-4.1405311 -10.516885 -0.14057374 0
-0.33957455 -1.8301471 -0.091865666 0
-0.37939188 -1.9284608 -0.089879982 0
-0.43824303 -2.0737712 -0.091328152 0
-0.50530267 -2.2393494 -0.088566996 0
-0.6171338 -2.5154734 -0.091473006 0
-0.76825935 -2.8886201 -0.090301417 0
-1.0269182 -3.5272794 -0.090458177 0
-1.5422643 -4.7997293 -0.090419717 0
-3.9060278 -10.636138 -0.14102006 0
-0.31454471 -1.8286139 -0.089627065 0
-0.35947701 -1.9481397 -0.091968797 0
-0.4086324 -2.0788994 -0.090343408 0
-0.47435507 -2.2537303 -0.088868015 0
-0.57761699 -2.5284204 -0.091202982 0
-0.72278708 -2.9145918 -0.091016166 0
-0.9671756 -3.564697 -0.091376133 0
-1.4488381 -4.8459821 -0.090843894 0
-3.6569004 -10.719715 -0.14072376 0
-0.29617569 -1.8446796 -0.091510959 0
-0.33407563 -1.9537797 -0.091340877 0
-0.37831277 -2.0811224 -0.088992454 0
-0.44252545 -2.2659676 -0.088964261 0
-0.5337103 -2.5284557 -0.089461796 0
-0.67433274 -2.9332571 -0.091116644 0
-0.8981092 -3.5774286 -0.090571232 0
-1.3495181 -4.8768716 -0.090623938 0
-3.4100418 -10.808373 -0.14071058 0
-0.27287954 -1.8468339 -0.090379499 0
-0.3065047 -1.9521273 -0.089403398 0
-0.35015789 -2.0888221 -0.088729776 0
-0.41283262 -2.2850809 -0.090193145 0
-0.49974543 -2.5572383 -0.091398068 0
-0.6248669 -2.9490418 -0.091054432 0
-0.82847095 -3.5866046 -0.089640327 0
-1.2516087 -4.911612 -0.09071698 0
-3.1609995 -10.89065 -0.14069442 0
-0.2516807 -1.8552699 -0.090777926 0
-0.28566307 -1.9717449 -0.091790415 0
-0.32596108 -2.1098666 -0.090875827 0
-0.37950072 -2.2933743 -0.08993917 0
-0.45625943 -2.5564656 -0.089826651 0
-0.57305878 -2.9567966 -0.090333767 0
-0.76577693 -3.6173403 -0.0904148 0
-1.1472641 -4.9248919 -0.089888908 0
-2.9104929 -10.968376 -0.14072105 0
-0.23162633 -1.8684579 -0.092336617 0
-0.25759608 -1.9666163 -0.089443095 0
-0.29625794 -2.1127474 -0.090023853 0
-0.34563512 -2.2993793 -0.08947695 0
-0.41804233 -2.5730586 -0.090498276 0
-0.5235557 -2.9718699 -0.090451173 0
-0.69951802 -3.6369586 -0.090494998 0
-1.0503998 -4.9631944 -0.090398587 0
-2.6579299 -11.039211 -0.14073433 0
-0.20921062 -1.8733761 -0.092190079 0
-0.2335849 -1.9758996 -0.090037547 0
-0.26860571 -2.1232047 -0.090583973 0
-0.31739652 -2.3284297 -0.092470281 0
-0.38037905 -2.593348 -0.091726191 0
-0.47302064 -2.9830189 -0.090311654 0
-0.63202661 -3.6518331 -0.09035439 0
-0.94905311 -4.9853158 -0.090248309 0
-2.4054434 -11.111213 -0.14092827 0
-0.18608412 -1.8748318 -0.091415338 0
-0.20813306 -1.9792119 -0.089596368 0
-0.24031082 -2.1315422 -0.090902574 0
-0.28130212 -2.3255961 -0.090970732 0
-0.33700094 -2.5892758 -0.090151377 0
-0.42209831 -2.9921291 -0.0901004 0
-0.56720352 -3.6790612 -0.091219284 0
-0.84690583 -5.0031791 -0.09001828 0
-2.1470993 -11.158329 -0.14068164 0
-0.15935428 -1.8558803 -0.0863593 0
-0.18297206 -1.9835361 -0.089474417 0
-0.21103835 -2.1352365 -0.09056329 0
-0.24654067 -2.3271294 -0.090232752 0
-0.29891238 -2.6102023 -0.09168563 0
-0.36887845 -2.9883742 -0.088791214 0
-0.49747744 -3.6834614 -0.090573795 0
-0.94239515 -6.0882754 -0.14043951 0
-1.8905356 -11.213047 -0.14077048 0
-0.14138593 -1.8844724 -0.091701977 0
-0.15966159 -1.9993923 -0.09167368 0
-0.18165895 -2.1377144 -0.090146162 0
-0.21291977 -2.3342867 -0.090423204 0
-0.25746113 -2.6143687 -0.091344334 0
-0.31816667 -2.9960933 -0.088698946 0
-0.43076795 -3.7041454 -0.091208436 0
-0.81571299 -6.1247311 -0.14111251 0
-1.6312159 -11.252724 -0.14065765 0
-0.11814476 -1.8832046 -0.090720974 0
-0.1337873 -2.000592 -0.091192625 0
-0.15342523 -2.1479621 -0.091141842 0
-0.17778185 -2.3307431 -0.089216359 0
-0.2171538 -2.6262045 -0.092032038 0
-0.27124044 -3.0320902 -0.091390528 0
-0.36105344 -3.7060797 -0.090637527 0
-0.68347818 -6.1256719 -0.14026569 0
-1.3727969 -11.29857 -0.1408437 0
-0.095522434 -1.8856457 -0.090661161 0
-0.10829663 -2.0043046 -0.091312833 0
-0.12387036 -2.1489682 -0.090725191 0
-0.14520214 -2.3471184 -0.090953819 0
-0.17346777 -2.6096766 -0.089503504 0
-0.2175509 -3.0191629 -0.08959318 0
-0.29144889 -3.7055981 -0.090022214 0
-0.55505675 -6.1542392 -0.14087127 0
-1.1120061 -11.327718 -0.14079149 0
-0.07268323 -1.8854517 -0.090161376 0
-0.08291506 -2.009938 -0.091917478 0
-0.093560897 -2.1394613 -0.088698886 0
-0.11013491 -2.3411105 -0.089647539 0
-0.13325353 -2.622385 -0.090538152 0
-0.16672711 -3.0296438 -0.090118922 0
-0.22283095 -3.7122355 -0.090030916 0
-0.4244681 -6.1654692 -0.14081731 0
-0.85029495 -11.346324 -0.14064723 0
-0.049994648 -1.886072 -0.089958511 0
-0.056491427 -2.0003805 -0.089776389 0
-0.064255126 -2.1369798 -0.087958016 0
-0.075779229 -2.3397424 -0.089120932 0
-0.081732094 -2.4444809 -0.069376774 0
-0.081077322 -2.4329605 -0.033999551 0
-0.081474349 -2.4399459 -0.00060763001 0
-0.081422076 -2.4390264 0.033369612 0
-0.080533817 -2.4233978 0.067572996 0
-0.081023782 -2.4320185 0.10101165 0
-0.027435744 -1.8897332 -0.090524338 0
-0.031052627 -2.0043685 -0.090315349 0
-0.035613257 -2.1489155 -0.089710079 0
-0.040901512 -2.316524 -0.085644491 0
-0.040692434 -2.3098974 -0.053449888 0
-0.04065562 -2.3087308 -0.022247722 0
-0.040919069 -2.3170805 0.0080992896 0
-0.040666703 -2.309082 0.039497476 0
-0.040915918 -2.3169806 0.070085689 0
-0.040665619 -2.3090475 0.10100809 0
-0.004786002 -1.9025784 -0.093163364 0
-0.0054085674 -2.0012858 -0.089643367 0
-0.0062763658 -2.138875 -0.087968834 0
-0.0067463634 -2.213393 -0.071061604 0
-0.0066973479 -2.2056215 -0.04118884 0
-0.0067575802 -2.2151713 -0.013455851 0
-0.0067730513 -2.2176244 0.015096696 0
-0.0067458763 -2.2133157 0.043985277 0
-0.0067516598 -2.2142327 0.072489418 0
-0.0067107813 -2.2077515 0.10100518 0
0.017984679 -1.8879443 -0.090083085 0
0.020240812 -2.0071347 -0.090775542 0
0.023004565 -2.1531422 -0.090344183 0
0.024053976 -2.2085822 -0.070412777 0
0.023899229 -2.200407 -0.040601928 0
0.023962645 -2.203757 -0.012408471 0
0.023889681 -2.1999025 0.016322168 0
0.023885569 -2.1996853 0.04461088 0
0.023848725 -2.1977389 0.072868444 0
0.023926442 -2.2018447 0.10100502 0
0.040544346 -1.8847673 -0.089559294 0
0.045737684 -2.0022929 -0.090015449 0
0.052596934 -2.1575184 -0.091216497 0
0.054694809 -2.2049935 -0.07004448 0
0.053777657 -2.1842384 -0.038823176 0
0.054281812 -2.1956475 -0.01174107 0
0.05444885 -2.1994274 0.016287984 0
0.054267585 -2.1953254 0.044769153 0
0.054263502 -2.1952331 0.072904378 0
0.054207545 -2.1939666 0.10100482 0
0.063364811 -1.8869275 -0.090293057 0
0.071923733 -2.0100677 -0.091757514 0
0.081422299 -2.1467271 -0.08971449 0
0.084775664 -2.194973 -0.06887833 0
0.084542669 -2.1916208 -0.039888728 0
0.084904499 -2.1968267 -0.012013195 0
0.085103676 -2.1996922 0.016147884 0
0.085214689 -2.2012894 0.044410165 0
0.085432716 -2.2044263 0.072649829 0
0.085251436 -2.201818 0.1010051 0
0.086833924 -1.893926 -0.092184491 0
0.096602179 -1.9968462 -0.089656197 0
0.11035386 -2.1417365 -0.089286529 0
0.11578196 -2.1989281 -0.069789313 0
0.1166081 -2.2076323 -0.042060915 0
0.11612766 -2.2025704 -0.012786327 0
0.11654316 -2.206948 0.015462229 0
0.1174415 -2.2164133 0.043585483 0
0.11560942 -2.1971102 0.072761893 0
0.11630241 -2.2044115 0.10100524 0
0.11004148 -1.8948767 -0.092913501 0
0.12313206 -2.0035677 -0.091449954 0
0.14000803 -2.1436887 -0.090127282 0
0.14584434 -2.1921475 -0.069294073 0
0.14559193 -2.1900518 -0.040380482 0
0.14687778 -2.2007282 -0.012922591 0
0.14601061 -2.1935282 0.016174572 0
0.14656644 -2.198143 0.044286076 0
0.14752662 -2.2061155 0.072474264 0
0.14712211 -2.2027569 0.10100529 0
0.1314605 -1.8822895 -0.090862609 0
0.14695363 -1.9883184 -0.089195363 0
0.16789943 -2.1316633 -0.088773616 0
0.17873169 -2.205795 -0.071805917 0
0.17796403 -2.2005415 -0.042095605 0
0.17879108 -2.2062016 -0.013822546 0
0.17838429 -2.2034175 0.015190238 0
0.17637934 -2.1896963 0.044492543 0
0.17660181 -2.1912191 0.072728306 0
0.17737679 -2.1965227 0.10100523 0
0.1541086 -1.8796341 -0.091061302 0
0.17193547 -1.9832817 -0.088997476 0
0.19683574 -2.1280549 -0.088934861 0
0.20904866 -2.1990623 -0.071540616 0
0.20815858 -2.1938872 -0.041881789 0
0.20919353 -2.1999044 -0.013687765 0
0.20929116 -2.2004724 0.01505422 0
0.20988366 -2.203917 0.043593671 0
0.20952992 -2.2018604 0.072363682 0
0.20667173 -2.1852424 0.10100504 0
0.17596096 -1.8726444 -0.090445347 0
0.19938864 -1.9909099 -0.091351174 0
0.2279233 -2.1349561 -0.090979822 0
0.23967472 -2.1942785 -0.071662568 0
0.24183433 -2.2051804 -0.043895815 0
0.23972189 -2.1945167 -0.013711667 0
0.23896143 -2.1906776 0.015350187 0
0.24067852 -2.1993458 0.043542117 0
0.24034362 -2.1976552 0.072329484 0
0.24225433 -2.2073007 0.10100584 0
0.19647855 -1.8603095 -0.088781245 0
0.2223593 -1.9756143 -0.08942648 0
0.25654209 -2.1279066 -0.090818353 0
0.27348873 -2.2034078 -0.073900156 0
0.27051014 -2.1901374 -0.042868245 0
0.27240995 -2.1986015 -0.014715387 0
0.27182382 -2.1959903 0.014511922 0
0.27418342 -2.2065029 0.042893682 0
0.27101439 -2.192384 0.072302014 0
0.27280742 -2.2003725 0.10100583 0
0.22200321 -1.8694763 -0.091932125 0
0.24953455 -1.9791119 -0.09125144 0
0.28564012 -2.1228921 -0.091122724 0
0.30597878 -2.2038848 -0.075021572 0
0.30635387 -2.2053785 -0.045570377 0
0.30280343 -2.1912398 -0.014703063 0
0.30258307 -2.1903625 0.01439731 0
0.30599654 -2.2039557 0.042666469 0
0.30454722 -2.198184 0.071990453 0
0.3050369 -2.200134 0.10100604 0
0.2412618 -1.8532679 -0.089648269 0
0.277403 -1.9832169 -0.093341626 0
0.31224981 -2.1085117 -0.089956395 0
0.33594498 -2.1937096 -0.074716292 0
0.33899388 -2.2046723 -0.046466369 0
0.33689094 -2.1971111 -0.016046761 0
0.33693364 -2.1972644 0.013316529 0
0.33795151 -2.2009244 0.042422369 0
0.3359983 -2.1939015 0.071899675 0
0.33981562 -2.2076271 0.1010065 0
0.261545 -1.8422191 -0.088601209 0
0.29868177 -1.9637789 -0.090949349 0
0.3420504 -2.1057374 -0.090890564 0
0.36962131 -2.1959853 -0.076348983 0
0.36903638 -2.1940708 -0.046260316 0
0.37096748 -2.2003918 -0.017231686 0
0.36819196 -2.1913066 0.013104299 0
0.36963186 -2.1960199 0.04222846 0
0.37221998 -2.2044916 0.07142739 0
0.36824015 -2.1914644 0.10100628 0
0.28551799 -1.8429809 -0.090305783 0
0.32330349 -1.9563451 -0.091026343 0
0.37126359 -2.100235 -0.09148971 0
0.42569602 -2.2635431 -0.08779145 0
0.51753664 -2.5390835 -0.089955278 0
0.65220344 -2.9431109 -0.091263287 0
0.86523986 -3.5822632 -0.090106957 0
1.3045124 -4.9001689 -0.090946428 0
3.2875726 -10.849749 -0.14068925 0
0.30653453 -1.8343344 -0.09003558 0
0.34795976 -1.9488978 -0.091225304 0
0.39955351 -2.0915828 -0.091672234 0
0.46384558 -2.2693858 -0.0903266 0
0.55828708 -2.5305684 -0.090578131 0
0.70267051 -2.9298677 -0.091641434 0
0.93531364 -3.5732539 -0.09111964 0
1.3992302 -4.8562379 -0.090461455 0
3.5349026 -10.762545 -0.14066105 0
0.33015689 -1.8324993 -0.091437452 0
0.36836821 -1.9303782 -0.089312665 0
0.42600587 -2.078018 -0.091115184 0
0.49487525 -2.2544281 -0.089893423 0
0.59808207 -2.5187941 -0.090926655 0
0.75060409 -2.9094818 -0.091434665 0
1.0006318 -3.5499322 -0.091200329 0
1.497587 -4.8228908 -0.090619557 0
3.7850802 -10.682343 -0.14096242 0
0.35126105 -1.8237681 -0.091401212 0
0.39687121 -1.9324235 -0.091685198 0
0.4512465 -2.0619597 -0.090226151 0
0.52911854 -2.2474716 -0.090793855 0
0.62902939 -2.4854856 -0.088676028 0
0.79981542 -2.892343 -0.091676228 0
1.0578068 -3.5069466 -0.089915343 0
1.594734 -4.7860484 -0.09072756 0
4.0294089 -10.586088 -0.1410206 0
0.36772043 -1.8046955 -0.089077733 0
0.42177933 -1.9248869 -0.092253692 0
0.47878128 -2.0516219 -0.090472035 0
0.55413598 -2.2191615 -0.088546522 0
0.67216277 -2.4815755 -0.090266727 0
0.8452636 -2.8664384 -0.091149829 0
1.1260306 -3.4906797 -0.090773858 0
1.6909274 -4.7466397 -0.090830274 0
4.2675109 -10.475273 -0.14086461 0
0.38870367 -1.7962785 -0.089336194 0
0.44214043 -1.907497 -0.090900697 0
0.50653499 -2.0415223 -0.090890326 0
0.59010237 -2.215452 -0.090205289 0
0.70586193 -2.4563837 -0.089257695 0
0.88718325 -2.83377 -0.090034716 0
1.1867379 -3.4572368 -0.090443425 0
1.7893656 -4.7114935 -0.091279052 0
4.5058851 -10.365418 -0.14088562 0
0.41197661 -1.7921681 -0.090752088 0
0.46304852 -1.891935 -0.090024956 0
0.5329451 -2.028475 -0.090898357 0
0.61656749 -2.1918278 -0.088883899 0
0.7479797 -2.4485359 -0.090623744 0
0.93850726 -2.8207235 -0.09107288 0
1.2501439 -3.4294922 -0.090675823 0
1.8742048 -4.6485691 -0.090410002 0
4.733973 -10.235005 -0.14052609 0
0.43488663 -1.7866576 -0.091989927 0
0.49070787 -1.8892357 -0.092007764 0
0.56098443 -2.0183771 -0.091582276 0
0.64940542 -2.1808612 -0.089675598 0
0.7785517 -2.4181826 -0.089154638 0
0.98650634 -2.800324 -0.091480754 0
1.3139789 -3.4020932 -0.091065459 0
1.970668 -4.6088371 -0.090870909 0
4.9692445 -10.119076 -0.14069632 0
0.44820118 -1.7639105 -0.089156218 0
0.5110178 -1.8727119 -0.091163717 0
0.58438325 -1.9997844 -0.090797432 0
0.67809922 -2.1621048 -0.089348383 0
0.81918079 -2.4064646 -0.090282314 0
1.028505 -2.7690239 -0.090849437 0
1.3692737 -3.3592517 -0.090343364 0
2.6034346 -5.4968762 -0.14134251 0
5.196445 -9.9880934 -0.14062326 0
0.47229621 -1.7600546 -0.09106838 0
0.52893847 -1.8526827 -0.089645006 0
0.61135238 -1.987456 -0.091320135 0
0.70970446 -2.148293 -0.089948989 0
0.85558909 -2.3868611 -0.090486653 0
1.0706922 -2.7386234 -0.090421818 0
1.4308091 -3.3275299 -0.090634786 0
2.7116513 -5.4221168 -0.14092439 0
5.4228034 -9.8557177 -0.14066622 0
0.48873317 -1.7434949 -0.089948885 0
0.55522364 -1.8463066 -0.091264434 0
0.63474876 -1.9692731 -0.090837725 0
0.73420781 -2.1230626 -0.088780902 0
0.89170891 -2.3666005 -0.090729825 0
1.1141042 -2.7104814 -0.090355672 0
1.4889648 -3.2901137 -0.090585195 0
2.8184001 -5.3457675 -0.14056154 0
5.6495948 -9.7235327 -0.14087209 0
0.51096374 -1.7358619 -0.091213785 0
0.57916588 -1.8357023 -0.092097662 0
0.65828264 -1.9515208 -0.090549208 0
0.76727575 -2.1110749 -0.089950688 0
0.92502999 -2.34201 -0.090492345 0
1.1594862 -2.6852283 -0.090737768 0
1.544313 -3.2485731 -0.090308793 0
2.9300334 -5.2771182 -0.14077711 0
5.8611298 -9.5679264 -0.14058191 0
0.51744592 -1.7058413 -0.086781599 0
0.59636092 -1.8153274 -0.090816699 0
0.68254203 -1.9348944 -0.090602808 0
0.7984041 -2.0956407 -0.090688221 0
0.95229733 -2.3091509 -0.089179359 0
1.2019863 -2.6555674 -0.090750359 0
1.6042768 -3.2137024 -0.090721451 0
3.0383759 -5.2033606 -0.14086381 0
6.0803757 -9.4238081 -0.14076737 0
0.54887402 -1.7103665 -0.091529362 0
0.62089676 -1.8051535 -0.092025809 0
0.70607901 -1.9172592 -0.090574421 0
0.82304972 -2.0712008 -0.089987926 0
0.98972642 -2.2905591 -0.090035252 0
1.2420079 -2.6225789 -0.09049768 0
1.6577744 -3.1697567 -0.090476938 0
3.1401689 -5.1206903 -0.14058948 0
6.2896118 -9.2655764 -0.14070436 0
0.56465763 -1.6935202 -0.090768985 0
0.63386518 -1.7799835 -0.089789577 0
0.72385895 -1.8924156 -0.089151792 0
0.85213006 -2.0526688 -0.090447716 0
1.0241143 -2.2675343 -0.090385057 0
1.2889129 -2.5983558 -0.091407441 0
1.7182068 -3.1346865 -0.091141976 0
3.2475576 -5.0453539 -0.14089856 0
6.4969211 -9.1048889 -0.14072269 0
0.58299375 -1.6799605 -0.091015466 0
0.64713794 -1.7560787 -0.087896802 0
0.74829024 -1.8761137 -0.089629941 0
0.8833673 -2.0364063 -0.091467969 0
1.0459272 -2.2293119 -0.088550933 0
1.3288488 -2.5650482 -0.091370903 0
1.7669903 -3.0849798 -0.090621211 0
3.3444915 -4.9569612 -0.14058279 0
6.7027864 -8.9421663 -0.14083703 0
0.59136474 -1.6550534 -0.088173799 0
0.67381096 -1.7480248 -0.090034984 0
0.77989751 -1.8676546 -0.091975696 0
0.91244841 -2.0171273 -0.09209118 0
1.0844747 -2.2111146 -0.089888506 0
1.3707751 -2.5339649 -0.09173543 0
1.8187342 -3.0391111 -0.090561129 0
3.443501 -4.8712993 -0.14058039 0
6.8885117 -8.7561073 -0.14038849 0
0.61646199 -1.6490431 -0.090818502 0
0.69063026 -1.7285452 -0.089452364 0
0.80341423 -1.84944 -0.092361845 0
0.93492091 -1.990404 -0.091437988 0
1.1114048 -2.1795797 -0.089279808 0
1.4028989 -2.4920366 -0.090857811 0
1.8605754 -2.9826272 -0.08960814 0
3.5457964 -4.789041 -0.14095195 0
7.0960288 -8.5945892 -0.14085698 0
0.62422919 -1.6244547 -0.088183261 0
0.72130418 -1.7233844 -0.092744388 0
0.8141889 -1.8180437 -0.089857511 0
0.95789319 -1.9644935 -0.091038801 0
1.1538599 -2.1642041 -0.091411822 0
1.4424527 -2.4583106 -0.091135599 0
1.9157132 -2.9406128 -0.090150736 0
3.6404452 -4.6982965 -0.1409457 0
7.2864809 -8.413991 -0.14088427 0
0.65508014 -1.6230842 -0.092629902 0
0.72463912 -1.690483 -0.088821523 0
0.841416 -1.8036332 -0.091362365 0
0.9818157 -1.9396726 -0.090964802 0
1.1684002 -2.1204624 -0.089013584 0
1.4739072 -2.4164817 -0.09046609 0
1.9604851 -2.8879483 -0.089775749 0
3.7305238 -4.6030164 -0.14079371 0
7.4647417 -8.2212639 -0.14066567 0
0.66165429 -1.5978959 -0.08996854 0
0.74788541 -1.67733 -0.090302981 0
0.85772222 -1.7785091 -0.090474613 0
1.0014278 -1.9108874 -0.090190046 0
1.2091849 -2.1022685 -0.091018282 0
1.5180312 -2.3867707 -0.091555409 0
2.5372498 -3.3256519 -0.14010333 0
3.8119671 -4.4998922 -0.14025271 0
7.6466522 -8.0323172 -0.14072309 0
0.67543763 -1.5798399 -0.089583732 0
0.76939255 -1.6621051 -0.091400765 0
0.8841095 -1.762549 -0.091948546 0
1.030526 -1.8907486 -0.091341428 0
1.2241585 -2.0602896 -0.089041837 0
1.5283811 -2.3266613 -0.08852493 0
2.6052117 -3.2695141 -0.14101586 0
3.9030828 -4.4059057 -0.14048494 0
7.8286018 -7.8430171 -0.14092956 0
0.69368511 -1.565598 -0.090568684 0
0.78810316 -1.6441498 -0.091885768 0
0.89878434 -1.7362318 -0.090974919 0
1.0555208 -1.8666297 -0.091812693 0
1.2482225 -2.0269492 -0.088651262 0
1.5647224 -2.2902637 -0.088899426 0
2.6609113 -3.202246 -0.1409246 0
3.9919226 -4.3095899 -0.14071976 0
7.9973202 -7.6419086 -0.14087766 0
0.7126686 -1.5516213 -0.091831975 0
0.79820919 -1.6192093 -0.090405606 0
0.91221315 -1.7092869 -0.089900099 0
1.0713248 -1.8350053 -0.090738706 0
1.2729188 -1.9942902 -0.088489242 0
1.6031312 -2.2551999 -0.089622922 0
2.7080805 -3.1282506 -0.14022793 0
4.0776343 -4.210372 -0.14091009 0
8.1543512 -7.4314961 -0.14063244 0
0.72198367 -1.530001 -0.090597443 0
0.81902516 -1.6027757 -0.091624267 0
0.93420732 -1.6891546 -0.090746082 0
1.0996528 -1.8132275 -0.092026405 0
1.3221684 -1.9800993 -0.092038788 0
1.6342759 -2.214159 -0.089589633 0
2.7601113 -3.0584602 -0.14013396 0
4.1635842 -4.110971 -0.1412579 0
8.3064642 -7.2178521 -0.14040475 0
0.74222887 -1.5164964 -0.092379548 0
0.84363705 -1.5886211 -0.093795411 0
0.9541232 -1.6672025 -0.091261335 0
1.1121892 -1.779624 -0.09066359 0
1.3214867 -1.9284831 -0.088416018 0
1.6789235 -2.1827035 -0.091223322 0
2.8196027 -2.9939914 -0.14083421 0
4.2374535 -4.0024123 -0.14105403 0
8.4660282 -7.0099092 -0.14054899 0
0.74573857 -1.4911861 -0.089930065 0
0.83941728 -1.5543158 -0.089463376 0
0.96564853 -1.6393826 -0.09021578 0
1.1281611 -1.7488991 -0.090050928 0
1.3409567 -1.8923012 -0.087879561 0
1.6909573 -2.1281652 -0.089248754 0
2.8624671 -2.9176412 -0.14025939 0
4.3141971 -3.8959563 -0.14117013 0
8.6211586 -6.7984004 -0.14071496 0
0.76173121 -1.47451 -0.090829246 0
0.86401206 -1.5397456 -0.091832675 0
0.99102372 -1.6207547 -0.092024751 0
1.1480992 -1.7209388 -0.090239502 0
1.3635433 -1.858351 -0.087911375 0
1.7294879 -2.0917537 -0.090392791 0
2.9253728 -2.8544998 -0.14151664 0
4.37782 -3.7808836 -0.14070952 0
8.7721615 -6.5836334 -0.14091289 0
0.77890152 -1.4582776 -0.092112429 0
0.87176538 -1.514262 -0.090543769 0
0.99626404 -1.5893179 -0.090033345 0
1.1634712 -1.6901213 -0.089792691 0
1.3996537 -1.8325074 -0.089906134 0
1.7668108 -2.0538538 -0.09148892 0
2.9649913 -2.776195 -0.1409851 0
4.445013 -3.6684487 -0.14060906 0
8.9035654 -6.3563538 -0.14072408 0
0.78166503 -1.4334811 -0.08995498 0
0.88590503 -1.4927905 -0.090797611 0
1.0146539 -1.5660444 -0.090707906 0
1.1912849 -1.6665421 -0.091490619 0
1.4156704 -1.7942104 -0.089258932 0
1.7876971 -2.005882 -0.09090776 0
3.0065134 -2.6993506 -0.1407744 0
4.5046167 -3.5517249 -0.14025664 0
9.0370283 -6.1305256 -0.14074765 0
0.80761302 -1.4216768 -0.093569987 0
0.89486867 -1.4684486 -0.090058543 0
1.0347009 -1.5434031 -0.091792755 0
1.1977388 -1.6307968 -0.089855455 0
1.4441626 -1.762888 -0.090403788 0
1.8045001 -1.9560405 -0.090031125 0
3.0441287 -2.6205215 -0.14041156 0
4.5774298 -3.4424205 -0.1407634 0
9.1722717 -5.9054036 -0.14096928 0
0.79832643 -1.391138 -0.088823847 0
0.92045718 -1.4526888 -0.092965744 0
1.0502452 -1.5180987 -0.092141084 0
1.2138313 -1.6005421 -0.089900739 0
1.4597398 -1.7244738 -0.089948095 0
1.8352224 -1.9137076 -0.090752788 0
3.0910342 -2.5466056 -0.14093737 0
4.6341958 -3.3243206 -0.140572 0
9.2876196 -5.6695299 -0.14081904 0
0.81416023 -1.3737042 -0.090222456 0
0.92071611 -1.4240756 -0.090644829 0
1.0396804 -1.4803127 -0.087855734 0
1.222033 -1.566515 -0.088838331 0
1.4841468 -1.6904223 -0.090765379 0
1.8535895 -1.8650664 -0.090301327 0
3.1196113 -2.4635441 -0.14018486 0
4.6922731 -3.2069778 -0.14060482 0
9.4030304 -5.4338613 -0.14082624 0
0.82097739 -1.3519044 -0.089612819 0
0.9335131 -1.4016685 -0.091081388 0
1.0617507 -1.4583762 -0.089654945 0
1.2302247 -1.5328768 -0.0879189 0
1.4937054 -1.6493901 -0.089786567 0
1.878406 -1.8195078 -0.090639122 0
3.1672068 -2.389426 -0.14105561 0
4.7324839 -3.0816042 -0.13987942 0
9.512084 -5.1951814 -0.14082386 0
0.83410215 -1.3328465 -0.090586953 0
0.94683272 -1.3793329 -0.091735758 0
1.0750984 -1.4322253 -0.089983828 0
1.2649487 -1.5105133 -0.091172032 0
1.5264387 -1.618343 -0.091879286 0
1.8981708 -1.771633 -0.090580083 0
3.206934 -2.3113234 -0.14146461 0
4.8042789 -2.9700153 -0.14091228 0
9.6156969 -4.9540834 -0.14083698 0
0.85162944 -1.3152124 -0.092663921 0
0.95406562 -1.3544599 -0.09127041 0
1.0804447 -1.4028807 -0.089018039 0
1.263623 -1.4730637 -0.089053907 0
1.518868 -1.5708582 -0.089006074 0
1.9167615 -1.7233073 -0.090525649 0
3.2318029 -2.2271523 -0.14090563 0
4.8531818 -2.8483675 -0.14093503 0
9.7054834 -4.707478 -0.14065801 0
0.85366029 -1.2915467 -0.091328464 0
0.96436054 -1.3307871 -0.091547139 0
1.0957366 -1.3773563 -0.089924835 0
1.2804886 -1.4428459 -0.089808591 0
1.55602 -1.5405145 -0.091853298 0
1.947147 -1.6791586 -0.09176112 0
3.2666268 -2.146879 -0.1412483 0
4.8973184 -2.7249155 -0.14087453 0
9.8093967 -4.4661155 -0.14098336 0
0.86308664 -1.2706125 -0.091791667 0
0.96515667 -1.3039194 -0.090058543 0
1.1048156 -1.3494922 -0.089861937 0
1.2971395 -1.4122503 -0.0906386 0
1.5726074 -1.5021396 -0.092243589 0
1.9538871 -1.6265569 -0.090774722 0
3.2930768 -2.0635543 -0.141122 0
4.941062 -2.6013165 -0.14094852 0
9.8853006 -4.2146945 -0.14077066 0
0.86696607 -1.2478918 -0.091138564 0
0.97896004 -1.281335 -0.091271766 0
1.1140792 -1.3216838 -0.089952312 0
1.3017253 -1.377718 -0.089806519 0
1.544935 -1.4503444 -0.087351047 0
1.9485917 -1.570883 -0.088753156 0
3.3158953 -1.9791824 -0.14088576 0
4.9848876 -2.477571 -0.14117812 0
9.9610653 -3.9635396 -0.14071076 0
0.88280743 -1.2285624 -0.093251251 0
0.98720253 -1.2568882 -0.091503091 0
1.1202427 -1.2929863 -0.089634083 0
1.310708 -1.3446656 -0.089747764 0
1.5581766 -1.4118119 -0.087605394 0
1.9693878 -1.523387 -0.089405201 0
3.348181 -1.8974984 -0.14149171 0
5.0255027 -2.3526101 -0.14140244 0
10.037009 -3.7123947 -0.14080884 0
0.88097566 -1.2043819 -0.091590829 0
0.99486744 -1.2322193 -0.091741033 0
1.1257035 -1.2641983 -0.089321859 0
1.3244452 -1.3127747 -0.090498291 0
1.5795979 -1.375139 -0.088959701 0
1.9725906 -1.4711941 -0.088478319 0
3.3683164 -1.8123369 -0.14136834 0
5.042542 -2.2215505 -0.1406472 0
10.094962 -3.4564614 -0.14062792 0
0.90162951 -1.1854882 -0.094964348 0
0.99876219 -1.2066473 -0.091371275 0
1.1349843 -1.2363214 -0.089776464 0
1.3312161 -1.279068 -0.090358831 0
1.6023147 -1.3381232 -0.090572573 0
1.9874803 -1.4220265 -0.088799141 0
3.3884385 -1.7272068 -0.14139895 0
5.0688524 -2.0932629 -0.1404959 0
10.168878 -3.204236 -0.14098199 0
0.88759422 -1.1591197 -0.090917446 0
0.99809635 -1.1802858 -0.090252794 0
1.1356862 -1.2066404 -0.088911347 0
1.3370949 -1.2452191 -0.090214439 0
1.6139674 -1.2982526 -0.09097255 0
2.540705 -1.4757643 -0.14039853 0
3.3915944 -1.6387477 -0.14037511 0
5.1040869 -1.9667666 -0.1409222 0
10.213149 -2.9453804 -0.1407837 0
0.89346164 -1.137004 -0.091319211 0
0.99987417 -1.1546159 -0.089732803 0
1.1541308 -1.1801462 -0.091130622 0
1.3377355 -1.2105337 -0.089446478 0
1.6331222 -1.2594219 -0.092379056 0
2.5542445 -1.4118729 -0.14059477 0
3.4150357 -1.5543386 -0.14095151 0
5.1179829 -1.8361858 -0.1404908 0
10.254053 -2.686234 -0.14066117 0
0.89270175 -1.1138515 -0.090417214 0
1.0110372 -1.1303811 -0.091122977 0
1.1569626 -1.1507643 -0.090862356 0
1.3527532 -1.178113 -0.090845756 0
1.6309773 -1.2169762 -0.091382958 0
2.5590584 -1.3466134 -0.14012019 0
3.4325163 -1.4686208 -0.14125581 0
5.1378107 -1.7068216 -0.14049499 0
10.300214 -2.4279218 -0.14081633 0
0.89838547 -1.091635 -0.09102156 0
1.0057129 -1.1038748 -0.089499734 0
1.1544458 -1.1208366 -0.089832984 0
1.3532454 -1.1435081 -0.090302385 0
1.6330508 -1.1754177 -0.091012157 0
2.5717587 -1.2824697 -0.14054285 0
3.444155 -1.3819596 -0.14130063 0
5.16606 -1.5783292 -0.14104699 0
10.334538 -2.1677527 -0.14084686 0
0.90046465 -1.0689405 -0.090975188 0
1.009288 -1.0785767 -0.089689575 0
1.1243899 -1.0887687 -0.084386893 0
1.1216497 -1.088526 -0.057139579 0
1.6287564 -1.1334294 -0.090018265 0
2.5767097 -1.217369 -0.14039034 0
3.4359989 -1.2934574 -0.14010982 0
5.1742029 -1.4473721 -0.1408098 0
10.35824 -1.9064089 -0.14078288 0
0.90167874 -1.046188 -0.090866737 0
1.0144684 -1.0533127 -0.090302683 0
1.125746 -1.0603418 -0.084255792 0
1.135324 -1.0609469 -0.058762792 0
1.6347584 -1.0924952 -0.090355925 0
2.5715089 -1.1516677 -0.13944241 0
3.459084 -1.2077341 -0.14126591 0
5.1809235 -1.3164991 -0.140661 0
10.383243 -1.645119 -0.14090309 0
0.9014051 -1.0233904 -0.090564169 0
1.0130867 -1.0276196 -0.089798607 0
1.1266857 -1.0319214 -0.084174417 0
1.1277151 -1.0319604 -0.057489235 0
1.6328043 -1.0510874 -0.089883663 0
2.5963123 -1.0875741 -0.14145298 0
3.4544766 -1.1200715 -0.14063503 0
5.1928339 -1.1859007 -0.14090808 0
10.378688 -1.3822814 -0.140489 0
0.90628761 -1.0007151 -0.091480143 0
1.0240732 -1.0022013 -0.091746636 0
1.1214333 -1.0034298 -0.083193205 0
1.1279947 -1.0035125 -0.057427634 0
1.1333623 -1.0035802 -0.031386066 0
1.1268853 -1.0034986 -0.0041308906 0
1.1229864 -1.0034493 0.022524925 0
1.1374393 -1.0036317 0.048058454 0
1.1312689 -1.0035539 0.07468845 0
1.1329733 -1.0035753 0.10100272 0
1.1289934 -1.0035251 0.12726387 0
1.1416913 -1.0036854 0.15414558 0
1.1312833 -1.003554 0.1800608 0
1.1293726 -1.0035299 0.20636886 0
1.1309525 -1.0035498 0.23311059 0
1.126637 -1.0034955 0.25924316 0
1.1308174 -1.0035481 0.28674269 0
1.1316247 -1.0035583 0.3140133 0
0.89950025 -0.97795522 -0.090037294 0
1.0261754 -0.97635686 -0.092142604 0
1.131987 -0.97502178 -0.084927864 0
1.1278809 -0.97507364 -0.05741166 0
1.6348598 -0.96867681 -0.09000241 0
2.5963354 -0.95654541 -0.14130078 0
3.4646919 -0.94558889 -0.1411954 0
5.1921797 -0.9237923 -0.14072362 0
10.403274 -0.85804141 -0.14090693 0
0.89284956 -0.95551831 -0.08874429 0
1.025795 -0.95048386 -0.092193924 0
1.120126 -0.94691169 -0.083095543 0
1.127431 -0.94663507 -0.057449285 0
1.6435076 -0.92709196 -0.091135494 0
2.6013434 -0.89082009 -0.14192291 0
3.4554191 -0.85847747 -0.14070095 0
5.1823936 -0.79307944 -0.14042169 0
10.392776 -0.5957697 -0.14081679 0
0.8935259 -0.93291169 -0.089130305 0
1.0133842 -0.92534047 -0.090098061 0
1.1322558 -0.9178316 -0.085327826 0
1.1246905 -0.91830951 -0.057265449 0
1.6304405 -0.88636231 -0.089850269 0
2.5852778 -0.82604718 -0.14073016 0
3.4557908 -0.77105868 -0.14103523 0
5.1784401 -0.66224241 -0.14054513 0
10.369069 -0.33436105 -0.14057289 0
0.8977676 -0.90988296 -0.090399645 0
1.0137258 -0.89961511 -0.090528689 0
1.1582443 -0.88681823 -0.089972682 0
1.3612623 -0.86884135 -0.090945207 0
1.6253161 -0.84545988 -0.089614607 0
2.5727973 -0.76156217 -0.14002372 0
3.436187 -0.68511063 -0.14012301 0
5.1726675 -0.53134853 -0.14073806 0
10.360519 -0.071974009 -0.14083606 0
0.89749497 -0.88705134 -0.090831049 0
1.0120603 -0.87398607 -0.090703033 0
1.1523376 -0.85798854 -0.089484252 0
1.3568358 -0.83466715 -0.090810232 0
1.6292534 -0.80360013 -0.090565465 0
2.5801733 -0.69515526 -0.14133336 0
3.4375343 -0.5973801 -0.14083479 0
5.1602926 -0.40091327 -0.14077675 0
10.322032 0.18774191 -0.14055422 0
0.89268231 -0.86473584 -0.090413041 0
1.0113345 -0.84816211 -0.091179498 0
1.1522896 -0.82847309 -0.090086885 0
1.3530641 -0.80042827 -0.090889864 0
1.6178061 -0.7634483 -0.089828648 0
2.5694678 -0.63051724 -0.14110126 0
3.4214814 -0.51150537 -0.14047687 0
5.1355906 -0.27207336 -0.14039062 0
10.308075 0.45043519 -0.1410009 0
0.88653111 -0.84272772 -0.08982601 0
1.0080724 -0.82261199 -0.091297932 0
1.1373826 -0.80121046 -0.088340588 0
1.3353574 -0.76844448 -0.089107715 0
1.6201333 -0.72131252 -0.090840347 0
2.5539424 -0.56676185 -0.14056619 0
3.4065542 -0.42564985 -0.14035051 0
5.1293969 -0.14050981 -0.1410294 0
10.254528 0.70772797 -0.14067237 0
0.88811648 -0.81936496 -0.091030486 0
1.0084863 -0.79630876 -0.092245318 0
1.1423348 -0.77067077 -0.090023927 0
1.3437718 -0.7320866 -0.091169842 0
1.3423846 -0.73235232 -0.058654744 0
1.3523129 -0.73045057 -0.027457064 0
1.351774 -0.73055381 0.0048200134 0
1.3476492 -0.73134387 0.03713667 0
1.3484391 -0.73119259 0.069071695 0
1.3517807 -0.73055249 0.10100966 0
0.89034742 -0.7955541 -0.092509963 0
0.99422497 -0.77292573 -0.090496652 0
1.1412015 -0.74090886 -0.090822242 0
1.206697 -0.72664154 -0.0724492 0
1.1990256 -0.72831261 -0.042333502 0
1.2078973 -0.72638005 -0.014326124 0
1.1954441 -0.72909284 0.015507394 0
1.2024215 -0.72757286 0.043725725 0
1.2095957 -0.72601008 0.072210401 0
1.2006354 -0.72796196 0.10100545 0
0.87868464 -0.77476269 -0.091089509 0
0.98797435 -0.74805009 -0.090404503 0
1.1359257 -0.7118879 -0.091051348 0
1.2088131 -0.69407278 -0.073769592 0
1.1973501 -0.69687456 -0.04297005 0
1.1965585 -0.69706804 -0.013910925 0
1.2100431 -0.69377214 0.013956899 0
1.2052163 -0.69495195 0.043256991 0
1.2060182 -0.69475591 0.072127827 0
1.2135258 -0.69292092 0.10100603 0
0.87037218 -0.75339645 -0.090512417 0
0.98681289 -0.72180229 -0.091427051 0
1.1117749 -0.68789601 -0.088192068 0
1.2121857 -0.66065133 -0.075401343 0
1.2102584 -0.6611743 -0.045472804 0
1.2089041 -0.6615417 -0.015854841 0
1.2142408 -0.66009372 0.013084838 0
1.1999303 -0.66397661 0.043135241 0
1.1957303 -0.66511619 0.072187394 0
1.2076559 -0.66188043 0.10100609 0
0.8521989 -0.73510259 -0.087862663 0
0.97131479 -0.69953269 -0.089768939 0
1.1109802 -0.6578263 -0.089420743 0
1.1993859 -0.63142687 -0.074796729 0
1.206292 -0.62936461 -0.046045754 0
1.2119544 -0.62767375 -0.016994996 0
1.2069161 -0.62917823 0.01298506 0
1.2050456 -0.62973678 0.042469371 0
1.203138 -0.63030642 0.071799949 0
1.2042532 -0.62997341 0.10100625 0
0.85751355 -0.70979083 -0.090545572 0
0.9792667 -0.67006099 -0.092854105 0
1.1017859 -0.63008118 -0.089338176 0
1.2123332 -0.59400791 -0.078101896 0
1.2206541 -0.59129268 -0.048975024 0
1.216308 -0.59271091 -0.01835612 0
1.2072979 -0.59565103 0.012260588 0
1.2120273 -0.59410775 0.041664444 0
1.2170043 -0.5924837 0.071229942 0
1.2141902 -0.59340197 0.10100683 0
0.84980112 -0.68840593 -0.090458132 0
0.96348983 -0.64810628 -0.091373138 0
1.1060977 -0.59755564 -0.091731511 0
1.2128249 -0.55972368 -0.07971976 0
1.2109549 -0.56038654 -0.049065668 0
1.2157288 -0.55869436 -0.019328004 0
1.2047398 -0.56258965 0.01168518 0
1.195955 -0.56570363 0.041946765 0
1.2058287 -0.56220365 0.071249098 0
1.213006 -0.55965948 0.10100711 0
0.84116572 -0.66738135 -0.09028206 0
0.94124937 -0.62903529 -0.088685341 0
1.0863154 -0.57345468 -0.090051286 0
1.1989088 -0.53031564 -0.079314642 0
1.2081858 -0.52676129 -0.050121713 0
1.2098413 -0.52612698 -0.019864125 0
1.2034576 -0.5285728 0.010946469 0
1.2042085 -0.52828515 0.040983502 0
1.1966836 -0.53116816 0.07119894 0
1.2014179 -0.52935427 0.1010071 0
0.83922058 -0.64362746 -0.091763817 0
0.94654471 -0.5993706 -0.091677077 0
1.0800395 -0.54432178 -0.090862237 0
1.21104 -0.49030155 -0.082977124 0
1.2109566 -0.49033597 -0.051995937 0
1.2106245 -0.49047294 -0.021161942 0
1.2101334 -0.49067539 0.009533653 0
1.2075537 -0.49173921 0.040210012 0
1.2111391 -0.49026072 0.070535116 0
1.2068695 -0.49202135 0.10100763 0
0.82738274 -0.62384784 -0.091101535 0
0.92677099 -0.57989752 -0.089692868 0
1.0623364 -0.51994938 -0.089760222 0
1.2050408 -0.45684442 -0.084049083 0
1.2053059 -0.45672718 -0.052931834 0
1.1979584 -0.45997635 -0.021193041 0
1.2108181 -0.45428964 0.0084902439 0
1.2061146 -0.45636955 0.039624684 0
1.2072946 -0.45584777 0.070302963 0
1.2095189 -0.45486411 0.10100812 0
0.82084233 -0.60172176 -0.09179353 0
0.9257254 -0.55214107 -0.091688432 0
1.0576875 -0.48975962 -0.091129251 0
1.2220085 -0.41208133 -0.088834502 0
1.4793528 -0.29042867 -0.09014564 0
1.8556728 -0.11253348 -0.090516411 0
3.1282442 0.4890404 -0.14085242 0
4.696928 1.2305934 -0.14084451 0
9.4060564 3.4567072 -0.14090407 0
0.80966395 -0.58173287 -0.091522507 0
0.91241157 -0.52995062 -0.091268785 0
1.0370485 -0.46713677 -0.089712329 0
1.216375 -0.37676069 -0.090301059 0
1.4507902 -0.25862131 -0.08877679 0
1.8460201 -0.059435274 -0.091881417 0
3.0827119 0.56382662 -0.14028586 0
4.6389537 1.3481338 -0.14082004 0
9.2850504 3.6896503 -0.14075215 0
