# .PCD v0.7 - Point Cloud Data file format
VERSION 0.7
FIELDS x y z intensity
SIZE 4 4 4 4
TYPE F F F F
COUNT 1 1 1 1
WIDTH 1323
HEIGHT 1
VIEWPOINT 0 0 0 1 0 0 0
POINTS 1323
DATA ascii
0.9937101 -1.1794456 -0.089411624 0
1.1427668 -1.2079967 -0.090096228 0
1.3315219 -1.2441517 -0.089417003 0
1.6192667 -1.2992676 -0.091603167 0
2.5357704 -1.4748192 -0.13992958 0
3.395488 -1.6394935 -0.14065225 0
5.0975437 -1.9655132 -0.14061204 0
10.218334 -2.9463737 -0.14090647 0
0.89148861 -1.1366774 -0.090894111 0
0.99293548 -1.1534674 -0.08840812 0
1.1485188 -1.1792173 -0.090195723 0
1.336176 -1.2102757 -0.089224331 0
1.6220638 -1.2575917 -0.091069035 0
2.549798 -1.4111369 -0.14017408 0
3.405597 -1.5527765 -0.14028268 0
5.1182518 -1.8362303 -0.14050348 0
10.258568 -2.6869812 -0.14076757 0
0.89757609 -1.1145325 -0.091463365 0
1.0091964 -1.130124 -0.09077289 0
1.1532328 -1.1502434 -0.090243421 0
1.3495117 -1.1776602 -0.090385787 0
1.6341525 -1.2174197 -0.091757663 0
2.5709829 -1.3482791 -0.14124404 0
3.4252737 -1.467609 -0.14074455 0
5.1530404 -1.7089489 -0.1412109 0
10.297795 -2.4275839 -0.14075957 0
0.90116626 -1.0919521 -0.091616489 0
0.9996714 -1.1031858 -0.088354461 0
1.1535738 -1.1207371 -0.089688726 0
1.3495591 -1.1430876 -0.089780964 0
1.6294079 -1.1750022 -0.090583645 0
2.5763686 -1.2829955 -0.14097592 0
3.4331472 -1.3807043 -0.1405261 0
5.1558371 -1.5771633 -0.14056797 0
10.329308 -2.1671562 -0.14072447 0
0.89659792 -1.0685982 -0.090150051 0
1.0210582 -1.0796189 -0.091915183 0
1.1285917 -1.0891408 -0.085080169 0
1.1128305 -1.0877452 -0.055895332 0
1.6348809 -1.1339717 -0.090736844 0
2.5789921 -1.217571 -0.14060421 0
3.4448938 -1.294245 -0.14073409 0
5.1804352 -1.447924 -0.14110108 0
10.347034 -1.9054166 -0.14052129 0
0.90605515 -1.0464644 -0.091798864 0
1.0129027 -1.0532138 -0.090007193 0
1.1262189 -1.0603718 -0.084333666 0
1.1345952 -1.0609008 -0.058660168 0
1.6480162 -1.0933326 -0.091908507 0
2.5895374 -1.1528066 -0.14112855 0
3.4506931 -1.207204 -0.14067815 0
5.1837397 -1.316677 -0.14079235 0
10.370111 -1.6442895 -0.14059715 0
0.90108556 -1.0233783 -0.090496205 0
1.0192249 -1.0278521 -0.090955563 0
1.1250521 -1.0318595 -0.083905734 0
1.1239115 -1.0318164 -0.056954313 0
1.6547579 -1.0519187 -0.092451297 0
2.5905817 -1.087357 -0.14091769 0
3.4609036 -1.120315 -0.14108466 0
5.1930518 -1.1859089 -0.14091823 0
10.394064 -1.3828638 -0.14084676 0
0.9063372 -1.0007157 -0.091490678 0
1.0370288 -1.0023648 -0.094187014 0
1.1305513 -1.0035448 -0.08469189 0
1.1233827 -1.0034543 -0.056779433 0
1.1324562 -1.0035688 -0.031280149 0
1.1311175 -1.003552 -0.0045259502 0
1.1241242 -1.0034637 0.022445375 0
1.1271001 -1.0035013 0.048539825 0
1.1360289 -1.0036139 0.074577771 0
1.1348803 -1.0035994 0.10100277 0
1.1349629 -1.0036005 0.12740302 0
1.1320242 -1.0035634 0.15369494 0
1.1177402 -1.0033832 0.17911315 0
1.1248316 -1.0034726 0.2059447 0
1.136538 -1.0036203 0.23376378 0
1.1213325 -1.0034285 0.25849733 0
1.1318136 -1.0035607 0.28690648 0
1.1366072 -1.0036212 0.31495214 0
0.90421093 -0.97789574 -0.091038682 0
1.0244067 -0.97637922 -0.091809444 0
1.1277919 -0.97507471 -0.084238343 0
1.1324271 -0.97501624 -0.058050606 0
1.6412337 -0.9685964 -0.090747394 0
2.5849853 -0.95668858 -0.14024127 0
3.455992 -0.94569868 -0.14058715 0
5.1870704 -0.92385679 -0.14048573 0
10.390152 -0.85820693 -0.14060184 0
0.90029842 -0.95523626 -0.09032876 0
1.0273013 -0.95042682 -0.092477866 0
1.1320335 -0.94646078 -0.085053943 0
1.1422924 -0.94607228 -0.059539307 0
1.6486365 -0.92689776 -0.091735356 0
2.5991609 -0.89090276 -0.14171907 0
3.4747343 -0.85774601 -0.14205225 0
5.1859579 -0.79294443 -0.14058773 0
10.391259 -0.5958271 -0.14078152 0
0.90231192 -0.93235672 -0.091001607 0
1.0184418 -0.92502099 -0.091052569 0
1.12874 -0.91805369 -0.084748842 0
1.1295345 -0.9180035 -0.05794755 0
1.6401209 -0.88575083 -0.090983905 0
2.5958502 -0.82537931 -0.14171895 0
3.4597971 -0.7708056 -0.14131588 0
5.1754727 -0.66242987 -0.14040673 0
10.388698 -0.33312115 -0.14103018 0
0.90194875 -0.90951276 -0.091291882 0
1.0042751 -0.90045196 -0.088741697 0
1.1569933 -0.88692904 -0.089766271 0
1.3514323 -0.86971182 -0.089558356 0
1.6341738 -0.8446756 -0.090653874 0
2.57899 -0.76101387 -0.140604 0
3.4466214 -0.6841867 -0.14085534 0
5.1693993 -0.53163797 -0.14058529 0
10.353811 -0.07256797 -0.14067949 0
0.9069531 -0.88597268 -0.092854522 0
1.0181974 -0.87328619 -0.091866441 0
1.1515042 -0.85808361 -0.089346401 0
1.3524197 -0.83517081 -0.09018559 0
1.6303885 -0.80347067 -0.09069898 0
2.5707042 -0.69623512 -0.1404438 0
3.4418266 -0.59689057 -0.1411368 0
5.1544623 -0.40157816 -0.14050356 0
10.33691 0.18943861 -0.14090239 0
0.89924455 -0.86381918 -0.091821469 0
1.0199816 -0.84695429 -0.092824019 0
1.1603286 -0.82735014 -0.091420926 0
1.3520679 -0.80056745 -0.090748511 0
1.6298156 -0.76177078 -0.091245867 0
2.5630488 -0.63141388 -0.14049627 0
3.4266944 -0.51077718 -0.14084485 0
5.1344757 -0.27222905 -0.14033821 0
10.304185 0.44989184 -0.14090955 0
0.88714254 -0.84262657 -0.089957751 0
1.0069183 -0.82280302 -0.091077618 0
1.1417565 -0.80048651 -0.08906921 0
1.3458614 -0.76670605 -0.090603985 0
1.6279005 -0.72002697 -0.091760479 0
2.5594723 -0.56584662 -0.14108936 0
3.4117994 -0.42478177 -0.14072219 0
5.1282191 -0.14070472 -0.14097382 0
10.26781 0.70992619 -0.14098537 0
0.88726765 -0.81952751 -0.09084677 0
0.99951905 -0.79802638 -0.090525635 0
1.1447563 -0.77020693 -0.090429135 0
1.3468957 -0.73148823 -0.091616832 0
1.3443748 -0.73197109 -0.058891568 0
1.3474604 -0.73138005 -0.026995903 0
1.3474913 -0.73137414 0.0051248614 0
1.3488448 -0.73111486 0.037080001 0
1.338192 -0.73315537 0.069314271 0
1.3458223 -0.7316938 0.10100949 0
0.88746917 -0.79618108 -0.091883816 0
0.99876279 -0.77193725 -0.091371395 0
1.133099 -0.74267393 -0.089459337 0
1.2063497 -0.72671717 -0.072399236 0
1.2087291 -0.72619885 -0.043494184 0
1.2028513 -0.72747928 -0.013844086 0
1.2125458 -0.72536743 0.014283786 0
1.2064576 -0.72669369 0.043533426 0
1.205853 -0.72682542 0.072299466 0
1.196981 -0.72875804 0.10100534 0
0.87592059 -0.77543825 -0.090484701 0
0.99197805 -0.7470715 -0.091180794 0
1.1269197 -0.71408916 -0.089527629 0
1.2065657 -0.6946221 -0.073444463 0
1.2057875 -0.6948123 -0.043985177 0
1.205295 -0.6949327 -0.014750397 0
1.2047206 -0.69507307 0.014339948 0
1.2063981 -0.69466305 0.043200351 0
1.2169894 -0.69207436 0.071865231 0
1.2042922 -0.69517779 0.10100576 0
0.87073678 -0.75329751 -0.090592705 0
0.97513211 -0.72497165 -0.089147411 0
1.1161109 -0.68671954 -0.088930465 0
1.2112162 -0.66091436 -0.07526017 0
1.2110666 -0.66095495 -0.045570675 0
1.2074567 -0.66193449 -0.015714845 0
1.2056155 -0.66243404 0.013709629 0
1.1929127 -0.66588074 0.043473758 0
1.2113467 -0.66087896 0.071811177 0
1.20302 -0.66313827 0.10100596 0
0.86617553 -0.73092896 -0.090963192 0
0.97590458 -0.69816208 -0.090671159 0
1.1067207 -0.65909827 -0.088690154 0
1.2009709 -0.63095355 -0.075029202 0
1.2082223 -0.62878817 -0.046281192 0
1.199236 -0.63147163 -0.015756054 0
1.1940247 -0.63302785 0.013925621 0
1.2045541 -0.62988359 0.04249325 0
1.2032526 -0.63027221 0.07179717 0
1.1993288 -0.63144392 0.1010061 0
0.86228561 -0.70823365 -0.091612555 0
0.97366238 -0.67188972 -0.09174373 0
1.1031944 -0.62962157 -0.089581661 0
1.212916 -0.59381777 -0.078188039 0
1.2049108 -0.59643 -0.047039557 0
1.2001135 -0.5979954 -0.016766084 0
1.1941627 -0.59993726 0.013226518 0
1.1939391 -0.60001022 0.042550236 0
1.1972741 -0.59892195 0.071712479 0
1.2017895 -0.59744853 0.10100646 0
0.83664531 -0.69306928 -0.087491237 0
0.95940423 -0.64955455 -0.090556704 0
1.1150619 -0.59437805 -0.093294598 0
1.2094684 -0.5609135 -0.079219289 0
1.214515 -0.55912459 -0.049507115 0
1.2039769 -0.56286013 -0.018164193 0
1.2221324 -0.55642444 0.010395134 0
1.2054369 -0.56234252 0.041478422 0
1.2088348 -0.56113809 0.071174942 0
1.1972646 -0.56523943 0.10100663 0
0.84417593 -0.666228 -0.09096729 0
0.95096236 -0.62531382 -0.090644486 0
1.0988185 -0.56866425 -0.09225186 0
1.1991407 -0.53022683 -0.07934954 0
1.2047933 -0.52806103 -0.049697135 0
1.1959435 -0.53145176 -0.01847495 0
1.2091029 -0.52640992 0.010523843 0
1.2075447 -0.52700692 0.040817179 0
1.1918721 -0.53301167 0.071318738 0
1.202641 -0.52888572 0.10100713 0
0.84076893 -0.64298898 -0.09211982 0
0.93067777 -0.60591358 -0.088444389 0
1.0796916 -0.54446524 -0.090800397 0
1.2040676 -0.49317673 -0.081917219 0
1.208613 -0.49130234 -0.051699672 0
1.1965339 -0.49628341 -0.019739291 0
1.2094868 -0.490942 0.0095825512 0
1.2073472 -0.49182436 0.040220413 0
1.2157376 -0.48836443 0.070419468 0
1.2005923 -0.49460983 0.10100744 0
0.81876594 -0.62765825 -0.089098834 0
0.93587059 -0.57587361 -0.091566898 0
1.0726558 -0.5153861 -0.091614641 0
1.2063549 -0.45626333 -0.084251009 0
1.2028536 -0.45781162 -0.052618433 0
1.217404 -0.4513773 -0.023177652 0
1.2099283 -0.4546831 0.0085582528 0
1.2013373 -0.45848212 0.039867863 0
1.2040862 -0.45726654 0.070384525 0
1.2111301 -0.45415166 0.10100817 0
0.81872028 -0.60272491 -0.091294609 0
0.91482562 -0.55729365 -0.089417629 0
1.0586513 -0.48930398 -0.091304474 0
1.2231436 -0.41154471 -0.089010961 0
1.4850941 -0.28771463 -0.090887822 0
1.8580043 -0.11143139 -0.090757124 0
3.1307125 0.49020723 -0.14104329 0
4.6978526 1.2310307 -0.14089213 0
9.4085226 3.4578726 -0.14096749 0
0.8078742 -0.58263487 -0.091096498 0
0.91492468 -0.52868408 -0.091798849 0
1.045128 -0.46306488 -0.091199301 0
1.1999999 -0.38501331 -0.087724052 0
1.4638602 -0.25203434 -0.090487354 0
1.835519 -0.064727575 -0.090783797 0
3.0852752 0.56511849 -0.14048654 0
4.6413612 1.3493471 -0.14094555 0
9.2889204 3.691601 -0.14085291 0
0.78805828 -0.56738985 -0.088853888 0
0.89275283 -0.51127017 -0.089606397 0
1.022231 -0.44186577 -0.089467444 0
1.204996 -0.34389779 -0.091012634 0
1.4442799 -0.2156339 -0.090419345 0
1.8245388 -0.011802819 -0.092153303 0
3.0505717 0.64539057 -0.14092262 0
4.575078 1.4625752 -0.1406392 0
9.1636295 3.9221871 -0.1407413 0
0.78615969 -0.54254627 -0.091054194 0
0.89541912 -0.48038104 -0.092859365 0
1.0174474 -0.41095087 -0.091236122 0
1.1767726 -0.32029977 -0.089144103 0
1.2069373 -0.30313691 -0.061191294 0
1.2119749 -0.30027071 -0.029080322 0
3.0033498 0.71896595 -0.14051993 0
4.5138807 1.5784109 -0.14075285 0
9.0300093 4.1479473 -0.14055987 0
0.77475291 -0.52280813 -0.091082744 0
0.86517704 -0.46829459 -0.089094795 0
0.99786466 -0.38830188 -0.090340517 0
1.1695439 -0.28480247 -0.090789191 0
1.1508639 -0.29606399 -0.055954013 0
1.204149 -0.26394019 -0.030164158 0
2.9664009 0.79846007 -0.14110015 0
4.4525495 1.6944072 -0.14101873 0
8.906208 4.3793631 -0.14079583 0
0.75741613 -0.50682694 -0.089741342 0
0.85516614 -0.44448116 -0.089856483 0
0.98451811 -0.36197934 -0.090756588 0
1.1526734 -0.25472841 -0.091001965 0
1.1411453 -0.26208112 -0.057082165 0
1.1879866 -0.23220536 -0.030443346 0
2.9204645 0.87278467 -0.14110966 0
4.3900409 1.8100934 -0.14138432 0
8.7659626 4.6010952 -0.14074194 0
0.75355059 -0.48213407 -0.091932483 0
0.83870906 -0.42474619 -0.089302503 0
0.96973568 -0.33644786 -0.091025807 0
1.1245688 -0.23210642 -0.089442171 0
1.1460452 -0.21763358 -0.060409788 0
1.1633579 -0.20596662 -0.029863825 0
2.8658381 0.94132811 -0.14054357 0
4.3098631 1.9144509 -0.14092682 0
8.6256771 4.8228612 -0.14084165 0
0.73811263 -0.46501592 -0.091305859 0
0.82972193 -0.39986047 -0.090579189 0
0.96094888 -0.30652764 -0.092637949 0
1.1148129 -0.19709465 -0.091116048 0
1.1383281 -0.18036994 -0.062147591 0
1.1414125 -0.17817613 -0.029656371 0
2.8188391 1.0148633 -0.14076869 0
4.239573 2.0253351 -0.14117511 0
8.473527 5.0366583 -0.14076294 0
0.72425246 -0.44688216 -0.091200255 0
0.81743687 -0.37700012 -0.091250338 0
0.92768079 -0.29432461 -0.089405321 0
1.0835078 -0.17746481 -0.089190342 0
1.1062967 -0.16037467 -0.060502756 0
1.1004342 -0.16477117 -0.02730543 0
1.1025501 -0.16318431 0.004710326 0
1.0961756 -0.16796485 0.037239056 0
1.0991927 -0.16570219 0.069053836 0
1.0957499 -0.16828409 0.10100947 0
1.0981756 -0.1664649 0.13293575 0
1.0979488 -0.16663501 0.16488339 0
1.0915006 -0.17147067 0.19634314 0
0.70666993 -0.43170306 -0.090206899 0
0.79559445 -0.36144134 -0.089777939 0
0.9145844 -0.2674242 -0.090396769 0
1.0615407 -0.15131 -0.0889863 0
1.0981472 -0.12238631 -0.062456522 0
1.1031108 -0.11846438 -0.030140271 0
1.1082196 -0.11442778 0.0023168123 0
1.099982 -0.12093654 0.035762969 0
1.1010447 -0.12009695 0.068372846 0
1.1000208 -0.12090591 0.10101038 0
1.1033182 -0.11830053 0.13371558 0
1.1009042 -0.12020782 0.16631277 0
1.0974407 -0.12294444 0.19874378 0
0.69156212 -0.41475293 -0.089981653 0
0.79078162 -0.33220652 -0.09254203 0
0.90623832 -0.23615149 -0.092568539 0
1.0243814 -0.13786164 -0.086120062 0
1.0963556 -0.077982157 -0.065562643 0
1.0963776 -0.077963799 -0.032033149 0
1.0938008 -0.080107599 0.0015886223 0
1.1120038 -0.06496349 0.033686917 0
1.1036038 -0.071951896 0.067621559 0
1.0998657 -0.075061947 0.10101121 0
1.0982158 -0.076434463 0.13423781 0
1.0978217 -0.076762408 0.16747665 0
1.0972084 -0.077272624 0.20074388 0
0.68047208 -0.39433673 -0.091006093 0
0.76284993 -0.32220826 -0.089762829 0
0.87975717 -0.2198464 -0.090997793 0
0.99236727 -0.12124714 -0.084213696 0
1.097253 -0.029411163 -0.069328032 0
1.0983274 -0.028470423 -0.035170976 0
1.0990176 -0.027866092 -0.0010599995 0
1.1060692 -0.021691885 0.032589149 0
1.0965703 -0.030008938 0.067112803 0
1.1005509 -0.026523557 0.10101212 0
1.1050481 -0.022585955 0.13517381 0
1.0992482 -0.027664211 0.16901311 0
1.1047012 -0.022889759 0.20361309 0
1.1003001 -0.0267432 0.23744068 0
1.0902259 -0.035563912 0.37374678 0
0.66103125 -0.38126287 -0.089788459 0
0.75184506 -0.29760721 -0.091316991 0
0.86497355 -0.19339588 -0.09209495 0
0.96654159 -0.099833697 -0.08352422 0
1.0556849 -0.017716911 -0.066626631 0
1.0969095 0.020258341 -0.038111929 0
1.0925616 0.016253028 -0.0027852857 0
1.0985008 0.021724138 0.031500641 0
1.0960029 0.019423161 0.066354595 0
1.0998518 0.022968683 0.10101305 0
1.1007006 0.023750458 0.13582012 0
1.1014004 0.024395142 0.1707093 0
1.0971509 0.020480666 0.2052478 0
1.0902414 0.014115844 0.2392918 0
1.0342066 -0.037502196 0.36564961 0
0.64822292 -0.36214474 -0.090600334 0
0.72838718 -0.28447011 -0.089804508 0
0.8428551 -0.17355707 -0.091691695 0
0.84260255 -0.17380175 -0.06372299 0
0.84020787 -0.1761221 -0.035604391 0
0.84474295 -0.17172781 -0.0086938869 0
0.83782226 -0.17843363 0.019508468 0
0.83577025 -0.18042192 0.046855628 0
0.84033126 -0.17600253 0.0737966 0
0.84052002 -0.17581967 0.10100377 0
0.84209263 -0.17429587 0.12826812 0
0.82854998 -0.18741795 0.15468305 0
0.83512831 -0.18104395 0.18223673 0
1.0977479 0.07341972 0.24360557 0
0.99762177 -0.023596849 0.2960794 0
1.0093853 -0.012198653 0.33182481 0
0.99027222 -0.030718174 0.36050999 0
0.63390279 -0.34427151 -0.091119148 0
0.70792758 -0.26883247 -0.089147083 0
0.81361002 -0.16113099 -0.089721672 0
0.83712655 -0.13716516 -0.066806547 0
0.8369925 -0.13730177 -0.03853612 0
0.8485772 -0.12549576 -0.011989741 0
0.84234011 -0.131852 0.016988816 0
0.83555311 -0.13876858 0.045495834 0
0.83824831 -0.13602194 0.073175676 0
0.84209818 -0.13209853 0.10100468 0
0.83978355 -0.13445738 0.12888451 0
0.8424955 -0.13169357 0.15697518 0
0.83716643 -0.13712451 0.18450406 0
0.8449865 -0.12915501 0.21352142 0
1.1030442 0.13383284 0.28496405 0
0.94066191 -0.031651702 0.28960019 0
0.93949407 -0.032841887 0.32128084 0
0.95821428 -0.01376399 0.35847703 0
0.62506568 -0.32031921 -0.093499459 0
0.69380313 -0.24663851 -0.090328433 0
0.79728591 -0.13571373 -0.090885349 0
0.84292859 -0.086788684 -0.07248605 0
0.84066474 -0.089215308 -0.04289389 0
0.84057385 -0.089312762 -0.013913734 0
0.83500427 -0.095282823 0.015496032 0
0.8407104 -0.089166373 0.043661192 0
0.84015596 -0.089760691 0.07236778 0
0.83516014 -0.095115751 0.10100531 0
0.83851725 -0.09151724 0.12958731 0
0.83590317 -0.094319314 0.15802155 0
0.83603346 -0.09417966 0.18662047 0
0.83292383 -0.097512931 0.21487801 0
1.0911565 0.17929044 0.28784394 0
0.93378395 0.010600541 0.29322416 0
0.9282003 0.0046153995 0.3244471 0
0.92624265 0.002516899 0.35652891 0
0.59116763 -0.32375363 -0.088110648 0
0.67925441 -0.22442153 -0.091580264 0
0.76905686 -0.12315467 -0.089290373 0
0.84702849 -0.035228994 -0.078234427 0
0.83254904 -0.051556971 -0.045511741 0
0.84287691 -0.039910641 -0.017469844 0
0.84101421 -0.042011168 0.01245808 0
0.83678538 -0.046779778 0.042324279 0
0.83872467 -0.044592943 0.071613245 0
0.8305316 -0.053831961 0.10100609 0
0.83970386 -0.043488767 0.13043408 0
0.8406176 -0.042458382 0.15995783 0
0.8385278 -0.044814911 0.18929316 0
0.84931052 -0.032655682 0.22038938 0
1.1059892 0.25679114 0.29571548 0
1.1024519 0.25280228 0.33437374 0
0.57664025 -0.30616376 -0.088919707 0
0.64997977 -0.21913359 -0.088727437 0
0.73361343 -0.11988762 -0.085886665 0
0.85291547 0.021685157 -0.08482682 0
0.84427929 0.011436854 -0.051978413 0
0.84642124 0.013978634 -0.021491757 0
0.84334481 0.01032785 0.0095832739 0
0.84175187 0.0084376074 0.040228222 0
0.83353549 -0.0013126399 0.070930839 0
0.84363449 0.01067159 0.10100773 0
0.83957374 0.0058528516 0.13130216 0
0.83155161 -0.0036668445 0.16104941 0
0.8407172 0.0072097513 0.19214723 0
0.84428984 0.011449371 0.22319919 0
0.84182787 0.0085277893 0.25355011 0
1.0975165 0.31194714 0.34021097 0
0.56635422 -0.28294489 -0.091346093 0
0.63776016 -0.19373509 -0.090963565 0
0.72728086 -0.08189401 -0.090051778 0
0.84930325 0.070552498 -0.089811973 0
0.85025412 0.071740419 -0.05786841 0
0.83406788 0.051518474 -0.0234678 0
0.8376016 0.055933271 0.0073741842 0
0.83530772 0.053067479 0.038812939 0
0.83669859 0.054805074 0.069875807 0
0.84390771 0.06381169 0.10100891 0
0.83933616 0.058100257 0.13223976 0
0.84351152 0.063316613 0.16381618 0
0.84239364 0.06192008 0.19517997 0
0.84043562 0.059473906 0.22643711 0
0.84556842 0.065886408 0.25901109 0
1.1078849 0.39360681 0.35000885 0
1.1078333 0.39354232 0.39218351 0
0.54866713 -0.26849046 -0.091456674 0
0.61712444 -0.1783959 -0.090851389 0
0.70746386 -0.059502926 -0.090950616 0
0.7210995 -0.041557457 -0.066306107 0
0.72931802 -0.0307413 -0.039729957 0
0.73232901 -0.026778605 -0.011863841 0
0.72625136 -0.03477725 0.017162846 0
0.72929847 -0.03076705 0.044926118 0
0.72521192 -0.036145236 0.073137663 0
0.73084193 -0.028735723 0.10100484 0
0.72834647 -0.032019939 0.12899227 0
0.73184407 -0.027416851 0.15727969 0
0.72772431 -0.032838728 0.18501708 0
0.72344154 -0.038475182 0.21250226 0
0.72894526 -0.031231906 0.24166837 0
0.73026806 -0.029491033 0.27044684 0
0.72439593 -0.037219133 0.2975612 0
0.72408104 -0.037633505 0.32616091 0
0.53193158 -0.25264612 -0.09204752 0
0.60161555 -0.15596709 -0.092509337 0
0.67528218 -0.053762581 -0.088562213 0
0.73195666 0.024867211 -0.074717887 0
0.9555912 0.33513609 -0.089837722 0
0.84661746 0.18394676 -0.034021888 0
0.84101063 0.17616788 0.00053512515 0
0.84512997 0.18188301 0.033759754 0
0.83907646 0.17348447 0.067644589 0
0.83461034 0.16728821 0.1010111 0
0.83765173 0.17150775 0.1343213 0
0.85008532 0.18875805 0.16865869 0
0.83711541 0.17076364 0.201022 0
0.84581703 0.1828362 0.23591813 0
0.83836627 0.17249909 0.26843056 0
0.83720648 0.17089 0.30203825 0
1.1020051 0.5382697 0.41055554 0
0.50986129 -0.24433669 -0.090798341 0
0.57557607 -0.14813742 -0.090898968 0
0.65742898 -0.028313603 -0.090300478 0
0.77046007 0.13715175 -0.090744056 0
0.92400217 0.36192074 -0.090279378 0
1.1561142 0.70170754 -0.090179794 0
0.85277957 0.25765851 -0.0046011414 0
0.83497423 0.2315934 0.032136891 0
0.84195834 0.24181738 0.066305503 0
0.83822381 0.23635045 0.10101277 0
0.83846605 0.23670498 0.13557616 0
0.84434313 0.24530855 0.17066272 0
0.83773965 0.23564163 0.20476303 0
0.8443718 0.24535039 0.24062023 0
0.8404547 0.2396163 0.27499542 0
0.83831495 0.23648384 0.30967706 0
1.102932 0.62385458 0.42216179 0
1.0984821 0.61734039 0.46756202 0
0.49417302 -0.2266784 -0.092078157 0
0.55257124 -0.13637957 -0.090344466 0
0.62864375 -0.018751528 -0.088990085 0
0.73450685 0.14494041 -0.088858284 0
0.88674617 0.38034204 -0.08966177 0
1.1093805 0.72459275 -0.089543767 0
1.4809568 1.2991464 -0.089554287 0
0.8430711 0.31280902 0.028779225 0
0.84016007 0.30830792 0.065041125 0
0.83641636 0.30251899 0.10101432 0
0.84328485 0.31313959 0.13712206 0
0.83632714 0.30238107 0.17267145 0
0.8382231 0.30531278 0.20884159 0
0.83949572 0.30728057 0.24518539 0
0.83690786 0.30327907 0.28096566 0
0.83920604 0.3068327 0.31798375 0
0.84228504 0.31159356 0.35567901 0
1.103982 0.71624523 0.4836556 0
0.47390661 -0.21589658 -0.091724537 0
0.5288856 -0.12598839 -0.089625917 0
0.60393983 -0.0032506252 -0.088984914 0
0.70950562 0.1693832 -0.089895435 0
0.85950667 0.41468289 -0.091364302 0
1.0690541 0.75736004 -0.090128742 0
1.4282287 1.3447254 -0.090288989 0
0.8518821 0.4022142 0.025037276 0
0.85300732 0.40405443 0.062997527 0
0.8424682 0.38681951 0.10101645 0
0.83892161 0.38101974 0.13840726 0
0.84568977 0.39208785 0.17644358 0
0.84057027 0.38371578 0.2135729 0
0.83875626 0.38074937 0.25095752 0
0.8408668 0.38420072 0.28922245 0
0.83780575 0.379195 0.32649142 0
0.83951384 0.3819882 0.36523402 0
1.0980855 0.80483562 0.49719411 0
0.4541046 -0.20444915 -0.091665901 0
0.51006335 -0.10752591 -0.090804182 0
0.5760749 0.0068091485 -0.088066451 0
0.67855901 0.18431655 -0.089477606 0
0.81413424 0.41913918 -0.089102708 0
1.0251725 0.78466743 -0.090227328 0
1.3641896 1.371861 -0.089632533 0
1.3695486 1.3811429 -0.026456406 0
0.84946793 0.48033884 0.061514746 0
0.84292626 0.46900836 0.10101847 0
0.84298092 0.46910301 0.1402206 0
0.83838356 0.46114019 0.17903672 0
0.84000492 0.4639484 0.21837881 0
0.83923602 0.46261659 0.25755399 0
0.84337187 0.46978012 0.29797518 0
0.84278589 0.46876529 0.33767551 0
0.84485722 0.47235277 0.37845555 0
0.83974624 0.46350041 0.41703615 0
0.43450469 -0.19262895 -0.091820084 0
0.48947361 -0.091617078 -0.091521405 0
0.55965292 0.037345681 -0.091124453 0
0.65193236 0.20692006 -0.090418555 0
0.78380084 0.44924393 -0.090438105 0
0.98049664 0.81069583 -0.090307213 0
1.2926458 1.3843064 -0.08794535 0
1.2946647 1.3880167 -0.025030559 0
1.2933698 1.3856368 0.03810567 0
0.85204685 0.57465416 0.10102123 0
0.83737391 0.54769081 0.14175454 0
0.84067398 0.5537551 0.18285476 0
0.83626866 0.54565972 0.22323816 0
0.83929914 0.5512287 0.26477647 0
0.8429333 0.55790681 0.3069393 0
0.84058577 0.55359298 0.34792781 0
0.83787799 0.54861706 0.38883221 0
0.8414225 0.55513054 0.43225062 0
0.41260749 -0.18518415 -0.091046385 0
0.46628681 -0.080323905 -0.091363482 0
0.52926803 0.042707238 -0.089572124 0
0.62077677 0.22146574 -0.090182088 0
0.74740797 0.46883443 -0.090477102 0
0.93683076 0.83886391 -0.090729453 0
1.240958 1.4329634 -0.089266531 0
1.2427793 1.4365211 -0.025899788 0
1.2468224 1.4444194 0.037402261 0
1.2472507 1.445256 0.10104848 0
0.84828275 0.66588908 0.14430968 0
0.84206522 0.65374345 0.18700689 0
0.83559895 0.64111179 0.2291227 0
0.84130347 0.65225536 0.27320874 0
0.83299005 0.63601536 0.3144739 0
0.8350687 0.64007598 0.35831892 0
0.83831596 0.64641935 0.40308663 0
0.84201032 0.65363616 0.44871622 0
0.38743106 -0.18495497 -0.088711567 0
0.44157717 -0.072259992 -0.090655722 0
0.50471014 0.059139404 -0.090197794 0
0.58971345 0.23605791 -0.090079077 0
0.70969445 0.48577574 -0.090291984 0
0.89207846 0.86537403 -0.091089778 0
1.1830759 1.4710305 -0.089852281 0
1.7821218 2.7178321 -0.090500347 0
4.5072055 8.3895836 -0.14095654 0
0.85207975 0.78212422 0.19257544 0
0.8380453 0.75291413 0.23620686 0
0.83889633 0.75468534 0.28167963 0
0.84095585 0.75897187 0.32776856 0
0.83993649 0.7568503 0.37333158 0
0.83895594 0.75480944 0.41909859 0
0.83918953 0.75529569 0.46563968 0
0.36963871 -0.1696243 -0.090071775 0
0.42065078 -0.056206908 -0.091735475 0
0.47466737 0.063890606 -0.088823713 0
0.56076324 0.2553114 -0.090817071 0
0.6752367 0.50982529 -0.091142558 0
0.84953076 0.89734095 -0.092120819 0
1.1204522 1.4996924 -0.089823134 0
1.6947813 2.776624 -0.091267683 0
4.2655039 8.4922256 -0.14075083 0
1.0669123 1.3806548 0.22209738 0
0.85069275 0.89992446 0.24590747 0
0.84069973 0.87770659 0.29216999 0
0.84133631 0.87912196 0.34052756 0
0.83930445 0.8746044 0.38830692 0
0.83757162 0.87075168 0.43628854 0
0.84030324 0.87682503 0.48649204 0
0.34757572 -0.16359606 -0.089377292 0
0.39579469 -0.04872575 -0.091161333 0
0.44919899 0.07849744 -0.089356728 0
0.52839702 0.26716796 -0.090531863 0
0.63522065 0.52165014 -0.090545543 0
0.79745466 0.9081344 -0.091106914 0
1.0634295 1.5417564 -0.090930916 0
1.5998642 2.8196859 -0.091344647 0
4.0278311 8.6037445 -0.14092581 0
0.99807787 1.3860719 0.22104979 0
0.8485449 1.0298448 0.25418478 0
0.83858138 1.0061091 0.30309036 0
0.837372 1.0032279 0.35365266 0
0.8409822 1.0118284 0.40609577 0
0.84333616 1.0174363 0.45878536 0
0.84016681 1.0098859 0.50947541 0
0.33300042 -0.13880172 -0.093099497 0
0.37191856 -0.039112177 -0.091151483 0
0.42116448 0.08703199 -0.088927187 0
0.49487755 0.27584937 -0.089894302 0
0.59969568 0.5443427 -0.09144523 0
0.74783456 0.92380303 -0.09072382 0
0.99910659 1.5674405 -0.090907134 0
1.4993358 2.8487859 -0.090843432 0
3.7882295 8.7118263 -0.14116377 0
0.92776108 1.3846877 0.21975951 0
0.84803045 1.1804564 0.2639392 0
0.84241885 1.1660821 0.31707451 0
0.84027046 1.1605792 0.37083492 0
0.84360224 1.1691134 0.42673168 0
0.84142166 1.163528 0.48093134 0
0.84130228 1.1632221 0.53633511 0
0.31059083 -0.13303241 -0.092571177 0
0.34435755 -0.039648976 -0.089230023 0
0.39606816 0.10335925 -0.089987688 0
0.43759581 0.21820596 -0.079478018 0
0.43210807 0.20302942 -0.047210369 0
0.43868613 0.22122136 -0.019179156 0
0.93302828 1.5883489 -0.090649791 0
1.4020188 2.885365 -0.090843238 0
3.5344818 8.7827959 -0.14063227 0
0.85855091 1.3823779 0.21852346 0
0.85106456 1.3616743 0.27588317 0
0.84049779 1.3324511 0.33155727 0
0.83669537 1.3219354 0.3883501 0
0.84121394 1.3344319 0.44837132 0
0.8409543 1.3337138 0.50709718 0
0.84298044 1.3393171 0.56750506 0
0.28604671 -0.13401756 -0.090661205 0
0.32272455 -0.02397659 -0.090681501 0
0.36826167 0.11264387 -0.089929454 0
0.4048425 0.22239378 -0.07852339 0
0.40525693 0.22363713 -0.048455779 0
0.40332526 0.21784166 -0.017797953 0
0.86745685 1.6103299 -0.090597115 0
1.3008695 2.9106548 -0.090410091 0
3.2926083 8.8862724 -0.14105952 0
0.79256308 1.3856335 0.21765739 0
0.8509295 1.5607445 0.28903815 0
0.84154737 1.5325963 0.34924886 0
0.839019 1.5250106 0.41087195 0
0.83494669 1.5127928 0.47177175 0
0.83859342 1.5237336 0.53648329 0
0.84004629 1.5280926 0.60092396 0
0.26468262 -0.12609521 -0.090883903 0
0.29814702 -0.016556229 -0.090604611 0
0.34039271 0.12172666 -0.089958079 0
0.38086197 0.25419477 -0.08175575 0
0.3817035 0.25694934 -0.051327366 0
0.38107765 0.25490072 -0.02046158 0
0.7261855 1.3845429 -0.072554685 0
0.7279954 1.3904672 -0.01487322 0
0.72812241 1.390883 0.043105371 0
0.72695047 1.3870468 0.10104133 0
0.72555023 1.3824635 0.15877241 0
0.7253446 1.3817904 0.2165335 0
0.84367043 1.7691064 0.30277219 0
0.83845532 1.7520359 0.36868635 0
0.83758003 1.7491708 0.43579176 0
0.83893752 1.7536142 0.50419801 0
0.83782941 1.7499869 0.57188314 0
0.24114114 -0.12575075 -0.089552544 0
0.27439436 -0.0061856774 -0.091226749 0
0.31239375 0.13044456 -0.090044685 0
0.36350527 0.3142207 -0.089171238 0
0.44250202 0.59826058 -0.091614358 0
0.55084431 0.98781508 -0.090577789 0
0.66147429 1.3855948 -0.071358122 0
0.65922046 1.3774912 -0.01339641 0
0.65994567 1.3800988 0.043790098 0
0.66043961 1.3818748 0.10104066 0
0.65828818 1.3741391 0.15814701 0
0.6594581 1.3783457 0.21551913 0
0.81117553 1.9238594 0.31253037 0
0.81210721 1.9272091 0.38370427 0
0.81202483 1.926913 0.45490807 0
0.81249338 1.9285977 0.52677536 0
0.81283581 1.9298289 0.59911883 0
0.21917774 -0.12035999 -0.089466192 0
0.24783903 -0.0062246588 -0.089940242 0
0.28519017 0.14251557 -0.090819098 0
0.33230636 0.33014217 -0.090212978 0
0.39598513 0.58372444 -0.088581212 0
0.49954599 0.99612564 -0.090102978 0
0.59715044 1.3848073 -0.07015463 0
0.59776962 1.3872731 -0.013104921 0
0.59685308 1.3836229 0.044086106 0
0.59800392 1.3882058 0.10104038 0
0.59952086 1.3942468 0.15824977 0
0.59610462 1.3806427 0.21486728 0
0.76851523 2.0672178 0.32146436 0
0.76868188 2.0678816 0.39536932 0
0.7678808 2.0646915 0.46916369 0
0.76984584 2.0725167 0.5448041 0
0.20017065 -0.1018261 -0.092364706 0
0.22196439 -0.0047298935 -0.089086838 0
0.25546879 0.14453998 -0.090012901 0
0.29956535 0.34100059 -0.09063334 0
0.35644966 0.59443337 -0.088730119 0
0.4508287 1.0149138 -0.090757392 0
0.55271876 1.4688578 -0.07515315 0
0.55154401 1.463624 -0.016065506 0
0.55119509 1.4620695 0.042557068 0
0.55217767 1.4664471 0.10104225 0
0.55223674 1.4667103 0.15963811 0
0.55293936 1.4698405 0.21844712 0
0.71366328 2.1859033 0.32865611 0
0.71386677 2.1868098 0.40499237 0
0.71192819 2.1781728 0.48056099 0
0.71287221 2.1823788 0.5579794 0
0.17642714 -0.10358694 -0.090955295 0
0.19922864 0.011517558 -0.091196097 0
0.22513396 0.14229038 -0.088620625 0
0.26673797 0.35231212 -0.091235243 0
0.32231098 0.63285083 -0.092298828 0
0.39827064 1.0163033 -0.089870296 0
0.41536593 1.1026025 -0.048114542 0
0.41329968 1.0921717 0.0021855778 0
0.41367093 1.0940459 0.051590607 0
0.41365975 1.0939894 0.10103103 0
0.41472822 1.0993831 0.15059833 0
0.41442916 1.0978734 0.20014757 0
0.41363621 1.0938706 0.24955489 0
0.41457418 1.0986056 0.29976505 0
0.41528577 1.1021976 0.35028306 0
0.40583903 1.0545096 0.39389801 0
0.27121121 0.37489358 0.36299127 0
0.15462506 -0.095947832 -0.091708936 0
0.17391476 0.016204868 -0.091196813 0
0.19677642 0.14912537 -0.088877358 0
0.23123269 0.34945825 -0.089933015 0
0.27952957 0.63026232 -0.09109161 0
0.34700271 1.0225594 -0.089573883 0
0.36829716 1.1463678 -0.050524656 0
0.88254541 4.13627 -0.1411521 0
1.7641103 9.261796 -0.14087163 0
0.58257663 2.3922148 0.26090315 0
0.58052593 2.3802919 0.34019116 0
0.57983828 2.3762937 0.41992471 0
0.26127326 0.52411789 0.28053367 0
0.27268475 0.59046572 0.32633436 0
0.27226767 0.58804077 0.36410752 0
0.23715201 0.38387397 0.36348763 0
0.13187706 -0.093444496 -0.091475002 0
0.14707939 0.010594342 -0.089359201 0
0.16745742 0.15005365 -0.088271163 0
0.19865341 0.36354688 -0.09116938 0
0.23778494 0.63134784 -0.090450592 0
0.29619181 1.0310619 -0.089612775 0
0.39567339 1.711875 -0.08987201 0
0.75234938 4.1528268 -0.14096135 0
1.5040263 9.2970104 -0.14073049 0
0.50754505 2.4774814 0.26427922 0
0.50502366 2.4602258 0.34488517 0
0.50582129 2.4656844 0.42708483 0
0.22129095 0.51846939 0.279147 0
0.27621436 0.89434403 0.36860856 0
0.2020386 0.38671377 0.36297697 0
0.10903639 -0.092053145 -0.091126807 0
0.12421279 0.033956323 -0.093152277 0
0.13885815 0.15555671 -0.088546835 0
0.16464737 0.36968425 -0.091393091 0
0.19691014 0.63756186 -0.090539463 0
0.24698699 1.0533495 -0.09106832 0
0.32632446 1.7120881 -0.089246325 0
0.62322539 4.1772547 -0.14129458 0
1.243487 9.327282 -0.14062795 0
0.42491892 2.5307171 0.26623034 0
0.42496982 2.5311396 0.34906378 0
0.42462909 2.5283105 0.43188146 0
0.42334357 2.517637 0.51400322 0
0.2308528 0.9193874 0.37125641 0
0.16649684 0.38504043 0.36177981 0
0.086335607 -0.089908987 -0.091063447 0
0.097134836 0.02387372 -0.090718009 0
0.11120926 0.17216435 -0.090774424 0
0.12893693 0.35894647 -0.089355387 0
0.15650414 0.6493997 -0.091409631 0
0.19546148 1.0598617 -0.091157891 0
0.25852343 1.7242944 -0.089587428 0
0.49187627 4.1829438 -0.14090337 0
0.9823854 9.3510399 -0.14052735 0
0.34073645 2.5905061 0.26858139 0
0.34079233 2.5910947 0.35260439 0
0.34039283 2.5868857 0.43647906 0
0.34022528 2.5851202 0.52080899 0
0.34031537 2.5860696 0.60589981 0
0.17328107 0.82616466 0.40079099 0
0.13106425 0.38136032 0.36037573 0
0.063936383 -0.083433717 -0.09204527 0
0.071198963 0.021055494 -0.089788742 0
0.08095403 0.16140512 -0.088604562 0
0.094894819 0.3619763 -0.089387842 0
0.11461852 0.64574808 -0.090583213 0
0.14179769 1.0367842 -0.088600554 0
0.19089396 1.7431498 -0.090513937 0
0.36172709 4.2009873 -0.14124422 0
0.72171026 9.3801928 -0.14070642 0
0.25337064 2.6420243 0.27064124 0
0.25295421 2.6360328 0.35523477 0
0.13274936 0.90660292 0.27847031 0
0.13367274 0.91988796 0.3247517 0
0.13346617 0.91691595 0.3696163 0
0.12398262 0.78047282 0.39263946 0
0.096130632 0.37975624 0.35953531 0
0.040472835 -0.095435709 -0.089214973 0
0.04618752 0.033888135 -0.091934718 0
0.051961657 0.16455737 -0.08885143 0
0.061431382 0.37885812 -0.091489799 0
0.073577307 0.65372163 -0.091241457 0
0.09076307 1.0426371 -0.088875674 0
0.12185509 1.7462523 -0.090456583 0
0.22979154 4.1888638 -0.1403321 0
0.45942709 9.3855381 -0.14048442 0
0.16305511 2.6786122 0.27210516 0
0.16282406 2.6733835 0.35748619 0
0.086749583 0.95181149 0.28244239 0
0.085571669 0.92515522 0.32504746 0
0.086397253 0.94383806 0.37301999 0
0.076748669 0.7254898 0.38317284 0
0.061547022 0.38147512 0.35948884 0
0.018044161 -0.087497979 -0.090751164 0
0.020321559 0.032815848 -0.091579176 0
0.023185397 0.18411079 -0.091914557 0
0.02704791 0.38816538 -0.092644848 0
0.03186246 0.6425156 -0.08977855 0
0.039389018 1.0401397 -0.088491417 0
0.052874677 1.7525799 -0.090746664 0
0.099346504 4.2076626 -0.14101537 0
0.19797839 9.4183331 -0.14105487 0
0.070928164 2.7063363 0.27326143 0
0.070754856 2.6971805 0.35894731 0
0.070708454 2.6947291 0.44511202 0
0.071051084 2.7128303 0.53394151 0
0.032834839 0.69388586 0.37775129 0
0.026926873 0.38177112 0.35933888 0
-0.0046253856 -0.10147211 -0.087750204 0
-0.0053733867 0.017123256 -0.088592745 0
-0.0063475212 0.171572 -0.089823015 0
-0.0076009752 0.37030676 -0.090104215 0
-0.0093312338 0.64463872 -0.089996316 0
-0.011846714 1.0434673 -0.088771857 0
-0.016382487 1.7626128 -0.091417558 0
-0.031771209 4.2024903 -0.14073604 0
-0.064661585 9.4172487 -0.14099114 0
-0.022522362 2.7360883 0.27462083 0
-0.022450129 2.7246358 0.36082724 0
-0.022465207 2.7270262 0.4480738 0
-0.022444163 2.7236898 0.53514242 0
-0.0093454737 0.64689654 0.36998153 0
-0.0076420316 0.37681618 0.35836416 0
-0.027510446 -0.086483866 -0.091027863 0
-0.03108966 0.026957545 -0.090536527 0
-0.035230413 0.15819672 -0.087714843 0
-0.042243097 0.38046029 -0.091623135 0
-0.050186433 0.63222045 -0.088635467 0
-0.064033799 1.0711057 -0.091443561 0
-0.085599661 1.7546253 -0.09095078 0
-0.11891341 2.8104882 -0.076015107 0
-0.1190339 2.8143072 0.012491005 0
-0.11900514 2.8133955 0.10107901 0
-0.11873634 2.8048763 0.18944727 0
-0.11689018 2.7463627 0.27518293 0
-0.11641569 2.7313242 0.36141959 0
-0.116478 2.7332993 0.44882578 0
-0.1164088 2.731106 0.53621745 0
-0.050526511 0.64299911 0.36946896 0
-0.041868482 0.36858705 0.35693589 0
-0.050109044 -0.090499967 -0.090387039 0
-0.056776114 0.026804719 -0.090721346 0
-0.065537706 0.18096188 -0.09167286 0
-0.0765457 0.37464359 -0.091019221 0
-0.091988429 0.64635295 -0.090501375 0
-0.115766 1.0647109 -0.091060378 0
-0.15501705 1.7553191 -0.091213487 0
-0.21406439 2.7942362 -0.075454719 0
-0.21454363 2.8026681 0.012663336 0
-0.21439762 2.8000991 0.10107876 0
-0.21413052 2.7953997 0.18932475 0
-0.21072346 2.7354536 0.27486798 0
-0.21168633 2.7523949 0.36318678 0
-0.21086775 2.7379923 0.44965291 0
-0.078062169 0.40132526 0.26383936 0
-0.076111943 0.3670117 0.29196483 0
-0.077220708 0.38652006 0.32753274 0
-0.076790385 0.37894872 0.35917687 0
-0.072655819 -0.093466491 -0.090090252 0
-0.082160681 0.022175107 -0.090182908 0
-0.094373435 0.17076245 -0.090329103 0
-0.11037114 0.36539975 -0.090052791 0
-0.13258229 0.63563365 -0.089580469 0
-0.16721004 1.0569346 -0.090669192 0
-0.2232784 1.7390947 -0.090412788 0
-0.42386666 4.1795669 -0.1404755 0
-0.84990853 9.3630381 -0.14053756 0
-0.30503556 2.7337992 0.27509588 0
-0.30519679 2.7357612 0.36247936 0
-0.30523384 2.7362113 0.4500981 0
-0.30409142 2.7223122 0.5364362 0
-0.11327492 0.40072885 0.2970565 0
-0.11280771 0.3950446 0.3293367 0
-0.11173712 0.38201895 0.36021054 0
-0.094334967 -0.10396925 -0.088303007 0
-0.1080572 0.023496065 -0.090891518 0
-0.12226007 0.15542582 -0.088252641 0
-0.14504039 0.36703125 -0.090741463 0
-0.17464353 0.64201349 -0.090787329 0
-0.21632767 1.0292156 -0.088526465 0
-0.29041284 1.7173893 -0.089345522 0
-0.55409467 4.1667185 -0.14045283 0
-1.1116641 9.3459568 -0.14071721 0
-0.39785859 2.7154479 0.27465308 0
-0.39818045 2.7184379 0.36188737 0
-0.39794281 2.7162304 0.44905829 0
-0.398395 2.7204309 0.53725916 0
-0.14945938 0.40807906 0.29856604 0
-0.14892697 0.40313354 0.33122188 0
-0.14744179 0.38933769 0.36221907 0
-0.11931756 -0.086578876 -0.092608325 0
-0.13251287 0.012443457 -0.089375354 0
-0.15433796 0.17622688 -0.092277505 0
-0.180323 0.37122813 -0.091920011 0
-0.21507759 0.63203925 -0.090194978 0
-0.27121338 1.0533023 -0.09137141 0
-0.35906819 1.7125969 -0.089586802 0
-0.68476391 4.1567359 -0.14071885 0
-1.371992 9.3139458 -0.14070202 0
-0.49180022 2.7086661 0.27486283 0
-0.48969871 2.6928957 0.36087865 0
-0.2409378 0.82610363 0.27202341 0
-0.24153343 0.83057338 0.31565046 0
-0.18463527 0.40358892 0.29853064 0
-0.1830391 0.39161065 0.33001152 0
-0.18220343 0.38533953 0.36225429 0
-0.13971831 -0.10459855 -0.089445002 0
-0.15858535 0.014039908 -0.090382971 0
-0.18078247 0.15361837 -0.089228965 0
-0.21379273 0.3611913 -0.091204323 0
-0.25696746 0.63267976 -0.090976961 0
-0.31794241 1.0160985 -0.08856567 0
-0.4272424 1.7033916 -0.08963912 0
-0.813743 4.1337595 -0.14052857 0
-1.6316135 9.276639 -0.14071649 0
-0.58127081 2.6719429 0.27377197 0
-0.57995653 2.6636786 0.35976887 0
-0.27899268 0.77117735 0.26746082 0
-0.27827159 0.76664299 0.30887413 0
-0.27897191 0.7710467 0.35157159 0
-0.21727054 0.38306037 0.36278468 0
-0.16280371 -0.10406002 -0.090389661 0
-0.18410283 0.011063371 -0.090645157 0
-0.21146849 0.15897682 -0.090951882 0
-0.24728468 0.35256603 -0.090807505 0
-0.2942628 0.60648626 -0.088698603 0
-0.37076515 1.0199873 -0.089759238 0
-0.49555457 1.6944835 -0.089834891 0
-0.94398266 4.1182714 -0.14084575 0
-1.8898978 9.2310152 -0.14068897 0
-0.66910106 2.6325154 0.27265462 0
-0.66676956 2.6199136 0.35778049 0
-0.6666069 2.6190343 0.44369993 0
-0.66541219 2.612577 0.52928877 0
-0.28895241 0.57778329 0.36298561 0
-0.25383031 0.38794556 0.36485955 0
-0.18613847 -0.10349569 -0.091471232 0
-0.21036984 0.011216197 -0.091634832 0
-0.23738126 0.13908902 -0.088572957 0
-0.28032029 0.34236351 -0.090303116 0
-0.33547628 0.60347348 -0.089289211 0
-0.42314041 1.0184777 -0.090571038 0
-0.56230348 1.6772792 -0.089561798 0
-0.618141 1.9416158 -0.038488004 0
-0.61867577 1.9441473 0.03126156 0
-0.61841464 1.9429111 0.10105596 0
-0.75344431 2.5821452 0.27111533 0
-0.75290984 2.5796149 0.35618567 0
-0.75025594 2.5670514 0.44045523 0
-0.7536456 2.5830982 0.52791214 0
-0.28936863 0.38519862 0.36565301 0
-0.20791869 -0.11064276 -0.0910028 0
-0.23584175 0.0068077776 -0.091875382 0
-0.2682488 0.14311889 -0.09033037 0
-0.31333882 0.33277729 -0.090004839 0
-0.37382883 0.58721167 -0.088416375 0
-0.47238332 1.0017534 -0.09005446 0
-0.52197778 1.2103586 -0.057092074 0
-0.61701304 1.6100979 -0.023416264 0
-0.61971688 1.6214707 0.038577095 0
-0.61904687 1.6186523 0.10104693 0
-0.83721626 2.5363209 0.26988629 0
-0.83244991 2.5162728 0.35307994 0
-0.83452457 2.5249991 0.43834648 0
-0.83555722 2.5293427 0.52387637 0
-0.83262825 2.5170228 0.60767347 0
-0.22984801 -0.11684832 -0.09085872 0
-0.26181117 0.0039634439 -0.092547126 0
-0.29612163 0.13364747 -0.089936264 0
-0.34281185 0.31012347 -0.08792568 0
-0.41632628 0.58798772 -0.089714117 0
-0.52499169 0.99871284 -0.090975218 0
-0.57900113 1.2028534 -0.05755413 0
-0.64592218 1.4557962 -0.016776381 0
-0.64616197 1.4567027 0.0421432 0
-0.64735246 1.4612024 0.10104276 0
-0.91457152 2.4712162 0.26782101 0
-0.90989602 2.4535439 0.35014269 0
-0.91076303 2.4568212 0.43390441 0
-0.91109222 2.4580655 0.5179435 0
-0.90885586 2.4496126 0.60109109 0
-0.2518045 -0.12289056 -0.090871863 0
-0.28161195 -0.020725217 -0.089066066 0
-0.32609311 0.13173452 -0.090953298 0
-0.34341627 0.19110981 -0.071833201 0
-0.46033823 0.59186119 -0.091528676 0
-0.56968135 0.96663576 -0.089208178 0
-0.71272111 1.4569061 -0.07717178 0
-0.71170646 1.4534285 -0.01749084 0
-0.71320564 1.4585669 0.041683733 0
-0.71246397 1.4560246 0.10104312 0
-0.98696929 2.3968947 0.26538745 0
-0.98312783 2.383728 0.34680912 0
-0.98181361 2.3792236 0.42869964 0
-0.98248422 2.3815222 0.51155674 0
-0.97788674 2.3657641 0.5923335 0
-0.27361158 -0.12945846 -0.090890996 0
-0.30852419 -0.020133581 -0.090653755 0
-0.3532564 0.11994019 -0.090403773 0
-0.37891281 0.20028022 -0.074523427 0
-0.39270654 0.2434738 -0.050275434 0
-0.39761341 0.25883904 -0.021326972 0
-0.39723668 0.25765935 0.0094594974 0
-0.394077 0.24776521 0.040514257 0
-0.39776838 0.25932434 0.070495106 0
-0.39765155 0.25895849 0.1010078 0
-0.3982293 0.26076761 0.13155589 0
-0.39569357 0.25282732 0.16174854 0
-0.39982975 0.26577929 0.19315279 0
-0.39497954 0.25059143 0.22253458 0
-0.3930907 0.24467674 0.25243878 0
-0.39629632 0.25471476 0.28457081 0
-0.39667475 0.25589982 0.31587809 0
-0.39419845 0.24814549 0.34571606 0
-0.29531342 -0.13638732 -0.090952419 0
-0.33151481 -0.03217658 -0.089871041 0
-0.38104087 0.11039105 -0.090358801 0
-0.42717266 0.24318781 -0.082389228 0
-0.42729098 0.2435284 -0.05155969 0
-0.43140358 0.25536707 -0.022016881 0
-0.43214774 0.25750926 0.0086976606 0
-0.43194926 0.25693789 0.039551549 0
-0.43220177 0.25766483 0.07027854 0
-0.43374336 0.2621024 0.10100821 0
-0.4334152 0.26115778 0.13182385 0
-0.43347874 0.26134065 0.162682 0
-0.4313775 0.25529197 0.19315463 0
-0.43166879 0.25613049 0.22410905 0
-0.433725 0.26204959 0.2558687 0
-0.43280011 0.25938717 0.28681701 0
-0.43021673 0.25195053 0.31700599 0
-0.43402302 0.26290753 0.35072768 0
-0.31327498 -0.15334848 -0.088860057 0
-0.35755649 -0.035553839 -0.090940811 0
-0.4069663 0.095882684 -0.08956524 0
-0.47594598 0.27937761 -0.0895034 0
-0.48864266 0.31315246 -0.061651025 0
-0.51204634 0.37540916 -0.03511459 0
-0.50784773 0.36424044 -0.00011947542 0
-0.51361167 0.37957314 0.032889228 0
-0.50908607 0.36753467 0.067268148 0
-0.51171875 0.37453786 0.10101199 0
-1.2040011 2.2160993 0.18078481 0
-1.1933451 2.1877527 0.25917643 0
-1.157361 2.0920308 0.33129078 0
-1.1589973 2.0963833 0.4088569 0
-1.1609402 2.1015515 0.48707992 0
-1.1618304 2.1039197 0.5655672 0
-0.33710098 -0.15454498 -0.090465017 0
-0.3778488 -0.053933885 -0.089105733 0
-0.43399125 0.084688336 -0.089466624 0
-0.50775731 0.26682547 -0.089485951 0
-0.51448578 0.28343883 -0.059514303 0
-0.50978297 0.27182701 -0.026030621 0
-0.51093858 0.27468029 0.0056348089 0
-0.51317137 0.28019336 0.03720684 0
-0.51583099 0.28676024 0.068960704 0
-0.51197642 0.27724293 0.10100941 0
-1.2708901 2.1510899 0.25889897 0
-1.1960741 1.9663606 0.32408452 0
-1.2024672 1.9821458 0.40039369 0
-1.201344 1.9793723 0.47548872 0
-1.1988206 1.9731419 0.55032963 0
-0.35467923 -0.17110643 -0.08866512 0
-0.39940506 -0.068213969 -0.088197105 0
-0.4622725 0.076413423 -0.090011694 0
-0.51158321 0.18985346 -0.079719163 0
-0.50901645 0.18394867 -0.048544545 0
-0.51293921 0.19297305 -0.019357523 0
-0.51145577 0.18956032 0.011108132 0
-0.51186574 0.19050339 0.041080721 0
-0.51029038 0.18687931 0.071152017 0
-0.51308244 0.19330242 0.10100721 0
-1.3554153 2.1311016 0.25956488 0
-1.2286612 1.8395019 0.31678233 0
-1.2287061 1.8396053 0.38906595 0
-1.2258749 1.833092 0.46082622 0
-1.2318904 1.8469307 0.53576666 0
-1.2266715 1.8349245 0.60727084 0
-0.37701923 -0.17644897 -0.08957734 0
-0.42712373 -0.068703443 -0.090254731 0
-0.48768753 0.061533961 -0.089494757 0
-0.50874645 0.1068193 -0.068912469 0
-0.51531279 0.12093988 -0.042129863 0
-0.51417875 0.1185011 -0.013064956 0
-0.5152145 0.1207284 0.015389236 0
-0.5101949 0.10993424 0.044533696 0
-0.51092708 0.11150864 0.072744265 0
-0.5114035 0.11253312 0.10100508 0
-1.4325625 2.0934086 0.25943756 0
-1.253153 1.7076035 0.3090682 0
-1.2407008 1.6808262 0.37599981 0
-1.2421218 1.683882 0.44569236 0
-1.2485005 1.6975987 0.51757568 0
-1.2364398 1.6716633 0.58344805 0
-0.4035714 -0.17382035 -0.09252546 0
-0.45137924 -0.077450603 -0.090748243 0
-0.51331383 0.047395501 -0.089224242 0
-0.51284784 0.046456132 -0.061515141 0
-0.51347184 0.047713909 -0.034322087 0
-0.51295757 0.046677385 -0.0069723334 0
-0.51035446 0.04143003 0.02053366 0
-0.51336652 0.047501598 0.047089785 0
-0.51438767 0.049559984 0.074007779 0
-0.51675677 0.054335628 0.10100365 0
-1.2499155 1.532217 0.29790843 0
-1.2437487 1.5197861 0.3625648 0
-1.2429525 1.5181811 0.42826861 0
-1.2389654 1.510144 0.49323797 0
-1.2410553 1.5143566 0.56046313 0
-0.41973975 -0.19239029 -0.090577714 0
-0.46837232 -0.10027215 -0.088380255 0
-0.53398353 0.0240064 -0.087350301 0
-0.52959424 0.015692268 -0.058738891 0
-0.53384584 0.02374557 -0.03291348 0
-0.52884454 0.014272247 -0.0049554612 0
-0.52864474 0.013893876 0.021664666 0
-0.52807248 0.012809787 0.048215549 0
-0.52838427 0.013400469 0.074607909 0
-0.53147572 0.019256148 0.10100295 0
-1.2478002 1.3760936 0.28811672 0
-1.24194 1.3649936 0.34961772 0
-1.2440431 1.3689771 0.41279545 0
-1.2409765 1.3631685 0.47497162 0
-1.2379087 1.3573575 0.53724885 0
-1.2436782 1.3682859 0.60326391 0
-0.4399212 -0.20288667 -0.090668447 0
-0.49959689 -0.096445769 -0.091824703 0
-0.56403333 0.018486653 -0.088914253 0
-0.5568946 0.0057536694 -0.059345979 0
-0.55910534 0.0096968152 -0.032882366 0
-0.5535205 -0.00026455181 -0.0048645567 0
-0.55673897 0.005476031 0.02124274 0
-0.55859506 0.0087867118 0.047700815 0
-0.55738568 0.0066295597 0.074423864 0
-0.55621749 0.0045459005 0.10100292 0
-1.294691 1.3217285 0.16272257 0
-1.2964342 1.3248377 0.2246322 0
-1.2526952 1.2468226 0.28033528 0
-1.2357773 1.2166467 0.33717158 0
-1.2385035 1.2215092 0.39733845 0
-1.240676 1.2253845 0.45793486 0
-1.239748 1.2237291 0.5180943 0
-1.2420505 1.2278361 0.57987201 0
-0.46156657 -0.21099022 -0.091477253 0
-0.51774663 -0.11645791 -0.090269513 0
-0.58513045 -0.003073361 -0.087579109 0
-0.5905093 0.0059774253 -0.06173541 0
-0.59063751 0.0061931941 -0.034370501 0
-0.58870232 0.0029368734 -0.0067654457 0
-0.58739454 0.00073632936 0.020458089 0
-0.58213347 -0.008116331 0.047834404 0
-0.58874232 0.0030042862 0.074132308 0
-0.58184254 -0.0086058043 0.10100296 0
-1.3606181 1.3018143 0.16308892 0
-1.360857 1.3022161 0.22522052 0
-1.2489736 1.1139538 0.2721535 0
-1.2378769 1.0952816 0.32745221 0
-1.2394658 1.0979552 0.38488194 0
-1.2373714 1.0944312 0.44175678 0
-1.2424879 1.1030405 0.50113416 0
-1.2338961 1.0885832 0.55638033 0
-0.48077112 -0.2233623 -0.091363274 0
-0.5435974 -0.12347439 -0.091682278 0
-0.61403525 -0.011484768 -0.088878132 0
-0.61083543 -0.016572203 -0.060521949 0
-0.6062749 -0.023822989 -0.032330904 0
-0.60714656 -0.022437181 -0.0056428965 0
-0.60910028 -0.019330945 0.020863341 0
-0.60557079 -0.024942424 0.047933478 0
-0.61030686 -0.017412629 0.074275739 0
-0.61474961 -0.010349002 0.10100342 0
-1.2503266 1.000159 0.26540983 0
-1.2436942 0.98961419 0.31931534 0
-1.2427226 0.98806959 0.37411776 0
-1.2399924 0.98372859 0.42866975 0
-1.2394818 0.98291689 0.48402593 0
-1.2407099 0.98486942 0.54037791 0
-0.49502018 -0.2431663 -0.089473121 0
-0.56129682 -0.1434662 -0.090330653 0
-0.63681555 -0.029863086 -0.088374935 0
-0.64204419 -0.021997597 -0.062263612 0
-0.6312989 -0.038161781 -0.032511938 0
-0.63468128 -0.03307369 -0.0062049758 0
-0.64258653 -0.021181729 0.019700618 0
-0.63644391 -0.030422118 0.047367126 0
-0.63262397 -0.036168482 0.074360147 0
-0.63838691 -0.027499344 0.10100337 0
-1.249115 0.89122111 0.25896302 0
-1.2458415 0.88629681 0.31132081 0
-1.2343872 0.86906606 0.36190289 0
-1.2415318 0.87981373 0.41651857 0
-1.2407043 0.87856883 0.46972814 0
-1.2366182 0.87242204 0.52216774 0
-0.51796591 -0.24982211 -0.091056176 0
-0.58293712 -0.15724054 -0.090487488 0
-0.66233379 -0.044103291 -0.088808082 0
-0.66214192 -0.044376638 -0.061259735 0
-0.66411942 -0.041558769 -0.034347925 0
-0.66955721 -0.033810224 -0.0079845544 0
-0.66550916 -0.039578464 0.01985869 0
-0.66270375 -0.043576088 0.047183193 0
-0.66058546 -0.046594586 0.074193589 0
-0.66733038 -0.036983278 0.10100361 0
-1.2968601 0.86007303 0.25904778 0
-1.2560468 0.80191559 0.30535033 0
-1.2331825 0.76933485 0.35219324 0
-1.2455771 0.78699666 0.40606323 0
-1.2394329 0.77824146 0.45598885 0
-1.23498 0.77189618 0.50635296 0
-0.53567302 -0.26421186 -0.090775602 0
-0.60400593 -0.1718851 -0.090570204 0
-0.68592674 -0.061199393 -0.088795967 0
-0.68702835 -0.059711065 -0.061556522 0
