# .PCD v0.7 - Point Cloud Data file format
VERSION 0.7
FIELDS x y z intensity
SIZE 4 4 4 4
TYPE F F F F
COUNT 1 1 1 1
WIDTH 1315
HEIGHT 1
VIEWPOINT 0 0 0 1 0 0 0
POINTS 1315
DATA ascii
0.54965657 -0.26718822 -0.091804318 0
0.61778587 -0.17752531 -0.091057308 0
0.69626218 -0.074245125 -0.08790762 0
0.72778732 -0.032755818 -0.067859612 0
0.7259838 -0.035129394 -0.039085854 0
0.72861564 -0.031665709 -0.011290951 0
0.72785592 -0.032665577 0.016977431 0
0.72890639 -0.031283047 0.044956289 0
0.72283918 -0.039267924 0.073228851 0
0.73014355 -0.029654827 0.1010048 0
0.73115283 -0.028326537 0.1291004 0
0.72728848 -0.033412304 0.1569287 0
0.72699195 -0.033802595 0.18493238 0
0.72708058 -0.033685949 0.21306403 0
0.7337929 -0.024852064 0.24260531 0
0.73432899 -0.024146523 0.27139053 0
0.73448956 -0.023935225 0.30030414 0
0.72813678 -0.032295909 0.32742393 0
0.53010696 -0.25517753 -0.091384239 0
0.60104907 -0.15675303 -0.092326857 0
0.68323708 -0.042725947 -0.090798162 0
0.7335313 0.02705184 -0.075096332 0
0.95281065 0.33127835 -0.089281954 0
0.85304886 0.19286969 -0.035048548 0
0.83960062 0.17421165 0.00070370943 0
0.84126478 0.1765205 0.034067493 0
0.84286022 0.17873397 0.067494132 0
0.84217441 0.17778245 0.10101147 0
0.84279841 0.17864826 0.13452645 0
0.84242421 0.17812911 0.16804796 0
0.8465488 0.18385151 0.20215079 0
0.8388235 0.17313352 0.23480105 0
0.8384642 0.17263499 0.26845017 0
0.83863634 0.17287377 0.30238205 0
1.0986581 0.5336259 0.40961438 0
0.50792569 -0.2471703 -0.090068914 0
0.57285643 -0.15211871 -0.089990847 0
0.65521252 -0.031558301 -0.089654662 0
0.7600469 0.12190798 -0.088149659 0
0.92715007 0.3665289 -0.090931617 0
1.1551739 0.70033115 -0.090024211 0
0.84970993 0.25316492 -0.0042206999 0
0.84183437 0.24163595 0.031570692 0
0.83718407 0.23482838 0.066502295 0
0.84031326 0.23940924 0.10101288 0
0.84292912 0.24323848 0.13576058 0
0.83525485 0.2320042 0.1699117 0
0.8430801 0.24345949 0.20542546 0
0.84089053 0.24025431 0.2400438 0
0.83813918 0.23622659 0.27451539 0
0.83795309 0.23595408 0.30958685 0
1.0994282 0.61872536 0.42114052 0
1.0983465 0.6171419 0.46751675 0
0.49159002 -0.23067239 -0.091067128 0
0.55410016 -0.13401541 -0.090874754 0
0.63522643 -0.0085730217 -0.090982296 0
0.73993683 0.15333655 -0.090263493 0
0.89236075 0.38902369 -0.090870105 0
1.1105931 0.72646779 -0.08975219 0
1.4843264 1.3043568 -0.089988075 0
0.85082036 0.32479134 0.028114902 0
0.84071374 0.30916396 0.065017425 0
0.83740515 0.30404797 0.10101437 0
0.83486325 0.30011752 0.13676061 0
0.83927947 0.30694619 0.17292485 0
0.83948332 0.30726138 0.20900398 0
0.84346789 0.31342259 0.24586855 0
0.83704585 0.30349246 0.28099537 0
0.83817345 0.30523601 0.31771639 0
0.83845961 0.3056784 0.35452083 0
1.1030908 0.71486706 0.48334637 0
0.47588384 -0.2126632 -0.092530139 0
0.53098291 -0.12255856 -0.090383135 0
0.60732746 0.0022892093 -0.090052135 0
0.70447618 0.16115847 -0.088540591 0
0.85478354 0.40695897 -0.090306185 0
1.0639976 0.74909097 -0.089224048 0
1.4292326 1.3463671 -0.090423532 0
0.84896767 0.39744821 0.025297353 0
0.84683686 0.39396372 0.063272528 0
0.83791393 0.37937191 0.10101619 0
0.83755577 0.37878612 0.13834624 0
0.83880955 0.38083652 0.17582886 0
0.84072536 0.38396946 0.21359369 0
0.84073091 0.38397852 0.25131103 0
0.84035939 0.38337091 0.28910869 0
0.84059018 0.38374832 0.32724178 0
0.8372547 0.37829378 0.36452204 0
1.0947676 0.79940969 0.49599582 0
0.44856992 -0.21403548 -0.089312978 0
0.51152152 -0.10500035 -0.091353469 0
0.57842922 0.010886941 -0.088840328 0
0.68033963 0.18740061 -0.089978091 0
0.81348759 0.41801921 -0.08895155 0
1.0326917 0.79769105 -0.091631033 0
1.364405 1.3722341 -0.089662634 0
1.3689394 1.3800879 -0.026399693 0
0.84422106 0.47125104 0.061758727 0
0.8400743 0.46406868 0.10101831 0
0.83863938 0.46158329 0.14001822 0
0.83652198 0.45791581 0.17886317 0
0.83745235 0.45952728 0.21802162 0
0.84568524 0.4737871 0.25875869 0
0.83725613 0.45918742 0.29654494 0
0.83688837 0.45855036 0.33601719 0
0.83782804 0.46017805 0.37614423 0
0.83986765 0.4637107 0.41708189 0
0.43343946 -0.19458649 -0.091346376 0
0.48390192 -0.10185573 -0.089325897 0
0.55399722 0.026952658 -0.089179821 0
0.64592654 0.19588354 -0.088652767 0
0.78207463 0.44607189 -0.090016045 0
0.98710734 0.82284361 -0.091598116 0
1.2936245 1.3861051 -0.088088505 0
1.2914562 1.3821206 -0.024718052 0
1.2908573 1.3810198 0.038227875 0
0.85023826 0.57133061 0.10102112 0
0.83992028 0.55237001 0.14187869 0
0.84198433 0.55616301 0.18298253 0
0.84557676 0.56276447 0.22460066 0
0.84018308 0.55285305 0.26494917 0
0.84011173 0.55272192 0.30624905 0
0.84320521 0.55840653 0.34869829 0
0.84384382 0.55958003 0.39088422 0
0.84313506 0.55827767 0.43292567 0
0.41444108 -0.18160233 -0.091901712 0
0.46282849 -0.087079614 -0.089933999 0
0.52955514 0.043268118 -0.089675672 0
0.61650735 0.21312562 -0.088865362 0
0.74921864 0.47237149 -0.090941511 0
0.93627238 0.83777314 -0.090615071 0
1.2428626 1.4366841 -0.089558743 0
1.2455536 1.4419405 -0.026183238 0
1.2450602 1.4409769 0.037492175 0
1.2490113 1.4486952 0.10104859 0
0.85538125 0.67975575 0.14467277 0
0.8381989 0.6461907 0.1866114 0
0.84107453 0.6518082 0.22996345 0
0.83843237 0.6466468 0.27262029 0
0.84098774 0.65163857 0.3165262 0
0.83970916 0.64914101 0.35975069 0
0.8456974 0.66083866 0.40574986 0
0.84213227 0.65387434 0.44876665 0
0.3928436 -0.17368975 -0.091368176 0
0.44089961 -0.073670179 -0.090361036 0
0.50461709 0.058945809 -0.090162478 0
0.59171283 0.24021927 -0.090727888 0
0.71004975 0.48651531 -0.090387873 0
0.88856167 0.85805446 -0.0903318 0
1.1805363 1.4657445 -0.08944232 0
1.7827666 2.7191741 -0.090569653 0
4.5048141 8.3846054 -0.14082813 0
0.85544157 0.78912121 0.19293728 0
0.83979034 0.75654608 0.23648879 0
0.84009725 0.7571848 0.28193861 0
0.84015977 0.75731498 0.32755363 0
0.84477448 0.76691967 0.37490219 0
0.83806533 0.75295573 0.41876048 0
0.84054458 0.75811595 0.4662292 0
0.37230989 -0.16368535 -0.091455989 0
0.41830739 -0.061417069 -0.090659447 0
0.47569719 0.066180259 -0.089236341 0
0.5561884 0.24513987 -0.089249678 0
0.67620379 0.51197547 -0.09141811 0
0.84435719 0.88583833 -0.090943567 0
1.1209036 1.5006962 -0.089900069 0
1.6895605 2.7650163 -0.090675153 0
4.2686682 8.4992619 -0.14093021 0
1.0685923 1.3843901 0.2222883 0
0.85206103 0.90296668 0.24614087 0
0.83953536 0.87511772 0.29190487 0
0.84461987 0.88642246 0.34146357 0
0.83671814 0.86885422 0.38742048 0
0.84111929 0.8786394 0.43771049 0
0.83822751 0.87220997 0.4855386 0
0.34790674 -0.16280749 -0.089559086 0
0.39073461 -0.060780194 -0.088698946 0
0.45099708 0.082780868 -0.090120234 0
0.52589977 0.26121882 -0.089625128 0
0.63928336 0.5313285 -0.091772296 0
0.79555601 0.90361136 -0.090649046 0
1.0570099 1.5264635 -0.089771427 0
1.59182 2.8005221 -0.09037707 0
4.0228419 8.5918598 -0.14062612 0
0.99811447 1.3861589 0.22105418 0
0.84661806 1.0252547 0.25383645 0
0.83802462 1.0047828 0.30295601 0
0.84223288 1.0148079 0.35512117 0
0.84000444 1.0094992 0.40574062 0
0.83960623 1.0085505 0.45720097 0
0.83796549 1.0046419 0.50840384 0
0.33017927 -0.14602813 -0.09145052 0
0.37105888 -0.04131427 -0.090706237 0
0.42464474 0.095946819 -0.090500034 0
0.49476656 0.27556506 -0.089851417 0
0.59647429 0.53609115 -0.090409957 0
0.74910897 0.92706746 -0.091050915 0
0.99439764 1.5553784 -0.090001889 0
1.4968758 2.8424847 -0.090528525 0
3.781363 8.6942377 -0.14072478 0
0.92772216 1.384588 0.21975452 0
0.84658748 1.1767602 0.26366159 0
0.8411538 1.1628418 0.3167496 0
0.83864874 1.156425 0.37031347 0
0.84239888 1.1660309 0.42626643 0
0.83980513 1.1593871 0.4802005 0
0.84008974 1.1601162 0.53570694 0
0.30673367 -0.14369968 -0.090160049 0
0.34566075 -0.036044862 -0.08995188 0
0.39872074 0.11069515 -0.091269739 0
0.43995091 0.2247192 -0.080451347 0
0.43351707 0.20692614 -0.047694642 0
0.43547535 0.21234182 -0.018297805 0
0.93856418 1.6036587 -0.091787912 0
1.4039972 2.8908365 -0.091114081 0
3.5360951 8.7872591 -0.14074259 0
0.86294955 1.3945427 0.2191264 0
0.85002291 1.3587935 0.27566883 0
0.83943135 1.3295019 0.33126435 0
0.84268671 1.3385048 0.39041036 0
0.84063262 1.332824 0.44813097 0
0.83835125 1.3265147 0.50583857 0
0.83993286 1.3308887 0.56581646 0
0.28545153 -0.13580319 -0.090261124 0
0.32420507 -0.019534733 -0.091563366 0
0.36663479 0.10776296 -0.089083873 0
0.40711966 0.22922567 -0.079535447 0
0.40758336 0.23061684 -0.04931565 0
0.40462291 0.22173491 -0.018181002 0
0.86908805 1.6152239 -0.090957738 0
1.3057624 2.9253345 -0.091130473 0
3.2880418 8.8725719 -0.14072375 0
0.79193258 1.3837419 0.21756445 0
0.85194367 1.5637872 0.28926253 0
0.83829904 1.5228505 0.34828937 0
0.83992171 1.5277188 0.41120577 0
0.83658957 1.5177219 0.47250217 0
0.8393687 1.5260599 0.53688645 0
0.84098637 1.5309131 0.60148406 0
0.26394817 -0.12849936 -0.090349548 0
0.30034798 -0.009351816 -0.092023484 0
0.33942148 0.11854759 -0.089411743 0
0.38190812 0.25761917 -0.082258947 0
0.3820653 0.25813356 -0.051472086 0
0.38005304 0.25154689 -0.020134253 0
0.72071272 1.3666286 -0.071245171 0
0.72379678 1.376724 -0.01420421 0
0.72446722 1.3789184 0.043396246 0
0.72557348 1.3825395 0.1010412 0
0.72600645 1.3839567 0.1588088 0
0.72923106 1.3945117 0.21715353 0
0.84280849 1.7662852 0.30256578 0
0.8357408 1.7431505 0.36781859 0
0.83679616 1.7466049 0.43547803 0
0.83421952 1.7381706 0.50192773 0
0.83464813 1.7395737 0.57009298 0
0.24034363 -0.12861821 -0.0889199 0
0.27476424 -0.0048557189 -0.091486745 0
0.31128564 0.12646022 -0.089364998 0
0.36478752 0.318831 -0.089843743 0
0.44296968 0.59994203 -0.09181834 0
0.5530777 0.99584538 -0.091355793 0
0.66274953 1.3901801 -0.071690835 0
0.66228521 1.3885107 -0.013928903 0
0.65957022 1.3787487 0.04382268 0
0.66242218 1.3890033 0.10104087 0
0.65962189 1.3789344 0.15826303 0
0.66363031 1.3933473 0.21624491 0
0.8124069 1.9282868 0.31285191 0
0.81510794 1.9379985 0.38475025 0
0.81216592 1.9274204 0.45496964 0
0.81310463 1.9307954 0.52709603 0
0.81317717 1.9310565 0.59932828 0
0.21882513 -0.12176415 -0.089158453 0
0.25067014 0.0050493809 -0.092129655 0
0.28441653 0.13943473 -0.090297036 0
0.33230346 0.33013061 -0.090211309 0
0.39539942 0.58139211 -0.088300161 0
0.49971798 0.99681062 -0.090168886 0
0.59542322 1.377929 -0.069658838 0
0.59838486 1.3897228 -0.013222514 0
0.59861094 1.3906231 0.043918297 0
0.59530348 1.3774524 0.10104006 0
0.60021561 1.3970132 0.15831624 0
0.59655672 1.3824427 0.2149538 0
0.76512712 2.053726 0.32049105 0
0.76730895 2.0624144 0.39484286 0
0.77036315 2.0745769 0.47035548 0
0.76828843 2.0663149 0.54390508 0
0.19929393 -0.10573211 -0.09151379 0
0.22314963 0.00055060128 -0.090106182 0
0.2557323 0.14571407 -0.090210669 0
0.29566282 0.32361379 -0.088129111 0
0.35701677 0.59696001 -0.089032777 0
0.44699949 0.99785393 -0.089125372 0
0.55349922 1.4723349 -0.075402282 0
0.55273515 1.468931 -0.016318707 0
0.55238175 1.4673564 0.042431086 0
0.55361998 1.472873 0.10104243 0
0.55031371 1.458143 0.15943345 0
0.55394149 1.4743054 0.21866041 0
0.71336383 2.1845689 0.32856044 0
0.71452945 2.1897621 0.40527499 0
0.71432447 2.188849 0.4818404 0
0.71303982 2.1831255 0.55808699 0
0.1773053 -0.099153906 -0.091915898 0
0.19967754 0.013783608 -0.091631211 0
0.22529106 0.14308348 -0.088753514 0
0.2672058 0.35467377 -0.091573603 0
0.31987035 0.62053019 -0.090830885 0
0.398976 1.0198643 -0.090209119 0
0.41490182 1.1002595 -0.04794756 0
0.41503087 1.1009109 0.0017708188 0
0.41408706 1.0961463 0.051540818 0
0.41460621 1.0987673 0.10103117 0
0.41626579 1.1071448 0.15078276 0
0.41382369 1.0948172 0.20000233 0
0.41653278 1.1084929 0.25059783 0
0.41538343 1.1026907 0.30015403 0
0.41686431 1.1101663 0.35123295 0
0.40429619 1.046721 0.39278173 0
0.29588017 0.4994252 0.35048655 0
0.27263895 0.38210097 0.36437562 0
0.15347917 -0.10261014 -0.090271987 0
0.17486411 0.021724496 -0.092251711 0
0.19795589 0.15598288 -0.090020947 0
0.23356409 0.3630133 -0.091865934 0
0.28043702 0.6355384 -0.091717295 0
0.3469407 1.0221989 -0.089539729 0
0.36793745 1.1442766 -0.0503763 0
0.88238919 4.1353617 -0.1411092 0
1.761773 9.2482061 -0.14055103 0
0.58193874 2.3885059 0.26072773 0
0.58005416 2.3775489 0.33999643 0
0.58166808 2.3869324 0.42093295 0
0.26110899 0.5231629 0.28042036 0
0.27120826 0.58188123 0.32510972 0
0.27137864 0.58287174 0.36324522 0
0.23595145 0.37689367 0.36215317 0
0.13114549 -0.098451048 -0.090399481 0
0.14861766 0.021121655 -0.091363065 0
0.16855831 0.1575878 -0.089522578 0
0.19835547 0.36150792 -0.09087979 0
0.23848087 0.63611048 -0.091013126 0
0.29567048 1.027494 -0.089276202 0
0.39459723 1.7045102 -0.089351676 0
0.75098687 4.1435022 -0.14052263 0
1.502912 9.2893858 -0.1405513 0
0.5064069 2.469692 0.26391232 0
0.50442648 2.4561388 0.34459618 0
0.50584543 2.4658494 0.42710042 0
0.22382668 0.53582293 0.28119773 0
0.27639198 0.89555949 0.36878127 0
0.20164068 0.38399056 0.36245844 0
0.10914124 -0.091182619 -0.091313191 0
0.12227877 0.017898235 -0.090105854 0
0.1390809 0.157406 -0.088852964 0
0.16479786 0.3709338 -0.091569953 0
0.19607876 0.63065892 -0.089726873 0
0.24705845 1.0539429 -0.09112411 0
0.32845834 1.7298057 -0.09049391 0
0.62158138 4.1636043 -0.1406545 0
1.2432953 9.3256893 -0.14059067 0
0.42438853 2.5263133 0.26602358 0
0.42416695 2.5244734 0.34859401 0
0.42506674 2.5319445 0.43222329 0
0.42421311 2.5248568 0.51485354 0
0.23074104 0.91845959 0.37112504 0
0.16543148 0.37619486 0.36010116 0
0.084452085 -0.10975417 -0.086826168 0
0.096523345 0.017430816 -0.089499049 0
0.11033136 0.16291478 -0.089247398 0
0.12981971 0.36824754 -0.090668388 0
0.15685999 0.65314907 -0.091849796 0
0.19598065 1.0653315 -0.091670759 0
0.25864008 1.7255232 -0.08967372 0
0.4913587 4.1774907 -0.14064834 0
0.98274076 9.354784 -0.14061479 0
0.34310341 2.6154449 0.26974905 0
0.34015948 2.5844269 0.35213578 0
0.34037986 2.5867488 0.43646622 0
0.33918905 2.5742023 0.5195266 0
0.34072027 2.5903356 0.60650229 0
0.17357017 0.82921058 0.40129405 0
0.13118339 0.38261548 0.36061329 0
0.063636519 -0.087748021 -0.091126002 0
0.071379811 0.023657475 -0.090280004 0
0.081691019 0.17200854 -0.090351455 0
0.095045812 0.36414865 -0.089693867 0
0.11448135 0.64377481 -0.090352021 0
0.14265271 1.0490859 -0.089751549 0
0.19038713 1.7358577 -0.090002932 0
0.36157024 4.19873 -0.14113888 0
0.72157335 9.3782225 -0.14066049 0
0.25268513 2.6321614 0.2701804 0
0.25300407 2.6367505 0.35528511 0
0.13276479 0.90682477 0.27849108 0
0.13349921 0.91739112 0.32445902 0
0.13388813 0.92298681 0.37047186 0
0.12551895 0.80257636 0.39628226 0
0.097098917 0.3936874 0.36216637 0
0.040685922 -0.090613574 -0.090240978 0
0.046155665 0.033167157 -0.09179879 0
0.052287199 0.17192438 -0.090063386 0
0.060874678 0.36625984 -0.089717574 0
0.073608421 0.65442568 -0.09132383 0
0.09076874 1.0427654 -0.088887654 0
0.12218037 1.7536135 -0.090971701 0
0.23036648 4.2018752 -0.14093843 0
0.46039367 9.4074116 -0.14099349 0
0.16320103 2.6819146 0.27225924 0
0.16263424 2.6690876 0.35718533 0
0.086400479 0.94391114 0.2817038 0
0.085932583 0.93332273 0.32600343 0
0.086913615 0.95552343 0.37466449 0
0.076676711 0.7238614 0.38290483 0
0.061598919 0.38264957 0.35971034 0
0.017759796 -0.10252073 -0.087557323 0
0.020160561 0.024310384 -0.089976884 0
0.023114288 0.18035427 -0.091297038 0
0.026800781 0.3751097 -0.09080974 0
0.031815991 0.6400606 -0.089491583 0
0.03944245 1.0429623 -0.088754945 0
0.052964911 1.7573469 -0.091079988 0
0.099144191 4.1969743 -0.14051768 0
0.19779104 9.4084349 -0.14082471 0
0.070863083 2.7028978 0.27310112 0
0.070705831 2.6945903 0.35876605 0
0.071021944 2.7112906 0.44665912 0
0.070763886 2.6976576 0.53216702 0
0.032820504 0.69312865 0.37762675 0
0.027075917 0.38964489 0.36082265 0
-0.0046609319 -0.095836252 -0.088948198 0
-0.0053759203 0.017524991 -0.088668399 0
-0.0063266195 0.1682581 -0.089278363 0
-0.0076505709 0.37817016 -0.091209315 0
-0.0093685798 0.65055984 -0.09068837 0
-0.011824482 1.0399425 -0.08844284 0
-0.016254365 1.7422991 -0.089997403 0
-0.031714041 4.1934266 -0.14031407 0
-0.064607456 9.4086676 -0.14079161 0
-0.022518056 2.7354054 0.274589 0
-0.022471141 2.727967 0.36106032 0
-0.022405563 2.7175698 0.44719055 0
-0.022378771 2.7133219 0.53393006 0
-0.0093252836 0.64369541 0.36945522 0
-0.0076317322 0.37518325 0.35805649 0
-0.02773701 -0.079302996 -0.092555009 0
-0.031566601 0.042073999 -0.093385138 0
-0.035627745 0.17078999 -0.089785568 0
-0.042080034 0.37529209 -0.09089645 0
-0.050715785 0.64899808 -0.090597294 0
-0.06394653 1.0683401 -0.091185279 0
-0.085699193 1.7577798 -0.091171421 0
-0.11889924 2.810039 -0.075994186 0
-0.11879343 2.8066854 0.012668299 0
-0.11895139 2.8116918 0.10107896 0
-0.11897717 2.8125088 0.18962526 0
-0.11711019 2.753336 0.27550814 0
-0.11629968 2.7276473 0.36116219 0
-0.11667846 2.7396529 0.4494195 0
-0.11637296 2.7299697 0.53608453 0
-0.05071215 0.64888281 0.37043679 0
-0.042236648 0.38025585 0.35913551 0
-0.050818328 -0.078020364 -0.093044005 0
-0.057052787 0.03167275 -0.09163972 0
-0.064915217 0.17000929 -0.089869894 0
-0.076820932 0.37948611 -0.091700874 0
-0.092626601 0.65758127 -0.091815792 0
-0.11565205 1.0627058 -0.090872921 0
-0.15447979 1.7458663 -0.090551563 0
-0.21342438 2.7829754 -0.074929647 0
-0.21375212 2.7887418 0.012987653 0
-0.21433048 2.7989178 0.10107872 0
-0.21365687 2.787066 0.1891302 0
-0.21133858 2.7462764 0.27537325 0
-0.21097513 2.7398815 0.36230984 0
-0.21110824 2.7422237 0.45004874 0
-0.078096345 0.40192655 0.26390979 0
-0.076581523 0.37527385 0.29312831 0
-0.076123983 0.36722353 0.3243551 0
-0.076817207 0.37942067 0.35926592 0
-0.073183924 -0.087041289 -0.091460608 0
-0.08298482 0.032202039 -0.092077874 0
-0.094486117 0.17213348 -0.090555184 0
-0.1109789 0.37279418 -0.09109547 0
-0.1339988 0.65286762 -0.091601439 0
-0.16791955 1.0655668 -0.091477655 0
-0.22427586 1.7512302 -0.091264032 0
-0.42446703 4.1868715 -0.1408167 0
-0.850164 9.3661461 -0.14061007 0
-0.30629247 2.7490914 0.27581108 0
-0.30494669 2.732718 0.36226571 0
-0.30564269 2.7411861 0.4505643 0
-0.30546421 2.7390144 0.53839582 0
-0.11305182 0.39801458 0.2966736 0
-0.11352752 0.40380219 0.3307814 0
-0.11150303 0.37917092 0.35967216 0
-0.096508764 -0.083776981 -0.092619918 0
-0.10724956 0.015993748 -0.08947029 0
-0.12139422 0.14738289 -0.08692316 0
-0.14427565 0.35992756 -0.089737378 0
-0.17486142 0.64403754 -0.091025256 0
-0.21836855 1.0481732 -0.0903062 0
-0.29076207 1.7206333 -0.089573614 0
-0.55471879 4.1725159 -0.14072429 0
-1.1115928 9.345294 -0.14070171 0
-0.39797693 2.7165475 0.27470464 0
-0.39800695 2.7168264 0.36177397 0
-0.39902124 2.7262478 0.4499993 0
-0.39869574 2.7232244 0.5375877 0
-0.14974597 0.41074112 0.29894248 0
-0.14884193 0.40234354 0.33109125 0
-0.1468572 0.38390759 0.36119005 0
-0.11852492 -0.092527241 -0.091332756 0
-0.13272829 0.014060173 -0.089682542 0
-0.15264116 0.16349354 -0.090166263 0
-0.17908974 0.36197332 -0.090607889 0
-0.21482347 0.63013226 -0.089970119 0
-0.27013272 1.0451927 -0.090607755 0
-0.35785174 1.7034681 -0.088942982 0
-0.68553209 4.1625009 -0.1409896 0
-1.3732239 9.3231907 -0.14091887 0
-0.49189481 2.7093759 0.2748962 0
-0.48956695 2.6919069 0.36080885 0
-0.24155846 0.83076125 0.27246228 0
-0.24081305 0.82516748 0.31501275 0
-0.18569635 0.41155162 0.29966003 0
-0.18575366 0.41198173 0.33339033 0
-0.18234088 0.38637105 0.36245036 0
-0.14138106 -0.094143003 -0.091695376 0
-0.16026787 0.024619851 -0.092400752 0
-0.18036769 0.15101019 -0.088794924 0
-0.21382377 0.36138657 -0.091232099 0
-0.25663552 0.63059253 -0.090729959 0
-0.32098284 1.035217 -0.090372629 0
-0.42816129 1.7091696 -0.090048127 0
-0.81690383 4.153635 -0.1414655 0
-1.6315534 9.2762623 -0.14070761 0
-0.58169401 2.6746039 0.27389756 0
-0.5802623 2.665601 0.35990506 0
-0.27847785 0.76793998 0.26715466 0
-0.27709216 0.75922674 0.30799603 0
-0.27937147 0.77355927 0.35192925 0
-0.21797399 0.38748363 0.36362857 0
-0.16283229 -0.10390553 -0.090423055 0
-0.1858983 0.020767961 -0.092504047 0
-0.20872948 0.14417222 -0.088477425 0
-0.24864347 0.3599104 -0.091857143 0
-0.2962195 0.61706239 -0.08995565 0
-0.36983526 1.014961 -0.089282133 0
-0.49783319 1.7067997 -0.090710513 0
-0.94487137 4.123075 -0.14107317 0
-1.8899821 9.2314711 -0.14069974 0
-0.66909331 2.6324737 0.27265263 0
-0.66740477 2.6233468 0.35802478 0
-0.66609859 2.6162868 0.44343895 0
-0.66544777 2.6127691 0.5293116 0
-0.28555733 0.55943257 0.3599174 0
-0.25096533 0.37246016 0.36189243 0
-0.18652779 -0.10165265 -0.091871627 0
-0.20900543 0.0047571394 -0.090391405 0
-0.23852231 0.14449075 -0.089480333 0
-0.2784465 0.33349279 -0.089028962 0
-0.33881828 0.61929458 -0.09117908 0
-0.42101747 1.0084277 -0.089612268 0
-0.56410497 1.6858077 -0.090171181 0
-0.62005645 1.9506836 -0.038919467 0
-0.6184181 1.9429276 0.03129055 0
-0.61874223 1.9444621 0.101056 0
-0.75479424 2.5885358 0.27141976 0
-0.75207061 2.5756421 0.35590157 0
-0.75193769 2.5750127 0.44121522 0
-0.75266999 2.5784798 0.5273602 0
-0.28905016 0.38369086 0.36536267 0
-0.20797645 -0.11039981 -0.091055863 0
-0.23338668 -0.0035187865 -0.089876138 0
-0.26625723 0.13474193 -0.088915221 0
-0.31299993 0.33135203 -0.08979895 0
-0.37762046 0.60316008 -0.090332262 0
-0.47207701 1.0004652 -0.089930855 0
-0.5211308 1.2067962 -0.056836087 0
-0.61783034 1.6135354 -0.023580765 0
-0.61904782 1.6186566 0.038644347 0
-0.61823672 1.6152449 0.10104682 0
-0.83619899 2.532042 0.26968127 0
-0.83428109 2.5239749 0.35363388 0
-0.83343774 2.5204277 0.43790764 0
-0.83398336 2.5227225 0.52308065 0
-0.83756745 2.5377982 0.61067575 0
-0.23086888 -0.11298975 -0.091707118 0
-0.25948766 -0.004818764 -0.090836085 0
-0.29585838 0.13265255 -0.089767121 0
-0.3456187 0.32073262 -0.089467935 0
-0.41550037 0.58486599 -0.089336716 0
-0.52403903 0.99511188 -0.090627544 0
-0.57939214 1.2043312 -0.057661001 0
-0.64542794 1.4539282 -0.016686415 0
-0.64939988 1.4689412 0.041848861 0
-0.64843243 1.4652843 0.10104288 0
-0.91489929 2.472455 0.26788074 0
-0.91299093 2.4652419 0.35098931 0
-0.91285253 2.4647191 0.43466744 0
-0.91082871 2.4570696 0.51782298 0
-0.91346377 2.4670291 0.60362399 0
-0.25220191 -0.12152842 -0.091173477 0
-0.28399685 -0.012550857 -0.090669893 0
-0.32483265 0.12741426 -0.090213664 0
-0.34511268 0.19692436 -0.072684415 0
-0.46047005 0.59231287 -0.091583677 0
-0.57190818 0.97426838 -0.089950316 0
-0.71338755 1.4591904 -0.077338122 0
-0.71217996 1.4550512 -0.017569533 0
-0.71270138 1.4568384 0.041725591 0
-0.71311998 1.4582732 0.10104319 0
-0.9854517 2.3916931 0.26513487 0
-0.98415369 2.3872442 0.34706539 0
-0.98222578 2.3806362 0.42883706 0
-0.98563248 2.3923128 0.51287109 0
-0.98383534 2.386153 0.59531951 0
-0.27390775 -0.12853095 -0.091097958 0
-0.30792952 -0.021995749 -0.090285562 0
-0.35159975 0.11475268 -0.089508764 0
-0.37823361 0.19815341 -0.074209668 0
-0.39312422 0.24478164 -0.050435904 0
-0.39524147 0.25141159 -0.020599207 0
-0.39407372 0.24775496 0.010186369 0
-0.39549622 0.25220934 0.040297069 0
-0.40127096 0.27029231 0.070227414 0
-0.39559835 0.25252917 0.10100761 0
-0.39557567 0.25245813 0.13135257 0
-0.39449373 0.24907008 0.16156469 0
-0.39435956 0.24864998 0.19189468 0
-0.39640936 0.25506869 0.22297357 0
-0.39873978 0.26236609 0.25461015 0
-0.39483544 0.2501401 0.28389564 0
-0.39646211 0.25523391 0.31576318 0
-0.3929632 0.24427751 0.34495103 0
-0.29758534 -0.12984726 -0.092424072 0
-0.33427563 -0.024229195 -0.091455676 0
-0.38192865 0.11294666 -0.090803437 0
-0.42869782 0.24757817 -0.083042391 0
-0.43181631 0.25655511 -0.05317143 0
-0.4284935 0.24699 -0.021189136 0
-0.43260124 0.25881472 0.008601049 0
-0.42995805 0.25120595 0.039834041 0
-0.43503273 0.2658141 0.070077963 0
-0.42921513 0.24906734 0.10100782 0
-0.43369499 0.26196328 0.13184372 0
-0.43235335 0.25810114 0.16252214 0
-0.43218896 0.25762787 0.19332765 0
-0.43178278 0.25645867 0.22414151 0
-0.43074733 0.25347796 0.25480765 0
-0.43224707 0.25779513 0.28658006 0
-0.42865136 0.24744442 0.31622168 0
-0.43040985 0.25250652 0.34865314 0
-0.31745258 -0.14223549 -0.091383643 0
-0.36016947 -0.028603043 -0.092339449 0
-0.40710956 0.096263796 -0.089632146 0
-0.47811618 0.28515056 -0.090370141 0
-0.4859446 0.30597523 -0.060754884 0
-0.51043355 0.37111905 -0.034686778 0
-0.51134533 0.37354448 -0.00081436126 0
-0.51168418 0.37444583 0.033144239 0
-0.51007038 0.37015298 0.067203112 0
-0.50978291 0.36938825 0.10101184 0
-1.2033039 2.2142448 0.18073863 0
-1.1913055 2.1823273 0.25890628 0
-1.1588538 2.0960014 0.33158758 0
-1.158163 2.0941639 0.40863547 0
-1.1632601 2.107723 0.48785087 0
-1.1606573 2.1007991 0.56509846 0
-0.33336321 -0.16377404 -0.0883485 0
-0.38120779 -0.045640137 -0.090791129 0
-0.43629903 0.09038654 -0.090477027 0
-0.50862366 0.26896456 -0.089810289 0
-0.51444608 0.28334072 -0.059501935 0
-0.5117659 0.27672306 -0.026523685 0
-0.51058996 0.2738196 0.0056997333 0
-0.50910693 0.27015784 0.037710901 0
-0.51227462 0.27797917 0.06918098 0
-0.50641632 0.26351431 0.10100898 0
-1.2725221 2.1551194 0.2591016 0
-1.199566 1.9749823 0.32473534 0
-1.1939576 1.9611344 0.39827645 0
-1.1966119 1.9676881 0.47401467 0
-1.1963574 1.9670599 0.54940712 0
-0.35492814 -0.17053381 -0.088797845 0
-0.40923396 -0.045602407 -0.092840977 0
-0.46141577 0.074442536 -0.089658506 0
-0.51154459 0.18976465 -0.079705544 0
-0.50574535 0.17642346 -0.047585551 0
-0.5082522 0.18219057 -0.018260105 0
-0.51510173 0.19794801 0.010468761 0
-0.51197934 0.19076481 0.041067448 0
-0.51172858 0.19018796 0.071068138 0
-0.51066953 0.18775156 0.10100704 0
-1.3535439 2.1267965 0.25934607 0
-1.2267327 1.8350654 0.31644386 0
-1.2278037 1.8375292 0.3888545 0
-1.225767 1.8328438 0.46079457 0
-1.2278631 1.8376658 0.53434634 0
-1.2261156 1.8336456 0.60704154 0
-0.38122854 -0.16739723 -0.091699265 0
-0.42629796 -0.070479184 -0.089885868 0
-0.48564178 0.057134781 -0.088697381 0
-0.51106793 0.11181167 -0.069686212 0
-0.51413614 0.11840954 -0.041803736 0
-0.51007605 0.10967854 -0.01215676 0
-0.50783902 0.10486808 0.016612047 0
-0.51266527 0.11524656 0.044260949 0
-0.51498699 0.12023917 0.072520398 0
-0.50927746 0.10796133 0.10100494 0
-1.4295489 2.0869281 0.25910443 0
-1.2499572 1.7007315 0.30853796 0
-1.2374704 1.6738794 0.37528425 0
-1.2450293 1.6901343 0.4464986 0
-1.2417275 1.6830339 0.51531738 0
-1.2375635 1.6740797 0.58388615 0
-0.40683696 -0.16723773 -0.094087385 0
-0.45041549 -0.079393297 -0.090339787 0
-0.51363879 0.048050556 -0.08934442 0
-0.5135923 0.047956858 -0.061750565 0
-0.50836813 0.037426148 -0.032979894 0
-0.50769597 0.036071215 -0.005867226 0
-0.51079881 0.042325769 0.020463759 0
-0.51110089 0.04293469 0.04732712 0
-0.50957632 0.039861474 0.074259497 0
-0.51049447 0.041712318 0.10100325 0
-1.2500824 1.5325534 0.29793471 0
-1.235898 1.5039611 0.36091492 0
-1.2386816 1.509572 0.42714489 0
-1.2419542 1.5161688 0.49418354 0
-1.2435985 1.5194833 0.56140405 0
-0.41932067 -0.19318411 -0.090386905 0
-0.48000768 -0.078232855 -0.093074359 0
-0.53331929 0.022748146 -0.087116458 0
-0.53293705 0.022024188 -0.059745122 0
-0.53405041 0.02413312 -0.032964695 0
-0.53551793 0.026912842 -0.006289674 0
-0.53011447 0.016677771 0.021444591 0
-0.53502953 0.025987659 0.047521815 0
-0.53453082 0.025043044 0.074301802 0
-0.5319767 0.020205174 0.10100298 0
-1.2468573 1.3743076 0.28797543 0
-1.2393918 1.3601668 0.34910792 0
-1.2409227 1.3630664 0.41201392 0
-1.2408737 1.3629737 0.47494069 0
-1.2357703 1.3533072 0.53649586 0
-1.2400409 1.3613961 0.60179603 0
-0.44097105 -0.20101407 -0.09112478 0
-0.496622 -0.10175189 -0.090678938 0
-0.55840552 0.0084485747 -0.087022893 0
-0.55673552 0.0054698917 -0.059300262 0
-0.56063008 0.012416515 -0.033246774 0
-0.55656165 0.0051598283 -0.005445024 0
-0.56138563 0.013764057 0.020578483 0
-0.55433893 0.0011952255 0.048105989 0
-0.55789471 0.0075375172 0.074399658 0
-0.5541023 0.00077310542 0.1010028 0
-1.2909416 1.3150408 0.16254386 0
-1.2987876 1.3290355 0.22485653 0
-1.2479656 1.2383864 0.27965859 0
-1.2354174 1.2160048 0.33710286 0
-1.2376474 1.2199824 0.39713377 0
-1.2370102 1.2188461 0.45688096 0
-1.242375 1.2284148 0.51897752 0
-1.2382171 1.2209985 0.57839513 0
-0.46247935 -0.20945433 -0.091857038 0
-0.51788467 -0.11622557 -0.090320416 0
-0.58929837 0.0039399001 -0.088919945 0
-0.58598405 -0.001637068 -0.060490597 0
-0.58559871 -0.0022854472 -0.033217791 0
-0.58952028 0.0043132636 -0.006914882 0
-0.58267385 -0.007207003 0.021104062 0
-0.58637857 -0.00097319146 0.047447566 0
-0.59309345 0.010325763 0.073934287 0
-0.58346546 -0.0058749584 0.10100306 0
-1.3566333 1.295109 0.16290712 0
-1.3625222 1.3050182 0.22537245 0
-1.2489609 1.1139321 0.27215174 0
-1.239099 1.097338 0.32767564 0
-1.2451701 1.1075537 0.38618755 0
-1.2400637 1.0989614 0.44249764 0
-1.241398 1.1012065 0.50078338 0
-1.2363582 1.0927262 0.55728835 0
-0.47881714 -0.22646895 -0.090583153 0
-0.54645354 -0.11893341 -0.092692681 0
-0.60879487 -0.019816484 -0.087260477 0
-0.60805506 -0.020992722 -0.059788052 0
-0.6119203 -0.014847305 -0.033570159 0
-0.6137917 -0.01187202 -0.0068079066 0
-0.61302179 -0.013096061 0.020348417 0
-0.61417729 -0.011258986 0.047180921 0
-0.60720152 -0.022349801 0.074411348 0
-0.61572093 -0.008804705 0.10100347 0
-1.2474213 0.99553984 0.265028 0
-1.2452466 0.99208242 0.31958768 0
-1.2427441 0.98810369 0.3741225 0
-1.2393295 0.98267454 0.42849469 0
-1.2394816 0.98291641 0.48402584 0
-1.2330779 0.97273523 0.53767711 0
-0.49982637 -0.23593631 -0.091318525 0
-0.56514376 -0.13767919 -0.091639511 0
-0.63550901 -0.031828549 -0.087987058 0
-0.63426089 -0.033706095 -0.060287777 0
-0.63493621 -0.032690134 -0.03327984 0
-0.63700604 -0.029576506 -0.0065969434 0
-0.63496798 -0.032642391 0.020662697 0
-0.64189041 -0.022228982 0.046909109 0
-0.63645011 -0.03041276 0.074199453 0
-0.63626558 -0.030690398 0.10100326 0
-1.2576158 0.90400881 0.26003739 0
-1.2387767 0.87566918 0.3101289 0
-1.240505 0.87826914 0.36319509 0
-1.2359232 0.87137669 0.4150942 0
-1.2392417 0.8763687 0.4692938 0
-1.2383281 0.87499434 0.52274966 0
-0.51524937 -0.25369301 -0.090050973 0
-0.58404678 -0.15565929 -0.090851344 0
-0.67359531 -0.028056052 -0.092030115 0
-0.66082221 -0.046257224 -0.060936872 0
-0.66587406 -0.039058473 -0.034704912 0
-0.66175574 -0.044926908 -0.0067168903 0
-0.66697037 -0.037496295 0.01968086 0
-0.66069478 -0.04643878 0.047346007 0
-0.66421229 -0.041426506 0.074046798 0
-0.66841829 -0.03543302 0.10100366 0
-1.2929543 0.85450751 0.25857207 0
-1.2468138 0.78875905 0.30384916 0
-1.2419631 0.78184694 0.3539806 0
-1.2403289 0.77951819 0.40477872 0
-1.2383597 0.77671224 0.45568168 0
-1.2459086 0.78746921 0.50993747 0
-0.5381074 -0.26092264 -0.091645427 0
-0.60999191 -0.16379729 -0.092465393 0
-0.69120604 -0.054066446 -0.090254433 0
-0.68700892 -0.059737291 -0.061551932 0
-0.69024205 -0.055368867 -0.034823764 0
-0.69124907 -0.054008272 -0.0076390039 0
-0.68850309 -0.057718422 0.019947538 0
-0.69364899 -0.05076566 0.046612307 0
-0.68727946 -0.059371736 0.074071676 0
-0.691477 -0.053700294 0.10100362 0
-1.3375014 0.81916326 0.25838837 0
-1.2555112 0.70838362 0.29823381 0
-1.2444994 0.69350535 0.34577337 0
-1.2397053 0.68702775 0.39417771 0
-1.2422835 0.69051129 0.44456092 0
-1.2412137 0.68906587 0.49437851 0
-0.55680662 -0.27412352 -0.091815941 0
-0.62364107 -0.18843052 -0.090326332 0
-0.7113741 -0.07594201 -0.08939708 0
-0.71367085 -0.072997183 -0.062335137 0
-0.72057605 -0.064143628 -0.036152173 0
-0.71918333 -0.065929323 -0.0083305519 0
-0.71378535 -0.072850376 0.019720504 0
-0.72366756 -0.060179736 0.046115737 0
-0.71818662 -0.067207187 0.073781952 0
-0.71991992 -0.064984888 0.10100386 0
-1.393144 0.79820174 0.25957605 0
-1.2601519 0.62768334 0.29249424 0
-1.2391152 0.60071093 0.33675227 0
-1.2420355 0.60445517 0.38513169 0
-1.2366741 0.59758097 0.43183666 0
-1.2378016 0.5990265 0.48048103 0
-0.56802398 -0.2965205 -0.089589022 0
-0.64426661 -0.20369288 -0.09050969 0
-0.74496907 -0.081084698 -0.09218774 0
-0.74548984 -0.080450684 -0.064311869 0
-0.75150222 -0.073130399 -0.037590954 0
-0.74334925 -0.083056897 -0.008492006 0
-0.74853772 -0.076739758 0.018414484 0
-0.74505085 -0.080985099 0.046249855 0
-0.74501467 -0.081029207 0.073643051 0
-0.75069374 -0.07411477 0.10100421 0
-1.4304255 0.75347859 0.25876307 0
-1.2495927 0.53330928 0.28499594 0
-1.2390227 0.52044004 0.32941708 0
-1.2400428 0.52168208 0.37587056 0
-1.2464879 0.52952904 0.42410943 0
-1.2382199 0.51946253 0.46882603 0
-0.59267908 -0.30258736 -0.091980167 0
-0.65864134 -0.22628585 -0.089000188 0
-0.76219982 -0.10649523 -0.090818934 0
-0.77324057 -0.093723923 -0.065398626 0
-0.77209204 -0.095052391 -0.03718238 0
-0.77088058 -0.096453756 -0.0091917943 0
-0.77467102 -0.092069238 0.01805667 0
-0.77302271 -0.093975872 0.04587315 0
-0.77753341 -0.088758141 0.073293224 0
-0.77246284 -0.094623476 0.10100416 0
-1.4774048 0.72081417 0.25913358 0
-1.2434759 0.45021823 0.27869287 0
-1.2359914 0.44156042 0.32213494 0
-1.237062 0.44279888 0.36711904 0
-1.2388041 0.44481412 0.41264385 0
-1.2450651 0.45205656 0.45994484 0
-0.60046613 -0.32806411 -0.089026414 0
-0.67993927 -0.24069068 -0.089631833 0
-0.78335363 -0.12699613 -0.0906047 0
-0.80048364 -0.10816321 -0.066420682 0
-0.7938385 -0.11546895 -0.037083376 0
-0.79410118 -0.11518016 -0.0093220603 0
-0.79964697 -0.10908309 0.017788084 0
-0.80553716 -0.10260734 0.045169428 0
-0.80361181 -0.10472408 0.073168658 0
-0.80323398 -0.10513952 0.10100452 0
-1.2521918 0.38844827 0.27491623 0
-1.2375964 0.37240198 0.31620857 0
-1.234376 0.36886147 0.35909036 0
-1.2399613 0.37500194 0.40418181 0
-1.2378733 0.37270644 0.44785914 0
-0.62440658 -0.3356646 -0.091316618 0
-0.70261061 -0.25392827 -0.090721674 0
-0.79820389 -0.1540173 -0.089022182 0
-0.824054 -0.12699959 -0.066744663 0
-0.82395983 -0.12709799 -0.038491104 0
-0.8272621 -0.12364659 -0.01085577 0
-0.81796503 -0.13336357 0.018155733 0
-0.82228816 -0.12884519 0.045530662 0
-0.82931197 -0.12150416 0.073046319 0
-0.82525951 -0.12573966 0.10100452 0
-1.2477571 0.31584123 0.26967469 0
-1.2451708 0.31313816 0.31174523 0
-1.2395622 0.30727604 0.35325611 0
-1.2384493 0.30611303 0.39572987 0
-1.2358775 0.3034251 0.43805709 0
-0.64240038 -0.34996107 -0.091826431 0
-0.72565979 -0.267225 -0.091974787 0
-0.82304031 -0.17045644 -0.0899527 0
-0.85636359 -0.13734254 -0.068887509 0
-0.86153895 -0.13219979 -0.041141797 0
-0.84945548 -0.14420727 -0.010936832 0
-0.86315489 -0.13059399 0.015804695 0
-0.85693628 -0.1367735 0.044664305 0
-0.85329682 -0.14039007 0.072969154 0
-0.86638337 -0.12738577 0.10100531 0
-1.2738429 0.27751318 0.14285895 0
-1.2712872 0.27497342 0.18457367 0
-1.2740721 0.27774075 0.22673787 0
-1.23853 0.24242213 0.26417622 0
-1.2468609 0.25070062 0.3066721 0
-1.2408237 0.24470142 0.34710044 0
-1.2364126 0.24031809 0.38777363 0
-1.241308 0.24518266 0.43094066 0
-0.65189791 -0.37247124 -0.089946531 0
-0.73748195 -0.29161307 -0.090377323 0
-0.84857392 -0.18665555 -0.091113932 0
-0.8857221 -0.15155861 -0.070460491 0
-0.88727397 -0.15009245 -0.041846741 0
-0.87683845 -0.15995172 -0.011749847 0
-0.89058727 -0.14696208 0.015223632 0
-0.88949692 -0.14799222 0.04393905 0
-0.89816684 -0.13980106 0.072210334 0
-0.89297032 -0.14471063 0.10100551 0
-1.2812825 0.22215942 0.14208563 0
-1.2939448 0.23412243 0.18400706 0
-1.2921772 0.23245242 0.22544253 0
-1.2483355 0.19103161 0.26149371 0
-1.2496904 0.19231167 0.3021583 0
-1.2400097 0.18316558 0.34099746 0
-1.2392794 0.1824756 0.38149399 0
-1.2393509 0.18254319 0.42246258 0
-0.67413753 -0.38295707 -0.091913469 0
-0.75531292 -0.31005141 -0.090494521 0
-0.866117 -0.21053538 -0.090575419 0
-0.92474157 -0.15788314 -0.073891722 0
-0.91955364 -0.16254255 -0.043635774 0
-0.92315197 -0.15931085 -0.014970137 0
-0.91473496 -0.16687033 0.014924945 0
-0.91923952 -0.16282466 0.043388441 0
-0.91254443 -0.1688377 0.072421893 0
-0.92191696 -0.16042003 0.10100581 0
-1.3321359 0.20800832 0.14273398 0
-1.3323185 0.20817223 0.18450314 0
-1.327105 0.20348993 0.225867 0
-1.2486343 0.1330134 0.25784257 0
-1.2571515 0.14066282 0.29870787 0
-1.2414395 0.12655142 0.33575207 0
-1.2404753 0.12568548 0.37531212 0
-1.2358384 0.12152103 0.41418552 0
-0.68489921 -0.4038727 -0.090705685 0
-0.77559888 -0.32645699 -0.091333695 0
-0.87839127 -0.23871973 -0.089041583 0
-0.94824284 -0.1790987 -0.074412517 0
-0.95459753 -0.17367467 -0.045860324 0
-0.94513869 -0.18174818 -0.015134534 0
-0.94577563 -0.18120453 0.013952361 0
-0.95375669 -0.17439243 0.042534143 0
-0.95035607 -0.17729494 0.071889959 0
-0.93726695 -0.188467 0.10100561 0
-1.4071701 0.21261361 0.14412057 0
-1.4122654 0.21696272 0.18757695 0
-1.4052426 0.21096841 0.23032522 0
-1.2515212 0.079761297 0.25476879 0
-1.2481008 0.076841742 0.29299513 0
-1.2351166 0.065759331 0.32945243 0
-1.2488904 0.077515751 0.37113565 0
-1.2363832 0.066840321 0.40747547 0
-0.69662338 -0.42365751 -0.089931719 0
-0.79069895 -0.34737799 -0.090999864 0
-0.90595895 -0.25392142 -0.090926848 0
-0.97983915 -0.19401696 -0.076485313 0
-0.97470397 -0.19818071 -0.045835007 0
-0.97312933 -0.1994575 -0.016085876 0
-0.98102695 -0.19305387 0.012587564 0
-0.97884172 -0.19482568 0.042244758 0
-0.98751825 -0.18779048 0.07138177 0
-0.98608065 -0.18895617 0.10100667 0
-1.2538612 0.028169069 0.25185475 0
-1.2516929 0.026410971 0.28954631 0
-1.2364367 0.014040742 0.32494435 0
-1.23882 0.015973125 0.36339101 0
-1.2465067 0.022205744 0.40356296 0
-0.72029793 -0.43402889 -0.092513688 0
-0.80530608 -0.36858627 -0.090682067 0
-0.92135036 -0.27925083 -0.090330742 0
-1.01752 -0.20521566 -0.079664864 0
-1.0128142 -0.20883843 -0.048557807 0
-1.0102748 -0.21079335 -0.018150507 0
-1.0205094 -0.20291439 0.01084906 0
-1.01701 -0.20560834 0.041161664 0
-1.0062376 -0.21390125 0.071416646 0
-1.0034615 -0.2160385 0.10100658 0
-1.2483033 -0.02754971 0.24822088 0
-1.2375119 -0.035857286 0.28373075 0
-1.2369065 -0.036323335 0.32060596 0
-1.2543751 -0.022875395 0.36143774 0
-1.2322928 -0.039875176 0.39420944 0
-0.71733171 -0.46463576 -0.088105612 0
-0.81482041 -0.39342925 -0.089308269 0
-0.94038635 -0.30171481 -0.090618648 0
-1.0494727 -0.22203723 -0.081839181 0
-1.0431744 -0.22663757 -0.05014858 0
-1.0434301 -0.22645083 -0.019749654 0
-1.0453562 -0.22504398 0.010387557 0
-1.047114 -0.22376004 0.040547393 0
-1.0417963 -0.22764406 0.070946887 0
-1.0476465 -0.22337112 0.10100747 0
-1.239205 -0.083455116 0.24440804 0
-1.2434822 -0.080331057 0.281169 0
-1.2355161 -0.086149603 0.3162463 0
-1.2450269 -0.079202741 0.35465145 0
-1.241668 -0.081656188 0.39089939 0
-0.73826414 -0.47744009 -0.090154193 0
-0.838467 -0.40805915 -0.091340818 0
-0.95487982 -0.32745436 -0.090107866 0
-1.0766355 -0.24315009 -0.083230354 0
-1.084282 -0.23785552 -0.05330408 0
-1.0778948 -0.24227813 -0.021515062 0
-1.0689231 -0.24849012 0.0099949259 0
-1.0743914 -0.24470386 0.040077634 0
-1.0764424 -0.24328378 0.070501171 0
-1.0761735 -0.24346998 0.1010078 0
-1.2570405 -0.11823669 0.20802966 0
-1.2432412 -0.12779149 0.24231502 0
-1.2402046 -0.12989399 0.27749738 0
-1.2469099 -0.1252512 0.3143653 0
-1.2464743 -0.12555286 0.35042831 0
-1.2485228 -0.12413451 0.38731289 0
-0.75215977 -0.49545711 -0.090463378 0
-0.85024107 -0.43114451 -0.090749867 0
-0.96852905 -0.35358229 -0.089568324 0
-1.1230853 -0.2522386 -0.08793027 0
-1.1191401 -0.2548255 -0.055574302 0
-1.110303 -0.26062003 -0.023066966 0
-1.1136916 -0.25839815 0.0077864397 0
-1.1132483 -0.25868878 0.03894126 0
-1.1167101 -0.25641891 0.069895394 0
-1.115903 -0.25694808 0.10100853 0
-1.2526516 -0.16728112 0.20585716 0
-1.2356769 -0.17841151 0.23908678 0
-1.2462807 -0.17145851 0.2753703 0
-1.2347687 -0.17900702 0.30872574 0
-1.2385522 -0.1765261 0.34466434 0
-1.2339759 -0.17952684 0.37920704 0
-0.76766175 -0.51258123 -0.091284238 0
-0.86149329 -0.45438656 -0.090182595 0
-0.98378217 -0.37854251 -0.089475922 0
-1.145673 -0.27813712 -0.088649459 0
-1.1562548 -0.27157429 -0.05817904 0
-1.1498934 -0.27551958 -0.025434902 0
-1.1561258 -0.27165428 0.0057835001 0
-1.1574116 -0.27085683 0.037512336 0
-1.1518039 -0.27433476 0.069431432 0
-1.1463357 -0.27772608 0.10100894 0
-1.2483033 -0.21448544 0.16949175 0
-1.2584717 -0.20817891 0.20466164 0
-1.2404091 -0.21938136 0.2374016 0
-1.2459127 -0.21596804 0.27253509 0
-1.2463937 -0.21566978 0.30733177 0
-1.2418255 -0.21850297 0.34140658 0
-1.2378286 -0.22098187 0.37561867 0
-0.78830791 -0.52693456 -0.093467616 0
-0.86700124 -0.48083636 -0.088498794 0
-0.99520129 -0.40573743 -0.088775508 0
-1.169395 -0.30369553 -0.089650117 0
-1.1879904 -0.29280242 -0.060074706 0
-1.1849699 -0.29457185 -0.027320808 0
-1.1908437 -0.29113093 0.0044077951 0
-1.1768976 -0.29930046 0.037419099 0
-1.191215 -0.29091337 0.068845645 0
-1.1874735 -0.29310516 0.10100972 0
-1.2522507 -0.25515905 0.16867043 0
-1.2354841 -0.26498076 0.20123205 0
-1.2405845 -0.26199302 0.23536067 0
-1.2327013 -0.26661101 0.26815432 0
-1.2365836 -0.26433674 0.30261758 0
-1.2471731 -0.25813344 0.3387953 0
-1.2393023 -0.26274416 0.37179366 0
-0.79455101 -0.54985273 -0.09221182 0
-0.8918373 -0.49611282 -0.091141917 0
-1.0208129 -0.42486808 -0.090879373 0
-1.1839454 -0.33475539 -0.089268766 0
-1.4284143 -0.19971338 -0.089880042 0
-1.7961987 0.0034467315 -0.090669893 0
-3.0302896 0.68514532 -0.14112526 0
-4.5358744 1.5168142 -0.1403227 0
-9.1023569 4.0392904 -0.1408312 0
-1.2472813 -0.29976931 0.13420787 0
-1.2449629 -0.30104998 0.16731724 0
-1.2467246 -0.30007681 0.20070122 0
-1.241815 -0.30278882 0.23357615 0
-1.2449398 -0.30106273 0.2674059 0
-1.2404351 -0.30355105 0.30036157 0
-1.2371762 -0.30535129 0.33352727 0
-1.242666 -0.30231872 0.36865693 0
-0.81016988 -0.56757694 -0.093358077 0
-0.90164 -0.52002144 -0.09064167 0
-1.0362163 -0.45005497 -0.091154955 0
-1.2032437 -0.36321709 -0.089769445 0
-1.4413418 -0.23942944 -0.08901865 0
-1.8172032 -0.044018354 -0.090304725 0
-3.0569692 0.60053831 -0.13997464 0
-4.6014614 1.4035227 -0.14052208 0
-9.2252836 3.8074572 -0.14080366 0
-1.2520649 -0.33783481 0.13388696 0
-1.2457354 -0.34112558 0.16646639 0
-1.229835 -0.34939221 0.19802935 0
-1.2410868 -0.34354237 0.23171781 0
-1.2368269 -0.3457571 0.26410046 0
-1.234712 -0.34685662 0.29677567 0
-1.2333103 -0.34758541 0.32968628 0
-1.2397124 -0.34425697 0.36443308 0
-0.81283325 -0.59194583 -0.091532268 0
-0.91603464 -0.54155713 -0.091237329 0
-1.0363175 -0.48282835 -0.088745452 0
-1.2198018 -0.39324096 -0.089948498 0
-1.4776653 -0.26733753 -0.091341905 0
-1.8434272 -0.088752061 -0.090611421 0
-3.1023228 0.52591139 -0.14045808 0
-4.6638441 1.2883337 -0.1407021 0
-9.3492966 3.5760348 -0.14095692 0
-1.2402533 -0.38325539 0.10100983 0
-1.2540725 -0.37650803 0.13352306 0
-1.2445377 -0.38116351 0.16557656 0
-1.2447549 -0.38105747 0.19796444 0
-1.2438681 -0.38149044 0.23035455 0
-1.2432655 -0.38178465 0.26287675 0
-1.2510142 -0.3780013 0.29685175 0
-1.2370497 -0.3848196 0.32748005 0
-1.2418661 -0.38246796 0.36155513 0
-0.82206595 -0.61284959 -0.091407515 0
-0.93139356 -0.56284523 -0.092139132 0
-1.0566221 -0.50556809 -0.09016531 0
-1.2303413 -0.42611226 -0.089313231 0
-1.4761326 -0.31369206 -0.088864394 0
-1.8685831 -0.13419279 -0.090921558 0
-3.1486692 0.45129398 -0.14115798 0
-4.729496 1.1743338 -0.14119717 0
-9.4695234 3.3423312 -0.14116186 0
-1.2377501 -0.42272368 0.10100929 0
-1.2388409 -0.42222473 0.13274665 0
-1.2426662 -0.4204751 0.1647145 0
-1.2331891 -0.42480978 0.1959244 0
-1.2433673 -0.42015442 0.22876883 0
-1.243327 -0.4201729 0.26096466 0
-1.2370695 -0.423035 0.29237303 0
-1.2398245 -0.42177483 0.32529563 0
-1.2437168 -0.41999456 0.35884842 0
-0.82869148 -0.63485074 -0.090804122 0
-0.93942827 -0.58754289 -0.091641806 0
-1.0701854 -0.53168207 -0.090468265 0
-1.2473229 -0.45600715 -0.089796759 0
-1.5071429 -0.34500942 -0.090698905 0
-1.8930185 -0.18015948 -0.091272302 0
-3.1733932 0.36682954 -0.14035058 0
-4.7678938 1.0480161 -0.14045364 0
-9.559001 3.0948255 -0.14073713 0
-1.2468342 -0.45621595 0.10100914 0
-1.2513231 -0.45429829 0.13271038 0
-1.2463477 -0.45642379 0.16419372 0
-1.239241 -0.45945981 0.19533113 0
-1.2431599 -0.45778564 0.22732954 0
-1.2410063 -0.45870575 0.25889409 0
-1.2409387 -0.4587346 0.29084054 0
-1.2463549 -0.45642075 0.32397377 0
-1.2404327 -0.45895073 0.35531381 0
-0.83571291 -0.65655595 -0.090425007 0
-0.943582 -0.61365825 -0.090489782 0
-1.0787566 -0.5599016 -0.090002425 0
-1.26599 -0.48544201 -0.090645082 0
-1.5315895 -0.37981758 -0.091789477 0
-1.9161705 -0.22687623 -0.091607787 0
-3.2063844 0.2862201 -0.14033444 0
-4.819737 0.92782313 -0.14055175 0
-1.2494493 -0.49202001 0.069682874 0
-1.2453628 -0.49364513 0.10100869 0
-1.2436862 -0.4943119 0.13219024 0
-1.2466406 -0.49313697 0.16355391 0
-1.2473977 -0.49283588 0.19496843 0
-1.2483222 -0.49246821 0.22654031 0
-1.2377082 -0.49668926 0.25684416 0
-1.2441113 -0.49414283 0.28935498 0
-1.2375431 -0.49675488 0.32010606 0
-1.2337192 -0.49827558 0.35131952 0
-0.85240281 -0.67461556 -0.092364512 0
-0.94742405 -0.63957709 -0.089418821 0
-1.0882488 -0.58764893 -0.089827605 0
-1.2669716 -0.52174616 -0.088948376 0
-1.5466338 -0.4186227 -0.091808729 0
-1.9286816 -0.27774528 -0.090999432 0
-3.2422671 0.20663014 -0.14068623 0
-4.8795924 0.81038243 -0.14119777 0
-1.2475222 -0.52891803 0.07003168 0
-1.2399217 -0.53172064 0.10100815 0
-1.2471873 -0.52904153 0.13197681 0
-1.2374893 -0.53261757 0.16249709 0
-1.2403387 -0.53156692 0.19353758 0
-1.230176 -0.53531432 0.22352569 0
-1.2375755 -0.53258574 0.25532782 0
-1.2400643 -0.53166807 0.28693587 0
-1.2377971 -0.53250408 0.31804204 0
-1.2372808 -0.53269446 0.34962586 0
-0.84439164 -0.70158339 -0.088844009 0
-0.95503485 -0.6639275 -0.089237578 0
-1.0975385 -0.61542827 -0.089741252 0
-1.2950387 -0.54821175 -0.091423653 0
-1.5518237 -0.46081838 -0.090732701 0
-1.9504397 -0.32515481 -0.091435172 0
-3.2770391 0.12633541 -0.141102 0
-1.2603408 -0.56002069 0.038942721 0
-1.2517643 -0.56293958 0.070203014 0
-1.2368488 -0.56801587 0.10100772 0
-1.2331096 -0.56928843 0.13135409 0
-1.2347589 -0.5687272 0.16181472 0
-1.2525687 -0.56266582 0.19361714 0
-1.2403851 -0.5668124 0.2234415 0
-1.234746 -0.56873155 0.2536037 0
-1.2341419 -0.56893712 0.28440025 0
-1.2355318 -0.5684641 0.31571552 0
-1.2440957 -0.56554949 0.34876782 0
-0.86364108 -0.71917444 -0.091574095 0
-0.96745074 -0.68674284 -0.090127729 0
-1.1154379 -0.64050955 -0.091259249 0
-1.300559 -0.58267516 -0.090658627 0
-1.5585635 -0.5020709 -0.089985795 0
-1.9574225 -0.37746176 -0.090540119 0
-3.2973623 0.041154061 -0.1406053 0
-1.2491874 -0.59872437 0.039995398 0
-1.2527695 -0.59760523 0.070430845 0
-1.2450986 -0.60000175 0.10100766 0
-1.2428262 -0.60071164 0.13134219 0
-1.2377737 -0.60229015 0.16146298 0
-1.2447592 -0.60010773 0.1922849 0
-1.2385215 -0.6020565 0.22225478 0
-1.2343751 -0.60335189 0.25230655 0
-1.2347572 -0.60323256 0.28298658 0
-1.2356313 -0.60295945 0.31397155 0
-1.2291694 -0.60497826 0.34378934 0
-0.86164331 -0.74350816 -0.089687042 0
-0.97264206 -0.71188152 -0.089709781 0
-1.1069381 -0.67361671 -0.08836358 0
-1.3065253 -0.61674869 -0.090091847 0
-1.5777526 -0.53946835 -0.090884186 0
-1.9790944 -0.42511472 -0.091205753 0
-1.2519184 -0.63230771 0.009895334 0
-1.2529745 -0.63200682 0.040269833 0
-1.2319483 -0.63799781 0.07116349 0
-1.2491176 -0.63310575 0.10100751 0
-1.2451183 -0.63424528 0.13116972 0
-1.2405741 -0.63554007 0.16114455 0
-1.2331004 -0.6376695 0.19075117 0
-1.2412461 -0.63534856 0.22160886 0
-1.2388822 -0.63602215 0.2517184 0
-1.2355249 -0.63697869 0.28173235 0
-1.2472315 -0.63364315 0.31435558 0
-1.237981 -0.63627893 0.34369269 0
-0.87404782 -0.76368093 -0.091108985 0
-0.98075765 -0.73616737 -0.089987196 0
-1.1246363 -0.69907039 -0.090075456 0
-1.3046104 -0.65266675 -0.088510163 0
-1.5948169 -0.57784128 -0.091634594 0
-1.986517 -0.47684732 -0.090609856 0
-1.2454712 -0.66791487 0.010982269 0
-1.2493179 -0.66692311 0.040859841 0
-1.2447091 -0.66811138 0.071060486 0
-1.246455 -0.66766125 0.10100717 0
-1.2456757 -0.66786218 0.13097706 0
-1.2369891 -0.67010188 0.16056137 0
-1.243099 -0.66852653 0.19086097 0
-1.2441262 -0.66826171 0.22106344 0
-1.2287568 -0.67222446 0.24946705 0
-1.2348024 -0.67066568 0.28039396 0
-1.234358 -0.6707803 0.31071371 0
-1.242376 -0.66871297 0.34289154 0
-0.87981343 -0.78574914 -0.091185741 0
-0.99742919 -0.758569 -0.092035852 0
-1.1357849 -0.72659606 -0.090781279 0
-1.3266611 -0.68248606 -0.090525605 0
-1.5960162 -0.62024015 -0.09059412 0
-2.5330253 -0.40370467 -0.14178745 0
-1.247561 -0.70076543 0.011385666 0
-1.2387213 -0.70280826 0.041735787 0
