# .PCD v0.7 - Point Cloud Data file format
VERSION 0.7
FIELDS x y z intensity
SIZE 4 4 4 4
TYPE F F F F
COUNT 1 1 1 1
WIDTH 1325
HEIGHT 1
VIEWPOINT 0 0 0 1 0 0 0
POINTS 1325
DATA ascii
5.1707921 -1.3158592 -0.1401884 0
10.3837 -1.6451479 -0.14091375 0
0.90503067 -1.0235276 -0.091335379 0
1.021664 -1.0279444 -0.091415308 0
1.1317158 -1.0321119 -0.085001685 0
1.1315675 -1.0321063 -0.058031026 0
1.6372082 -1.0512542 -0.090398736 0
2.5916951 -1.0873992 -0.1410217 0
3.4534204 -1.1200316 -0.14056113 0
5.19556 -1.1860039 -0.14103508 0
10.395499 -1.3829181 -0.14088015 0
0.90069246 -1.0006446 -0.090290733 0
1.0207766 -1.0021597 -0.091125675 0
1.1245618 -1.0034692 -0.083707415 0
1.130689 -1.0035465 -0.057806317 0
1.1225941 -1.0034444 -0.030127456 0
1.1412438 -1.0036798 -0.0054712202 0
1.1367296 -1.0036228 0.021564068 0
1.1199883 -1.0034115 0.048870943 0
1.1410607 -1.0036774 0.074460767 0
1.1397947 -1.0036614 0.10100291 0
1.1363556 -1.003618 0.12743549 0
1.1378983 -1.0036374 0.15396878 0
1.1231567 -1.0034515 0.17949216 0
1.1320436 -1.0035636 0.20661835 0
1.1245135 -1.0034686 0.23235762 0
1.1291212 -1.0035267 0.25959244 0
1.1302483 -1.003541 0.28664911 0
1.1254778 -1.0034808 0.31285506 0
0.9073 -0.97785681 -0.091695361 0
1.029006 -0.97632116 -0.092675813 0
1.125084 -0.97510892 -0.083793275 0
1.1386901 -0.9749372 -0.058930848 0
1.6456363 -0.96854085 -0.09126199 0
2.5880606 -0.95664978 -0.14052837 0
3.4638946 -0.94559896 -0.14113964 0
5.1942735 -0.9237659 -0.14082108 0
10.396626 -0.85812527 -0.14075238 0
0.90627122 -0.95501006 -0.091599263 0
1.0163455 -0.95084172 -0.090412848 0
1.1281748 -0.94660687 -0.084419318 0
1.1158074 -0.94707519 -0.055814598 0
1.6449813 -0.92703617 -0.091307856 0
2.5887806 -0.89129585 -0.14074948 0
3.4549294 -0.85849601 -0.14066669 0
5.1814251 -0.79311609 -0.14037655 0
10.393975 -0.59572428 -0.1408447 0
0.90196449 -0.93237865 -0.090927608 0
1.0170972 -0.92510593 -0.090798818 0
1.1302689 -0.91795713 -0.085000627 0
1.1415701 -0.91724324 -0.059642334 0
1.6461946 -0.88536716 -0.091695182 0
2.5860949 -0.82599556 -0.14080659 0
3.444169 -0.77179277 -0.14022115 0
5.1856842 -0.66178483 -0.14088306 0
10.383838 -0.33342817 -0.14091694 0
0.90497565 -0.90924472 -0.091937803 0
1.0123508 -0.89973682 -0.090268709 0
1.1571997 -0.88691074 -0.08980035 0
1.3495529 -0.86987823 -0.089293189 0
1.6427901 -0.8439126 -0.091664828 0
2.5814764 -0.76079369 -0.140837 0
3.4491768 -0.68396044 -0.14103468 0
5.1770453 -0.53096086 -0.14094265 0
10.366382 -0.071454853 -0.14097291 0
0.88994426 -0.88791239 -0.089215659 0
1.0151254 -0.87363648 -0.091284089 0
1.1603819 -0.85707116 -0.090814926 0
1.3536227 -0.8350336 -0.090355746 0
1.6269615 -0.8038615 -0.090295859 0
2.55604 -0.69790745 -0.13906617 0
3.4325647 -0.59794682 -0.14048512 0
5.1576476 -0.40121493 -0.14065281 0
10.31763 0.1872398 -0.14045119 0
0.88759434 -0.86544651 -0.089321025 0
1.0083039 -0.84858543 -0.09060315 0
1.1553875 -0.82804036 -0.09060099 0
1.3415172 -0.80204117 -0.089251377 0
1.6264377 -0.76224262 -0.090847246 0
2.569155 -0.63056093 -0.14107175 0
3.4223895 -0.51137853 -0.14054097 0
5.1476331 -0.2703912 -0.1409567 0
10.297531 0.44896224 -0.14075334 0
0.88859302 -0.84238648 -0.090270258 0
0.9989211 -0.8241266 -0.089550845 0
1.1503893 -0.79905772 -0.090507336 0
1.3397011 -0.76772559 -0.089726441 0
1.614946 -0.72217101 -0.090225838 0
2.5548425 -0.5666129 -0.14065133 0
3.407069 -0.42556468 -0.14038698 0
5.1311626 -0.14021757 -0.14111273 0
10.2706 0.710388 -0.14105114 0
0.88727856 -0.81952542 -0.090849139 0
1.0038054 -0.79720533 -0.091347642 0
1.1361487 -0.77185571 -0.088988744 0
1.3184413 -0.73693854 -0.087545298 0
1.3491297 -0.73106033 -0.05945738 0
1.3381246 -0.73316824 -0.026108658 0
1.3538822 -0.73014998 0.0046699513 0
1.3489734 -0.73109025 0.037073907 0
1.3409979 -0.73261791 0.069247849 0
1.3388482 -0.73302966 0.10100929 0
0.88484263 -0.79675323 -0.091312431 0
0.99300486 -0.77319157 -0.090261437 0
1.1410031 -0.74095207 -0.090788864 0
1.2173623 -0.72431827 -0.073983185 0
1.2001619 -0.72806513 -0.042469416 0
1.2077634 -0.7264092 -0.014313331 0
1.1998588 -0.72813112 0.015191527 0
1.2079765 -0.72636282 0.043461058 0
1.2083547 -0.72628039 0.072239928 0
1.2147794 -0.72488087 0.10100586 0
0.87379003 -0.77595901 -0.090018474 0
0.99032879 -0.74747467 -0.090861015 0
1.1248732 -0.71458936 -0.089181371 0
1.2061219 -0.69473058 -0.073380254 0
1.2200062 -0.69133699 -0.045695875 0
1.211122 -0.69350845 -0.015310301 0
1.2052497 -0.69494379 0.014301868 0
1.1997215 -0.69629496 0.043520328 0
1.2010078 -0.69598055 0.072247744 0
1.2023236 -0.69565892 0.1010057 0
0.86945957 -0.75364405 -0.090311415 0
0.98688459 -0.7217828 -0.091441043 0
1.1193284 -0.68584657 -0.089478366 0
1.2073065 -0.6619752 -0.074690841 0
1.2070432 -0.66204667 -0.045083437 0
1.2068036 -0.66211164 -0.015651686 0
1.2033416 -0.66305101 0.013874346 0
1.2060682 -0.6623112 0.042839166 0
1.2082701 -0.66171378 0.071885303 0
1.2089835 -0.66152018 0.10100613 0
0.86384124 -0.73162603 -0.090445362 0
0.97934949 -0.69713336 -0.091348313 0
1.1113896 -0.65770406 -0.089490972 0
1.2024353 -0.63051629 -0.075243972 0
1.2094967 -0.6284076 -0.046436641 0
1.2083374 -0.62875384 -0.016642651 0
1.2125098 -0.62750787 0.012576947 0
1.2040524 -0.63003337 0.042517625 0
1.2103418 -0.62815529 0.071625151 0
1.2110753 -0.62793624 0.10100645 0
0.85717201 -0.70990229 -0.090469204 0
0.97630745 -0.67102665 -0.092267789 0
1.1007417 -0.63042188 -0.089157648 0
1.2020334 -0.5973689 -0.076579295 0
1.1973478 -0.59889793 -0.046109769 0
1.2078787 -0.59546149 -0.017528502 0
1.1951067 -0.59962916 0.013157094 0
1.211942 -0.59413558 0.041668624 0
1.2034179 -0.59691709 0.071562223 0
1.2031138 -0.59701633 0.1010065 0
0.8508752 -0.68802518 -0.090700366 0
0.95908344 -0.64966822 -0.090492599 0
1.1008939 -0.59940028 -0.090824105 0
1.2058107 -0.56221008 -0.078673907 0
1.2177198 -0.55798858 -0.049904499 0
1.2071835 -0.56172341 -0.018481752 0
1.2044283 -0.56270009 0.011708284 0
1.2167176 -0.55834383 0.040921241 0
1.2071422 -0.56173807 0.071216695 0
1.2122908 -0.55991304 0.10100709 0
0.85010237 -0.66395736 -0.092316322 0
0.9464103 -0.62705791 -0.089726306 0
1.0886884 -0.57254547 -0.090468951 0
1.2076697 -0.526959 -0.080633126 0
1.2057062 -0.52771127 -0.049811397 0
1.2039447 -0.52838624 -0.01927471 0
1.212391 -0.52515006 0.010277668 0
1.2042394 -0.52827328 0.040981963 0
1.202695 -0.52886498 0.071049266 0
1.1973958 -0.53089529 0.10100698 0
0.83830202 -0.64400625 -0.091552608 0
0.9472025 -0.59909934 -0.091811098 0
1.0837313 -0.54279941 -0.091518559 0
1.2081094 -0.49151006 -0.082531624 0
1.2010971 -0.49440169 -0.050749499 0
1.2171943 -0.48776373 -0.021825274 0
1.2084997 -0.4913491 0.0096571986 0
1.2118253 -0.48997775 0.039994903 0
1.2053834 -0.49263418 0.070679873 0
1.1995766 -0.49502867 0.10100741 0
0.83361483 -0.62109196 -0.092549987 0
0.92009884 -0.58284801 -0.088318788 0
1.0769913 -0.51346892 -0.092393748 0
1.205461 -0.45665857 -0.08411365 0
1.2082262 -0.45543578 -0.053305019 0
1.196941 -0.46042618 -0.021089217 0
1.205254 -0.45675018 0.0089155603 0
1.2049673 -0.4568769 0.039683085 0
1.2039368 -0.45733258 0.070388325 0
1.2082314 -0.45543352 0.10100808 0
0.81819266 -0.6029743 -0.091170557 0
0.9089976 -0.5600487 -0.088203438 0
1.0542024 -0.49140707 -0.090495713 0
1.2230492 -0.41158929 -0.088996299 0
1.4775081 -0.29130074 -0.089907162 0
1.8602649 -0.11036274 -0.090990521 0
3.1377487 0.49353352 -0.14158738 0
4.6900296 1.2273324 -0.14048928 0
9.4002323 3.453954 -0.14075428 0
0.79849535 -0.58736157 -0.088864051 0
0.91437835 -0.52895945 -0.091683604 0
1.0565081 -0.45732966 -0.093293719 0
1.2103668 -0.37978867 -0.089355521 0
1.455328 -0.25633433 -0.08937069 0
1.8315364 -0.066734701 -0.090367518 0
3.0838044 0.56437725 -0.1403714 0
4.6318188 1.344538 -0.14044808 0
9.2783909 3.6862943 -0.14057876 0
0.79461271 -0.56387645 -0.090434663 0
0.90036207 -0.50719136 -0.091232516 0
1.0306559 -0.43734971 -0.091038473 0
1.198373 -0.34744796 -0.089956589 0
1.4369762 -0.21954891 -0.089450844 0
1.8144454 -0.017213251 -0.091084369 0
3.0486135 0.64434081 -0.14076729 0
4.5710616 1.4604223 -0.14042704 0
9.156888 3.9185731 -0.14056346 0
0.78848457 -0.54122347 -0.091622762 0
0.88736975 -0.48496088 -0.09111502 0
1.0110962 -0.4145644 -0.090035193 0
1.1849942 -0.31562188 -0.090473481 0
1.2197521 -0.29584572 -0.062914468 0
1.2182326 -0.29671022 -0.029752335 0
2.9992621 0.71664017 -0.14019114 0
4.5162163 1.5797398 -0.14087795 0
9.0309849 4.1485028 -0.14058599 0
0.77262282 -0.52409226 -0.090554051 0
0.87186229 -0.4642643 -0.090565093 0
0.9966588 -0.38902882 -0.090109102 0
1.1583858 -0.29152927 -0.088958181 0
1.1460603 -0.29895982 -0.055298481 0
1.2042516 -0.26387838 -0.030175334 0
2.9563591 0.79240626 -0.14028044 0
4.4439702 1.6892352 -0.14055236 0
8.9081802 4.3805518 -0.14084937 0
0.76099336 -0.50454539 -0.090643205 0
0.85556042 -0.44422969 -0.089944564 0
0.98112053 -0.36414632 -0.090094276 0
1.1392511 -0.2632893 -0.088764645 0
1.1429687 -0.26091823 -0.057334904 0
1.1792659 -0.23776755 -0.029477885 0
2.9140768 0.86871046 -0.14057998 0
4.3896294 1.8098311 -0.14136161 0
8.7664318 4.6013942 -0.14075488 0
0.75222296 -0.4830288 -0.09159217 0
0.83769339 -0.42543057 -0.089071833 0
0.9664222 -0.33868077 -0.090369113 0
1.1253333 -0.23159125 -0.089571722 0
1.1446569 -0.21856919 -0.060214121 0
1.158687 -0.20911428 -0.029338082 0
2.8673437 0.94234282 -0.14067048 0
4.308095 1.9132595 -0.14082758 0
8.6223688 4.820631 -0.14074887 0
0.7390222 -0.46436903 -0.091543101 0
0.83209574 -0.39817211 -0.09112785 0
0.94563562 -0.3174189 -0.089549549 0
1.1095188 -0.20085999 -0.090203054 0
1.134159 -0.1833351 -0.061549682 0
1.1355885 -0.1823183 -0.028989291 0
2.8267593 1.0204966 -0.14144818 0
4.2273145 2.0166161 -0.14047478 0
8.4729948 5.0362802 -0.14074777 0
0.722866 -0.4479219 -0.090831883 0
0.82023424 -0.37490228 -0.091908924 0
0.93628055 -0.28787532 -0.091171987 0
1.0893 -0.17312106 -0.090207808 0
1.09727 -0.16714409 -0.059184078 0
1.0920993 -0.17102173 -0.02633298 0
1.0990747 -0.16579071 0.0050140191 0
1.0981131 -0.1665118 0.037126306 0
1.1028138 -0.16298655 0.068948597 0
1.1082067 -0.15894225 0.10100991 0
1.0949368 -0.16889378 0.13284139 0
1.0968862 -0.16743192 0.16482148 0
1.1013385 -0.16409299 0.1972035 0
0.70712084 -0.43134674 -0.090329058 0
0.80360729 -0.3551102 -0.091701411 0
0.91184044 -0.26959226 -0.089822032 0
1.0617268 -0.15116301 -0.089019619 0
1.0954186 -0.12454221 -0.062050108 0
1.1066871 -0.1156387 -0.0305657 0
1.1012232 -0.11995581 0.00294018 0
1.1049422 -0.11701736 0.035468664 0
1.0979952 -0.12250635 0.068463206 0
1.0957203 -0.12430379 0.10101023 0
1.1063393 -0.11591342 0.13380532 0
1.1007012 -0.12036827 0.1663007 0
1.1078093 -0.11475196 0.19966835 0
0.69585329 -0.41118279 -0.091168188 0
0.77982843 -0.34131911 -0.089858346 0
0.89615381 -0.24454138 -0.090412535 0
1.0291123 -0.13392571 -0.086984925 0
1.0954342 -0.078748673 -0.065422557 0
1.101945 -0.073331982 -0.032709125 0
1.1050111 -0.070781201 0.00056916685 0
1.1045187 -0.071190804 0.034140211 0
1.0998497 -0.075075179 0.067735106 0
1.0895116 -0.08367601 0.10101082 0
1.1049373 -0.070842534 0.1344416 0
1.1016641 -0.073565751 0.16770963 0
1.1034019 -0.072119981 0.20130756 0
0.68971068 -0.38624761 -0.093616255 0
0.76778805 -0.31788447 -0.090999074 0
0.87436348 -0.22456905 -0.089819558 0
1.0029747 -0.11195949 -0.086195074 0
1.0968833 -0.029734936 -0.069270603 0
1.1085237 -0.01954278 -0.036435965 0
1.0979173 -0.028829541 -0.00095776259 0
1.0956247 -0.030836906 0.033235434 0
1.1051939 -0.022458341 0.066846311 0
1.1048228 -0.022783246 0.10101228 0
1.099474 -0.027466562 0.13500114 0
1.1066657 -0.02116951 0.16947265 0
1.0979708 -0.028782632 0.20298719 0
1.0968806 -0.02973726 0.23701619 0
1.0965853 -0.029995885 0.3753393 0
0.66557956 -0.37707302 -0.09110295 0
0.74251276 -0.30620393 -0.088927113 0
0.85073358 -0.20651338 -0.088912956 0
0.95765668 -0.10801825 -0.081826545 0
1.0567262 -0.016757634 -0.066792108 0
1.0937871 0.01738194 -0.037715662 0
1.1067535 0.029326353 -0.0041342359 0
1.0959345 0.019360099 0.031663079 0
1.0939499 0.017531905 0.06641949 0
1.0987902 0.02199069 0.10101301 0
1.0939085 0.017493878 0.13560489 0
1.0992033 0.022371206 0.17057006 0
1.0993165 0.022475515 0.20545381 0
1.1024301 0.02534369 0.24083957 0
1.043797 -0.028667774 0.36810634 0
0.64772159 -0.36263046 -0.090451948 0
0.72583121 -0.28694662 -0.089134179 0
0.83728951 -0.1789498 -0.090418033 0
0.83845675 -0.17781886 -0.062911712 0
0.84736407 -0.16918811 -0.036768977 0
0.83694071 -0.17928776 -0.0076798107 0
0.84546191 -0.17103127 0.018764796 0
0.83439231 -0.18175706 0.046944954 0
0.83986688 -0.17645249 0.073811635 0
0.83952469 -0.17678401 0.10100373 0
0.84041035 -0.17592588 0.12821354 0
0.83690053 -0.17932674 0.15522504 0
0.84324348 -0.17318079 0.18302734 0
1.0923009 0.068141729 0.24289718 0
0.9994154 -0.021858957 0.29643053 0
1.0050175 -0.016430881 0.33082488 0
0.99310523 -0.027973142 0.36125323 0
0.63037854 -0.34786311 -0.090049557 0
0.71006221 -0.26665702 -0.089721136 0
0.81846499 -0.15618327 -0.090860926 0
0.83657485 -0.13772735 -0.066695847 0
0.84784472 -0.12624219 -0.040347029 0
0.83423626 -0.14011064 -0.010078533 0
0.84496731 -0.12917456 0.016726578 0
0.83504713 -0.13928428 0.04552947 0
0.83913034 -0.1351231 0.073146395 0
0.84388572 -0.13027683 0.10100476 0
0.83570194 -0.13861695 0.12874867 0
0.83595359 -0.13836053 0.1565398 0
0.84013951 -0.13409463 0.18480107 0
0.83723748 -0.13705209 0.21248807 0
1.1044601 0.13527587 0.28520045 0
0.94296503 -0.02930459 0.29006252 0
0.94960535 -0.022537436 0.32365438 0
0.95648682 -0.015524473 0.35801232 0
0.61259425 -0.33368757 -0.089613296 0
0.69651252 -0.24373433 -0.091076531 0
0.80091375 -0.131825 -0.091759406 0
0.84603792 -0.083455712 -0.073126622 0
0.83901101 -0.090987951 -0.04261056 0
0.83909118 -0.090902001 -0.013710862 0
0.84600544 -0.083490521 0.014368596 0
0.83392113 -0.096443921 0.044124536 0
0.83459651 -0.095719963 0.072557271 0
0.83984286 -0.090096325 0.1010055 0
0.83730859 -0.092812866 0.129546 0
0.84009016 -0.089831263 0.15830766 0
0.8438074 -0.085846692 0.18741782 0
0.84430814 -0.085309952 0.2164367 0
1.0984172 0.18707338 0.28908855 0
0.923886 -9.2055261e-06 0.29118419 0
0.93093258 0.007544193 0.32510564 0
0.9214378 -0.0026334191 0.35520181 0
0.59765637 -0.31643656 -0.090189435 0
0.67299062 -0.23148492 -0.089802109 0
0.78124279 -0.10941312 -0.092308931 0
0.8482787 -0.033819225 -0.078499235 0
0.84025663 -0.042865422 -0.046869431 0
0.8351348 -0.048641052 -0.016380673 0
0.8428936 -0.039891805 0.012260051 0
0.83814132 -0.0452508 0.042229138 0
0.83757538 -0.045888986 0.071653515 0
0.84303588 -0.039731409 0.10100663 0
0.84345269 -0.039261308 0.13056578 0
0.83689529 -0.04665586 0.15969633 0
0.83871692 -0.044601705 0.1893131 0
0.83813053 -0.045262959 0.21881559 0
1.1027075 0.25309041 0.29513711 0
1.0955508 0.24502006 0.33291137 0
0.58098304 -0.30101034 -0.090352215 0
0.66124761 -0.20576236 -0.092020921 0
0.73217922 -0.12158957 -0.085520871 0
0.8470487 0.014723215 -0.083547346 0
0.84174424 0.0084285475 -0.051518638 0
0.84186763 0.0085749365 -0.020832164 0
0.83670127 0.0024441218 0.010304013 0
0.8418147 0.0085121728 0.040223684 0
0.84181845 0.0085165836 0.070631981 0
0.84116805 0.0077447626 0.10100762 0
0.83006018 -0.0054366854 0.13095807 0
0.83711553 0.0029358005 0.16145186 0
0.83768296 0.0036090945 0.19181779 0
0.84138858 0.008006487 0.22277869 0
0.84075505 0.0072546932 0.25335544 0
1.095168 0.30916014 0.33969858 0
0.5644123 -0.28537098 -0.090685539 0
0.63361609 -0.19891247 -0.08971449 0
0.72521526 -0.084474653 -0.089508511 0
0.85254675 0.074604779 -0.09054143 0
0.856767 0.079877168 -0.059086505 0
0.84340352 0.063181788 -0.02486225 0
0.83509856 0.052806173 0.0076541994 0
0.83995855 0.058877859 0.038466457 0
0.83686376 0.055011425 0.06986966 0
0.83602726 0.053966437 0.10100855 0
0.84241384 0.061945353 0.13235456 0
0.83178633 0.04866806 0.16294159 0
0.83973289 0.058595929 0.19488207 0
0.8453415 0.065602928 0.22717035 0
0.84133786 0.060601149 0.25821945 0
1.0956384 0.3783069 0.34725356 0
1.103302 0.38788119 0.39099136 0
0.54634964 -0.27154037 -0.09064246 0
0.62141317 -0.17275158 -0.092186578 0
0.69999617 -0.069330901 -0.088921987 0
0.72922873 -0.030858841 -0.068194441 0
0.7258141 -0.035352673 -0.039053071 0
0.72338474 -0.038549926 -0.010483911 0
0.72679293 -0.034064498 0.017100262 0
0.7311992 -0.028265502 0.044779856 0
0.72258323 -0.03960475 0.073238686 0
0.73600596 -0.021939542 0.10100508 0
0.7227785 -0.039347794 0.12877777 0
0.72430891 -0.037333634 0.15669915 0
0.73265642 -0.026347723 0.18558747 0
0.73447746 -0.02395108 0.21420594 0
0.73278916 -0.026173022 0.24241132 0
0.72468597 -0.036837425 0.26914963 0
0.72398448 -0.037760641 0.29744938 0
0.73053044 -0.029145684 0.32816938 0
0.52493161 -0.2623578 -0.089502849 0
0.59313303 -0.16773567 -0.089776926 0
0.67987978 -0.047383871 -0.089854501 0
0.7239266 0.013726387 -0.072787903 0
0.95859778 0.33930746 -0.090438686 0
0.84627235 0.18346801 -0.033966798 0
0.83616203 0.16944101 0.0011148325 0
0.83834952 0.17247584 0.034299601 0
0.84438252 0.18084601 0.067433603 0
0.83495349 0.16776434 0.10101111 0
0.83776009 0.17165819 0.13432562 0
0.84257281 0.17833534 0.16805981 0
0.83948213 0.17404726 0.2013052 0
0.83875418 0.17303732 0.23478997 0
0.84349841 0.17961946 0.26945689 0
0.83588213 0.16905263 0.30171981 0
1.106091 0.54393834 0.41170436 0
0.5166871 -0.23434451 -0.093370564 0
0.57683635 -0.14629254 -0.091319792 0
0.6585561 -0.026663627 -0.090628885 0
0.76747245 0.13277808 -0.089999698 0
0.91815293 0.35335806 -0.089067422 0
1.1583284 0.70494884 -0.090546198 0
0.84495795 0.24620846 -0.0036317462 0
0.83877879 0.23716286 0.031822879 0
0.83966905 0.23846605 0.066399872 0
0.83104122 0.22583595 0.10101241 0
0.8376025 0.23544088 0.13554047 0
0.83991367 0.23882416 0.17029668 0
0.8357268 0.23269513 0.20451334 0
0.83664817 0.23404387 0.23934135 0
0.83681768 0.23429194 0.27424145 0
0.84093529 0.24031976 0.31033018 0
1.0946443 0.61172217 0.41974613 0
1.0953977 0.61282521 0.46653178 0
0.48934856 -0.23413828 -0.090189762 0
0.55542964 -0.13195971 -0.09133587 0
0.63009983 -0.016500141 -0.089430742 0
0.74336654 0.15863982 -0.091151051 0
0.89064181 0.3863658 -0.090500169 0
1.1151277 0.73347944 -0.09053161 0
1.4811132 1.2993884 -0.089574434 0
0.8475489 0.31973282 0.028395357 0
0.84142357 0.31026152 0.064987034 0
0.84158957 0.31051818 0.10101459 0
0.84345931 0.31340936 0.13712955 0
0.83892512 0.3063983 0.17289443 0
0.83548731 0.30108252 0.20848913 0
0.83848935 0.30572441 0.24501231 0
0.84036034 0.3086175 0.28170905 0
0.8334865 0.29798868 0.31650296 0
0.83669019 0.30294243 0.35398513 0
1.0982157 0.70732898 0.48165497 0
0.47840181 -0.20854554 -0.093556084 0
0.53515506 -0.1157358 -0.091889448 0
0.60749465 0.0025625562 -0.090104796 0
0.71511477 0.178556 -0.091406442 0
0.85323244 0.40442255 -0.08995872 0
1.0697825 0.75855106 -0.090259068 0
1.4218857 1.3343525 -0.089438997 0
0.8492986 0.39798942 0.025267819 0
0.85304922 0.40412286 0.062995665 0
0.84018552 0.38308659 0.10101632 0
0.84215492 0.38630727 0.13855171 0
0.84079713 0.38408676 0.17600644 0
0.83213145 0.36991563 0.21244113 0
0.83793521 0.37940672 0.2508105 0
0.83872545 0.38069895 0.28874248 0
0.84093231 0.38430789 0.32733399 0
0.83827287 0.37995878 0.36484292 0
1.0958519 0.80118281 0.49638742 0
0.45063022 -0.21046695 -0.090188853 0
0.5093298 -0.10879651 -0.09052784 0
0.58024442 0.014030967 -0.089437 0
0.68000358 0.18681863 -0.089883633 0
0.81499153 0.42062405 -0.089303084 0
1.0287596 0.7908805 -0.090896986 0
1.3691545 1.3804605 -0.090326704 0
1.3710394 1.3837252 -0.026595226 0
0.84869266 0.47899607 0.061550796 0
0.84034306 0.46453407 0.10101832 0
0.83968842 0.46340027 0.14006712 0
0.84005606 0.46403697 0.17919263 0
0.83593988 0.45690754 0.21780998 0
0.83860636 0.46152607 0.25743636 0
0.84188479 0.46720448 0.29762742 0
0.84165865 0.46681276 0.33735853 0
0.84492415 0.47246876 0.37847754 0
0.84074324 0.46522728 0.41741183 0
0.42723635 -0.2059854 -0.088587858 0
0.48799539 -0.0943335 -0.090938918 0
0.56410652 0.045529757 -0.092655785 0
0.64509898 0.19436291 -0.088409461 0
0.78307635 0.4479126 -0.09026096 0
0.9847182 0.81845337 -0.091131575 0
1.2932979 1.3855047 -0.088040732 0
1.2896242 1.3787539 -0.024539625 0
1.2931856 1.3852985 0.038114626 0
0.85456282 0.57927746 0.10102138 0
0.84327495 0.55853468 0.14204228 0
0.84118807 0.55469984 0.18290488 0
0.84180349 0.55583066 0.22404833 0
0.84071499 0.55383044 0.26505312 0
0.84098285 0.55432266 0.30646214 0
0.84335732 0.55868608 0.34874302 0
0.84063125 0.55367655 0.38977921 0
0.83432668 0.54209119 0.42945364 0
0.41065764 -0.18899307 -0.090136833 0
0.46551231 -0.081836849 -0.091043346 0
0.53080988 0.04571918 -0.090128236 0
0.62466604 0.2290633 -0.091381572 0
0.7472983 0.46862021 -0.090448968 0
0.93657035 0.83835512 -0.090676107 0
1.2439247 1.4387589 -0.089721702 0
1.2457294 1.4422843 -0.026201209 0
1.2471139 1.4449887 0.037387382 0
1.2413182 1.4336669 0.1010481 0
0.84649873 0.66240412 0.14421843 0
0.84332424 0.65620273 0.18713567 0
0.83860314 0.64698035 0.22958398 0
0.84508395 0.65964025 0.27398363 0
0.83992833 0.64956909 0.31625435 0
0.84189898 0.6534186 0.36042631 0
0.83715492 0.64415127 0.4026677 0
0.84319603 0.65595239 0.44920647 0
0.38990128 -0.17981371 -0.089924 0
0.44537404 -0.064357549 -0.092307054 0
0.50322366 0.056045566 -0.089633666 0
0.59147006 0.23971394 -0.090649121 0
0.71182436 0.49020877 -0.090866782 0
0.89516008 0.87178785 -0.091753967 0
1.1812516 1.4672337 -0.089557804 0
1.7873484 2.7287102 -0.091062196 0
4.5045905 8.384141 -0.14081614 0
0.84998119 0.77775639 0.19234958 0
0.84115589 0.75938815 0.2367094 0
0.83674514 0.75020808 0.2812157 0
0.84019738 0.7573933 0.32756376 0
0.84187996 0.76089531 0.37396249 0
0.84246248 0.76210767 0.4204298 0
0.84591347 0.76929027 0.46856499 0
0.37085405 -0.16692218 -0.090701587 0
0.41692302 -0.064494997 -0.090023778 0
0.47701532 0.0691109 -0.089764468 0
0.55535924 0.24329641 -0.088965617 0
0.67242229 0.50356787 -0.090340666 0
0.8451913 0.88769299 -0.091133378 0
1.1236547 1.5068126 -0.090368934 0
1.6954956 2.7782118 -0.091348745 0
4.2688651 8.4996996 -0.14094135 0
1.0705924 1.3888369 0.22251557 0
0.84603745 0.88957423 0.24511342 0
0.83889997 0.87370509 0.29176021 0
0.84019041 0.87657422 0.3402009 0
0.83792681 0.87154132 0.38783473 0
0.83962828 0.87532443 0.4371129 0
0.84246314 0.88162726 0.48748413 0
0.35012805 -0.15751573 -0.090778984 0
0.39716527 -0.045460608 -0.091828309 0
0.45073655 0.082160264 -0.090009622 0
0.52358371 0.25570145 -0.08878421 0
0.63705665 0.52602392 -0.091099925 0
0.7978639 0.90910929 -0.091205604 0
1.0647095 1.544806 -0.091162123 0
1.5947616 2.8075299 -0.090730883 0
4.0240903 8.5948334 -0.1407011 0
0.99814564 1.3862333 0.22105794 0
0.84899169 1.0309091 0.25426555 0
0.84077799 1.011342 0.30362043 0
0.8387683 1.0065544 0.35407451 0
0.84021544 1.0100019 0.40581727 0
0.83996606 1.0094078 0.45735383 0
0.83895445 1.0069977 0.50888526 0
0.32939371 -0.14804026 -0.09099137 0
0.37194055 -0.03905591 -0.091162868 0
0.42248824 0.090422899 -0.089525454 0
0.49621665 0.27927938 -0.09041179 0
0.59598416 0.53483564 -0.090252437 0
0.75080663 0.93141609 -0.091486655 0
1.0004009 1.570756 -0.091155939 0
1.4996014 2.8494663 -0.090877436 0
3.7819183 8.6956596 -0.14076027 0
0.92512023 1.3779233 0.21942103 0
0.84940284 1.1839719 0.26420325 0
0.8387863 1.1567774 0.31614158 0
0.84048212 1.1611214 0.37090299 0
0.84039801 1.1609058 0.42549291 0
0.84228665 1.1657436 0.48132238 0
0.8379392 1.1546075 0.53459281 0
0.30780035 -0.14074966 -0.090826847 0
0.34916657 -0.026349392 -0.091893755 0
0.39397648 0.097574621 -0.088976733 0
0.43702111 0.21661666 -0.079240508 0
0.4367083 0.21575156 -0.048791457 0
0.43903181 0.22217742 -0.019274047 0
0.93565655 1.5956173 -0.091190137 0
1.4014962 2.8839195 -0.090771668 0
3.5364735 8.7883043 -0.14076845 0
0.86002785 1.3864625 0.2187259 0
0.84697348 1.3503602 0.2750414 0
0.84105057 1.3339798 0.33170909 0
0.84024233 1.3317447 0.38956979 0
0.84050035 1.3324583 0.44807628 0
0.8393715 1.3293364 0.50633186 0
0.84087706 1.3335001 0.56633961 0
0.2865108 -0.13262519 -0.090973176 0
0.32376143 -0.020865764 -0.091299109 0
0.36920887 0.1154857 -0.090421759 0
0.40061018 0.20969597 -0.076642387 0
0.40477595 0.22219399 -0.048278008 0
0.40531662 0.22381619 -0.018385774 0
0.87094724 1.6208017 -0.091368787 0
1.3030456 2.9171836 -0.090730481 0
3.2896349 8.8773518 -0.1408409 0
0.79209113 1.3842175 0.21758783 0
0.85018218 1.5585024 0.28887278 0
0.83876455 1.5242472 0.34842688 0
0.84205085 1.534107 0.41199312 0
0.83861971 1.5238125 0.47340482 0
0.83909529 1.5252395 0.5367443 0
0.84307295 1.5371733 0.60272735 0
0.26607805 -0.12152752 -0.091899119 0
0.29877654 -0.014495578 -0.091010444 0
0.34062657 0.12249222 -0.090089627 0
0.38288319 0.26081088 -0.082727961 0
0.38235965 0.25909713 -0.051589835 0
0.37753344 0.24329951 -0.019329315 0
0.72920239 1.394418 -0.073276542 0
0.72774303 1.389641 -0.014833016 0
0.72960502 1.395736 0.042987388 0
0.72550362 1.3823109 0.10104119 0
0.72474766 1.3798363 0.15870838 0
0.72334367 1.3752408 0.21621428 0
0.84486985 1.7730327 0.30305943 0
0.83674222 1.7464285 0.36813873 0
0.83843482 1.7519686 0.43613383 0
0.83721137 1.7479641 0.50336742 0
0.83904326 1.7539604 0.57256621 0
0.24288128 -0.11949381 -0.090933003 0
0.27086389 -0.018879857 -0.088745035 0
0.31280717 0.13193098 -0.090298258 0
0.36555555 0.3215926 -0.090246566 0
0.44191086 0.59613508 -0.091356508 0
0.55441433 1.0006512 -0.09182141 0
0.66150093 1.3856907 -0.071365066 0
0.66045445 1.3819282 -0.013610816 0
0.66120094 1.3846121 0.043681178 0
0.66113418 1.384372 0.10104074 0
0.65825135 1.3740065 0.1581438 0
0.66120124 1.3846133 0.21582235 0
0.81277859 1.9296234 0.31294897 0
0.80958986 1.9181578 0.38282683 0
0.81236297 1.928129 0.45505565 0
0.8138985 1.93365 0.52751261 0
0.81121296 1.9239938 0.59812301 0
0.21974203 -0.11811283 -0.08995869 0
0.24826953 -0.00451031 -0.090273164 0
0.28225735 0.1308364 -0.088840015 0
0.32977819 0.32007435 -0.088754185 0
0.39650762 0.58580512 -0.088831939 0
0.49741188 0.98762721 -0.089285098 0
0.59566116 1.3788767 -0.069727145 0
0.59657085 1.382499 -0.012875771 0
0.59516072 1.3768835 0.044247665 0
0.59399152 1.3722277 0.10103991 0
0.59595931 1.3800638 0.15790893 0
0.59600663 1.3802524 0.21484852 0
0.76950014 2.0711401 0.3217473 0
0.76982647 2.0724397 0.39580828 0
0.76922703 2.0700526 0.46981004 0
0.76788646 2.064714 0.54367304 0
0.19739467 -0.11419371 -0.089670427 0
0.22448148 0.0064843628 -0.091251604 0
0.25503492 0.14260712 -0.089687325 0
0.29709917 0.33001307 -0.089050807 0
0.35628453 0.59369773 -0.088642009 0
0.44651139 0.99567932 -0.088917352 0
0.55146915 1.4632905 -0.07475426 0
0.55040562 1.4585521 -0.015823511 0
0.55194539 1.4654124 0.04247741 0
0.55138773 1.4629276 0.10104214 0
0.55161685 1.4639485 0.15957214 0
0.55281335 1.4692793 0.21842031 0
0.7154789 2.1939919 0.32923612 0
0.71525145 2.1929786 0.40558288 0
0.71258563 2.181102 0.480912 0
0.71444917 2.1894042 0.55899173 0
0.17397438 -0.11596879 -0.088272236 0
0.19902228 0.010475848 -0.090996079 0
0.22463493 0.13977125 -0.088198565 0
0.26542062 0.34566191 -0.090282507 0
0.31992829 0.62082273 -0.090865739 0
0.39752802 1.0125546 -0.089513592 0
0.41672215 1.1094487 -0.048602466 0
0.41558439 1.1037052 0.001638206 0
0.41675082 1.1095934 0.051222097 0
0.41682094 1.1099474 0.10103149 0
0.41388997 1.0951517 0.15049779 0
0.41620874 1.1068571 0.20057444 0
0.41439545 1.0977032 0.24982826 0
0.41520223 1.1017759 0.30006692 0
0.41247517 1.0880094 0.34859177 0
0.40769619 1.0638847 0.39524171 0
0.2933124 0.48646274 0.34831399 0
0.27236938 0.38074008 0.36411422 0
0.15411566 -0.098909587 -0.091070138 0
0.17429787 0.018432293 -0.091622509 0
0.19730507 0.15219894 -0.089389913 0
0.23350017 0.36264172 -0.091812946 0
0.27853265 0.62446624 -0.09040425 0
0.3476752 1.0264692 -0.089944191 0
0.36787304 1.1439021 -0.050349746 0
0.88111192 4.1279359 -0.1407584 0
1.7631146 9.2560062 -0.14073505 0
0.58216858 2.3898423 0.26079094 0
0.57954103 2.3745654 0.33978462 0
0.58028018 2.3788631 0.42016822 0
0.26055962 0.51996881 0.2800414 0
0.27220711 0.58768874 0.32593819 0
0.27226055 0.5879994 0.36410064 0
0.23683029 0.38200334 0.36313003 0
0.13203737 -0.092347413 -0.091710679 0
0.14900264 0.023756299 -0.091864578 0
0.16932841 0.16285792 -0.090397917 0
0.19858694 0.36309198 -0.091104783 0
0.2389902 0.63959628 -0.091424845 0
0.29656622 1.0336242 -0.089854471 0
0.39671984 1.7190366 -0.090377994 0
0.75238621 4.153079 -0.1409732 0
1.5054111 9.306488 -0.14095317 0
0.50725859 2.4755206 0.26418686 0
0.50449687 2.4566205 0.34463024 0
0.50487983 2.4592414 0.42647669 0
0.22240216 0.52607399 0.28004566 0
0.27619815 0.89423305 0.3685928 0
0.20191617 0.38587597 0.36281744 0
0.10812429 -0.099626392 -0.089505397 0
0.1247045 0.038039003 -0.09392681 0
0.139459 0.1605455 -0.089372672 0
0.16363479 0.36127689 -0.090203024 0
0.19637173 0.63309151 -0.090013228 0
0.24760371 1.05847 -0.091549747 0
0.32634845 1.7122874 -0.089260362 0
0.62371004 4.1812782 -0.14148326 0
1.2442583 9.3336849 -0.14077792 0
0.42719629 2.5496261 0.2671181 0
0.42433971 2.525908 0.3486951 0
0.42392042 2.5224266 0.43132794 0
0.42483208 2.5299959 0.51545882 0
0.23030742 0.91485912 0.37061518 0
0.1660365 0.38121811 0.36105445 0
0.086541198 -0.087742835 -0.091525964 0
0.097951263 0.032475743 -0.092345484 0
0.11029694 0.16255215 -0.089187555 0
0.12927639 0.36252311 -0.089860298 0
0.1556468 0.64036673 -0.090349175 0
0.19659458 1.0718 -0.092277236 0
0.25822666 1.7211673 -0.089367844 0
0.49113935 4.1751795 -0.14054027 0
0.98379934 9.3659382 -0.14087529 0
0.34104812 2.5937898 0.26873511 0
0.340397 2.5869296 0.35231167 0
0.3392328 2.5746634 0.43533239 0
0.33955407 2.5780482 0.51997834 0
0.33980936 2.5807381 0.60514688 0
0.17301816 0.82339448 0.40033352 0
0.13183282 0.38945809 0.36190829 0
0.063183799 -0.094261438 -0.089738153 0
0.072256215 0.036266599 -0.092660673 0
0.08094646 0.16129628 -0.088586621 0
0.095739044 0.37412241 -0.091098912 0
0.1147147 0.64713186 -0.090745322 0
0.14196618 1.0392084 -0.088827364 0
0.19110003 1.7461147 -0.090721704 0
0.36090106 4.1891026 -0.1406896 0
0.72232157 9.3889875 -0.1409114 0
0.25303847 2.6372452 0.27041793 0
0.25289586 2.6351936 0.35517591 0
0.13382356 0.92205769 0.27991724 0
0.13350484 0.91747218 0.32446852 0
0.13362962 0.91926748 0.3699477 0
0.12549269 0.80219883 0.39622003 0
0.096512951 0.38525692 0.36057416 0
0.041097194 -0.081306428 -0.092221253 0
0.045845944 0.026158247 -0.090477355 0
0.052173156 0.16934362 -0.089638807 0
0.060796112 0.36448184 -0.089467473 0
0.073683135 0.65611655 -0.091521628 0
0.090739995 1.0421147 -0.088826872 0
0.12218372 1.7536891 -0.090976991 0
0.22996466 4.1927819 -0.14051467 0
0.45957112 9.3887978 -0.14056028 0
0.16365564 2.6922023 0.27273923 0
0.16300043 2.6773751 0.35776573 0
0.087189823 0.96177405 0.2833738 0
0.085649855 0.92692453 0.32525453 0
0.086872876 0.95460147 0.37453473 0
0.076609939 0.72235042 0.38265619 0
0.061589349 0.38243285 0.35966948 0
0.018045817 -0.08741042 -0.090769775 0
0.020202452 0.026523504 -0.090393789 0
0.023054838 0.17721346 -0.090780757 0
0.026631739 0.36617938 -0.089554496 0
0.032204263 0.66057283 -0.091889344 0
0.039378058 1.0395606 -0.088437356 0
0.052866761 1.7521615 -0.090717413 0
0.099216633 4.2008014 -0.14069588 0
0.19781093 9.4094858 -0.14084913 0
0.071094491 2.7151232 0.27367109 0
0.070723943 2.6955473 0.35883304 0
0.071015455 2.710948 0.44662711 0
0.070929006 2.7063808 0.53318721 0
0.032636017 0.68338209 0.37602404 0
0.027092779 0.39053586 0.36099052 0
-0.0046585458 -0.096214503 -0.088867791 0
-0.0054030088 0.021819863 -0.089477368 0
-0.0062686657 0.15906945 -0.087768175 0
-0.00762018 0.37335172 -0.090532146 0
-0.0093772942 0.6519416 -0.090849854 0
-0.011830195 1.0408483 -0.088527389 0
-0.016351612 1.7577176 -0.091075324 0
-0.031762302 4.2010784 -0.14067031 0
-0.06454844 9.3993101 -0.14057405 0
-0.022521673 2.7359791 0.27461573 0
-0.022427808 2.7210968 0.36057964 0
-0.022445526 2.723906 0.44778237 0
-0.02246589 2.7271347 0.53554523 0
-0.0093632424 0.6497137 0.37044472 0
-0.0076985415 0.38577583 0.36005229 0
-0.027421838 -0.089292258 -0.09043061 0
-0.030952018 0.022595081 -0.089714445 0
-0.036008 0.18284193 -0.091767319 0
-0.042427108 0.38629237 -0.092443146 0
-0.050951827 0.6564793 -0.091472082 0
-0.064237885 1.077574 -0.092047639 0
-0.085411474 1.7486608 -0.090533592 0
-0.11889094 2.8097761 -0.075981937 0
-0.11892123 2.8107357 0.012574079 0
-0.11864831 2.8020861 0.10107869 0
-0.11918578 2.8191209 0.18977945 0
-0.11709172 2.7527506 0.27548084 0
-0.1165607 2.73592 0.3617413 0
-0.11604282 2.719506 0.44753689 0
-0.11652104 2.7346632 0.53663361 0
-0.050453544 0.64068633 0.36908853 0
-0.042578127 0.39107886 0.36117569 0
-0.050426014 -0.08492294 -0.091574408 0
-0.057076491 0.032089744 -0.091718398 0
-0.064608574 0.16461411 -0.08898174 0
-0.076500528 0.37384883 -0.090907343 0
-0.09246511 0.65473992 -0.091483168 0
-0.11556894 1.0612438 -0.090736233 0
-0.15479255 1.7513692 -0.090936892 0
-0.21424221 2.7973647 -0.075600617 0
-0.21428747 2.7981613 0.012768293 0
-0.21395177 2.7922544 0.10107853 0
-0.21422552 2.797071 0.18936376 0
-0.21149173 2.7489712 0.27549908 0
-0.21047901 2.7311525 0.36169812 0
-0.21103066 2.7408586 0.44992104 0
-0.078366086 0.40667263 0.26446566 0
-0.076786458 0.3788797 0.29363608 0
-0.077255018 0.38712385 0.32763216 0
-0.076486401 0.37360027 0.35816753 0
-0.072709516 -0.092813224 -0.090229578 0
-0.082752205 0.02937201 -0.091543026 0
-0.093288563 0.15756336 -0.088152491 0
-0.11025698 0.36401084 -0.089856945 0
-0.13315706 0.64262646 -0.090400495 0
-0.16741318 1.0594063 -0.090900667 0
-0.22428028 1.7512841 -0.091267817 0
-0.42388824 4.1798296 -0.14048776 0
-0.85058129 9.3712234 -0.1407285 0
-0.3054888 2.7393136 0.27535376 0
-0.30455366 2.727936 0.36193001 0
-0.3053335 2.7374241 0.45021173 0
-0.30502111 2.7336235 0.5377633 0
-0.11322832 0.40016189 0.29697651 0
-0.11265574 0.39319554 0.32903168 0
-0.11092919 0.37218943 0.3583523 0
-0.096374564 -0.085023552 -0.092353411 0
-0.10869999 0.029466782 -0.092022605 0
-0.12209745 0.1539152 -0.088002943 0
-0.14500378 0.36669114 -0.090693392 0
-0.1738549 0.63468796 -0.08992622 0
-0.21817923 1.0464146 -0.09014111 0
-0.29190096 1.7312124 -0.090317465 0
-0.55419564 4.1676559 -0.14049675 0
-1.111361 9.3431406 -0.14065138 0
-0.39937648 2.729548 0.27531409 0
-0.40018344 2.7370434 0.36319667 0
-0.39826399 2.7192137 0.44933856 0
-0.39971974 2.7327361 0.53870636 0
-0.14901732 0.40397277 0.2979854 0
-0.14884526 0.40237442 0.33109635 0
-0.14632133 0.37892976 0.36024678 0
-0.1174712 -0.10043475 -0.089637063 0
-0.1326578 0.013531122 -0.089582019 0
-0.15326039 0.16814044 -0.090936758 0
-0.17872648 0.35924724 -0.090221398 0
-0.21585982 0.63790935 -0.090887107 0
-0.27179268 1.0576496 -0.091780759 0
-0.3589921 1.7120259 -0.089546524 0
-0.685776 4.1643314 -0.14107557 0
-1.3737727 9.3273087 -0.14101547 0
-0.49234426 2.7127488 0.27505481 0
-0.48992124 2.6945655 0.36099651 0
-0.24248564 0.83771926 0.27311787 0
-0.24102783 0.82677919 0.31520289 0
-0.18468663 0.40397432 0.2985853 0
-0.18524678 0.408178 0.33275941 0
-0.18264052 0.38861969 0.36287776 0
-0.14142519 -0.093865484 -0.091755114 0
-0.15807457 0.010828052 -0.089770414 0
-0.18047769 0.15170196 -0.088910036 0
-0.21265453 0.35403422 -0.090185858 0
-0.2575497 0.63634104 -0.091410257 0
-0.31893229 1.0223229 -0.089153983 0
-0.42759445 1.7056053 -0.08979582 0
-0.81352925 4.1324153 -0.14046521 0
-1.6317823 9.2777023 -0.1407415 0
-0.58112633 2.6710346 0.27372909 0
-0.58051753 2.6672063 0.36001879 0
-0.27923924 0.77272779 0.26760745 0
-0.27942178 0.77387553 0.30973047 0
-0.27901343 0.77130777 0.35160875 0
-0.21786232 0.38678148 0.3634946 0
-0.16279617 -0.10410079 -0.090380855 0
-0.18139598 -0.0035673643 -0.087842666 0
-0.21165106 0.15996364 -0.091116808 0
-0.2479208 0.35600427 -0.091298886 0
-0.29718274 0.62226874 -0.090574466 0
-0.37166327 1.0248415 -0.090220027 0
-0.49659568 1.7001109 -0.090234973 0
-0.94448733 4.1209993 -0.14097489 0
-1.8890753 9.2265692 -0.14058384 0
-0.66971314 2.6358237 0.27281144 0
-0.66670728 2.6195772 0.35775653 0
-0.66882128 2.6310034 0.44483677 0
-0.6677143 2.62502 0.53076839 0
-0.28918931 0.57906359 0.36319971 0
-0.25271329 0.38190809 0.36370271 0
-0.33858407 0.61818582 -0.091046639 0
-0.42232367 1.0146112 -0.090202175 0
-0.56306738 1.6808956 -0.089820199 0
-0.61835301 1.9426193 -0.038535763 0
-0.6170885 1.9366333 0.031440128 0
-0.6179027 1.9404874 0.10105588 0
-0.7556293 2.592489 0.27160808 0
-0.75322509 2.5811076 0.3562924 0
-0.75519073 2.5904126 0.44268528 0
-0.75324744 2.5812132 0.52768689 0
-0.28882185 0.38261011 0.36515456 0
-0.47024414 0.99275559 -0.089191191 0
-0.52247536 1.2124515 -0.057242457 0
-0.61809033 1.614629 -0.023633106 0
-0.61751252 1.6121988 0.038798679 0
-0.61926299 1.6195617 0.10104695 0
-0.83405894 2.5230405 0.26925001 0
-0.83372945 2.5216546 0.35346699 0
-0.8344686 2.5247636 0.43832389 0
-0.83373946 2.5216968 0.52295738 0
-0.83108419 2.5105281 0.60673487 0
-0.52174211 0.98643011 -0.089789309 0
-0.57909256 1.2031989 -0.057579134 0
-0.64723533 1.4607596 -0.017015403 0
-0.64618051 1.4567728 0.042141516 0
-0.6476143 1.4621921 0.10104279 0
-0.9150961 2.4731991 0.26791662 0
-0.91020417 2.4547088 0.350227 0
-0.91222483 2.4623463 0.4344382 0
-0.91030037 2.4550724 0.51758146 0
-0.91075438 2.4567885 0.6021347 0
-0.71314192 1.4583485 -0.077276818 0
-0.71137184 1.4522815 -0.017435214 0
-0.71151155 1.4527605 0.041824363 0
-0.71613449 1.4686055 0.10104349 0
-0.98384446 2.3861842 0.2648674 0
-0.97991574 2.3727186 0.34600672 0
-0.98315817 2.3838322 0.42914802 0
-0.97935116 2.3707836 0.51024872 0
-0.98158443 2.378438 0.59418958 0
-0.39643016 0.25513378 0.0096448455 0
-0.39442611 0.24885836 0.040460832 0
-0.39741582 0.25822034 0.070522055 0
-0.39784822 0.25957432 0.10100783 0
-0.39649472 0.25533608 0.13142298 0
-0.39525574 0.25145629 0.16168146 0
-0.39607379 0.25401798 0.19228895 0
-0.39680815 0.25631753 0.22309601 0
-0.39654684 0.25549927 0.25376725 0
-0.39716887 0.25744703 0.28497407 0
-0.39654106 0.25548115 0.31580585 0
-0.3969382 0.25672475 0.34741288 0
-0.42959768 0.25016847 0.070463054 0
-0.43073848 0.25345245 0.10100795 0
-0.43191716 0.2568455 0.13171744 0
-0.43041492 0.25252107 0.16224679 0
-0.4295969 0.25016621 0.19277498 0
-0.43221733 0.25770953 0.22426517 0
-0.43350485 0.26141587 0.25579023 0
-0.43060136 0.25305775 0.28587496 0
-0.42960122 0.25017872 0.3166976 0
-0.4313491 0.25521019 0.34919241 0
-0.51273936 0.37725273 0.067026757 0
-0.50788522 0.3643401 0.10101168 0
-1.1990343 2.2028868 0.18045582 0
-1.1922823 2.1849258 0.25903568 0
-1.159867 2.0986969 0.33178908 0
-1.156903 2.0908122 0.40830106 0
-1.1606297 2.1007259 0.4869768 0
-1.1604232 2.1001761 0.56500489 0
-1.2784982 2.1698749 0.25984365 0
-1.1979344 1.9709535 0.32443124 0
-1.1983321 1.9719355 0.39936483 0
-1.2003096 1.9768186 0.47516656 0
-1.2006205 1.977586 0.55100375 0
-0.40319234 -0.059501257 -0.089986481 0
-1.3492197 2.1168482 0.25884044 0
-1.2265825 1.8347197 0.31641749 0
-1.2243705 1.8296309 0.38805017 0
-1.2255399 1.8323214 0.46072796 0
-1.2256612 1.8326001 0.53356975 0
-1.2270265 1.835741 0.60741723 0
-1.4306716 2.0893424 0.25922853 0
-1.2475436 1.6955411 0.30813745 0
-1.2368817 1.6726136 0.37515387 0
-1.2363517 1.671474 0.44409224 0
-1.241735 1.6830502 0.51531988 0
-1.2399491 1.6792097 0.58481628 0
-1.2524048 1.5372348 0.29830033 0
-1.240196 1.5126247 0.36181819 0
-1.241484 1.5152211 0.42788225 0
-1.2390184 1.510251 0.49325475 0
-1.2410296 1.5143051 0.56045365 0
-1.2521032 1.3842442 0.28876159 0
-1.2383252 1.3581464 0.34889457 0
-1.2421098 1.3653152 0.41231126 0
-1.2367978 1.3552532 0.47371325 0
-1.2349083 1.3516743 0.53619224 0
-1.2380182 1.3575649 0.60097975 0
-1.299677 1.330622 0.2249413 0
-1.2441671 1.2316113 0.27911514 0
-1.2384726 1.2214541 0.33768633 0
-1.2369766 1.218786 0.39697337 0
-1.2411326 1.2261989 0.45806611 0
-1.2367997 1.2184706 0.51710314 0
-1.2428952 1.2293427 0.58019745 0
-0.58648449 -0.00079491397 -0.088014714 0
-1.3573796 1.2963648 0.22490326 0
-1.259249 1.1312437 0.27356073 0
-1.2411361 1.1007657 0.32804808 0
-1.2423722 1.1028457 0.38554716 0
-1.238645 1.0965738 0.4421072 0
-1.238597 1.0964935 0.49988201 0
-1.2439945 1.1055756 0.56010455 0
-0.60627377 -0.023824777 -0.059317861 0
-1.2441356 0.99031597 0.26459622 0
-1.2378033 0.98024827 0.31828192 0
-1.2339556 0.97413069 0.37219229 0
-1.2467676 0.99450058 0.43045887 0
-1.2365993 0.97833401 0.48313582 0
-1.2365186 0.97820562 0.53889471 0
-0.63810712 -0.027920153 0.10100336 0
-1.2553357 0.90057892 0.25974923 0
-1.2373283 0.87349027 0.30988452 0
-1.2338016 0.8681851 0.36177918 0
-1.2346315 0.8694337 0.41476616 0
-1.2432581 0.88241059 0.47048661 0
-1.2457918 0.88622206 0.52528983 0
-0.58052868 -0.16067246 -0.089697801 0
-0.67034435 -0.032688525 -0.091099985 0
-0.66464812 -0.040805425 -0.061872873 0
-0.66872305 -0.034998801 -0.035284553 0
-0.66291279 -0.043278243 -0.0069049057 0
-0.66807282 -0.035925414 0.019546697 0
-0.66672963 -0.03783932 0.046856917 0
-0.66750431 -0.036735442 0.073913544 0
-0.66828066 -0.035629179 0.10100365 0
-1.3001032 0.86469442 0.25944281 0
-1.2499344 0.7932058 0.30435655 0
-1.2451932 0.78644973 0.3546381 0
-1.2372042 0.77506572 0.40401396 0
-1.2404042 0.77962571 0.45626688 0
-1.240945 0.78039604 0.50830942 0
-0.54120463 -0.25673786 -0.092752077 0
-0.60142738 -0.17536911 -0.089753799 0
-0.68929207 -0.056652453 -0.089725666 0
-0.6890139 -0.05702832 -0.062025566 0
-0.68585062 -0.061302271 -0.033961032 0
-0.69193357 -0.053083386 -0.007746404 0
-0.69002986 -0.055655565 0.019768128 0
-0.69380677 -0.050552513 0.046599962 0
-0.69452375 -0.049583759 0.073788553 0
-0.69790411 -0.045016434 0.10100394 0
-1.3540993 0.84158903 0.26034045 0
-1.2476366 0.69774407 0.29699752 0
-1.2460966 0.69566339 0.34608731 0
-1.2385793 0.68550652 0.3939116 0
-1.2382554 0.68506879 0.44344768 0
-1.2371256 0.68354231 0.49308378 0
-0.55274051 -0.27933696 -0.090410568 0
-0.6239481 -0.18803689 -0.090420358 0
-0.70955485 -0.078274637 -0.088910885 0
-0.71534044 -0.070856541 -0.062716655 0
-0.71581882 -0.07024315 -0.035248119 0
-0.71194589 -0.075208873 -0.0072321054 0
-0.72021884 -0.06460163 0.018989185 0
-0.72162849 -0.062794179 0.046270095 0
-0.70942426 -0.078442067 0.07411322 0
-0.72024643 -0.064566225 0.10100388 0
-1.3938005 0.79904348 0.25965077 0
-1.2449416 0.6081813 0.29018429 0
-1.2403921 0.60234815 0.33699504 0
-1.2458618 0.60936111 0.38600641 0
-1.2359973 0.59671324 0.43165576 0
-1.2437183 0.60661274 0.48229364 0
-0.5775761 -0.2848905 -0.092788048 0
-0.64354903 -0.20456657 -0.090296738 0
-0.73855853 -0.088889748 -0.090527751 0
-0.74766707 -0.077799827 -0.064793952 0
-0.74953991 -0.075519532 -0.037229616 0
-0.74931335 -0.075795382 -0.0093691107 0
-0.74779558 -0.077643365 0.018496232 0
-0.74605882 -0.079757899 0.046175923 0
-0.74221355 -0.084439665 0.07374566 0
-0.74634355 -0.079411179 0.10100401 0
-1.4329042 0.75649649 0.25903633 0
-1.2467264 0.52981943 0.28457415 0
-1.2357926 0.51650745 0.32882199 0
-1.2459977 0.52893227 0.37718964 0
-1.2314457 0.51121479 0.42021295 0
-1.239081 0.52051109 0.46908167 0
-0.59325552 -0.30192056 -0.092167534 0
-0.66472614 -0.21924731 -0.090752609 0
-0.75763673 -0.11177352 -0.0896722 0
-0.77383077 -0.093041152 -0.065525465 0
-0.76691276 -0.10104349 -0.036256809 0
-0.77993876 -0.085975796 -0.010484612 0
-0.77776337 -0.088492125 0.017726103 0
-0.77405918 -0.092776924 0.045799367 0
-0.77204275 -0.095109433 0.073488422 0
-0.77226508 -0.094852298 0.10100415 0
-1.4863032 0.73110729 0.26008558 0
-1.2464601 0.45367017 0.27911904 0
-1.2428596 0.44950524 0.32336298 0
-1.2390286 0.44507375 0.36754182 0
-1.2347584 0.4401342 0.41162676 0
-1.2465686 0.4537957 0.46037796 0
-0.60430515 -0.32384339 -0.09023919 0
-0.68029511 -0.24029949 -0.089731432 0
-0.77925211 -0.1315054 -0.089602895 0
-0.80296659 -0.10543343 -0.066939272 0
-0.80151349 -0.10703102 -0.038416479 0
-0.80023086 -0.10844114 -0.01017238 0
-0.80262482 -0.10580924 0.017478699 0
-0.79292721 -0.11647084 0.046041887 0
-0.80231184 -0.10615334 0.073213577 0
-0.79933971 -0.10942087 0.10100435 0
-1.2484066 0.38428691 0.27439085 0
-1.2331977 0.36756602 0.31544414 0
-1.2411529 0.37631205 0.36050636 0
-1.2409943 0.37613764 0.40443423 0
-1.2372535 0.37202516 0.4476856 0
-0.6248827 -0.33516696 -0.091463022 0
-0.7017343 -0.25484416 -0.090482928 0
-0.80766898 -0.14412472 -0.091272376 0
-0.83237875 -0.11829886 -0.068436958 0
-0.8227151 -0.12839893 -0.038280685 0
-0.82940835 -0.12140343 -0.011145553 0
-0.82767075 -0.12321946 0.017174246 0
-0.83705968 -0.11340651 0.044535924 0
-0.83014691 -0.12063149 0.073018238 0
-0.83217144 -0.11851546 0.1010048 0
-1.2480183 0.31611422 0.26970997 0
-1.2361823 0.30374363 0.31022489 0
-1.245657 0.31364623 0.35449558 0
-1.2343578 0.30183676 0.39475682 0
-1.2380048 0.30564848 0.43863687 0
-0.63786441 -0.35446855 -0.090467148 0
-0.72400695 -0.2688674 -0.091535904 0
-0.82413352 -0.16937014 -0.09020599 0
-0.85704565 -0.13666484 -0.069022648 0
-0.86115259 -0.13258371 -0.041078139 0
-0.85658181 -0.13712576 -0.01187457 0
-0.8602345 -0.13349596 0.016092518 0
-0.85341179 -0.14027587 0.044895623 0
-0.85644287 -0.1372638 0.072866037 0
-0.84942621 -0.14423636 0.10100462 0
-1.2669336 0.2706472 0.14263192 0
-1.2792754 0.28291145 0.18509859 0
-1.2642442 0.26797476 0.22576848 0
-1.2473588 0.25119546 0.26533869 0
-1.2492257 0.2530506 0.30706194 0
-1.2437932 0.24765232 0.34768903 0
-1.2385728 0.24246469 0.38827431 0
-1.2367156 0.24061909 0.42972082 0
-0.64961398 -0.37462905 -0.089278646 0
-0.7393527 -0.28984562 -0.090862073 0
-0.84019905 -0.19456795 -0.089220367 0
-0.88575625 -0.15152636 -0.070467092 0
-0.89222246 -0.14541718 -0.042642388 0
-0.88775659 -0.14963648 -0.013151845 0
-0.89317709 -0.14451531 0.014974559 0
-0.88547063 -0.15179625 0.044196922 0
-0.89151162 -0.14608881 0.072423212 0
-0.88776332 -0.1496301 0.1010053 0
-1.2882843 0.22877446 0.14231014 0
-1.2872944 0.22783926 0.18358061 0
-1.2908698 0.23121729 0.22531669 0
-1.2484539 0.19114342 0.26150891 0
-1.2574943 0.19968477 0.30341369 0
-1.2316048 0.17522481 0.3393718 0
-1.2444618 0.18737188 0.38266614 0
-1.24138 0.18446019 0.4229885 0
-0.66566068 -0.39057037 -0.089491569 0
-0.76189679 -0.30413821 -0.09216132 0
-0.85719591 -0.21854767 -0.088604696 0
-0.91551507 -0.16616973 -0.072148897 0
-0.92217892 -0.16018471 -0.044048194 0
-0.91922015 -0.16284207 -0.014476856 0
-0.91936421 -0.16271272 0.014489951 0
-0.91731703 -0.16455129 0.043508738 0
-0.91909766 -0.1629521 0.072217099 0
-0.91949964 -0.16259107 0.10100572 0
-1.3335049 0.20923772 0.14277686 0
-1.3293147 0.20547453 0.18431494 0
-1.3332893 0.20904413 0.2264486 0
-1.2546247 0.13839343 0.25859457 0
-1.2519028 0.13594881 0.29788294 0
-1.2389717 0.12433508 0.33528572 0
-1.2353587 0.12109008 0.37418142 0
-1.2452567 0.12997976 0.41657063 0
-0.68482977 -0.40393201 -0.090686269 0
-0.76959455 -0.33158192 -0.089846842 0
-0.88585472 -0.23234937 -0.090654276 0
-0.94489706 -0.18195447 -0.073794328 0
-0.94746959 -0.1797587 -0.044765059 0
-0.94874352 -0.17867133 -0.015576912 0
-0.94616765 -0.18086991 0.013916323 0
-0.942105 -0.18433759 0.043247309 0
-0.94707066 -0.18009916 0.071990393 0
-0.9499718 -0.17762294 0.10100609 0
-1.3978149 0.2046285 0.14383389 0
-1.404763 0.21055904 0.18711717 0
-1.4005671 0.20697764 0.22989513 0
-1.2536194 0.081552178 0.25502643 0
-1.2514557 0.079705268 0.29351088 0
-1.2393379 0.069362313 0.33023271 0
-1.238282 0.06846109 0.36884257 0
-1.2323065 0.06336084 0.40646562 0
-0.70293272 -0.4185417 -0.091658317 0
-0.78170484 -0.35467067 -0.088818915 0
-0.90575165 -0.2540895 -0.090882979 0
-0.9768784 -0.1964176 -0.075949632 0
-0.98152083 -0.19265339 -0.046860714 0
-0.98141903 -0.19273594 -0.017082026 0
-0.98371458 -0.19087467 0.012345674 0
-0.98150551 -0.19266585 0.042085104 0
-0.9752869 -0.1977081 0.071747892 0
-0.99260044 -0.18366972 0.10100692 0
-1.2494892 0.024624143 0.25132903 0
-1.2494329 0.024578486 0.28920609 0
-1.2407744 0.017557893 0.32572946 0
-1.2406316 0.017442022 0.36377445 0
-1.2346503 0.01259223 0.40068704 0
-0.72056663 -0.43382201 -0.09258578 0
-0.80014229 -0.37256154 -0.089454643 0
-0.92340469 -0.27766934 -0.090756826 0
-1.0067673 -0.2134935 -0.077757828 0
-1.0177872 -0.20500997 -0.049291316 0
-1.0088629 -0.2118803 -0.01798418 0
