# .PCD v0.7 - Point Cloud Data file format
VERSION 0.7
FIELDS x y z intensity
SIZE 4 4 4 4
TYPE F F F F
COUNT 1 1 1 1
WIDTH 1318
HEIGHT 1
VIEWPOINT 0 0 0 1 0 0 0
POINTS 1318
DATA ascii
-5.0865884 -10.063752 -0.14091149 0
-0.41860113 -1.7840376 -0.090059288 0
-0.47243679 -1.8860114 -0.090020008 0
-0.54068553 -2.0152857 -0.089709602 0
-0.63173217 -2.1877432 -0.089483984 0
-0.76355737 -2.4374421 -0.090418197 0
-0.95479184 -2.7996719 -0.090114467 0
-1.2774197 -3.4107826 -0.09045773 0
-1.9239995 -4.6355119 -0.090981863 0
-4.8576674 -10.192365 -0.14099397 0
-0.40033886 -1.7982483 -0.090979315 0
-0.45307776 -1.9045579 -0.091468118 0
-0.51752901 -2.034477 -0.090783097 0
-0.60100824 -2.2027521 -0.089394055 0
-0.72638714 -2.4554875 -0.090316005 0
-0.91613513 -2.8379762 -0.091653012 0
-1.2129931 -3.4363747 -0.089997925 0
-1.831863 -4.6838756 -0.091031514 0
-4.6214738 -10.307096 -0.14086609 0
-0.38038006 -1.8093629 -0.091271557 0
-0.42833775 -1.9124919 -0.090797015 0
-0.48742333 -2.0395505 -0.089391775 0
-0.56750929 -2.2117686 -0.088497348 0
-0.69113904 -2.4776242 -0.090863951 0
-0.86470985 -2.8508737 -0.090659253 0
-1.1559831 -3.4772325 -0.090846561 0
-1.7372705 -4.7272425 -0.090944164 0
-4.382349 -10.415262 -0.14072515 0
-0.36012575 -1.8200082 -0.091569237 0
-0.40688965 -1.9275892 -0.091733344 0
-0.46187779 -2.05409 -0.089848973 0
-0.54212034 -2.2386892 -0.090484269 0
-0.64741772 -2.4809275 -0.089119904 0
-0.82440037 -2.8880785 -0.092283167 0
-1.0951828 -3.5110176 -0.091257118 0
-1.640627 -4.76582 -0.090736531 0
-4.1449676 -10.527091 -0.1408325 0
-0.34022477 -1.8317527 -0.092233859 0
-0.37839791 -1.9260067 -0.089381255 0
-0.42880252 -2.0504615 -0.087194897 0
-0.51155531 -2.2547879 -0.090907834 0
-0.61684728 -2.514766 -0.091383792 0
-0.77106333 -2.8955436 -0.090998627 0
-1.0258951 -3.5247533 -0.090267651 0
-1.5498269 -4.8184023 -0.091357626 0
-3.9043796 -10.632068 -0.14091796 0
-0.31628206 -1.8332355 -0.090676568 0
-0.36020851 -1.9500855 -0.092360355 0
-0.40533698 -2.0701332 -0.088804223 0
-0.47808903 -2.2636631 -0.090359293 0
-0.57887167 -2.5317581 -0.091619708 0
-0.72033286 -2.9080632 -0.090365149 0
-0.96319079 -3.5540969 -0.090584464 0
-1.4500589 -4.8492298 -0.091005407 0
-3.6523755 -10.707678 -0.14042477 0
-0.29754749 -1.8486285 -0.09239956 0
-0.33582827 -1.9588251 -0.092346869 0
-0.38342384 -2.0958354 -0.091552295 0
-0.44121334 -2.2621906 -0.088402338 0
-0.53663522 -2.5368755 -0.090503521 0
-0.67470562 -2.9343302 -0.091222696 0
-0.89740431 -3.5753994 -0.090421058 0
-1.3520088 -4.8840413 -0.090977289 0
-3.4125395 -10.815564 -0.14088754 0
-0.27082625 -1.8404044 -0.088944815 0
-0.30935466 -1.9610517 -0.091167934 0
-0.35027865 -2.0892003 -0.088795014 0
-0.4140102 -2.2887683 -0.090737127 0
-0.49529237 -2.5432942 -0.089687265 0
-0.6244542 -2.9477496 -0.090927817 0
-0.82847708 -3.5866239 -0.089641742 0
-1.2491432 -4.9038916 -0.090339668 0
-3.1628602 -10.896476 -0.14083663 0
-0.25021505 -1.8502464 -0.089665599 0
-0.28450689 -1.967782 -0.091012888 0
-0.32378504 -2.1024082 -0.089598916 0
-0.37734288 -2.2859783 -0.088856436 0
-0.45904285 -2.5660059 -0.090988137 0
-0.57533294 -2.9645915 -0.091091655 0
-0.76543969 -3.6161845 -0.090330623 0
-1.1519266 -4.9408727 -0.090663902 0
-2.9117777 -10.97278 -0.14082772 0
-0.22910996 -1.8589468 -0.090245344 0
-0.26134521 -1.980787 -0.092204012 0
-0.29292393 -2.1001458 -0.087881498 0
-0.34706843 -2.3047969 -0.090264492 0
-0.41912091 -2.5771353 -0.090991117 0
-0.52578455 -2.9802942 -0.091264568 0
-0.69971561 -3.6377053 -0.090549 0
-1.0531677 -4.9736562 -0.090902396 0
-2.6577137 -11.038393 -0.14071466 0
-0.20898309 -1.8724191 -0.091980986 0
-0.23431821 -1.9789841 -0.090634726 0
-0.2691246 -2.1253872 -0.090952657 0
-0.31150898 -2.3036654 -0.088893034 0
-0.37846726 -2.5853066 -0.090760164 0
-0.47445661 -2.989059 -0.090891145 0
-0.634776 -3.6633973 -0.091185383 0
-0.94879204 -4.9842176 -0.090195768 0
-2.4040134 -11.105198 -0.1407845 0
-0.18664283 -1.8774767 -0.091989957 0
-0.21015725 -1.9887946 -0.091441087 0
-0.23619305 -2.1120486 -0.087628074 0
-0.27734458 -2.3068612 -0.088279702 0
-0.33815166 -2.5947235 -0.090802111 0
-0.42297223 -2.9962664 -0.090495087 0
-0.56501383 -3.668695 -0.090478607 0
-0.84780484 -5.0074348 -0.090220772 0
-2.1476009 -11.160705 -0.14073807 0
-0.16429761 -1.8825992 -0.092135139 0
-0.1844316 -1.9914252 -0.090985529 0
-0.2116484 -2.1385341 -0.091114409 0
-0.24622719 -2.3254349 -0.089990593 0
-0.29702201 -2.5999846 -0.090471201 0
-0.37092429 -2.9994323 -0.089840896 0
-0.49644041 -3.6778564 -0.090175293 0
-0.9441824 -6.0979357 -0.14089686 0
-1.8904809 -11.21275 -0.14076348 0
-0.1395691 -1.8730479 -0.089243062 0
-0.15994164 -2.001153 -0.092009522 0
-0.18271945 -2.1443832 -0.091255926 0
-0.21130505 -2.3241332 -0.088978343 0
-0.25789768 -2.6171138 -0.091669194 0
-0.32094523 -3.0135653 -0.090350278 0
-0.43089586 -3.7049496 -0.091265358 0
-0.81378704 -6.1126208 -0.14054163 0
-1.6320121 -11.25773 -0.14077552 0
-0.11856893 -1.8863877 -0.091403581 0
-0.13394111 -2.0017462 -0.091411956 0
-0.15127918 -2.1318574 -0.088471629 0
-0.17829734 -2.3346114 -0.089764811 0
-0.21522675 -2.6117432 -0.090326957 0
-0.26952484 -3.0192158 -0.090178214 0
-0.36043689 -3.7014527 -0.090311207 0
-0.68485934 -6.1360364 -0.14075248 0
-1.373479 -11.303689 -0.14096376 0
-0.096486732 -1.8946031 -0.092576168 0
-0.10762856 -1.9980991 -0.090137236 0
-0.12320896 -2.1428246 -0.089709647 0
-0.14412311 -2.3370953 -0.089537092 0
-0.17413203 -2.6158469 -0.090228833 0
-0.21844111 -3.027432 -0.090369485 0
-0.29382932 -3.7277095 -0.091576941 0
-0.55471963 -6.1511078 -0.14072464 0
-1.113516 -11.341743 -0.14111947 0
-0.074069731 -1.9023206 -0.093759157 0
-0.082727857 -2.0076604 -0.091487028 0
-0.093623154 -2.1402187 -0.088823788 0
-0.10910867 -2.3286247 -0.087886937 0
-0.13364008 -2.6270878 -0.091089658 0
-0.16645715 -3.0263593 -0.089811303 0
-0.22381134 -3.7241635 -0.090867601 0
-0.42414933 -6.1615906 -0.14063615 0
-0.85096872 -11.354521 -0.14083846 0
-0.050200712 -1.8896977 -0.090730421 0
-0.056933187 -2.008153 -0.091242723 0
-0.06496577 -2.1494834 -0.090016313 0
-0.076043352 -2.3443897 -0.089775078 0
-0.081658371 -2.4431839 -0.069224931 0
-0.080982678 -2.4312952 -0.033843864 0
-0.081777677 -2.4452829 -0.00098135113 0
-0.080570363 -2.4240406 0.034068394 0
-0.081097417 -2.4333141 0.067342065 0
-0.081112385 -2.4335775 0.10101169 0
-0.027276136 -1.8846745 -0.089448534 0
-0.031103123 -2.005969 -0.090616934 0
-0.035566308 -2.1474273 -0.089465387 0
-0.040796943 -2.3132098 -0.085178502 0
-0.040608697 -2.3072433 -0.053139541 0
-0.040682271 -2.3095753 -0.022326602 0
-0.040854611 -2.3150375 0.0082421843 0
-0.040813375 -2.3137307 0.039280947 0
-0.040624328 -2.307739 0.070300668 0
-0.040295977 -2.297332 0.10100776 0
-0.0047474816 -1.8964709 -0.09186513 0
-0.0054522175 -2.0082066 -0.09094692 0
-0.0063552456 -2.1513813 -0.090024315 0
-0.0067080492 -2.2073183 -0.070207886 0
-0.0067320922 -2.2111304 -0.041832689 0
-0.0067011574 -2.2062256 -0.01262082 0
-0.0067362478 -2.2117891 0.015504638 0
-0.0066835098 -2.2034276 0.044445626 0
-0.0067410888 -2.2125566 0.072528392 0
-0.0067451233 -2.2131963 0.10100534 0
0.018056482 -1.8917377 -0.090889551 0
0.020335814 -2.0121536 -0.09172105 0
0.023052791 -2.15569 -0.09076298 0
0.023880865 -2.1994367 -0.069127314 0
0.024014866 -2.206516 -0.041316036 0
0.023900548 -2.2004766 -0.012102215 0
0.023913262 -2.2011483 0.016235063 0
0.024158651 -2.214112 0.043939125 0
0.023912897 -2.201129 0.072789609 0
0.023940727 -2.2025993 0.10100504 0
0.041022182 -1.8955808 -0.091860063 0
0.046212975 -2.0130489 -0.092043318 0
0.052522037 -2.1558235 -0.090937667 0
0.054685056 -2.2047727 -0.070013441 0
0.054598406 -2.202812 -0.040996049 0
0.054170392 -2.193126 -0.01150549 0
0.054225858 -2.1943812 0.016641112 0
0.054536209 -2.2014043 0.044485874 0
0.054448836 -2.1994271 0.072806768 0
0.054778595 -2.2068896 0.10100519 0
0.063507043 -1.8889738 -0.09072908 0
0.071491085 -2.0038431 -0.090582259 0
0.081394613 -2.1463287 -0.089648865 0
0.085508153 -2.2055116 -0.070362948 0
0.085060664 -2.1990736 -0.040761847 0
0.08540418 -2.2040157 -0.012685856 0
0.08497452 -2.197834 0.016278105 0
0.085168764 -2.2006288 0.044440996 0
0.085171022 -2.2006612 0.072737582 0
0.085305415 -2.2025948 0.10100512 0
0.086691171 -1.892422 -0.091863342 0
0.097563155 -2.0069711 -0.09157183 0
0.11027683 -2.1409249 -0.089152552 0
0.11592028 -2.2003853 -0.069995023 0
0.11627548 -2.2041278 -0.041649494 0
0.11670382 -2.2086408 -0.013355492 0
0.11566489 -2.1976945 0.016112046 0
0.11580122 -2.199131 0.044393666 0
0.11578911 -2.1990032 0.072717682 0
0.11560454 -2.1970587 0.10100503 0
0.10958601 -1.8910949 -0.092103817 0
0.1240526 -2.0112109 -0.092899941 0
0.14036931 -2.1466885 -0.090623863 0
0.14628789 -2.1958303 -0.06981536 0
0.14621902 -2.1952584 -0.040993396 0
0.14605024 -2.1938572 -0.012276625 0
0.14704555 -2.2021213 0.015569488 0
0.14600165 -2.1934538 0.044505965 0
0.14724076 -2.203742 0.072529845 0
0.14684598 -2.2004642 0.10100523 0
0.13252012 -1.8895411 -0.092420392 0
0.14817519 -1.9966784 -0.090786688 0
0.16833633 -2.1346533 -0.089270242 0
0.1777232 -2.1988933 -0.070825689 0
0.17780437 -2.1994488 -0.041966546 0
0.17800826 -2.200844 -0.013317173 0
0.17863053 -2.2051027 0.01507117 0
0.17698464 -2.1938388 0.044297643 0
0.17822051 -2.2022967 0.072468005 0
0.17835963 -2.2032487 0.10100542 0
0.15352525 -1.8762424 -0.090329759 0
0.17266729 -1.9875367 -0.089810662 0
0.19865964 -2.1386592 -0.090703301 0
0.21131 -2.2122099 -0.073415451 0
0.21045943 -2.2072647 -0.043468211 0
0.20871682 -2.1971331 -0.013425266 0
0.20896867 -2.1985972 0.015187228 0
0.20873898 -2.1972618 0.043908056 0
0.2094634 -2.2014737 0.072372809 0
0.20683067 -2.1861665 0.10100507 0
0.17720695 -1.8789344 -0.091808312 0
0.19880031 -1.98794 -0.090780921 0
0.22711712 -2.1308863 -0.09029796 0
0.24123588 -2.2021594 -0.072791629 0
0.24046174 -2.1982515 -0.04307026 0
0.24039499 -2.1979146 -0.01403497 0
0.23997939 -2.1958165 0.014983961 0
0.24103466 -2.2011435 0.043456793 0
0.24124169 -2.2021887 0.072222032 0
0.24241552 -2.2081144 0.10100587 0
0.2004201 -1.87787 -0.09260682 0
0.22541294 -1.989219 -0.092052691 0
0.25441372 -2.1184242 -0.089221142 0
0.27158773 -2.1949384 -0.072680317 0
0.27192697 -2.1964498 -0.04362433 0
0.27322114 -2.2022157 -0.015061116 0
0.27347374 -2.203341 0.013985248 0
0.26945612 -2.1854415 0.043898582 0
0.27219331 -2.1976364 0.072176851 0
0.27271873 -2.1999772 0.10100582 0
0.22246987 -1.8713347 -0.092339404 0
0.25006467 -1.9812231 -0.091661431 0
0.28252444 -2.1104848 -0.08902026 0
0.30276561 -2.1910894 -0.07316754 0
0.30404824 -2.196197 -0.044463981 0
0.30475664 -2.199018 -0.015451623 0
0.30568382 -2.2027104 0.013507271 0
0.30531201 -2.2012296 0.04279732 0
0.30277896 -2.1911426 0.072159261 0
0.30413464 -2.1965411 0.10100593 0
0.24369355 -1.8620114 -0.091577359 0
0.27256417 -1.9658184 -0.089940228 0
0.31231168 -2.1087341 -0.089994334 0
0.33453417 -2.188637 -0.073976345 0
0.3369658 -2.1973803 -0.045581762 0
0.3401736 -2.2089143 -0.017190283 0
0.33649421 -2.1956847 0.013431171 0
0.33753243 -2.1994176 0.042495184 0
0.33983248 -2.2076876 0.071566977 0
0.33788535 -2.2006865 0.10100629 0
0.26590729 -1.8564981 -0.091774873 0
0.2986314 -1.963614 -0.090916879 0
0.34009299 -2.0993304 -0.089789487 0
0.37129432 -2.2014616 -0.077153705 0
0.37066847 -2.1994131 -0.046913181 0
0.37141588 -2.2018595 -0.017374946 0
0.36909798 -2.1942725 0.01288751 0
0.37016115 -2.1977525 0.042144127 0
0.36978394 -2.1965177 0.071621247 0
0.36996791 -2.19712 0.10100645 0
0.2912001 -1.8600284 -0.094125427 0
0.32119921 -1.9500318 -0.089772917 0
0.36914805 -2.0938878 -0.090390138 0
0.43059441 -2.2782393 -0.08996848 0
0.51650852 -2.5359991 -0.089575283 0
0.64892381 -2.9332714 -0.090295188 0
0.8673752 -3.5886698 -0.090579055 0
1.3052448 -4.9023662 -0.091054268 0
3.2914157 -10.861279 -0.14097184 0
0.31173393 -1.8487135 -0.093285732 0
0.3462733 -1.9442339 -0.090291165 0
0.3965258 -2.0832095 -0.090208866 0
0.46150056 -2.2629006 -0.089357458 0
0.55910319 -2.5328255 -0.090858616 0
0.69890553 -2.9194555 -0.090607964 0
0.93627191 -3.5759041 -0.091316648 0
1.4037734 -4.8688021 -0.09108346 0
3.5363398 -10.76652 -0.1407593 0
0.3273676 -1.8253545 -0.089807101 0
0.36726958 -1.927564 -0.088743649 0
0.42510182 -2.0757022 -0.090706609 0
0.49463147 -2.2538037 -0.089799203 0
0.59908193 -2.5213554 -0.091247983 0
0.75010806 -2.9082112 -0.091307335 0
0.99559063 -3.537019 -0.090231232 0
1.5022709 -4.8348889 -0.091219179 0
3.7885325 -10.691187 -0.14118315 0
0.35219321 -1.8259888 -0.091913141 0
0.39204651 -1.9209298 -0.089337356 0
0.45351607 -2.0673666 -0.091189869 0
0.52651721 -2.2412746 -0.08984933 0
0.62963599 -2.4869306 -0.088859208 0
0.79166245 -2.8729205 -0.089710079 0
1.0575557 -3.5063481 -0.089869983 0
1.5965339 -4.7903366 -0.090944059 0
4.0261488 -10.578321 -0.14082475 0
0.37094775 -1.8118708 -0.090750135 0
0.41824213 -1.9170226 -0.090629481 0
0.47846165 -2.0509112 -0.090343975 0
0.55941319 -2.2308943 -0.090354525 0
0.67118144 -2.4793937 -0.089987136 0
0.84823072 -2.8730352 -0.091825001 0
1.1267279 -3.4922304 -0.09089271 0
1.6927788 -4.7507563 -0.09104041 0
4.2715673 -10.484291 -0.14109452 0
0.39282855 -1.8048636 -0.09136077 0
0.43830645 -1.8995173 -0.089233227 0
0.50609952 -2.0406158 -0.090725072 0
0.58973265 -2.2146826 -0.090085305 0
0.70804834 -2.4609344 -0.089847751 0
0.88394076 -2.8270216 -0.089335866 0
1.1919476 -3.46808 -0.091284417 0
1.7822864 -4.6967592 -0.09051805 0
4.5079665 -10.369752 -0.14099738 0
0.41086105 -1.789989 -0.090231724 0
0.46475789 -1.8952742 -0.090731509 0
0.53145754 -2.025569 -0.090361826 0
0.6194557 -2.1974697 -0.089774646 0
0.74949825 -2.4515023 -0.091013215 0
0.93606919 -2.8159609 -0.090573452 0
1.2517709 -3.4326706 -0.090925448 0
1.8817232 -4.6632557 -0.091178112 0
4.7369514 -10.240824 -0.14067805 0
0.43600971 -1.7887213 -0.092489354 0
0.49222213 -1.8920183 -0.092604451 0
0.5585947 -2.0139856 -0.090760596 0
0.64925843 -2.1805911 -0.089632399 0
0.77965385 -2.420208 -0.089424141 0
0.98299217 -2.7938662 -0.090794511 0
1.3105292 -3.3957541 -0.090560921 0
1.9746764 -4.6162028 -0.09126132 0
4.9677129 -10.116261 -0.14062183 0
0.45741051 -1.7798616 -0.093071319 0
0.50970268 -1.870434 -0.090668298 0
0.58542037 -2.0015807 -0.091138341 0
0.67885447 -2.163413 -0.089560665 0
0.81792551 -2.4042907 -0.08998891 0
1.0299095 -2.7714567 -0.091111623 0
1.3764679 -3.3717124 -0.091349266 0
2.5969055 -5.485568 -0.1407346 0
5.2023716 -9.9983578 -0.14089885 0
0.47131506 -1.7584502 -0.090668611 0
0.5318042 -1.8573692 -0.090679653 0
0.61641526 -1.9957353 -0.092915095 0
0.71011221 -2.1489599 -0.090058841 0
0.85658103 -2.3884833 -0.090708874 0
1.0711868 -2.7394321 -0.090510301 0
1.4307137 -3.3273737 -0.090621985 0
2.7130189 -5.4243531 -0.14104642 0
5.4216981 -9.8539095 -0.14061694 0
0.49108937 -1.7471381 -0.090871148 0
0.55480611 -1.8456609 -0.091119625 0
0.6355679 -1.9705397 -0.091085635 0
0.73600942 -2.1258485 -0.08924713 0
0.88601893 -2.3578024 -0.089505248 0
1.1169463 -2.7148762 -0.090844207 0
1.4935837 -3.2972558 -0.09117981 0
2.8272214 -5.3594074 -0.14131774 0
5.6494994 -9.7233858 -0.14086802 0
0.5158757 -1.7430525 -0.093064807 0
0.56839252 -1.8199314 -0.088500269 0
0.66191757 -1.9568418 -0.091608308 0
0.76050228 -2.1011591 -0.088263102 0
0.92177331 -2.3372426 -0.089817561 0
1.1622126 -2.6892195 -0.091188945 0
1.5536405 -3.2622278 -0.09146484 0
2.929564 -5.2764306 -0.14073835 0
5.8608961 -9.567584 -0.14057226 0
0.52164137 -1.7116621 -0.088306747 0
0.59850633 -1.8183039 -0.0915078 0
0.68784845 -1.9422566 -0.092094325 0
0.80040479 -2.0984163 -0.091169097 0
0.95643473 -2.3148911 -0.090006344 0
1.2038059 -2.658092 -0.091040827 0
1.6130649 -3.2258949 -0.091772161 0
3.0407739 -5.2066879 -0.14105473 0
6.0816684 -9.425602 -0.14081877 0
0.54672754 -1.7075416 -0.090775214 0
0.61606944 -1.7988003 -0.090522952 0
0.70300978 -1.9132199 -0.089740641 0
0.82406539 -2.0725374 -0.090223871 0
0.99136847 -2.2927201 -0.090352468 0
1.2429391 -2.6238043 -0.090641342 0
1.6640306 -3.17799 -0.091199853 0
3.1421621 -5.1233139 -0.14074284 0
6.3028603 -9.2830124 -0.14121351 0
0.56339484 -1.6919426 -0.090339459 0
0.63769948 -1.7847738 -0.090945281 0
0.73171884 -1.9022352 -0.091218986 0
0.85007417 -2.0501003 -0.089985363 0
1.0187104 -2.260783 -0.089374386 0
1.2836182 -2.5917408 -0.090616576 0
1.7162278 -3.1322141 -0.090920575 0
3.2390282 -5.0346975 -0.14026313 0
6.4958539 -9.1035547 -0.14068298 0
0.59359145 -1.6925365 -0.094511248 0
0.65347469 -1.7635984 -0.089748971 0
0.75855619 -1.888296 -0.092248224 0
0.88178974 -2.0345342 -0.091123916 0
1.0525107 -2.2371244 -0.089744993 0
1.3277408 -2.5637331 -0.091210388 0
1.7669787 -3.0849659 -0.090619944 0
3.3475506 -4.9605913 -0.14080378 0
6.700726 -8.9397211 -0.14076267 0
0.60291862 -1.6680822 -0.091875322 0
0.67155403 -1.7454798 -0.089394279 0
0.77820134 -1.8657418 -0.091555528 0
0.90377998 -2.0073521 -0.090255104 0
1.0844799 -2.2111206 -0.089889415 0
1.3647349 -2.5271535 -0.090885676 0
1.8275713 -3.0490766 -0.091492273 0
3.4399204 -4.8672619 -0.14032915 0
6.8972287 -8.7659378 -0.14069396 0
0.61971283 -1.6525277 -0.091831483 0
0.69455975 -1.7327572 -0.090537347 0
0.79477322 -1.8401775 -0.090279959 0
0.93112433 -1.9863343 -0.090655826 0
1.1170653 -2.1856472 -0.09024962 0
1.4072028 -2.49665 -0.091446735 0
1.86927 -2.9919469 -0.090499185 0
3.5392926 -4.7820697 -0.14050809 0
7.0912619 -8.5894794 -0.1406945 0
0.64025903 -1.6407908 -0.093048222 0
0.72232568 -1.7244254 -0.093019091 0
0.8214379 -1.8254312 -0.091558553 0
0.96678811 -1.9735583 -0.092823587 0
1.1457478 -2.155937 -0.090058155 0
1.4375998 -2.4533648 -0.090488859 0
1.9163806 -2.941293 -0.090217359 0
3.641192 -4.6990576 -0.14099534 0
7.2842693 -8.4117365 -0.14081083 0
0.64689654 -1.6151547 -0.090207748 0
0.7315309 -1.6971607 -0.090629004 0
0.83528984 -1.7976973 -0.089960404 0
0.98021221 -1.9381189 -0.090651028 0
1.1696367 -2.1216605 -0.089214809 0
1.4683814 -2.4111273 -0.089747898 0
1.9611576 -2.8885999 -0.089841209 0
3.7353048 -4.6076488 -0.14110364 0
7.4652185 -8.2217255 -0.14068109 0
0.67041868 -1.6059693 -0.092501484 0
0.75574929 -1.684574 -0.092316799 0
0.86396348 -1.7842585 -0.091869257 0
1.0109018 -1.9196147 -0.092000283 0
1.2072588 -2.1004941 -0.090712227 0
1.5123168 -2.3815067 -0.090830199 0
2.5481887 -3.3357284 -0.14114305 0
3.8252406 -4.5121198 -0.14109288 0
7.6544132 -8.0394669 -0.14096843 0
0.68484616 -1.5880778 -0.092241891 0
0.76874036 -1.6615341 -0.091237478 0
0.8770299 -1.7563503 -0.090402015 0
1.0265852 -1.8872981 -0.090605326 0
1.2275646 -2.0632718 -0.089570932 0
1.5372177 -2.3343985 -0.089621224 0
2.6006167 -3.2654908 -0.14058888 0
3.9091225 -4.4111938 -0.14085865 0
7.8216205 -7.836904 -0.14071383 0
0.693524 -1.565464 -0.09052413 0
0.78075564 -1.638037 -0.090085529 0
0.89294726 -1.7313756 -0.089727007 0
1.0465386 -1.859157 -0.090170644 0
1.2509248 -2.0291975 -0.089062117 0
1.5627867 -2.2886531 -0.08866439 0
2.659446 -3.2010269 -0.14079134 0
3.9871135 -4.3055887 -0.14042851 0
7.9867435 -7.6331096 -0.14055778 0
0.69947255 -1.5411948 -0.088257097 0
0.80230039 -1.6224419 -0.091387697 0
0.91978443 -1.7152692 -0.091485985 0
1.0793579 -1.8413525 -0.092177503 0
1.2709701 -1.9927505 -0.088198997 0
1.601285 -2.2537413 -0.089403309 0
2.7087195 -3.1287553 -0.14028487 0
4.0738082 -4.2073488 -0.14068308 0
8.1628571 -7.4382172 -0.14088449 0
0.71948278 -1.5281255 -0.089932971 0
0.81876683 -1.602582 -0.091563456 0
0.92534417 -1.6825078 -0.088925295 0
1.0989934 -1.8127331 -0.091910578 0
1.3100178 -1.9709873 -0.090263762 0
1.6298293 -2.2108243 -0.089070834 0
2.7577395 -3.0566816 -0.13992672 0
4.1622405 -4.1099629 -0.1411797 0
8.3241606 -7.2311234 -0.14091904 0
0.72796232 -1.5063496 -0.088658236 0
0.82699192 -1.5767826 -0.0899482 0
0.93630266 -1.6545279 -0.087667264 0
1.1204376 -1.7854905 -0.092086069 0
1.3260006 -1.9316936 -0.089063384 0
1.673432 -2.1787977 -0.090594329 0
2.8215044 -2.9953437 -0.14099735 0
4.2323651 -3.9987934 -0.14076334 0
8.478672 -7.0189018 -0.14090973 0
0.76576263 -1.5046803 -0.095062695 0
0.84527886 -1.5582659 -0.090794705 0
0.96727812 -1.6404808 -0.090538748 0
1.1271368 -1.7482089 -0.089877345 0
1.3493328 -1.8979459 -0.089060061 0
1.6984389 -2.1332071 -0.090090863 0
2.8643632 -2.9189188 -0.14041923 0
4.305552 -3.8901305 -0.14068481 0
8.6316071 -6.8054414 -0.14100789 0
0.76024425 -1.4735615 -0.090454362 0
0.85649234 -1.5349494 -0.090152748 0
0.97518545 -1.6106529 -0.088937335 0
1.1611074 -1.7292355 -0.0924078 0
1.3740993 -1.8650837 -0.089374654 0
1.7343082 -2.0948281 -0.090926461 0
2.9087598 -2.843904 -0.14013912 0
4.3799024 -3.7822118 -0.1408245 0
8.7665939 -6.5800824 -0.14075936 0
0.77460617 -1.4556881 -0.091046326 0
0.87350166 -1.5153087 -0.090925641 0
0.9976638 -1.5901618 -0.090301968 0
1.1702007 -1.6941782 -0.090896986 0
1.4067533 -1.8367876 -0.090875007 0
1.7634388 -2.0518208 -0.091121398 0
2.9531305 -2.7690446 -0.14001688 0
4.4536161 -3.673635 -0.14107671 0
8.9056816 -6.3576298 -0.14078154 0
0.79141635 -1.4390293 -0.092339762 0
0.88938951 -1.494773 -0.091552727 0
1.0209901 -1.5696496 -0.091906048 0
1.1761913 -1.6579542 -0.089050137 0
1.4107498 -1.7914107 -0.08859726 0
1.7910172 -2.007771 -0.091264315 0
3.0079494 -2.7001677 -0.1408899 0
4.5154142 -3.5578682 -0.14083497 0
9.0377331 -6.1309266 -0.1407665 0
0.79826647 -1.4166667 -0.091315858 0
0.90381593 -1.4732447 -0.091970615 0
1.03438 -1.5432312 -0.091732927 0
1.2058976 -1.6351702 -0.091156401 0
1.4452103 -1.7634495 -0.090542726 0
1.8012288 -1.9542869 -0.089684673 0
3.0411396 -2.6189194 -0.14017446 0
4.5834761 -3.4456615 -0.14108279 0
9.1654301 -5.9017367 -0.14078881 0
0.7939899 -1.3889525 -0.087791599 0
0.90932602 -1.4470789 -0.090617977 0
1.0456464 -1.515781 -0.091294713 0
1.2213041 -1.6043081 -0.091076739 0
1.4499993 -1.7195649 -0.088673301 0
1.8249922 -1.9085519 -0.089683495 0
3.0934672 -2.5478318 -0.14112785 0
4.6384215 -3.3264503 -0.1407923 0
9.2875557 -5.6694975 -0.14081737 0
0.81879127 -1.3758934 -0.091311298 0
0.92421389 -1.425729 -0.09137354 0
1.0585737 -1.489244 -0.091290362 0
1.2307717 -1.570646 -0.090196721 0
1.4905834 -1.693465 -0.09159746 0
1.8687493 -1.8722328 -0.091866486 0
3.1303859 -2.4686375 -0.14101803 0
4.7006922 -3.2109575 -0.14103833 0
9.4037809 -5.434216 -0.14084555 0
0.82227838 -1.3524797 -0.089915194 0
0.94206727 -1.4054513 -0.092843078 0
1.064101 -1.4594156 -0.090077303 0
1.2393482 -1.5369112 -0.089320816 0
1.5026391 -1.6533406 -0.090928204 0
1.8822716 -1.8212173 -0.09103363 0
3.1606078 -2.3865077 -0.14055119 0
4.7406473 -3.0852141 -0.14029497 0
9.5192947 -5.19837 -0.14100716 0
0.83713007 -1.3340951 -0.09128315 0
0.95117509 -1.3811235 -0.092620455 0
1.0715941 -1.4307803 -0.089360841 0
1.2542863 -1.5061165 -0.089551203 0
1.5144174 -1.6133859 -0.090359561 0
1.8936173 -1.7697552 -0.090120338 0
3.2041528 -2.3101766 -0.14125431 0
4.8008628 -2.9686065 -0.14074025 0
9.6176224 -4.9548774 -0.14088541 0
0.84084517 -1.3110806 -0.090209104 0
0.9472537 -1.3518499 -0.089896433 0
1.0765089 -1.4013727 -0.088325329 0
1.2739601 -1.4770242 -0.090609603 0
1.5254453 -1.5733783 -0.089829288 0
1.9201285 -1.7245972 -0.090862192 0
3.2337544 -2.2279 -0.14105172 0
4.8628569 -2.8520744 -0.14141737 0
9.7125082 -4.7101698 -0.14083292 0
0.85740888 -1.2928755 -0.092173852 0
0.96962637 -1.3326536 -0.092599444 0
1.0864064 -1.3740489 -0.088297896 0
1.283535 -1.4439259 -0.090262823 0
1.5450898 -1.53664 -0.090497978 0
1.9299743 -1.6730713 -0.09006048 0
3.269932 -2.1480505 -0.14149345 0
4.8982282 -2.7252381 -0.14091948 0
9.8078289 -4.46556 -0.14094469 0
0.86331159 -1.2706858 -0.091841958 0
0.96709901 -1.3045533 -0.09044338 0
1.1021223 -1.3486133 -0.089396335 0
1.2905791 -1.4101095 -0.089668788 0
1.5538082 -1.4960051 -0.089932434 0
1.9517839 -1.6258706 -0.090568222 0
3.2886765 -2.0621185 -0.14079842 0
4.9312615 -2.5981183 -0.14046857 0
9.8775301 -4.2121592 -0.14058062 0
0.85569918 -1.2445273 -0.088639148 0
0.97611803 -1.2804863 -0.090713106 0
1.1128712 -1.321323 -0.089745097 0
1.3082782 -1.3796748 -0.090767615 0
1.5617687 -1.4553713 -0.089404292 0
1.9594238 -1.5741177 -0.089808337 0
3.3059034 -1.9761987 -0.14015675 0
4.9834991 -2.4771564 -0.14111063 0
9.9627419 -3.9640403 -0.14075144 0
0.87546581 -1.2265704 -0.091634281 0
0.9967258 -1.2594721 -0.093361668 0
1.1244841 -1.294137 -0.090356357 0
1.3191891 -1.3469669 -0.090982743 0
1.5589741 -1.4120283 -0.087701969 0
1.9610453 -1.5211233 -0.088598348 0
3.3441598 -1.8964072 -0.14120042 0
5.0103493 -2.3484986 -0.14067149 0
10.038423 -3.7127781 -0.14084288 0
0.87872607 -1.2038321 -0.091098584 0
0.9922421 -1.2315776 -0.091231979 0
1.132251 -1.2657986 -0.090429641 0
1.3251992 -1.312959 -0.090607353 0
1.5727582 -1.3734672 -0.088136785 0
1.9780562 -1.47253 -0.089003496 0
3.3591542 -1.8100976 -0.14070898 0
5.0590262 -2.2255797 -0.14143722 0
10.103602 -3.4585731 -0.14083472 0
0.88270098 -1.1813649 -0.090846501 0
0.99939996 -1.2067863 -0.091494225 0
1.1270471 -1.2345924 -0.088441394 0
1.3189485 -1.2763957 -0.08859437 0
1.6057252 -1.3388662 -0.090980522 0
2.00033 -1.4248257 -0.090026669 0
3.3779936 -1.7249316 -0.14065164 0
5.0799747 -2.0956857 -0.14102583 0
10.152032 -3.2005665 -0.14058113 0
0.88413233 -1.1584566 -0.090168215 0
1.0076411 -1.182114 -0.092083238 0
1.144275 -1.2082856 -0.090348594 0
1.3483875 -1.2473822 -0.091830291 0
1.6164632 -1.2987307 -0.091269545 0
2.55426 -1.4783608 -0.14168678 0
3.4004521 -1.6404444 -0.14100561 0
5.1008968 -1.9661555 -0.140771 0
10.214207 -2.9455829 -0.14080875 0
0.88720363 -1.1359682 -0.089970909 0
1.0015913 -1.1549001 -0.090060629 0
1.1485622 -1.1792245 -0.09020295 0
1.3332508 -1.2097915 -0.08880762 0
1.629123 -1.25876 -0.091905288 0
2.5549703 -1.4119929 -0.14066343 0
3.410466 -1.5535822 -0.1406277 0
5.1274333 -1.83775 -0.14093675 0
10.261269 -2.6874282 -0.14083122 0
0.88087869 -1.1122001 -0.08787968 0
1.0095258 -1.13017 -0.090835534 0
1.1551919 -1.150517 -0.09056852 0
1.3425809 -1.1766921 -0.089402325 0
1.626536 -1.2163558 -0.090858854 0
2.5717187 -1.3483819 -0.14131339 0
3.4123268 -1.4658006 -0.13983066 0
5.1475525 -1.7081823 -0.14095291 0
10.299044 -2.4277582 -0.14078887 0
0.89255196 -1.0909697 -0.089773543 0
1.0083013 -1.10417 -0.089990415 0
1.1524177 -1.1206052 -0.089497499 0
1.3511474 -1.1432688 -0.090005614 0
1.6227 -1.1742373 -0.089794584 0
2.572691 -1.2825761 -0.14063045 0
3.44467 -1.3820183 -0.14133686 0
5.1608109 -1.5777305 -0.14080103 0
10.328431 -2.1670561 -0.14070393 0
0.89270324 -1.0682533 -0.089318939 0
1.0341225 -1.0807757 -0.094385467 0
1.1336255 -1.0895865 -0.08591073 0
1.1276215 -1.0890548 -0.057982106 0
1.641475 -1.1345556 -0.091510527 0
2.5714061 -1.2168993 -0.13989335 0
3.4484806 -1.2945626 -0.14098582 0
5.1753025 -1.4474695 -0.1408612 0
10.352151 -1.9058697 -0.14064074 0
0.89554352 -1.0458004 -0.089560024 0
1.0125431 -1.0531911 -0.089939319 0
1.1197395 -1.0599625 -0.083266653 0
1.1183105 -1.0598722 -0.056367029 0
1.6450716 -1.0931466 -0.091563664 0
2.5842309 -1.1524714 -0.14063224 0
3.4589422 -1.207725 -0.14125597 0
5.1825624 -1.3166026 -0.14073743 0
10.377325 -1.6447452 -0.14076523 0
0.90324658 -1.0234601 -0.090955891 0
1.0168238 -1.0277611 -0.090502985 0
1.1352621 -1.0322462 -0.085584961 0
1.1284703 -1.031989 -0.05759545 0
1.6423154 -1.0514476 -0.090996064 0
2.5819373 -1.0870297 -0.14011025 0
3.4634948 -1.1204131 -0.14126593 0
5.1933923 -1.1859218 -0.14093408 0
10.399134 -1.3830557 -0.14096472 0
0.89646965 -1.0005913 -0.089393057 0
1.0251439 -1.0022148 -0.091948293 0
1.1259465 -1.0034866 -0.08393503 0
1.1385059 -1.0036452 -0.05890495 0
1.1265407 -1.0034941 -0.030588737 0
1.1298442 -1.0035359 -0.0044070911 0
1.12936 -1.0035298 0.022079321 0
1.1184734 -1.0033923 0.048941471 0
1.1335764 -1.003583 0.074634798 0
1.1256191 -1.0034826 0.10100251 0
1.1209818 -1.003424 0.12707713 0
1.1229762 -1.0034492 0.15327318 0
1.1305231 -1.0035444 0.18000761 0
1.1317627 -1.0035601 0.20659211 0
1.1359161 -1.0036125 0.23369105 0
1.1349372 -1.0036001 0.26041019 0
1.1279678 -1.0035121 0.28627416 0
1.1429336 -1.003701 0.3161442 0
0.89842874 -0.97796869 -0.089809515 0
1.031767 -0.97628635 -0.093195878 0
1.12938 -0.97505468 -0.084499367 0
1.1242195 -0.97511983 -0.056897063 0
1.6410643 -0.96859854 -0.09072759 0
2.5836501 -0.95670545 -0.14011663 0
3.4606569 -0.94563979 -0.14091329 0
5.1828909 -0.92390954 -0.14029114 0
10.388999 -0.85822147 -0.14057502 0
0.90341699 -0.95511812 -0.09099213 0
1.0120488 -0.95100439 -0.089602984 0
1.1324509 -0.94644493 -0.085122608 0
1.1264908 -0.94667065 -0.057317067 0
1.6401936 -0.92721748 -0.090747885 0
2.6051574 -0.89067566 -0.14227918 0
3.4558144 -0.85846251 -0.14072862 0
5.1905165 -0.79277182 -0.14080012 0
10.387627 -0.59596473 -0.14069699 0
0.90621042 -0.93211043 -0.09183193 0
1.0067213 -0.9257614 -0.088840581 0
1.1301755 -0.91796303 -0.084985249 0
1.1358764 -0.9176029 -0.058840577 0
1.6419461 -0.8856355 -0.091197647 0
2.5818164 -0.82626581 -0.14040643 0
3.4532332 -0.77122021 -0.14085609 0
5.190886 -0.66145623 -0.14112572 0
10.373359 -0.33409008 -0.14067282 0
0.90141636 -0.90955985 -0.091178276 0
1.0184054 -0.89920074 -0.091413565 0
1.1631749 -0.88638163 -0.090786211 0
1.3539143 -0.86949205 -0.089908518 0
1.6316717 -0.84489715 -0.090360306 0
2.5796249 -0.7609576 -0.14066352 0
3.4345396 -0.68525654 -0.14000739 0
5.1767735 -0.53098494 -0.14092994 0
10.357345 -0.072255105 -0.14076196 0
0.9014802 -0.88659686 -0.091683649 0
1.0005113 -0.87530315 -0.088513665 0
1.1452674 -0.85879487 -0.088314719 0
1.3510072 -0.83533186 -0.089985795 0
1.6308138 -0.80342215 -0.090749018 0
2.5767922 -0.69554085 -0.14101574 0
3.4325402 -0.59794962 -0.14048339 0
5.1605964 -0.40087864 -0.14079097 0
10.323824 0.18794623 -0.14059615 0
0.89375222 -0.86458635 -0.090642668 0
1.0060428 -0.84890127 -0.090173148 0
1.1491035 -0.8289181 -0.089558177 0
1.3520504 -0.80056989 -0.090746038 0
1.6390499 -0.76048088 -0.092335589 0
2.5782492 -0.62929064 -0.14192885 0
3.4172246 -0.51209992 -0.1401764 0
5.1413722 -0.27126577 -0.14066239 0
10.298842 0.44914559 -0.14078414 0
0.88849813 -0.84240222 -0.090249799 0
1.0043689 -0.82322496 -0.090590902 0
1.1453637 -0.7998895 -0.089670114 0
1.3339552 -0.76867658 -0.088907965 0
1.6175889 -0.72173363 -0.090538926 0
2.5541582 -0.56672615 -0.14058658 0
3.4139996 -0.42441764 -0.14087808 0
5.1206717 -0.14195386 -0.14061768 0
10.256032 0.70797676 -0.14070781 0
0.89568144 -0.81791592 -0.092667736 0
0.99351072 -0.79917723 -0.089373387 0
1.1409483 -0.77093637 -0.089791901 0
1.3388684 -0.73302579 -0.09046822 0
1.3515068 -0.73060501 -0.059740264 0
1.3403715 -0.7327379 -0.026322177 0
1.3479148 -0.73129302 0.0050947089 0
1.3485237 -0.73117638 0.037095223 0
1.3511633 -0.73067081 0.069007203 0
1.3526789 -0.73038048 0.10100969 0
0.87834877 -0.79816788 -0.089899696 0
1.0034766 -0.77091044 -0.092280053 0
1.1342803 -0.74241656 -0.089658059 0
1.2031919 -0.72740507 -0.071945049 0
1.2087601 -0.72619212 -0.043497894 0
1.2061944 -0.72675103 -0.01416344 0
1.2251484 -0.7226221 0.013382072 0
1.2115517 -0.72558397 0.043290708 0
1.2149571 -0.72484219 0.072082825 0
1.2162422 -0.72456223 0.1010059 0
0.87502313 -0.77565759 -0.090288319 0
0.98291439 -0.74928689 -0.089423396 0
1.1268983 -0.7140944 -0.089523993 0
1.204468 -0.69513482 -0.073140986 0
1.205954 -0.69477165 -0.044005189 0
1.1973022 -0.6968863 -0.013982384 0
1.2028549 -0.6955291 0.014474215 0
1.2011136 -0.69595468 0.043453611 0
1.2079751 -0.69427758 0.072080985 0
1.2084881 -0.69415224 0.10100588 0
0.86859262 -0.75387931 -0.090120472 0
0.99098331 -0.7206707 -0.092240952 0
1.1207645 -0.68545687 -0.089722939 0
1.2037441 -0.66294181 -0.074172102 0
1.2108942 -0.66100174 -0.045549799 0
1.1999998 -0.66395777 -0.014993666 0
1.2130418 -0.66041905 0.01317169 0
1.1945108 -0.66544712 0.043396667 0
1.2064822 -0.66219884 0.071928374 0
1.2018387 -0.66345882 0.10100592 0
0.87990558 -0.72682893 -0.094009019 0
0.97654718 -0.69797015 -0.090797476 0
1.1080638 -0.65869713 -0.088920541 0
1.1967834 -0.632204 -0.07441505 0
1.2133234 -0.62726492 -0.04690339 0
1.2054754 -0.62960845 -0.01636385 0
1.2020924 -0.63061863 0.013336996 0
1.2093256 -0.62845874 0.042261422 0
1.2170563 -0.62615019 0.071462221 0
1.2054006 -0.6296308 0.10100628 0
0.85760176 -0.70976204 -0.090565301 0
0.9646759 -0.67482215 -0.08996328 0
1.1051434 -0.62898558 -0.089918621 0
1.2017123 -0.59747374 -0.076531805 0
1.2054931 -0.59623992 -0.047111157 0
1.2077069 -0.59551758 -0.017511634 0
1.2151034 -0.59310395 0.011686595 0
1.2094449 -0.59495044 0.041790906 0
1.2116143 -0.59424251 0.071361765 0
1.2153925 -0.59300965 0.10100687 0
0.84380949 -0.69052976 -0.08910691 0
0.96287251 -0.64832515 -0.091249786 0
1.0983179 -0.60031337 -0.090374924 0
1.2068092 -0.56185615 -0.078822784 0
1.1988775 -0.5646677 -0.047568072 0
1.2107587 -0.56045616 -0.018835803 0
1.2138557 -0.5593583 0.011009024 0
1.2071139 -0.56174815 0.041395597 0
1.2168778 -0.55828708 0.07097654 0
1.2099624 -0.56073838 0.10100701 0
0.84365898 -0.66642606 -0.090849601 0
0.95099181 -0.62530255 -0.090650417 0
1.0918893 -0.5713191 -0.091032304 0
1.2056811 -0.52772093 -0.080333836 0
1.2102929 -0.52595389 -0.050385449 0
1.1975312 -0.53084344 -0.018633654 0
1.1995474 -0.53007096 0.01123921 0
1.203868 -0.52841556 0.041000474 0
1.2063978 -0.52744633 0.070957072 0
1.2116218 -0.52544481 0.10100741 0
0.84493053 -0.6412729 -0.093076684 0
0.932733 -0.60506606 -0.088863112 0
1.0788591 -0.54480851 -0.090652399 0
1.2098924 -0.49077481 -0.082802661 0
1.2016733 -0.49416411 -0.050822321 0
1.2142822 -0.48896459 -0.021531252 0
1.2049596 -0.49280891 0.0099248979 0
1.209729 -0.49084219 0.04010047 0
1.1946783 -0.49704856 0.0709491 0
1.2077806 -0.4916456 0.10100766 0
0.81824219 -0.62788981 -0.088977121 0
0.9343735 -0.57653564 -0.091258578 0
1.0832518 -0.51070046 -0.093518771 0
1.2147275 -0.45256087 -0.08553756 0
1.2027572 -0.45785424 -0.052606124 0
1.2195842 -0.4504132 -0.023400171 0
1.2066602 -0.45612833 0.0088080708 0
1.1995379 -0.45927784 0.039959464 0
1.2083106 -0.45539847 0.070277132 0
1.2014819 -0.45841816 0.10100787 0
0.81943834 -0.60238546 -0.091463424 0
0.92592758 -0.55204552 -0.091730557 0
1.0451114 -0.49570462 -0.08884304 0
1.229085 -0.40873608 -0.08993452 0
1.4780658 -0.29103705 -0.089979254 0
1.8583745 -0.11125639 -0.090795346 0
3.1267564 0.48833719 -0.14073738 0
4.6892509 1.2269645 -0.14044918 0
9.4031715 3.4553435 -0.14082988 0
0.81134903 -0.58088362 -0.091923617 0
0.9064793 -0.53294033 -0.09001755 0
1.0431212 -0.46407625 -0.090829961 0
1.2102294 -0.37985793 -0.089333884 0
1.4573079 -0.25533649 -0.089629821 0
1.8310155 -0.0669972 -0.09031307 0
3.0880141 0.56649882 -0.14070095 0
4.6432838 1.350316 -0.14104579 0
9.2777786 3.6859853 -0.1405628 0
0.8029741 -0.55939448 -0.092451207 0
0.89830738 -0.50829279 -0.090793408 0
1.0211029 -0.44247046 -0.089257084 0
1.2017019 -0.34566358 -0.090487368 0
1.4367797 -0.21965423 -0.089424796 0
1.8153032 -0.016753402 -0.091175221 0
3.0519288 0.64611799 -0.14103027 0
4.5690589 1.4593487 -0.14032125 0
9.1638784 3.9223206 -0.14074787 0
0.78106427 -0.54544538 -0.089808069 0
0.88186496 -0.48809293 -0.089922123 0
1.0105916 -0.41485152 -0.089939766 0
1.1789041 -0.31908694 -0.089488767 0
1.2127105 -0.29985216 -0.0619676 0
1.219467 -0.2960079 -0.029884895 0
3.0026753 0.71858209 -0.14046568 0
4.5155702 1.5793724 -0.14084335 0
9.039917 4.153585 -0.14082493 0
0.77076668 -0.52521133 -0.090093352 0
0.87177998 -0.46431395 -0.090546988 0
0.99870604 -0.38779458 -0.090501986 0
1.1628332 -0.28884813 -0.089687981 0
1.1480361 -0.29776874 -0.055568103 0
1.196728 -0.26841411 -0.029355323 0
2.9696393 0.80041248 -0.14136451 0
4.4512029 1.6935956 -0.14094554 0
8.9115362 4.382575 -0.14094047 0
0.75851768 -0.50612438 -0.090019055 0
0.85991138 -0.44145462 -0.090916567 0
0.98588479 -0.36110762 -0.091023006 0
1.1490732 -0.25702468 -0.090401866 0
1.1367942 -0.26485637 -0.056478996 0
1.1800157 -0.23728928 -0.029560899 0
2.9211571 0.87322634 -0.14116707 0
4.3756709 1.8009281 -0.14059085 0
8.762517 4.5988975 -0.14064692 0
0.74502552 -0.48787913 -0.089747302 0
0.84431809 -0.42096624 -0.090576477 0
0.96091127 -0.34239456 -0.089276917 0
1.1141284 -0.23914227 -0.087672837 0
1.1473535 -0.2167519 -0.060594175 0
1.1639397 -0.20557454 -0.029929316 0
2.8693008 0.94366175 -0.14083548 0
4.2988224 1.9070106 -0.14030701 0
8.6200466 4.8190665 -0.14068376 0
0.72903937 -0.47146913 -0.088939182 0
0.82746118 -0.40146837 -0.090056665 0
0.95308644 -0.31211963 -0.091052242 0
1.1053022 -0.20385894 -0.089475892 0
1.1291027 -0.18693128 -0.060824517 0
1.1367258 -0.18150952 -0.029119542 0
2.8119025 1.00993 -0.14017364 0
4.2308559 2.019135 -0.14067712 0
8.4755363 5.0380874 -0.14082026 0
0.72370404 -0.44729343 -0.091054536 0
0.81309658 -0.38025501 -0.090228505 0
0.93559968 -0.28838596 -0.091032125 0
1.09566 -0.16835144 -0.091325037 0
1.0950125 -0.16883698 -0.058854286 0
1.0996349 -0.16537061 -0.027212178 0
1.0985701 -0.16616914 0.0050581191 0
1.0963187 -0.1678575 0.037230726 0
1.1076379 -0.15936884 0.068808407 0
1.1040473 -0.16206154 0.10100976 0
1.0989267 -0.16590169 0.13295762 0
1.1058464 -0.16071233 0.16534352 0
1.0937024 -0.1698195 0.19653569 0
0.70926404 -0.42965338 -0.090909667 0
0.787462 -0.36786702 -0.087825738 0
0.92228466 -0.26133999 -0.092009701 0
1.0588417 -0.15344259 -0.088502876 0
1.0948366 -0.125002 -0.061963413 0
1.0940664 -0.12561062 -0.029064333 0
1.0948365 -0.12500218 0.003509233 0
1.101882 -0.11943534 0.035650242 0
1.1024985 -0.11894819 0.068329766 0
1.0958444 -0.1242058 0.10101023 0
1.0943397 -0.12539461 0.13344887 0
1.1026781 -0.11880633 0.16641814 0
1.1013062 -0.11989024 0.19908847 0
0.69668031 -0.41049477 -0.091396861 0
0.78674865 -0.33556178 -0.091553889 0
0.89308709 -0.24709275 -0.089756899 0
1.021244 -0.14047167 -0.085546531 0
1.1097921 -0.066803485 -0.067605428 0
1.0962772 -0.078047305 -0.03202096 0
1.1064349 -0.069596618 0.00043969066 0
1.0923077 -0.08134982 0.034879703 0
1.1010842 -0.074048132 0.067697763 0
1.1000071 -0.074944228 0.10101121 0
1.1009032 -0.074198812 0.13431929 0
1.1119326 -0.065022677 0.16833226 0
1.0951985 -0.078944772 0.20056094 0
0.68441588 -0.39088359 -0.092120327 0
0.77087313 -0.31518325 -0.091771416 0
0.87219715 -0.22646585 -0.089346312 0
0.99501437 -0.11892942 -0.084708147 0
1.0967462 -0.02985492 -0.069249325 0
1.1052417 -0.022416499 -0.036028776 0
1.1003445 -0.026704278 -0.0011833066 0
1.0895996 -0.036112335 0.033608254 0
1.1022843 -0.025005843 0.066936217 0
1.1052033 -0.022450116 0.1010123 0
1.1001972 -0.026833262 0.13502353 0
1.0983349 -0.028463867 0.16895653 0
1.0996625 -0.027301457 0.20314451 0
1.1020831 -0.025182035 0.23766202 0
1.0850434 -0.040101673 0.37244895 0
0.6685816 -0.3743076 -0.091970555 0
0.75090915 -0.29846933 -0.09107732 0
0.85527813 -0.20232704 -0.089928456 0
0.96797597 -0.098512322 -0.083798297 0
1.0525631 -0.020592656 -0.066130556 0
1.098726 0.021931563 -0.03834245 0
1.0990119 0.022194896 -0.0033983865 0
1.1012654 0.024270926 0.031325642 0
1.1028708 0.025749717 0.066137485 0
1.1006939 0.023744378 0.10101308 0
1.0983765 0.021609578 0.13574646 0
1.0985357 0.021756206 0.17052776 0
1.1060863 0.02871171 0.20609781 0
1.1007104 0.023759518 0.24062121 0
1.0372053 -0.034739938 0.36641777 0
0.64522564 -0.36504892 -0.089713193 0
0.7347793 -0.27827647 -0.091480933 0
0.84234649 -0.17404988 -0.091575302 0
0.83954114 -0.17676815 -0.063123919 0
0.83994901 -0.17637292 -0.035562266 0
0.84014076 -0.17618713 -0.0080957245 0
0.83862585 -0.17765501 0.019430244 0
0.84302396 -0.17339346 0.046385415 0
0.83814079 -0.17812499 0.073867515 0
0.83771783 -0.17853484 0.10100366 0
0.83895296 -0.17733803 0.12816623 0
0.83019316 -0.18582579 0.1547897 0
0.83651382 -0.17970142 0.18237171 0
1.1028708 0.078383595 0.24427181 0
1.0068483 -0.014656868 0.29788563 0
1.0087317 -0.012831952 0.33167517 0
0.9864397 -0.034431662 0.35950455 0
0.62767929 -0.35061392 -0.089230351 0
0.71118146 -0.26551643 -0.090022124 0
0.8165679 -0.15811661 -0.090415753 0
0.84308445 -0.13109341 -0.068002008 0
0.84122276 -0.13299063 -0.039242018 0
0.83910471 -0.13514915 -0.010727366 0
0.84943634 -0.12462017 0.016280496 0
0.84287411 -0.13130775 0.045009207 0
0.84431374 -0.12984064 0.072974324 0
0.83579201 -0.13852516 0.10100442 0
0.84327799 -0.13089618 0.1290008 0
0.84128189 -0.13293043 0.1568944 0
0.83111811 -0.1432884 0.18389985 0
0.83182085 -0.14257219 0.21176575 0
1.1033108 0.13410464 0.28500858 0
0.95542604 -0.016605463 0.29256389 0
0.94506341 -0.027166095 0.32258818 0
0.95564425 -0.016383138 0.35778567 0
0.62232763 -0.3232542 -0.092646264 0
0.70233214 -0.23749617 -0.092683397 0
0.79640359 -0.13665947 -0.090672769 0
0.8396129 -0.090342849 -0.071802966 0
0.84248763 -0.087261349 -0.043206204 0
0.83618981 -0.094012052 -0.01331385 0
0.8375684 -0.092534274 0.01523325 0
0.83792353 -0.092153698 0.043851387 0
0.83986187 -0.09007594 0.072377808 0
0.83589935 -0.094323367 0.10100534 0
0.83229613 -0.098185748 0.12937474 0
0.84053731 -0.089351863 0.15833822 0
0.84290737 -0.086811393 0.18732552 0
0.84042221 -0.089475244 0.21590467 0
1.1010071 0.18984953 0.28953248 0
0.93514317 0.012057576 0.2935043 0
0.93526864 0.012192044 0.32615069 0
0.9214018 -0.0026719833 0.35519189 0
0.59853959 -0.31544057 -0.090472408 0
0.6757108 -0.22841755 -0.090574302 0
0.77695262 -0.11425093 -0.091246225 0
0.84492528 -0.037600782 -0.077788942 0
0.84362876 -0.039062824 -0.047463421 0
0.84518093 -0.037312414 -0.017793981 0
0.8372255 -0.04628345 0.012857283 0
0.8409903 -0.04203805 0.042029232 0
0.84341544 -0.039303329 0.071448863 0
0.83636993 -0.04724833 0.10100634 0
0.83963025 -0.043571737 0.1304315 0
0.84384578 -0.038818087 0.16018461 0
0.83664376 -0.046939518 0.18909448 0
0.83727384 -0.046228971 0.21869498 0
1.0974271 0.24713591 0.2942065 0
1.0932821 0.24246183 0.33243066 0
0.58911794 -0.29135683 -0.093035601 0
0.65165848 -0.21714154 -0.089218102 0
0.73139256 -0.12252304 -0.085320242 0
0.85162836 0.020157728 -0.084546112 0
0.83106112 -0.0042488244 -0.049581069 0
0.83875096 0.0048764679 -0.020380726 0
0.84742248 0.015166793 0.0091408882 0
0.8392781 0.0055020186 0.040406942 0
0.84173489 0.0084174015 0.070634998 0
0.84131944 0.0079244114 0.10100763 0
0.84076369 0.0072649452 0.13134521 0
0.84243941 0.0092534758 0.16183697 0
0.84099722 0.0075420472 0.19217764 0
0.84269476 0.0095565058 0.222968 0
0.84137893 0.0079950429 0.25346866 0
1.1026328 0.31801835 0.34132719 0
0.5629133 -0.28724369 -0.090175651 0
0.6372714 -0.19434574 -0.090816252 0
0.72842461 -0.080465108 -0.090352573 0
0.8529914 0.075160295 -0.090641432 0
0.85066074 0.072248489 -0.057944465 0
0.83868122 0.057282005 -0.024156889 0
0.84155613 0.06087378 0.0069317687 0
0.8397733 0.058646474 0.038480256 0
0.84331191 0.063067347 0.069629744 0
0.83695287 0.055122767 0.10100859 0
0.83731025 0.055569205 0.1321642 0
0.83769304 0.056047473 0.16338217 0
0.84650296 0.067053944 0.19564007 0
0.84033936 0.059353624 0.22642273 0
0.83890617 0.0575631 0.25776443 0
1.0953586 0.37795737 0.34719062 0
1.1079546 0.39369383 0.39221546 0
0.54842252 -0.26881239 -0.091370739 0
0.62144005 -0.17271623 -0.092194937 0
0.70364541 -0.064528257 -0.089913316 0
0.72840786 -0.031939115 -0.068003766 0
0.72892505 -0.03125849 -0.039654035 0
0.72529256 -0.036039021 -0.010778261 0
0.72737938 -0.033292677 0.017032498 0
0.73518169 -0.023024287 0.044473402 0
0.72673875 -0.034135845 0.07307899 0
0.73093295 -0.028615918 0.10100484 0
0.72880894 -0.031411316 0.1290101 0
0.72958785 -0.030386176 0.15710586 0
0.72922605 -0.030862298 0.18519075 0
0.73689133 -0.020774271 0.21457858 0
0.73443711 -0.024004247 0.24272981 0
0.73315537 -0.025691058 0.27111781 0
0.72861677 -0.031664159 0.29870823 0
0.72893643 -0.031243529 0.32767296 0
0.53337741 -0.25064018 -0.092573129 0
0.58840936 -0.17428926 -0.088255338 0
0.67625004 -0.052419689 -0.088834263 0
0.73833179 0.033712063 -0.076250128 0
0.95391297 0.33280781 -0.089502282 0
0.84218323 0.17779472 -0.033314038 0
0.83728635 0.17100087 0.0009804091 0
0.83536017 0.16832843 0.03453761 0
0.84111977 0.17631939 0.06756334 0
0.83545274 0.16845694 0.10101114 0
0.83854049 0.17274085 0.13435672 0
0.84381139 0.18005362 0.16815855 0
0.83708251 0.17071798 0.20101807 0
0.83871496 0.17298284 0.23478371 0
0.84090495 0.17602125 0.26893824 0
0.84534657 0.18218353 0.30399549 0
1.099956 0.53542668 0.40997934 0
0.50772524 -0.24746367 -0.08999338 0
0.57430112 -0.15000382 -0.090473242 0
0.65964943 -0.025063124 -0.090947442 0
0.7658872 0.13045743 -0.089604743 0
0.91777158 0.35279968 -0.088988401 0
1.1530696 0.69725055 -0.08967597 0
0.84818512 0.25093272 -0.0040317159 0
0.8381381 0.23622504 0.031875763 0
0.84033704 0.23944393 0.066372335 0
0.83270001 0.22826412 0.10101249 0
0.83874333 0.237111 0.13558762 0
0.84089726 0.24026409 0.17037797 0
0.84417474 0.2450619 0.20556124 0
0.8374095 0.23515835 0.2394674 0
0.83444029 0.23081174 0.27374864 0
0.84204924 0.24195042 0.31060782 0
1.0981492 0.61685306 0.42076769 0
1.0999563 0.61949843 0.46805444 0
0.48637596 -0.23873469 -0.08902622 0
0.55395514 -0.13423964 -0.090824462 0
0.62782639 -0.020015445 -0.088742711 0
0.73704714 0.14886835 -0.089515679 0
0.88691115 0.38059714 -0.089697264 0
1.1089897 0.72398859 -0.089476608 0
1.4895862 1.3124897 -0.090665199 0
0.85481048 0.33096114 0.027772838 0
0.8393718 0.307089 0.065074876 0
0.83935559 0.30706385 0.10101447 0
0.83833563 0.30548671 0.13690963 0
0.83508164 0.30045524 0.17256454 0
0.84073669 0.30919948 0.20916545 0
0.83647078 0.30260327 0.24466515 0
0.8454864 0.31654373 0.2828128 0
0.83816987 0.30523053 0.31771547 0
0.83702528 0.30346063 0.35408658 0
1.0978123 0.70670539 0.48151505 0
0.47157335 -0.21971223 -0.090773843 0
0.5315491 -0.12163273 -0.090587549 0
0.61016023 0.006921682 -0.090944551 0
0.71536332 0.17896238 -0.091473393 0
0.85311508 0.40423051 -0.089932404 0
1.0673251 0.75453252 -0.089819394 0
1.4209508 1.3328235 -0.089313708 0
0.85080338 0.40045014 0.025133537 0
0.85148525 0.40156534 0.063065365 0
0.83728921 0.37835029 0.10101616 0
0.84157902 0.38536552 0.13852598 0
0.84467816 0.39043346 0.1763532 0
0.84798831 0.39584664 0.21456777 0
0.83775669 0.37911466 0.25077856 0
0.84318167 0.38798633 0.28974128 0
0.8426019 0.38703814 0.32778394 0
0.84008491 0.38292208 0.36541399 0
1.1000415 0.80803424 0.49790052 0
0.44578212 -0.21886405 -0.088127829 0
0.51026189 -0.10718206 -0.090878971 0
0.58069479 0.014811072 -0.089585029 0
0.67970997 0.18630996 -0.08980111 0
0.82185948 0.4325197 -0.090908445 0
1.0325356 0.79742056 -0.091601871 0
1.3623844 1.3687344 -0.089380123 0
1.3727591 1.3867037 -0.026755339 0
0.85217899 0.4850345 0.061388679 0
0.83866173 0.46162203 0.10101823 0
0.8394618 0.46300772 0.14005657 0
0.83553308 0.45620301 0.17877099 0
0.83788681 0.46027973 0.21808241 0
0.83636856 0.4576501 0.25701836 0
0.84048373 0.46477774 0.29729977 0
0.84481484 0.47227946 0.33824602 0
0.84398532 0.47084275 0.37816885 0
0.8415519 0.46662787 0.41771653 0
0.43104303 -0.1989902 -0.090280689 0
0.49056759 -0.089606732 -0.091952495 0
0.55356157 0.026152048 -0.08903002 0
0.6446678 0.19357064 -0.088282697 0
0.78054625 0.4432632 -0.089642324 0
0.98597097 0.82075542 -0.091376208 0
1.289659 1.3788178 -0.087508522 0
1.2897211 1.378932 -0.024549058 0
1.2966174 1.3916047 0.037947696 0
0.85619253 0.58227223 0.10102148 0
0.83772486 0.54833573 0.14177164 0
0.83581173 0.54482013 0.1823806 0
0.83488423 0.54311579 0.22303551 0
0.83645046 0.54599386 0.26421985 0
0.84327483 0.55853444 0.30702284 0
0.84192538 0.55605465 0.34832186 0
0.84139484 0.55507976 0.39004186 0
0.83970219 0.55196923 0.4315725 0
0.41418633 -0.18210003 -0.091782875 0
0.47197935 -0.069203764 -0.09371645 0
0.52815908 0.040540967 -0.089172147 0
0.61937606 0.21872953 -0.089750104 0
0.7469784 0.46799532 -0.090366922 0
0.93601269 0.83726579 -0.090561874 0
1.246509 1.4438069 -0.090118162 0
1.2426606 1.4362893 -0.025887674 0
1.2443646 1.4396181 0.037527662 0
1.2436029 1.4381301 0.10104825 0
0.85043871 0.67010063 0.14441995 0
0.83735436 0.64454085 0.186525 0
0.84270561 0.65499443 0.2302139 0
0.84190977 0.6534397 0.27333301 0
0.84003103 0.64976972 0.31628069 0
0.83968139 0.64908665 0.35974211 0
0.83801425 0.64582998 0.40297776 0
0.83805287 0.64590544 0.44707993 0
0.39176351 -0.17593774 -0.090838037 0
0.44201642 -0.071345776 -0.090846755 0
0.50315911 0.055911217 -0.089609168 0
0.58992225 0.23649254 -0.090146847 0
0.71354884 0.49379805 -0.091332175 0
0.89336646 0.86805469 -0.091367386 0
