# .PCD v0.7 - Point Cloud Data file format
VERSION 0.7
FIELDS x y z intensity
SIZE 4 4 4 4
TYPE F F F F
COUNT 1 1 1 1
WIDTH 1327
HEIGHT 1
VIEWPOINT 0 0 0 1 0 0 0
POINTS 1327
DATA ascii
1.0253057 -1.8861779 -0.090366341 0
1.2303598 -2.0657194 -0.090005152 0
1.5354017 -2.3328083 -0.089395918 0
2.602598 -3.2672255 -0.14077298 0
3.9151185 -4.4164438 -0.14122969 0
7.8301959 -7.8444123 -0.14097883 0
0.69260627 -1.5647005 -0.090270363 0
0.7815457 -1.6386943 -0.09027911 0
0.89440018 -1.7325844 -0.090037622 0
1.0584615 -1.8690764 -0.092350312 0
1.2523959 -2.0304213 -0.089285754 0
1.5741392 -2.2980981 -0.090042822 0
2.6626592 -3.2037001 -0.14108354 0
3.9912004 -4.308989 -0.14067602 0
7.9968166 -7.64149 -0.14086244 0
0.71290004 -1.5518042 -0.091894679 0
0.79974991 -1.6204267 -0.090775438 0
0.91670603 -1.7128369 -0.090841182 0
1.068287 -1.8326051 -0.090194605 0
1.2755837 -1.9963958 -0.088886194 0
1.5994718 -2.2523086 -0.0891876 0
2.7158811 -3.1344142 -0.14092296 0
4.0765686 -4.2095299 -0.14084685 0
8.1641064 -7.4392042 -0.1409215 0
0.71497524 -1.5247452 -0.088735349 0
0.80662328 -1.5934751 -0.088704489 0
0.93519914 -1.6898984 -0.090949826 0
1.0868255 -1.8036079 -0.089773126 0
1.3173457 -1.9764826 -0.091334261 0
1.6201921 -2.2035971 -0.087946452 0
2.768713 -3.0649109 -0.14088562 0
4.1574721 -4.1063871 -0.14090222 0
8.3200302 -7.2280264 -0.14079902 0
0.73133308 -1.508747 -0.089537479 0
0.82659459 -1.5765001 -0.089856379 0
0.95038879 -1.6645464 -0.09050817 0
1.1099429 -1.7780265 -0.090276219 0
1.3207443 -1.927955 -0.088309534 0
1.6778964 -2.181973 -0.091105677 0
2.8155818 -2.9911315 -0.14048927 0
4.2387576 -4.0033393 -0.14112851 0
8.4857035 -7.0239029 -0.14111035 0
0.73955226 -1.4870172 -0.088344373 0
0.84364247 -1.5571631 -0.090423025 0
0.96462816 -1.6386949 -0.090013556 0
1.1369073 -1.7547932 -0.091533132 0
1.3496987 -1.8981924 -0.089111619 0
1.6967745 -2.1320853 -0.089903511 0
2.8675656 -2.921077 -0.14068921 0
4.3003969 -3.8866565 -0.1403954 0
8.6294279 -6.8039727 -0.14094681 0
0.76264256 -1.4750912 -0.091059007 0
0.86002219 -1.5372008 -0.090941317 0
0.97890532 -1.6130255 -0.089662455 0
1.1540446 -1.7247308 -0.091230534 0
1.3624661 -1.857664 -0.08776205 0
1.7386603 -2.097604 -0.091408275 0
2.9162664 -2.8486917 -0.14076155 0
4.3824687 -3.7838485 -0.14096619 0
8.7659225 -6.5796542 -0.14074084 0
0.77458155 -1.4556732 -0.091040216 0
0.87241447 -1.5146533 -0.090686537 0
0.98935139 -1.5851505 -0.088706754 0
1.183075 -1.7019397 -0.093009613 0
1.3985513 -1.8318429 -0.089755706 0
1.7592136 -2.0492735 -0.090660892 0
2.9569092 -2.7713225 -0.14032534 0
4.4367852 -3.6634884 -0.14016178 0
8.9002113 -6.354332 -0.14063302 0
0.77794737 -1.4313658 -0.089045785 0
0.88787299 -1.4939102 -0.091224097 0
1.0258242 -1.5724001 -0.092820115 0
1.1798826 -1.6600546 -0.089646988 0
1.421778 -1.7976854 -0.090080194 0
1.7842232 -2.0039055 -0.090534694 0
3.0073433 -2.6998227 -0.14084114 0
4.5123529 -3.5561264 -0.140671 0
9.0517855 -6.1389217 -0.1411424 0
0.80961746 -1.4227513 -0.09405341 0
0.90242606 -1.4724996 -0.09167359 0
1.0232573 -1.5372691 -0.089658819 0
1.2020226 -1.633093 -0.090538509 0
1.4452586 -1.7634754 -0.090549134 0
1.8024086 -1.9549193 -0.089809619 0
3.049006 -2.623136 -0.14079842 0
4.5854521 -3.4467208 -0.14118718 0
9.1662912 -5.9021978 -0.1408115 0
0.80630481 -1.3951589 -0.090722926 0
0.91480297 -1.4498392 -0.09177316 0
1.0473733 -1.5166514 -0.09161254 0
1.2236652 -1.6054981 -0.091448329 0
1.4546213 -1.7218943 -0.089278214 0
1.8351597 -1.9136761 -0.090746246 0
3.0840218 -2.5430715 -0.14038841 0
4.6355009 -3.3249784 -0.14064004 0
9.2857885 -5.6686072 -0.14077137 0
0.8233785 -1.3780619 -0.092389829 0
0.92279589 -1.4250587 -0.09107811 0
1.0583532 -1.4891398 -0.091250278 0
1.2307529 -1.5706371 -0.090193801 0
1.487156 -1.6918448 -0.091154389 0
1.8600618 -1.8681259 -0.090969555 0
3.1127079 -2.4602807 -0.13965105 0
4.6928453 -3.2072482 -0.14063427 0
9.4016771 -5.4332213 -0.14079143 0
0.83039773 -1.35607 -0.091802262 0
0.92644542 -1.3985431 -0.089625828 0
1.0579195 -1.456682 -0.088966452 0
1.2416328 -1.5379215 -0.089671887 0
1.502152 -1.6531252 -0.090865962 0
1.8780607 -1.8193551 -0.090603866 0
3.1742282 -2.3925309 -0.14159234 0
4.7537837 -3.0910232 -0.14096366 0
9.4996939 -5.1897025 -0.14050888 0
0.8373574 -1.3341889 -0.091335423 0
0.93668759 -1.3751494 -0.089668818 0
1.0794859 -1.4340346 -0.09076383 0
1.2510437 -1.5047793 -0.089058273 0
1.5239421 -1.6173135 -0.091563664 0
1.9089036 -1.7760589 -0.091663726 0
3.2063036 -2.3110635 -0.14141695 0
4.7938986 -2.9657347 -0.14038955 0
9.6139917 -4.9533806 -0.1407941 0
0.84224874 -1.3116183 -0.0905286 0
0.96406829 -1.3582922 -0.093287967 0
1.092923 -1.4076617 -0.091214262 0
1.2655172 -1.4737895 -0.089338981 0
1.5247056 -1.5730948 -0.089736708 0
1.9249039 -1.7264268 -0.091339536 0
3.2275815 -2.2255349 -0.14058959 0
4.8523188 -2.8480368 -0.14089201 0
9.7011213 -4.7058072 -0.14054941 0
0.84932137 -1.2900087 -0.09034995 0
0.95379949 -1.3270434 -0.089436688 0
1.0908643 -1.3756292 -0.08907523 0
1.2853934 -1.4445845 -0.090539895 0
1.5472349 -1.5374004 -0.090763964 0
1.9310209 -1.6734422 -0.090164118 0
3.2613435 -2.1450062 -0.14085643 0
4.8938141 -2.7236733 -0.14070143 0
9.8064995 -4.4650884 -0.14091188 0
0.8551845 -1.2680339 -0.090024807 0
0.96357161 -1.3034022 -0.089744501 0
1.1056507 -1.3497647 -0.090006329 0
1.2909412 -1.4102278 -0.089722328 0
1.5551856 -1.4964546 -0.090101771 0
1.9557045 -1.6271498 -0.090953149 0
3.2900984 -2.0625825 -0.140903 0
4.943162 -2.6020017 -0.14105134 0
9.8849831 -4.214591 -0.14076288 0
0.86775357 -1.248127 -0.09131325 0
0.98361695 -1.2827257 -0.092187174 0
1.1111749 -1.3208165 -0.089454152 0
1.2952585 -1.3757869 -0.088858061 0
1.5527103 -1.4526663 -0.088299416 0
1.9600923 -1.5743173 -0.089873455 0
3.3095276 -1.977281 -0.14042118 0
4.9814281 -2.4765379 -0.14101002 0
9.9602528 -3.9632971 -0.14069104 0
0.86290443 -1.2231621 -0.088867657 0
0.97520131 -1.2536318 -0.089160912 0
1.1249522 -1.2942641 -0.090436079 0
1.3097572 -1.3444077 -0.089609317 0
1.5694197 -1.4148625 -0.088966928 0
1.9593322 -1.5206585 -0.088432677 0
3.3338239 -1.8936028 -0.14045171 0
5.0086074 -2.3480258 -0.14058745 0
10.029287 -3.7102995 -0.14062279 0
0.87661988 -1.2033174 -0.090637706 0
0.98508394 -1.2298281 -0.089844055 0
1.1387941 -1.2673979 -0.091536634 0
1.3197219 -1.3116202 -0.089814968 0
1.5833554 -1.3760574 -0.089411773 0
1.9745705 -1.471678 -0.088668562 0
3.3646204 -1.8114336 -0.14110236 0
5.0494409 -2.2232368 -0.14097784 0
10.09446 -3.4563384 -0.14061588 0
0.88367271 -1.1815766 -0.091057904 0
1.0052648 -1.2080638 -0.092624761 0
1.139008 -1.237198 -0.090453289 0
1.3348488 -1.2798593 -0.09088131 0
1.6100097 -1.3397995 -0.091493003 0
1.9796342 -1.4203173 -0.088049613 0
3.3777015 -1.7248679 -0.14063075 0
5.0824437 -2.0962236 -0.14114349 0
10.153186 -3.2008178 -0.14060859 0
0.88551337 -1.1587211 -0.090467103 0
0.9886651 -1.1784793 -0.088444121 0
1.1455756 -1.2085347 -0.090566255 0
1.3318717 -1.2442187 -0.089467056 0
1.6093483 -1.2973678 -0.090422891 0
2.5411327 -1.4758463 -0.1404392 0
3.39852 -1.6400743 -0.14086808 0
5.1115108 -1.9681885 -0.14127409 0
10.225296 -2.9477069 -0.14107125 0
0.87673604 -1.1342359 -0.087715633 0
1.0046148 -1.1554004 -0.090637855 0
1.1427321 -1.1782596 -0.089231752 0
1.3368886 -1.2103935 -0.089325823 0
1.6246372 -1.2580177 -0.091373898 0
2.555181 -1.4120278 -0.14068337 0
3.4111285 -1.5536919 -0.14067465 0
5.1161618 -1.8358845 -0.14040488 0
10.263882 -2.6878607 -0.14089279 0
0.88643467 -1.1129762 -0.089072146 0
1.0108789 -1.1303589 -0.091092862 0
1.1488365 -1.1496292 -0.089513846 0
1.348209 -1.1774782 -0.090200923 0
1.6248153 -1.2161155 -0.090655796 0
2.5685177 -1.3479347 -0.1410117 0
3.4305701 -1.4683489 -0.14111842 0
5.1386228 -1.7069349 -0.14053315 0
10.306454 -2.4287934 -0.14096281 0
0.89803165 -1.0915946 -0.090945862 0
1.0105324 -1.1044244 -0.090413384 0
1.1637981 -1.1219032 -0.091380022 0
1.342034 -1.1422296 -0.088716574 0
1.6310216 -1.1751863 -0.090773456 0
2.5764477 -1.2830045 -0.14098337 0
3.4357498 -1.3810011 -0.14070922 0
5.1653953 -1.5782534 -0.14101583 0
10.328617 -2.1670775 -0.14070831 0
0.90392286 -1.0692468 -0.091713138 0
1.0041792 -1.0781243 -0.088723578 0
1.1354536 -1.0897484 -0.086212359 0
1.1245183 -1.08878 -0.05754428 0
1.6367567 -1.1341379 -0.090956934 0
2.584846 -1.2180893 -0.14115275 0
3.4469259 -1.2944249 -0.14087671 0
5.1649513 -1.4465529 -0.14037742 0
10.353946 -1.9060286 -0.14068264 0
0.90583378 -1.0464505 -0.091751717 0
1.0154279 -1.0533733 -0.090483777 0
1.1324121 -1.060763 -0.085353561 0
1.1277792 -1.0604703 -0.05770037 0
1.6491431 -1.0934038 -0.092040472 0
2.5835896 -1.1524309 -0.14057226 0
3.4433336 -1.2067392 -0.14016263 0
5.1794982 -1.3164091 -0.14059451 0
10.366883 -1.6440855 -0.14052196 0
0.89535809 -1.0231614 -0.089277886 0
1.0159861 -1.0277294 -0.090345107 0
1.1367373 -1.032302 -0.085827596 0
1.1259918 -1.0318952 -0.057246882 0
1.6427155 -1.0514628 -0.091042854 0
2.5878961 -1.0872554 -0.14066686 0
3.4500144 -1.1199026 -0.14032285 0
5.1900659 -1.1857958 -0.14077911 0
10.383589 -1.382467 -0.14060304 0
0.89064807 -1.0005178 -0.088155501 0
1.0203948 -1.0021548 -0.091053732 0
1.1345181 -1.0035949 -0.085343905 0
1.1300374 -1.0035383 -0.057714749 0
0.95472962 -1.0013263 -0.010507016 0
1.139461 -1.0036572 -0.0053048041 0
1.1307771 -1.0035477 0.021980235 0
1.1357125 -1.0036099 0.048138849 0
1.132791 -1.0035731 0.074653059 0
1.1266352 -1.0034953 0.10100254 0
1.1246766 -1.0034707 0.12716326 0
1.1349201 -1.0035999 0.15382995 0
1.1303662 -1.0035424 0.17999664 0
1.137465 -1.0036321 0.20712474 0
1.130744 -1.0035472 0.23308623 0
1.1354617 -1.0036068 0.26048395 0
1.142199 -1.0036918 0.28861406 0
1.1230093 -1.0034497 0.31238997 0
0.90714198 -0.97785878 -0.091661759 0
0.89855522 -0.97796714 -0.068103321 0
1.0580896 -0.97595417 -0.047602776 0
0.94224817 -0.9774158 0.013104567 0
3.4585412 -0.94566649 -0.14076537 0
5.195581 -0.92374939 -0.14088199 0
10.394794 -0.85814834 -0.14070979 0
0.88104957 -0.95596516 -0.086234264 0
0.88514984 -0.95580989 -0.065684311 0
1.6428677 -0.92711622 -0.091060661 0
0.90494812 -0.95506018 0.016532691 0
3.4481633 -0.85875225 -0.14019336 0
5.1957617 -0.79257315 -0.14104448 0
10.392448 -0.5957821 -0.14080916 0
0.90659362 -0.93208623 -0.091913544 0
1.0406312 -0.92361933 -0.020779906 0
0.93155366 -0.93050957 0.035784457 0
5.1829543 -0.66195726 -0.14075571 0
10.379278 -0.33371618 -0.14081071 0
0.90300125 -0.90941954 -0.091516472 0
1.0222183 -0.89886308 -0.092134543 0
1.1520857 -0.88736355 -0.088956557 0
0.90756899 -0.90901506 0.016017424 0
0.92470038 -0.90749812 0.036140557 0
0.9354763 -0.90654391 0.057294752 0
10.365952 -0.071492821 -0.1409629 0
0.89591771 -0.88723117 -0.090493612 0
1.0156224 -0.8735798 -0.091378294 0
0.89206183 -0.88767093 -0.046430308 0
0.89312017 -0.88755023 -0.025219699 0
0.90102607 -0.8866486 -0.0049034636 0
0.9151457 -0.88503838 0.01508824 0
0.91923201 -0.88457239 0.036359426 0
0.93203658 -0.88311213 0.057344161 0
0.95110333 -0.8809377 0.078736283 0
0.89890063 -0.86386722 -0.091747649 0
1.0108862 -0.84822476 -0.091094248 0
0.89619243 -0.86424553 -0.047588352 0
0.8940143 -0.86454976 -0.025751149 0
0.90965432 -0.86236513 -0.006261101 0
0.92823189 -0.85977012 0.013579572 0
0.91513973 -0.86159891 0.036441151 0
0.92390126 -0.86037505 0.057586707 0
0.92927074 -0.85962504 0.079177544 0
0.94099337 -0.85798758 0.10099749 0
0.90046847 -0.84042102 -0.092828862 0
1.004163 -0.823259 -0.090551607 0
0.8895784 -0.84222341 -0.047059599 0
0.88927954 -0.84227288 -0.025565526 0
0.89039189 -0.84208876 -0.004392853 0
0.90996611 -0.83884913 0.014970588 0
0.9071402 -0.83931684 0.036759075 0
0.91773713 -0.83756298 0.057710227 0
0.92368025 -0.83657938 0.079225227 0
0.93451047 -0.83478689 0.10099741 0
0.89382482 -0.81827152 -0.092265911 0
0.88334709 -0.82027847 -0.068246745 0
0.88392824 -0.82016718 -0.046782393 0
1.0240297 -0.7933315 -0.045418102 0
0.87914902 -0.82108259 -0.0035306418 0
0.8929317 -0.81844264 0.016201245 0
0.90382636 -0.81635582 0.036705073 0
0.89768183 -0.81753278 0.05846557 0
0.93128073 -0.81109709 0.078947134 0
0.94326508 -0.80880153 0.10099778 0
0.88880539 -0.79589003 -0.092174508 0
1.0260229 -0.76599902 -0.021639926 0
0.88655674 -0.79637986 0.016371312 0
0.89857268 -0.79376233 0.036748212 0
0.89548707 -0.79443449 0.058350056 0
0.92032576 -0.78902376 0.079093784 0
0.95318335 -0.78186613 0.10099822 0
0.8664695 -0.77774829 -0.088416614 0
0.86075866 -0.77914411 -0.06573794 0
0.87989485 -0.77446687 -0.047733653 0
1.2075548 -0.69438034 -0.044197802 0
0.8853296 -0.77313852 0.015994439 0
0.89631116 -0.77045441 0.036535356 0
0.9035902 -0.76867527 0.057712443 0
0.90047163 -0.76943749 0.079441041 0
0.92529416 -0.76337039 0.10099756 0
0.95349133 -0.75647843 0.12382479 0
0.87297815 -0.75268936 -0.09108638 0
0.89626193 -0.74637169 -0.073755018 0
0.8862707 -0.74908262 -0.049790103 0
1.0086665 -0.7158727 -0.045765702 0
0.87348127 -0.75255287 -0.0046894159 0
0.89027005 -0.74799746 0.01496193 0
0.89508408 -0.74669129 0.036203634 0
0.88972795 -0.74814457 0.05809876 0
0.89800209 -0.74589956 0.079360001 0
0.90533328 -0.74391037 0.10099715 0
0.93591177 -0.73561341 0.12354942 0
0.87060112 -0.7296074 -0.091944955 0
0.98274899 -0.69611824 -0.092016555 0
1.1124548 -0.65738595 -0.089673676 0
0.90040326 -0.72070801 -0.030945932 0
0.90421569 -0.71956956 -0.0092006307 0
0.89432597 -0.7225228 0.013946192 0
0.90560836 -0.7191537 0.034968425 0
0.90270865 -0.72001958 0.057158716 0
0.90659595 -0.71885878 0.078995526 0
0.91985667 -0.71489888 0.10099778 0
0.85698348 -0.7099638 -0.090427049 0
0.9637894 -0.67511147 -0.08978764 0
1.1109511 -0.62709045 -0.090922646 0
1.2071915 -0.59568578 -0.077341788 0
1.2114648 -0.59429133 -0.047845293 0
1.2121592 -0.59406471 -0.017948775 0
1.219447 -0.59168661 0.011367181 0
1.2047963 -0.59646732 0.042018548 0
1.1963462 -0.59922475 0.071735181 0
1.205291 -0.59630585 0.10100656 0
0.84305918 -0.69079572 -0.088937692 0
0.97253215 -0.64490104 -0.093180098 0
1.0964335 -0.60098135 -0.090046339 0
1.2045633 -0.56265223 -0.078487925 0
1.202997 -0.56320745 -0.048078898 0
1.201677 -0.56367534 -0.017936436 0
1.2098331 -0.56078422 0.01130739 0
1.2016239 -0.56369418 0.041666765 0
1.2057508 -0.56223124 0.07125102 0
1.2044261 -0.56270087 0.10100685 0
0.83705682 -0.66895562 -0.089346759 0
0.94603091 -0.62720329 -0.089649789 0
1.0829738 -0.57473499 -0.089463167 0
1.1947564 -0.5319066 -0.078689717 0
1.2184638 -0.52282333 -0.051408086 0
1.2124051 -0.5251447 -0.020120403 0
1.2073779 -0.52707082 0.010652984 0
1.206496 -0.52740866 0.040869456 0
1.2059717 -0.52760959 0.070967682 0
1.2019664 -0.52914417 0.10100711 0
0.83560306 -0.64511919 -0.090932064 0
0.94474965 -0.60011077 -0.091311358 0
1.089519 -0.54041278 -0.092547469 0
1.2118946 -0.48994914 -0.083107047 0
1.1978887 -0.49572471 -0.05034389 0
1.2079822 -0.49156252 -0.020895166 0
1.216079 -0.48822364 0.0090840552 0
1.1998569 -0.4949131 0.040597603 0
1.2026448 -0.49376345 0.070748746 0
1.2065142 -0.49216783 0.10100763 0
0.83230054 -0.62167311 -0.092244528 0
0.93748504 -0.57515967 -0.091899388 0
1.0620849 -0.52006066 -0.089714997 0
1.2113591 -0.45405039 -0.085019968 0
1.2183104 -0.45097652 -0.054593671 0
1.201226 -0.45853135 -0.021526543 0
1.197723 -0.46008042 0.0094912294 0
1.2038854 -0.45735535 0.03973816 0
1.2139951 -0.45288476 0.070132621 0
1.2010696 -0.45860049 0.10100786 0
0.82283455 -0.60078001 -0.092261933 0
0.91462952 -0.5573864 -0.08937677 0
1.0534161 -0.49177879 -0.090352751 0
1.2284043 -0.40905783 -0.089828722 0
1.4790347 -0.29057905 -0.090104513 0
1.8526146 -0.11397919 -0.09020067 0
3.1301558 0.48994413 -0.14100024 0
4.6993146 1.2317216 -0.1409674 0
9.4082108 3.4577253 -0.14095947 0
0.79917723 -0.58701795 -0.089026339 0
0.91216177 -0.5300765 -0.091216095 0
1.052604 -0.45929721 -0.0925752 0
1.207791 -0.38108686 -0.08895015 0
1.456104 -0.25594327 -0.089472257 0
1.8384602 -0.063245267 -0.091091223 0
3.0898824 0.56744045 -0.14084722 0
4.6380424 1.3476744 -0.14077252 0
9.2917242 3.6930139 -0.1409259 0
0.80193603 -0.55995089 -0.092200853 0
0.89330322 -0.51097518 -0.089723997 0
1.0318662 -0.43670097 -0.091264166 0
1.1949998 -0.34925607 -0.089418717 0
1.4378471 -0.21908203 -0.089566343 0
1.8100544 -0.01956692 -0.090619348 0
3.0516183 0.64595169 -0.14100565 0
4.5689797 1.4593062 -0.14031707 0
9.1683264 3.9247048 -0.14086521 0
0.78126389 -0.54533184 -0.08985687 0
0.88989305 -0.48352519 -0.091661848 0
1.0245699 -0.40689829 -0.092582949 0
1.1790282 -0.31901637 -0.089508809 0
1.2081859 -0.30242655 -0.061359186 0
1.2257291 -0.29244497 -0.0305574 0
3.0014715 0.71789736 -0.14036886 0
4.5157795 1.5794914 -0.14085457 0
9.045187 4.1565833 -0.14096591 0
0.77343583 -0.52360213 -0.090755843 0
0.87047845 -0.46509859 -0.090260737 0
0.99928713 -0.38744429 -0.090613507 0
1.1625079 -0.28904423 -0.08963459 0
1.1457254 -0.29916182 -0.055252749 0
1.1935791 -0.27031252 -0.029012119 0
2.9655821 0.79796654 -0.14103332 0
4.4606929 1.6993167 -0.14146142 0
8.9079781 4.3804297 -0.14084388 0
0.76290536 -0.50332588 -0.091125257 0
0.85037071 -0.44753972 -0.088785179 0
0.98378855 -0.36244467 -0.090614356 0
1.1515863 -0.25542179 -0.090820752 0
1.1356302 -0.26559874 -0.056317646 0
1.1691406 -0.24422547 -0.02835693 0
2.9191401 0.87193984 -0.14099984 0
4.3821287 1.805047 -0.14094745 0
8.7662449 4.601275 -0.14074972 0
0.74135566 -0.49035224 -0.088806622 0
0.84977072 -0.41729173 -0.091814913 0
0.96456486 -0.33993241 -0.090001009 0
1.1322901 -0.22690305 -0.090750672 0
1.1354525 -0.22477195 -0.058916915 0
1.1673038 -0.20330748 -0.030307969 0
2.8725595 0.9458577 -0.14111018 0
4.3028693 1.9097378 -0.14053421 0
8.6191959 4.8184929 -0.14065991 0
0.74890482 -0.45734015 -0.094120912 0
0.82770085 -0.4012979 -0.090112053 0
0.94613451 -0.31706408 -0.089650176 0
1.1073177 -0.20242545 -0.089823477 0
1.1393667 -0.17963114 -0.062296573 0
1.142229 -0.17759547 -0.029749876 0
2.825907 1.0198903 -0.14137505 0
4.2296171 2.018254 -0.14060636 0
8.4721508 5.0356793 -0.14072366 0
0.72289652 -0.44789901 -0.090839989 0
0.81919467 -0.37568191 -0.091664173 0
0.93142217 -0.29151878 -0.090173922 0
1.0809093 -0.17941353 -0.088733874 0
1.0967135 -0.16756144 -0.059102777 0
1.102734 -0.16304651 -0.02757374 0
1.1017962 -0.16374978 0.0047762115 0
1.0990847 -0.16578314 0.037069764 0
1.0927734 -0.17051616 0.069240391 0
1.1020055 -0.16359285 0.10100969 0
1.0954978 -0.16847309 0.13285773 0
1.100861 -0.16445115 0.16505305 0
1.0993313 -0.16559824 0.19702797 0
0.70786369 -0.43075982 -0.090530299 0
0.79271567 -0.36371598 -0.089086883 0
0.92557025 -0.25874397 -0.092697896 0
1.0538536 -0.15738383 -0.087609462 0
1.0919479 -0.12728444 -0.061533142 0
1.09004 -0.12879202 -0.02858535 0
1.0990686 -0.12165824 0.0031321591 0
1.1011577 -0.1200076 0.03569321 0
1.0986025 -0.12202647 0.068445206 0
1.0960157 -0.12407038 0.10101024 0
1.1087668 -0.1139954 0.13387743 0
1.1023239 -0.11908612 0.16639709 0
1.1019847 -0.1193541 0.19914897 0
0.69108468 -0.41515008 -0.089849643 0
0.78146088 -0.33996096 -0.090258323 0
0.8881284 -0.25121823 -0.088696755 0
1.0274953 -0.13527104 -0.086689316 0
1.0977979 -0.076782256 -0.065781914 0
1.0927248 -0.081002802 -0.031589616 0
1.0887909 -0.084275633 0.0020442328 0
1.1007843 -0.074297637 0.034366366 0
1.1010002 -0.074118048 0.067700304 0
1.1016459 -0.073580772 0.10101127 0
1.1008261 -0.074262828 0.13431695 0
1.0950593 -0.079060644 0.16730917 0
1.0967799 -0.07762906 0.20070489 0
0.67395896 -0.40003946 -0.089165963 0
0.76684153 -0.31871328 -0.090762116 0
0.87889946 -0.22059742 -0.090810411 0
0.99285322 -0.12082162 -0.084304474 0
1.1001116 -0.026908245 -0.069772102 0
1.1008927 -0.026224341 -0.035489235 0
1.1001364 -0.026886549 -0.00116395 0
1.0992281 -0.027681794 0.033012461 0
1.0962204 -0.030315306 0.067123614 0
1.0993984 -0.027532723 0.10101207 0
1.0994104 -0.027522173 0.13499917 0
1.0921049 -0.033918824 0.16857055 0
1.1049495 -0.022672262 0.20363618 0
1.1033669 -0.024057951 0.23782139 0
1.0865458 -0.038786199 0.37282518 0
0.66512465 -0.3774921 -0.090971477 0
0.74979764 -0.29949322 -0.090792663 0
0.84485823 -0.21192566 -0.087600075 0
0.96461332 -0.10160992 -0.083155774 0
1.0520896 -0.021028783 -0.06605532 0
1.105314 0.028000269 -0.039178509 0
1.0952892 0.018765721 -0.0030445436 0
1.1020961 0.025036011 0.031273071 0
1.1031293 0.025987659 0.066129319 0
1.0970708 0.020406876 0.10101295 0
1.0949206 0.018426213 0.13563696 0
1.0927249 0.01640347 0.1701595 0
1.0986253 0.021838818 0.20538807 0
1.1021774 0.025110874 0.24080749 0
1.0401831 -0.031996813 0.36718059 0
0.64188045 -0.36829022 -0.088723101 0
0.73340553 -0.27960756 -0.091120653 0
0.83941817 -0.17688724 -0.090905167 0
0.84041661 -0.17591986 -0.063295223 0
0.84185392 -0.17452714 -0.035872269 0
0.84380829 -0.17263344 -0.0085723903 0
0.84232539 -0.17407033 0.019070113 0
0.83393264 -0.18220243 0.046974748 0
0.84597576 -0.17053333 0.07361386 0
0.84412014 -0.17233136 0.10100392 0
0.84441632 -0.17204437 0.12834354 0
0.84000665 -0.17631707 0.15542664 0
0.84046495 -0.17587301 0.18275665 0
1.1047907 0.080243737 0.24452148 0
1.0074774 -0.01404741 0.29800877 0
1.0113593 -0.01028594 0.3322767 0
0.98947316 -0.031492438 0.36030036 0
0.62011862 -0.35831907 -0.086935736 0
0.71502042 -0.2616041 -0.091054536 0
0.82195067 -0.15263095 -0.09167888 0
0.83962846 -0.13461545 -0.067308553 0
0.83898765 -0.13526848 -0.038869042 0
0.83879918 -0.13546053 -0.010686634 0
0.83860797 -0.13565543 0.017361345 0
0.83423501 -0.14011189 0.045583449 0
0.8432762 -0.13089797 0.073008768 0
0.83662671 -0.13767454 0.10100446 0
0.84339833 -0.13077351 0.12900479 0
0.84456819 -0.1295813 0.15711312 0
0.83647877 -0.13782528 0.18443537 0
0.84529746 -0.12883809 0.21356289 0
1.1026351 0.13341609 0.28489578 0
0.94307244 -0.029195096 0.29008406 0
0.94342721 -0.028833594 0.32220411 0
0.95433939 -0.017712917 0.35743466 0
0.6210556 -0.32461771 -0.092249893 0
0.69510168 -0.24524656 -0.090686984 0
0.80294991 -0.1296424 -0.092249982 0
0.84330392 -0.086386353 -0.072563373 0
0.843849 -0.085802048 -0.043439452 0
0.83973747 -0.090209275 -0.013799293 0
0.84226704 -0.087497801 0.014751719 0
0.83610183 -0.094106406 0.043975711 0
0.83984941 -0.090089291 0.072378233 0
0.84324229 -0.086452454 0.10100564 0
0.84350014 -0.086176008 0.12975755 0
0.8407349 -0.089140147 0.15835172 0
0.84156859 -0.088246495 0.18718819 0
0.84380007 -0.085854501 0.21636716 0
1.1023003 0.19123581 0.28975418 0
0.92351335 -0.00040861624 0.29110736 0
0.93017972 0.0067371461 0.32492417 0
0.93015587 0.0067116353 0.35760975 0
0.59852344 -0.31545874 -0.090467237 0
0.67995268 -0.22363409 -0.091778494 0
0.77075064 -0.12124464 -0.08970993 0
0.85442448 -0.026888873 -0.079800986 0
0.84343457 -0.039281812 -0.047429223 0
0.83659786 -0.046991315 -0.016586496 0
0.83884573 -0.044456389 0.01268656 0
0.84029847 -0.042818274 0.04207778 0
0.8350141 -0.048777249 0.071743272 0
0.83976775 -0.043416705 0.10100649 0
0.83773482 -0.045709159 0.13036491 0
0.83654535 -0.047050502 0.15967174 0
0.84158802 -0.04136404 0.18961588 0
0.84073931 -0.042321112 0.21918282 0
1.0975813 0.24730983 0.29423368 0
1.1053112 0.25602654 0.33497959 0
0.58291394 -0.29871896 -0.09098915 0
0.65964609 -0.20766279 -0.091552816 0
0.73006183 -0.12410221 -0.084980853 0
0.84401321 0.011121068 -0.082885347 0
0.84151542 0.0081569888 -0.051477138 0
0.8335287 -0.0013206269 -0.019624284 0
0.83336318 -0.0015170838 0.010666156 0
0.83881778 0.0049558016 0.040440194 0
0.8478139 0.015631232 0.070415661 0
0.83652806 0.0022386049 0.10100742 0
0.84272134 0.0095880367 0.13141602 0
0.83982408 0.0061499211 0.16164778 0
0.83944404 0.0056989524 0.192009 0
0.83733225 0.0031929349 0.22219077 0
0.83678603 0.0025447344 0.25263524 0
1.0977328 0.31220368 0.34025812 0
0.56582767 -0.28360274 -0.091166981 0
0.6330198 -0.19965741 -0.089534767 0
0.72658062 -0.082768828 -0.089867614 0
0.84852409 0.069579035 -0.089636765 0
0.8535949 0.075914174 -0.05849323 0
0.84350377 0.063307077 -0.024877226 0
0.84394604 0.063859612 0.0066644046 0
0.83652079 0.054582987 0.038722567 0
0.84563541 0.065970093 0.069543295 0
0.84032553 0.059336338 0.10100874 0
0.84031063 0.059317742 0.1322761 0
0.83790255 0.056309257 0.1633978 0
0.83554834 0.053368006 0.19441354 0
0.84588671 0.06628409 0.22725183 0
0.83156806 0.04839531 0.25639132 0
1.1017623 0.38595763 0.34863132 0
1.0983802 0.38173226 0.38969645 0
0.5515992 -0.2646316 -0.092486836 0
0.61581254 -0.18012241 -0.090442963 0
0.70768666 -0.059209671 -0.091011129 0
0.72414261 -0.037552502 -0.067012988 0
0.73020881 -0.029568996 -0.039902035 0
0.72601324 -0.035090651 -0.010889446 0
0.72513682 -0.036244061 0.01729163 0
0.72348803 -0.038413968 0.045373227 0
0.73418921 -0.024330463 0.072792664 0
0.72602671 -0.035072889 0.10100461 0
0.72860247 -0.031682994 0.12900214 0
0.73060745 -0.029044297 0.15718441 0
0.73276943 -0.026199009 0.18560053 0
0.72949308 -0.030510869 0.21343647 0
0.72886086 -0.03134295 0.24165207 0
0.73370725 -0.024964776 0.27124605 0
0.73216432 -0.026995327 0.29967228 0
0.73462915 -0.023751464 0.32944581 0
0.52845669 -0.25746712 -0.090784319 0
0.59995592 -0.15826961 -0.091974743 0
0.681943 -0.044521358 -0.090434425 0
0.73425776 0.028059755 -0.075270958 0
0.94989574 0.3272343 -0.088699333 0
0.84507924 0.18181267 -0.033776347 0
0.83674741 0.17025307 0.0010448417 0
0.83850145 0.17268673 0.034287509 0
0.83892995 0.1732811 0.067650415 0
0.84295332 0.1788632 0.10101151 0
0.83797288 0.17195335 0.1343341 0
0.8376953 0.17156819 0.16767099 0
0.84473091 0.1813294 0.20193326 0
0.8447113 0.18130222 0.23574153 0
0.83985108 0.17455915 0.26872751 0
0.84901148 0.18726829 0.30487671 0
1.0950472 0.52861625 0.40859911 0
0.51054054 -0.24334243 -0.091054298 0
0.57874143 -0.1435037 -0.091955937 0
0.65342963 -0.034168269 -0.089135177 0
0.76951808 0.13577273 -0.090509363 0
0.92352021 0.36121514 -0.09017951 0
1.1569961 0.70299858 -0.090325736 0
0.85306048 0.25806978 -0.0046359506 0
0.84188551 0.24171081 0.031566475 0
0.83870184 0.23705021 0.06643974 0
0.83754611 0.23535839 0.10101274 0
0.84205091 0.24195293 0.13572429 0
0.8437528 0.24444428 0.17061393 0
0.8389703 0.23744324 0.20491569 0
0.84187531 0.24169579 0.24020685 0
0.84248668 0.24259081 0.27541664 0
0.84179229 0.24157432 0.31054378 0
1.0997769 0.61923581 0.42124215 0
1.0986505 0.61758679 0.46761826 0
0.49568626 -0.2243385 -0.092670478 0
0.55226409 -0.13685438 -0.090237953 0
0.62539673 -0.023772325 -0.088007383 0
0.73847598 0.15107766 -0.089885436 0
0.89168853 0.38798419 -0.090725429 0
1.11286 0.72997302 -0.090141825 0
1.486142 1.3071644 -0.090221815 0
0.85317409 0.32843092 0.027913118 0
0.84871501 0.32153597 0.064674854 0
0.84489113 0.31562331 0.10101476 0
0.8452335 0.3161526 0.13720569 0
0.8383553 0.30551723 0.17284553 0
0.84106517 0.30970731 0.20920777 0
0.84127301 0.3100287 0.24549107 0
0.84105146 0.30968621 0.28185788 0
0.84054142 0.30889753 0.31832945 0
0.83552867 0.30114642 0.35363349 0
1.1011223 0.71182328 0.48266339 0
0.4777658 -0.20958558 -0.093296953 0
0.53122121 -0.12216881 -0.090469189 0
0.59742916 -0.013897683 -0.086933829 0
0.70689267 0.16511014 -0.089191549 0
0.85412103 0.40587571 -0.090157785 0
1.066484 0.75315696 -0.089668892 0
1.4215626 1.3338239 -0.089395694 0
0.84842998 0.39656892 0.025345335 0
0.84746027 0.3949832 0.063244745 0
0.84078485 0.38406673 0.10101635 0
0.8393712 0.3817549 0.13842735 0
0.83260202 0.37068513 0.17527422 0
0.84148419 0.38521031 0.21369547 0
0.8413595 0.38500646 0.25142357 0
0.83756769 0.37880567 0.28848296 0
0.83558369 0.37556115 0.32589257 0
0.84463799 0.39036778 0.36684889 0
1.0971839 0.80336124 0.49686852 0
0.45280203 -0.2067053 -0.091112144 0
0.50949109 -0.1085172 -0.090588592 0
0.58163518 0.016439829 -0.089894123 0
0.69002914 0.20418325 -0.092701502 0
0.81615037 0.42263117 -0.089573957 0
1.0244834 0.78347391 -0.090098701 0
1.3648417 1.3729904 -0.089723699 0
1.370172 1.3822227 -0.026514461 0
0.84943408 0.48028019 0.061516318 0
0.84133387 0.46625021 0.10101838 0
0.84347981 0.46996704 0.14024386 0
0.84212452 0.46761969 0.17938547 0
0.83907831 0.46234348 0.21824914 0
0.84102142 0.465709 0.25788751 0
0.83901614 0.46223584 0.29695657 0
0.83811313 0.46067181 0.33636159 0
0.84214962 0.4676632 0.37756523 0
0.83744538 0.45951524 0.41616914 0
0.42674941 -0.20688024 -0.088371314 0
0.49128148 -0.088294894 -0.092233799 0
0.55571252 0.030104671 -0.089769594 0
0.64940882 0.2022827 -0.089676596 0
0.78959167 0.45988527 -0.091854028 0
0.99323303 0.83410031 -0.092794307 0
1.2905245 1.3804083 -0.087635107 0
1.2925608 1.3841503 -0.024825638 0
1.2884314 1.3765621 0.038345877 0
0.85197657 0.57452494 0.10102122 0
0.84083402 0.55404919 0.14192325 0
0.84171182 0.55566221 0.18295595 0
0.84054762 0.55352288 0.2238645 0
0.83609128 0.5453338 0.26414967 0
0.84023392 0.55294639 0.30627894 0
0.83984691 0.55223519 0.34771049 0
0.84123057 0.55477792 0.38998535 0
0.83781028 0.54849273 0.43082678 0
0.41222975 -0.18592206 -0.090870179 0
0.46646529 -0.079975218 -0.091437258 0
0.53264832 0.049310479 -0.090791307 0
0.61911118 0.21821204 -0.089668386 0
0.74862057 0.47120324 -0.090788119 0
0.93427747 0.83387607 -0.090206437 0
1.2479792 1.4466791 -0.090343721 0
1.2430609 1.4370716 -0.025928577 0
1.2468542 1.4444814 0.037400637 0
1.2445136 1.4399092 0.10104831 0
0.8497833 0.66882032 0.14438644 0
0.83875167 0.64727062 0.18666793 0
0.83518767 0.64030844 0.22905955 0
0.83637595 0.64262968 0.2721988 0
0.84209138 0.65379447 0.31680942 0
0.8349185 0.63978261 0.35827258 0
0.84369922 0.65693527 0.40502891 0
0.83709925 0.64404255 0.44668561 0
0.38990933 -0.1797969 -0.089927949 0
0.44633257 -0.062362459 -0.092723943 0
0.50071347 0.050821099 -0.088681035 0
0.5861786 0.22870079 -0.088932 0
0.71356922 0.49384049 -0.091337673 0
0.89216363 0.86555129 -0.091108151 0
1.1877862 1.480834 -0.090612657 0
1.7871159 2.7282264 -0.091037206 0
4.5083227 8.3919086 -0.1410165 0
0.84862649 0.77493685 0.19220378 0
0.84016883 0.75733393 0.23654994 0
0.84427476 0.76587957 0.28283957 0
0.84141922 0.75993627 0.32789367 0
0.83888781 0.7546677 0.37299114 0
0.84021646 0.757433 0.41957712 0
0.84376103 0.76481026 0.46762854 0
0.36974081 -0.16939726 -0.090124704 0
0.42004648 -0.057550397 -0.091458 0
0.47177264 0.05745462 -0.087663896 0
0.55810356 0.24939802 -0.089905851 0
0.67470771 0.50864917 -0.090991847 0
0.84262955 0.88199717 -0.09055043 0
1.1201407 1.4989998 -0.089770041 0
1.6898807 2.765728 -0.090711482 0
4.2632828 8.4872875 -0.14062494 0
1.0684817 1.3841441 0.2222757 0
0.8491869 0.89657646 0.24565062 0
0.84090251 0.87815744 0.29221618 0
0.83749926 0.87059087 0.33943373 0
0.83892316 0.87375671 0.38817623 0
0.84152788 0.87954789 0.43787426 0
0.83752513 0.87064832 0.48521599 0
0.34775341 -0.16317281 -0.089474879 0
0.39345837 -0.054291453 -0.090024419 0
0.45201215 0.085199147 -0.090551279 0
0.52995819 0.27088717 -0.091098718 0
0.64022642 0.53357524 -0.092057072 0
0.79427445 0.90055841 -0.090339996 0
1.0605676 1.5349388 -0.09041401 0
1.591126 2.7988689 -0.090293594 0
4.025836 8.5989923 -0.14080597 0
0.99533993 1.3795495 0.22072005 0
0.8505283 1.0345697 0.2545433 0
0.84072977 1.0112271 0.30360878 0
0.83862698 1.0062176 0.35403177 0
0.83881849 1.0066739 0.40530983 0
0.8385306 1.0059881 0.45674407 0
0.84388238 1.0187376 0.51128411 0
0.32876337 -0.14965501 -0.090622924 0
0.36789566 -0.049416866 -0.089067928 0
0.42157492 0.088083416 -0.089112692 0
0.49652296 0.28006402 -0.09053015 0
0.59770423 0.53924161 -0.090805225 0
0.74707866 0.92186671 -0.090529792 0
0.99665016 1.5611484 -0.090434901 0
1.4957646 2.8396382 -0.090386264 0
3.7817941 8.6953421 -0.14075233 0
0.92349392 1.3737574 0.21921258 0
0.85145426 1.1892266 0.26459792 0
0.83810943 1.1550436 0.31596774 0
0.8380118 1.1547935 0.37010869 0
0.84257323 1.1664777 0.42633384 0
0.83906126 1.1574817 0.47986421 0
0.83498824 1.1470487 0.53306395 0
0.30497217 -0.1485711 -0.089058958 0
0.34724614 -0.031660404 -0.090830021 0
0.39450946 0.099048644 -0.08923433 0
0.43630075 0.21462455 -0.078942798 0
0.43679234 0.21598402 -0.04882035 0
0.43468103 0.21014503 -0.018079771 0
0.93550766 1.5952058 -0.09115953 0
1.4019772 2.8852499 -0.090837531 0
3.5384924 8.7938881 -0.1409065 0
0.85713071 1.3784504 0.21832879 0
0.84854525 1.3547068 0.27536479 0
0.83852893 1.3270063 0.33101651 0
0.83958191 1.3299181 0.3893427 0
0.83877653 1.3276908 0.44736356 0
0.841506 1.3352394 0.50736392 0
0.83997738 1.331012 0.56584114 0
0.2893464 -0.12411782 -0.092879318 0
0.32514006 -0.016729619 -0.092120297 0
0.36889124 0.11453274 -0.090256669 0
0.40138659 0.21202531 -0.076987453 0
0.40714648 0.22930613 -0.049154181 0
0.40419608 0.22045437 -0.018055005 0
0.87046087 1.6193426 -0.09126126 0
1.304194 2.9206288 -0.090899549 0
3.2895141 8.8769894 -0.14083202 0
0.7934041 1.3881569 0.21778136 0
0.84978354 1.5573065 0.28878459 0
0.83973372 1.5271549 0.34871316 0
0.8394087 1.5261798 0.41101608 0
0.83667904 1.5179904 0.47254196 0
0.84057444 1.5296772 0.53751332 0
0.84091818 1.5307086 0.60144347 0
0.26406294 -0.12812367 -0.090433054 0
0.29869643 -0.014757838 -0.090958796 0
0.34091559 0.12343827 -0.090252213 0
0.38376397 0.26369396 -0.083151601 0
0.38429898 0.26544526 -0.052365605 0
0.38090137 0.25432375 -0.020405276 0
0.7259444 1.3837535 -0.072496988 0
0.72834003 1.3915951 -0.01492813 0
0.72620118 1.3845942 0.043258261 0
0.72180396 1.3702009 0.10104083 0
0.72771013 1.3895335 0.15894471 0
0.72603428 1.3840477 0.21664351 0
0.84134477 1.7614939 0.30221525 0
0.83687907 1.7468762 0.36818245 0
0.83745611 1.7487652 0.43574214 0
0.83607537 1.7442455 0.50282079 0
0.83531147 1.741745 0.57046628 0
0.24147281 -0.12455812 -0.089815669 0
0.27429029 -0.0065599349 -0.091153584 0
0.31281412 0.13195601 -0.09030252 0
0.36414534 0.31652203 -0.089506932 0
0.4427866 0.59928375 -0.091738485 0
0.54932046 0.98233587 -0.09004695 0
0.66142267 1.3854094 -0.071344651 0
0.66294557 1.3908851 -0.014043635 0
0.65968174 1.3791497 0.043813001 0
0.65982151 1.3796523 0.10104059 0
0.66035962 1.381587 0.15832721 0
0.66056395 1.3823218 0.21571149 0
0.81057256 1.9216912 0.31237292 0
0.81169742 1.9257357 0.38356143 0
0.81112355 1.9236722 0.45451477 0
0.81670707 1.9437482 0.52898622 0
0.81238127 1.9281945 0.59883988 0
0.22031225 -0.11584213 -0.090456344 0
0.24875538 -0.002575543 -0.090648897 0
0.28482932 0.1410785 -0.090575583 0
0.33049977 0.32294789 -0.089170538 0
0.39465633 0.57843298 -0.087943576 0
0.49780947 0.98921055 -0.089437477 0
0.59770691 1.3870232 -0.07031434 0
0.59763432 1.386734 -0.013079045 0
0.59698325 1.3841414 0.044073679 0
0.59574091 1.3791943 0.10104011 0
0.59743702 1.3859484 0.15805034 0
0.59620672 1.3810492 0.21488681 0
0.76818776 2.0659139 0.3213703 0
0.76893467 2.0688882 0.39546627 0
0.77028614 2.07427 0.4703185 0
0.77163237 2.0796311 0.54583538 0
0.19803149 -0.11135659 -0.090288483 0
0.22393847 0.0040651294 -0.090784602 0
0.25510204 0.1429061 -0.089737676 0
0.29954356 0.34090343 -0.090619363 0
0.35687661 0.59633547 -0.088957973 0
0.44835415 1.0038893 -0.089702748 0
0.55266607 1.4686232 -0.075136326 0
0.55357969 1.4726934 -0.016498236 0
0.55501282 1.4790783 0.042151764 0
0.5537405 1.4734099 0.10104245 0
0.55186206 1.4650409 0.15959823 0
0.55177087 1.4646349 0.21819843 0
0.71294367 2.1826971 0.32842621 0
0.71503443 2.1920118 0.40549034 0
0.71261919 2.1812513 0.48092991 0
0.71276861 2.1819172 0.55791289 0
0.17781439 -0.096583933 -0.092472799 0
0.19992203 0.015017781 -0.091868185 0
0.22574991 0.14539984 -0.0891416 0
0.26581988 0.3476775 -0.090571277 0
0.31973308 0.61983734 -0.090748332 0
0.39804733 1.0151761 -0.089763038 0
0.41763389 1.1140511 -0.04893047 0
0.41609073 1.106261 0.0015169031 0
0.41451424 1.0983028 0.051489703 0
0.4176048 1.1139045 0.10103161 0
0.41323999 1.0918703 0.15041983 0
0.41467816 1.0991304 0.20020729 0
0.41547444 1.1031501 0.25021675 0
0.41579625 1.1047747 0.30035245 0
0.4154377 1.1029646 0.35037446 0
0.40741012 1.0624404 0.39503473 0
0.29561988 0.49811116 0.35026631 0
0.27206644 0.37921086 0.36382052 0
0.1520106 -0.11114857 -0.088430382 0
0.17330888 0.012682114 -0.090523563 0
0.19730265 0.15218499 -0.089387588 0
0.23246005 0.35659435 -0.090950601 0
0.27851045 0.62433714 -0.090388946 0
0.34882668 1.033164 -0.090578265 0
0.3690331 1.1506467 -0.050828177 0
0.88321662 4.140173 -0.14133646 0
1.7634219 9.2577925 -0.1407772 0
0.5831244 2.3953998 0.26105377 0
0.57950318 2.3743455 0.33976901 0
0.58273548 2.3931384 0.42152107 0
0.26434454 0.54197472 0.28265235 0
0.27199486 0.58645457 0.32576215 0
0.27140224 0.58300894 0.36326811 0
0.23653382 0.38027969 0.36280051 0
0.13044888 -0.10321847 -0.089375354 0
0.14949423 0.027120505 -0.092504971 0
0.16897957 0.16047075 -0.090001412 0
0.19638105 0.34799567 -0.088960685 0
0.23854895 0.63657647 -0.091068171 0
0.29596096 1.0294821 -0.089463748 0
0.3957448 1.7123637 -0.089906536 0
0.75099516 4.143559 -0.1405253 0
1.5058541 9.3095198 -0.14102441 0
0.50619662 2.4682529 0.26384452 0
0.50439519 2.4559247 0.34458104 0
0.50439423 2.4559181 0.42616299 0
0.22077675 0.51495045 0.27873117 0
0.27556562 0.88990432 0.36797774 0
0.19983535 0.37163559 0.3601059 0
0.10861187 -0.095577985 -0.090372153 0
0.12317567 0.025345121 -0.091518633 0
0.13923661 0.15869907 -0.08906702 0
0.16343264 0.35959843 -0.089965425 0
0.19659291 0.63492793 -0.0902294 0
0.24658862 1.0500419 -0.090757363 0
0.32703948 1.7180247 -0.089664362 0
0.62234575 4.169951 -0.14095211 0
1.2443824 9.3347149 -0.14080204 0
0.42664358 2.545037 0.26690263 0
0.42450473 2.5272779 0.34879163 0
0.4234252 2.5183146 0.4309411 0
0.42408326 2.5237787 0.51472652 0
0.23070471 0.91815788 0.37108231 0
0.16685319 0.38799921 0.36234131 0
0.086477689 -0.088412017 -0.091383092 0
0.097510785 0.027834807 -0.091467433 0
0.1115927 0.17620447 -0.0914414 0
0.12957714 0.36569181 -0.090307601 0
0.1563258 0.64752084 -0.091189049 0
0.19510786 1.0561357 -0.090808548 0
0.25821853 1.7210817 -0.089361824 0
0.4907456 4.171031 -0.14034626 0
0.98387325 9.3667164 -0.14089347 0
0.34167182 2.6003613 0.26904282 0
0.34001258 2.5828793 0.35202703 0
0.34016821 2.5845189 0.436257 0
0.33932063 2.5755887 0.51968944 0
0.34031561 2.586072 0.60590017 0
0.17329057 0.82626468 0.40080753 0
0.13043837 0.3747659 0.3591277 0
0.063733272 -0.086355954 -0.09142261 0
0.07141649 0.024185214 -0.090379648 0
0.081934154 0.17550662 -0.090927742 0
0.095659897 0.37298372 -0.090938501 0
0.11481228 0.64853591 -0.090909816 0
0.14178647 1.036623 -0.088585459 0
0.19107486 1.7457526 -0.090696327 0
0.36113876 4.1925225 -0.14084919 0
0.72179633 9.3814306 -0.14073527 0
0.25273377 2.6328611 0.2702131 0
0.25240529 2.6281354 0.35468087 0
0.13253769 0.90355748 0.27818519 0
0.13348331 0.91716236 0.32443222 0
0.13443901 0.93091244 0.37158886 0
0.12489372 0.79358107 0.39479977 0
0.095976666 0.37754121 0.35911694 0
0.040538549 -0.093948632 -0.08953137 0
0.045234323 0.012317214 -0.087867849 0
0.05223228 0.17068163 -0.089858942 0
0.061230488 0.37431183 -0.090850271 0
0.073605604 0.65436202 -0.09131638 0
0.09102688 1.0486069 -0.089433454 0
0.122167 1.7533107 -0.090950511 0
0.23025931 4.1994495 -0.14082541 0
0.46004438 9.3995066 -0.14080952 0
0.16337009 2.68574 0.27243772 0
0.16179645 2.6501288 0.35585755 0
0.086520493 0.94662708 0.28195772 0
0.086247101 0.94044012 0.3268365 0
0.086855337 0.95420474 0.37447891 0
0.076793328 0.72650057 0.38333917 0
0.061797872 0.38715187 0.36055946 0
0.017962284 -0.091823429 -0.089831568 0
0.020210583 0.026953015 -0.090474702 0
0.023185886 0.18413678 -0.091918819 0
0.026760219 0.3729668 -0.090508543 0
0.03200984 0.65030164 -0.090688698 0
0.039336428 1.0373614 -0.088232048 0
0.052903481 1.7541015 -0.090853058 0
0.099225126 4.2012501 -0.14071678 0
0.19766809 9.4019394 -0.14067365 0
0.070858069 2.7026331 0.27308878 0
0.071233951 2.722491 0.36071852 0
0.070921555 2.705987 0.44616368 0
0.070833266 2.701323 0.53259569 0
0.032486886 0.67550355 0.3747285 0
0.026887408 0.37968615 0.35894597 0
-0.0047180364 -0.086782366 -0.090872742 0
-0.0054497649 0.029233012 -0.090873666 0
-0.0063016666 0.16430178 -0.088628121 0
-0.0076359045 0.37584475 -0.090882517 0
-0.0094888518 0.66962916 -0.092917092 0
-0.011815476 1.0385146 -0.088309564 0
-0.016357642 1.7586737 -0.09114217 0
-0.031711798 4.1930709 -0.14029752 0
-0.064587802 9.405551 -0.14071916 0
-0.02255746 2.741653 0.2748802 0
-0.022518318 2.7354472 0.36158371 0
-0.022440748 2.7231483 0.44771159 0
-0.022390159 2.7151277 0.53414124 0
-0.0092711439 0.63511151 0.36804393 0
-0.0076874318 0.3840144 0.35972041 0
-0.027235376 -0.095202059 -0.089173786 0
-0.03081489 0.018248949 -0.088895418 0
-0.035397429 0.16349021 -0.088585265 0
-0.042364512 0.38430837 -0.092164196 0
-0.050902393 0.65491253 -0.091288872 0
-0.063870654 1.0659349 -0.090960689 0
-0.085377857 1.7475953 -0.090459056 0
-0.11888927 2.8097231 -0.075979479 0
-0.11874888 2.8052735 0.012701141 0
-0.11907878 2.8157291 0.10107908 0
-0.11871343 2.8041501 0.18943034 0
-0.11655857 2.7358527 0.2746928 0
-0.11630657 2.7278655 0.36117747 0
-0.11638991 2.7305069 0.44856486 0
-0.11652541 2.734802 0.53664982 0
-0.050718259 0.6490764 0.37046862 0
-0.042414494 0.38589266 0.36019808 0
-0.0497844 -0.09621194 -0.08917091 0
-0.056367472 0.019614849 -0.089364938 0
-0.065653376 0.1829969 -0.092007868 0
-0.076317281 0.37062457 -0.090453513 0
-0.092032909 0.64713544 -0.090592988 0
-0.11559787 1.0617526 -0.090783797 0
-0.15567641 1.7669203 -0.092025824 0
-0.21401942 2.7934449 -0.075417839 0
-0.21346103 2.7836201 0.013106929 0
-0.21399137 2.7929513 0.10107855 0
-0.21397108 2.7925942 0.18925926 0
-0.21150136 2.7491405 0.27550697 0
-0.21037793 2.7293742 0.36157349 0
-0.21111035 2.7422607 0.4500522 0
-0.077789426 0.39652637 0.26327732 0
-0.077264711 0.3872942 0.29482102 0
-0.076447703 0.37291923 0.32529303 0
-0.076718017 0.37767544 0.35893658 0
-0.072955459 -0.089820892 -0.09086778 0
-0.08238484 0.024902258 -0.090698324 0
-0.094101898 0.1674588 -0.089784302 0
-0.11062703 0.36851302 -0.090491794 0
-0.13360465 0.64807218 -0.091039099 0
-0.16752769 1.0607994 -0.091031142 0
-0.22381806 1.7456605 -0.090873338 0
-0.42389417 4.1799021 -0.14049113 0
-0.85161966 9.3838568 -0.14102322 0
-0.30522183 2.7360654 0.27520186 0
-0.30428049 2.7246125 0.36169669 0
-0.30482325 2.7312162 0.44962999 0
-0.30556929 2.7402928 0.53854579 0
-0.11268418 0.3935416 0.29604259 0
-0.11345042 0.40286401 0.33062664 0
-0.11147872 0.37887517 0.35961622 0
-0.095758229 -0.090748698 -0.09112943 0
-0.10776492 0.020780955 -0.090377174 0
-0.12402382 0.17180911 -0.090960838 0
-0.14709374 0.38610473 -0.093437426 0
-0.17510949 0.64634174 -0.091296114 0
-0.21777216 1.0426333 -0.08978612 0
-0.29073238 1.7203577 -0.089554228 0
-0.5555405 4.1801486 -0.14108169 0
-1.1129977 9.3583441 -0.14100689 0
-0.3994593 2.7303171 0.27535015 0
-0.39845014 2.720943 0.36206365 0
-0.39766496 2.7136495 0.44881585 0
-0.39736775 2.7108886 0.53613693 0
-0.1504913 0.41766444 0.29992148 0
-0.14963312 0.40969291 0.33230653 0
-0.14713216 0.38646165 0.36167404 0
-0.11880609 -0.090417236 -0.09178523 0
-0.13354732 0.020206485 -0.090850435 0
-0.15176648 0.15692952 -0.089077942 0
-0.17943589 0.36457101 -0.090976171 0
-0.21619619 0.64043361 -0.091184728 0
-0.27044496 1.0475359 -0.090828396 0
-0.3588171 1.7107124 -0.089453913 0
-0.68637544 4.1688294 -0.14128684 0
-1.3725504 9.3181362 -0.1408003 0
-0.49288642 2.7168174 0.27524614 0
-0.48953918 2.6916986 0.36079416 0
-0.24180752 0.83263034 0.27263838 0
-0.24159309 0.83102113 0.3157033 0
-0.18557765 0.41066089 0.29953367 0
-0.18467663 0.40389934 0.33204976 0
-0.1826718 0.38885441 0.3629224 0
-0.14165215 -0.09243837 -0.092062272 0
-0.15795521 0.01007751 -0.089627273 0
-0.17950605 0.14559212 -0.087893255 0
-0.21375944 0.36098197 -0.091174535 0
-0.25620705 0.62789828 -0.090411119 0
-0.32026142 1.0306807 -0.089943893 0
-0.42752376 1.7051609 -0.089764364 0
-0.81322628 4.1305103 -0.14037541 0
-1.6312016 9.2740498 -0.14065553 0
-0.58107919 2.670738 0.27371508 0
-0.58054656 2.6673887 0.36003172 0
-0.27977875 0.77612025 0.2679283 0
-0.27873522 0.76955849 0.30921933 0
-0.27797794 0.76479656 0.35068181 0
-0.21522917 0.37022391 0.3603358 0
-0.16314988 -0.10218897 -0.090794124 0
-0.18542555 0.01821271 -0.092014588 0
-0.21028692 0.1525903 -0.089884438 0
-0.24739128 0.35314229 -0.090889849 0
-0.29615337 0.616705 -0.089913167 0
-0.37096822 1.0210848 -0.089863427 0
-0.4967452 1.7009189 -0.090292417 0
-0.94367361 4.116601 -0.14076665 0
-1.8912727 9.2384462 -0.14086469 0
-0.67050195 2.6400874 0.27301353 0
-0.66940671 2.6341677 0.35879472 0
-0.66628951 2.6173189 0.443537 0
-0.66917819 2.6329324 0.53170931 0
-0.29039329 0.58557135 0.36428779 0
-0.2518957 0.37748888 0.36285597 0
-0.18445046 -0.11148682 -0.089735143 0
-0.21137649 0.015981708 -0.092552222 0
-0.23678456 0.13626423 -0.088098459 0
-0.27977505 0.33978227 -0.08993236 0
-0.33643624 0.60801786 -0.08983206 0
-0.41999051 1.003566 -0.089148469 0
-0.56502908 1.6901824 -0.090483762 0
-0.61757833 1.938952 -0.038361255 0
-0.6188038 1.9447536 0.031247156 0
-0.61913329 1.9463131 0.10105605 0
-0.75284344 2.5793009 0.27097982 0
-0.75236207 2.5770218 0.35600024 0
-0.75488782 2.588979 0.44254839 0
-0.75183803 2.5745411 0.5268895 0
-0.28573534 0.36799851 0.36234081 0
-0.20751859 -0.1123257 -0.090635099 0
-0.23544951 0.0051578614 -0.09155596 0
-0.26884681 0.14563432 -0.090755291 0
-0.31385845 0.33496311 -0.09032058 0
-0.37632367 0.59770554 -0.089676999 0
-0.47046396 0.99368018 -0.089279898 0
-0.52235764 1.2119563 -0.057206888 0
-0.61886019 1.6178672 -0.023788041 0
-0.61874038 1.6173635 0.038675252 0
-0.61798614 1.6141911 0.10104679 0
-0.8347789 2.5260689 0.26939508 0
-0.83547425 2.5289938 0.35399479 0
-0.83165753 2.5129397 0.43718877 0
-0.83333719 2.5200047 0.52275401 0
-0.83387762 2.5222778 0.60843289 0
-0.23021726 -0.11545262 -0.091165595 0
-0.26057252 -0.0007182624 -0.091634996 0
-0.29235035 0.11939302 -0.087512933 0
-0.34789681 0.32934335 -0.090719663 0
-0.41628569 0.5878343 -0.08969558 0
-0.52174157 0.9864282 -0.08978913 0
-0.57939982 1.2043605 -0.057663117 0
-0.64629102 1.4571905 -0.016843526 0
-0.64662802 1.4584644 0.042100832 0
-0.64840877 1.4651949 0.10104288 0
-0.91195792 2.4613373 0.26734468 0
-0.90983987 2.4533319 0.35012734 0
-0.91067392 2.4564843 0.43387187 0
-0.90534145 2.4363291 0.5153144 0
-0.91191733 2.461184 0.60277396 0
-0.2513577 -0.12442192 -0.090532772 0
-0.28472909 -0.010041144 -0.091162317 0
-0.32386386 0.12409368 -0.08964517 0
-0.34360722 0.19176427 -0.071929015 0
-0.46027502 0.59164447 -0.091502301 0
-0.56966817 0.9665907 -0.089203797 0
-0.71347278 1.4594824 -0.077359401 0
-0.71814126 1.4754839 -0.018560423 0
-0.71452695 1.4630957 0.041574046 0
-0.71468139 1.463625 0.10104334 0
-0.9852528 2.3910115 0.26510176 0
-0.98211318 2.3802505 0.34655565 0
-0.98064965 2.3752341 0.42831147 0
-0.97841024 2.3675585 0.50985587 0
-0.98089862 2.3760874 0.59384537 0
-0.27181241 -0.13509229 -0.089633875 0
-0.30920017 -0.018016782 -0.091072284 0
-0.35353693 0.12081864 -0.090555333 0
-0.37895671 0.20041779 -0.074543722 0
-0.39223281 0.24199036 -0.050093431 0
-0.40046126 0.26775685 -0.022200776 0
-0.39647061 0.2552605 0.0096355472 0
-0.39926985 0.26402608 0.039719578 0
-0.39795357 0.2599043 0.07048095 0
-0.39577672 0.25308767 0.10100763 0
-0.39613497 0.25420943 0.13139541 0
-0.39867687 0.26216915 0.16220565 0
-0.39853194 0.26171532 0.1928543 0
-0.39385101 0.24705759 0.22218812 0
-0.39778641 0.25938085 0.2542437 0
-0.40093628 0.26924422 0.28671518 0
-0.39690903 0.25663331 0.31600469 0
-0.39876518 0.26244572 0.34854442 0
-0.29541782 -0.13608679 -0.09102004 0
-0.33074439 -0.03439435 -0.08942882 0
-0.37860617 0.10338238 -0.089139394 0
-0.42713416 0.24307695 -0.082372732 0
-0.4295238 0.2499558 -0.052354936 0
-0.43233517 0.2580488 -0.022281876 0
-0.43027678 0.2521235 0.0090962518 0
-0.43263885 0.25892296 0.039453715 0
-0.42698503 0.24264756 0.070648171 0
-0.43002146 0.25138846 0.10100789 0
-0.43351629 0.26144877 0.13183104 0
-0.43445733 0.26415768 0.16282099 0
-0.4321306 0.25745991 0.19331521 0
-0.42887458 0.24808696 0.22331376 0
-0.43106696 0.25439814 0.25492156 0
-0.43236601 0.25813749 0.28663102 0
-0.43313852 0.26036134 0.31846985 0
-0.43143159 0.25544766 0.34923977 0
-0.31578627 -0.14666811 -0.09037707 0
-0.35609439 -0.039443221 -0.090158187 0
-0.40550172 0.091986686 -0.088881172 0
-0.47857907 0.28638199 -0.09055502 0
-0.48454717 0.30225793 -0.060290758 0
-0.51193231 0.37510589 -0.035084341 0
-0.50950694 0.36865416 -0.00044912635 0
-0.50979817 0.36942878 0.033393759 0
