# .PCD v0.7 - Point Cloud Data file format
VERSION 0.7
FIELDS x y z intensity
SIZE 4 4 4 4
TYPE F F F F
COUNT 1 1 1 1
WIDTH 1329
HEIGHT 1
VIEWPOINT 0 0 0 1 0 0 0
POINTS 1329
DATA ascii
1.1161817 -2.1847003 -0.090098239 0
1.405103 -2.4943991 -0.091159396 0
1.8632267 -2.9854691 -0.089879848 0
3.5442312 -4.7873631 -0.14084512 0
7.0965805 -8.5951805 -0.14087579 0
0.63843 -1.6389269 -0.092493109 0
0.70630723 -1.7081009 -0.088711329 0
0.81619698 -1.8200902 -0.090328716 0
0.95986319 -1.9665011 -0.091434084 0
1.1460525 -2.1562476 -0.090109013 0
1.437902 -2.4536729 -0.090529136 0
1.9097143 -2.9344993 -0.089551963 0
3.6401598 -4.6980052 -0.14092672 0
7.2874842 -8.4150133 -0.14091755 0
0.64964122 -1.6178142 -0.0910201 0
0.73319238 -1.6987706 -0.091064744 0
0.83548278 -1.7978842 -0.090004571 0
0.97440362 -1.9324908 -0.089514382 0
1.1738123 -2.1257064 -0.089894347 0
1.4725554 -2.4151716 -0.09029039 0
1.9590635 -2.8865709 -0.089637361 0
3.7355635 -4.6078997 -0.14112042 0
7.473012 -8.2292776 -0.14093341 0
0.66622722 -1.6021082 -0.091290124 0
0.75063944 -1.6798669 -0.091008238 0
0.85897076 -1.7796593 -0.090753607 0
1.0023736 -1.9117585 -0.090370752 0
1.2085344 -2.1016693 -0.090914913 0
1.5119268 -2.3811474 -0.090780713 0
2.543906 -3.3317833 -0.14073598 0
3.8227963 -4.5098681 -0.14093816 0
7.6548986 -8.0399132 -0.14098378 0
0.67768866 -1.5818108 -0.090219699 0
0.7683605 -1.6612015 -0.091142394 0
0.87948138 -1.7584968 -0.090937532 0
1.0318952 -1.8919475 -0.091597192 0
1.2244425 -2.0605383 -0.089085944 0
1.5380752 -2.3351493 -0.089727603 0
2.6039968 -3.2684503 -0.14090295 0
3.90046 -4.4036093 -0.14032264 0
7.8262916 -7.8409939 -0.14085817 0
0.69266057 -1.5647457 -0.090285383 0
0.78551757 -1.6419988 -0.091252275 0
0.89290619 -1.7313415 -0.089718215 0
1.0479387 -1.8603218 -0.090426616 0
1.2514114 -2.0296023 -0.089136086 0
1.5605855 -2.2868218 -0.088397138 0
2.6512511 -3.1942091 -0.14004609 0
3.9912493 -4.3090296 -0.14067899 0
7.9991584 -7.6434379 -0.14093326 0
0.70759749 -1.5476146 -0.090458177 0
0.79757148 -1.6187054 -0.090252511 0
0.92741126 -1.7212954 -0.093083523 0
1.072431 -1.8358793 -0.090936832 0
1.2711071 -1.9928588 -0.088219397 0
1.5975844 -2.2508173 -0.088963069 0
2.7127237 -3.1319194 -0.14064164 0
4.0770149 -4.2098827 -0.14087334 0
8.155611 -7.4324913 -0.14066976 0
0.72178859 -1.5298548 -0.090545602 0
0.81505883 -1.5998012 -0.090690471 0
0.93738091 -1.6915345 -0.091398038 0
1.0932734 -1.8084434 -0.090905793 0
1.3183264 -1.977218 -0.091477521 0
1.624594 -2.2068982 -0.088460036 0
2.7685988 -3.0648253 -0.14087564 0
4.1557803 -4.1051183 -0.14080377 0
8.3198633 -7.227901 -0.14079416 0
0.73599613 -1.5120635 -0.090753786 0
0.82756478 -1.57719 -0.090080611 0
0.95373112 -1.6669236 -0.091182254 0
1.1082121 -1.7767954 -0.089977719 0
1.3263687 -1.9319553 -0.089116193 0
1.6741374 -2.1792996 -0.090675123 0
2.8177722 -2.9926894 -0.14067717 0
4.2337098 -3.9997497 -0.14084016 0
8.475811 -7.0168672 -0.1408281 0
0.75110507 -1.4948026 -0.091305621 0
0.84131771 -1.5555965 -0.089895017 0
0.96061051 -1.6359875 -0.089217313 0
1.1343821 -1.7530915 -0.0911052 0
1.3428597 -1.8935837 -0.088147782 0
1.693928 -2.1301672 -0.089583121 0
2.8660016 -2.920023 -0.14055735 0
4.306592 -3.8908312 -0.14074318 0
8.6225557 -6.7993417 -0.14075412 0
0.7590853 -1.4728223 -0.090162165 0
0.85799694 -1.5359091 -0.090488888 0
0.98543763 -1.6171918 -0.090935819 0
1.151492 -1.7231028 -0.090805031 0
1.3753474 -1.8658797 -0.089547671 0
1.7286836 -2.0912406 -0.090303756 0
2.9126828 -2.846406 -0.1404644 0
4.3757248 -3.7795472 -0.14059381 0
8.7604847 -6.5761857 -0.14059088 0
0.77746886 -1.4574139 -0.091756858 0
0.87188756 -1.5143356 -0.090570651 0
1.0012343 -1.5923142 -0.090987153 0
1.1719515 -1.6952337 -0.091184281 0
1.4084142 -1.8377888 -0.091101684 0
1.7630367 -2.0515783 -0.091077574 0
2.967711 -2.7778347 -0.1412071 0
4.4495044 -3.6711562 -0.1408532 0
8.9072056 -6.3585482 -0.1408229 0
0.78579032 -1.4358282 -0.090963863 0
0.89207286 -1.4962997 -0.092134215 0
1.0190423 -1.5685413 -0.091537707 0
1.1818526 -1.6611754 -0.089965485 0
1.4151404 -1.7939088 -0.089187659 0
1.7842464 -2.0039186 -0.090537198 0
3.0038564 -2.697839 -0.14056069 0
4.5118484 -3.5558395 -0.14064401 0
9.0420475 -6.1333814 -0.14088191 0
0.79076868 -1.4126477 -0.089507572 0
0.89967191 -1.4710233 -0.091085024 0
1.0246893 -1.5380367 -0.089925863 0
1.2060468 -1.6352502 -0.091180183 0
1.4509622 -1.7665327 -0.091305457 0
1.8076605 -1.9577346 -0.090365805 0
3.0505142 -2.6239443 -0.14091806 0
4.5719428 -3.4394794 -0.14047359 0
9.1689444 -5.9036202 -0.14088151 0
0.80196559 -1.392972 -0.089690052 0
0.91809767 -1.4514997 -0.092468075 0
1.0470299 -1.5164783 -0.091549315 0
1.2168926 -1.6020849 -0.090382509 0
1.4619727 -1.7255992 -0.090240337 0
1.8315943 -1.9118792 -0.090373568 0
3.0897512 -2.545959 -0.14083695 0
4.6431432 -3.3288298 -0.14103845 0
9.2860022 -5.6687145 -0.14077692 0
0.81343573 -1.3733617 -0.09005212 0
0.92145228 -1.4244236 -0.090798207 0
1.0540063 -1.4870849 -0.090460055 0
1.2245759 -1.5677171 -0.0892336 0
1.4828079 -1.6897893 -0.090592287 0
1.8596146 -1.8679146 -0.090923391 0
3.1234393 -2.4653537 -0.14048086 0
4.7015238 -3.2113507 -0.14108115 0
9.408515 -5.4364538 -0.14096729 0
0.8265025 -1.3543476 -0.090896957 0
0.92974842 -1.4000038 -0.090306066 0
1.0631019 -1.4589738 -0.089897759 0
1.2433668 -1.5386884 -0.089938335 0
1.4957068 -1.6502751 -0.09004233 0
1.873215 -1.8172123 -0.090109311 0
3.1740942 -2.3924716 -0.1415821 0
4.7625837 -3.0949147 -0.1414116 0
9.5165329 -5.1971488 -0.14093696 0
0.84343678 -1.3366958 -0.092733227 0
0.93586648 -1.3748108 -0.089501522 0
1.0696622 -1.4299836 -0.089017399 0
1.2550981 -1.5064512 -0.089674599 0
1.5182999 -1.6149869 -0.090850376 0
1.9059094 -1.7748241 -0.091361411 0
3.201844 -2.3092244 -0.14107971 0
4.8090644 -2.9719887 -0.14115326 0
9.6183214 -4.9551654 -0.14090298 0
0.84669733 -1.3133228 -0.091541223 0
0.95539099 -1.3549676 -0.091537736 0
1.0828885 -1.4038169 -0.089448147 0
1.2597747 -1.4715892 -0.088474743 0
1.5229775 -1.5724328 -0.089520402 0
1.9223772 -1.7254587 -0.091086976 0
3.2319098 -2.2271931 -0.14091362 0
4.8464003 -2.8457692 -0.14059694 0
9.7178669 -4.7122226 -0.14096633 0
0.84557211 -1.2886797 -0.089504413 0
0.97189087 -1.3334563 -0.093051963 0
1.0947044 -1.3769904 -0.089744844 0
1.2906724 -1.4464558 -0.091327019 0
1.5504808 -1.538551 -0.091166459 0
1.9379441 -1.6758964 -0.090849735 0
3.2526929 -2.1419396 -0.1402148 0
4.8878117 -2.7215455 -0.14040495 0
9.80585 -4.4648585 -0.14089587 0
0.85501146 -1.2679774 -0.089986123 0
0.97723752 -1.3078616 -0.092452072 0
1.1096256 -1.3510617 -0.090693481 0
1.2907432 -1.4101632 -0.089693047 0
1.5574044 -1.4971787 -0.090374552 0
1.9550011 -1.6269203 -0.090884097 0
3.2973316 -2.0649428 -0.14143489 0
4.9347639 -2.5992613 -0.14064009 0
9.8982925 -4.2189341 -0.1410884 0
0.86697066 -1.2478931 -0.091139577 0
0.97802937 -1.2810571 -0.091088824 0
1.1182811 -1.3229386 -0.090673037 0
1.2944986 -1.37556 -0.0887466 0
1.5502142 -1.4519209 -0.087994955 0
1.9678098 -1.5766219 -0.090625234 0
3.3113914 -1.9778376 -0.14055716 0
4.9755487 -2.4747822 -0.14072436 0
9.9591351 -3.9629631 -0.14066391 0
0.8653155 -1.2238163 -0.08939869 0
0.98595011 -1.2565483 -0.091258667 0
1.1226416 -1.2936372 -0.090042584 0
1.3131406 -1.3453257 -0.090101995 0
1.5662124 -1.4139923 -0.08857853 0
1.9707636 -1.5237602 -0.089538269 0
3.347579 -1.8973349 -0.14144808 0
5.011764 -2.3488824 -0.14073974 0
10.03647 -3.7122486 -0.14079586 0
0.88155913 -1.2045246 -0.091718517 0
0.98172688 -1.2290076 -0.089193143 0
1.1264155 -1.2643722 -0.08944232 0
1.3248664 -1.3128777 -0.090559222 0
1.5835692 -1.3761096 -0.089437492 0
1.979617 -1.4729115 -0.089153476 0
3.3575342 -1.8097017 -0.1405924 0
5.0392637 -2.2207494 -0.1404901 0
10.096881 -3.4569302 -0.14067383 0
0.8772912 -1.1801865 -0.089669637 0
0.99439996 -1.2056971 -0.090530373 0
1.1386938 -1.2371296 -0.090400435 0
1.3361846 -1.2801503 -0.091073446 0
1.6019106 -1.3380352 -0.090524234 0
1.9946398 -1.4235861 -0.08948309 0
3.3657298 -1.7222601 -0.13977419 0
5.0749965 -2.0946012 -0.14078864 0
10.168964 -3.2042551 -0.14098406 0
0.88125509 -1.1579055 -0.089545496 0
1.0011423 -1.1808692 -0.090836905 0
1.1422933 -1.207906 -0.090016983 0
1.3358366 -1.2449782 -0.090034403 0
1.611154 -1.2977138 -0.090637751 0
2.5409844 -1.4758179 -0.14042512 0
3.4058702 -1.6414821 -0.14139126 0
5.0997734 -1.9659404 -0.14071774 0
10.211203 -2.9450076 -0.14073762 0
0.88810188 -1.1361169 -0.090164445 0
1.0016382 -1.1549078 -0.090069555 0
1.1565529 -1.180547 -0.0915341 0
1.3443586 -1.21163 -0.0903899 0
1.6143568 -1.2563162 -0.090156041 0
2.5503244 -1.411224 -0.14022389 0
3.4227006 -1.5556072 -0.14149465 0
5.1277432 -1.8378012 -0.14095138 0
10.257548 -2.6868124 -0.14074354 0
0.89367878 -1.113988 -0.090626918 0
1.0110675 -1.1303853 -0.091128729 0
1.1469611 -1.1493673 -0.089202635 0
1.3431342 -1.1767694 -0.08948081 0
1.6232553 -1.2158976 -0.090471692 0
2.5664799 -1.3476501 -0.14081965 0
3.4175711 -1.4665331 -0.14020084 0
5.1467862 -1.7080752 -0.14091688 0
10.302989 -2.4283094 -0.14088148 0
0.9029066 -1.0921506 -0.091988824 0
1.0074724 -1.1040754 -0.089833282 0
1.1505624 -1.1203938 -0.089190625 0
1.3546305 -1.143666 -0.090498291 0
1.6268111 -1.1747061 -0.090278171 0
2.5870433 -1.2842128 -0.14197877 0
3.4492197 -1.3825372 -0.14165699 0
5.1687827 -1.5786396 -0.14117457 0
10.322429 -2.1663718 -0.1405635 0
0.90173489 -1.0690531 -0.091246255 0
1.0127528 -1.0788834 -0.09034472 0
1.1347846 -1.0896891 -0.086101972 0
1.1304276 -1.0893034 -0.058378015 0
1.6328198 -1.1337892 -0.090494998 0
2.5841739 -1.2180299 -0.14108977 0
3.4493773 -1.294642 -0.14104876 0
5.183094 -1.4481595 -0.14122535 0
10.363767 -1.9068983 -0.14091188 0
0.9042381 -1.0463496 -0.091411851 0
1.0166126 -1.0534482 -0.090707354 0
1.1314195 -1.0607003 -0.085190125 0
1.1244655 -1.060261 -0.057233755 0
1.6347783 -1.0924964 -0.09035825 0
2.5934038 -1.1530508 -0.14149016 0
3.4605367 -1.2078258 -0.14136769 0
5.1882095 -1.3169594 -0.14100085 0
10.380796 -1.6449645 -0.1408461 0
0.89950913 -1.0233185 -0.090160869 0
1.0200273 -1.0278825 -0.09110681 0
1.1268917 -1.0319293 -0.084208287 0
1.1399665 -1.0324243 -0.059212212 0
1.6348777 -1.0511659 -0.090126164 0
2.5909956 -1.0873728 -0.14095636 0
3.4490857 -1.1198674 -0.14025789 0
5.1913042 -1.1858428 -0.14083682 0
10.393058 -1.3828256 -0.14082335 0
0.90564311 -1.000707 -0.091343142 0
1.016912 -1.002111 -0.090397693 0
1.1375456 -1.003633 -0.085841499 0
1.1275358 -1.0035068 -0.057363141 0
1.121737 -1.0034336 -0.030027276 0
1.1322793 -1.0035666 -0.0046344157 0
1.1255784 -1.003482 0.022343712 0
1.1216486 -1.0034325 0.048793647 0
1.1266795 -1.0034959 0.074795164 0
1.1423025 -1.0036931 0.10100298 0
1.1318514 -1.0035611 0.1273305 0
1.1299357 -1.0035371 0.15359759 0
1.1340801 -1.0035893 0.1802565 0
1.134261 -1.0035915 0.20682546 0
1.1200132 -1.0034118 0.23183137 0
1.1447595 -1.0037241 0.26179126 0
1.1273254 -1.003504 0.28616852 0
1.1363049 -1.0036174 0.31489518 0
0.90055168 -0.97794193 -0.090260811 0
1.0170139 -0.9764725 -0.090416901 0
1.1273428 -0.97508037 -0.084164537 0
1.1298995 -0.97504812 -0.057695363 0
1.6413192 -0.96859533 -0.090757392 0
2.5881081 -0.95664918 -0.14053279 0
3.4694524 -0.94552886 -0.14152822 0
5.1879253 -0.92384601 -0.14052553 0
10.402411 -0.85805225 -0.14088689 0
0.89957637 -0.95526356 -0.090175174 0
1.0087887 -0.95112789 -0.08898849 0
1.1351374 -0.94634324 -0.085564442 0
1.1208364 -0.94688475 -0.056521852 0
1.6398389 -0.92723089 -0.090706415 0
2.5957432 -0.89103216 -0.14139983 0
3.4576936 -0.85839134 -0.14086008 0
5.1793208 -0.79319578 -0.14027852 0
10.397026 -0.59560877 -0.14091568 0
0.90433061 -0.93222916 -0.091431551 0
1.0204028 -0.92489713 -0.091422655 0
1.1356508 -0.91761714 -0.085886903 0
1.1334831 -0.91775411 -0.058503557 0
1.642023 -0.88563067 -0.091206662 0
2.5775506 -0.82653528 -0.14000747 0
3.4572122 -0.77096885 -0.1411348 0
5.1871901 -0.6616897 -0.14095332 0
10.37522 -0.33397248 -0.14071618 0
0.90801346 -0.90897572 -0.092586063 0
1.003522 -0.9005186 -0.088599302 0
1.155274 -0.88708127 -0.089482628 0
1.3450335 -0.87027842 -0.088655584 0
1.6233499 -0.84563398 -0.089383908 0
2.565228 -0.76223242 -0.13931443 0
3.4510443 -0.68379503 -0.14116576 0
5.1673489 -0.53181946 -0.14048947 0
10.361971 -0.071845442 -0.14086996 0
0.90326816 -0.88639295 -0.092066161 0
1.0118693 -0.87400782 -0.090666838 0
1.1509905 -0.8581422 -0.089261435 0
1.3491682 -0.83554161 -0.089725681 0
1.6384469 -0.80255169 -0.091646902 0
2.5727243 -0.69600475 -0.14063358 0
3.440403 -0.59705293 -0.14103664 0
5.1579022 -0.4011859 -0.14066474 0
10.340031 0.18979445 -0.1409754 0
0.89166927 -0.86487734 -0.090195619 0
1.0133185 -0.84788495 -0.091556825 0
1.1430868 -0.82975852 -0.088559724 0
1.3431374 -0.80181485 -0.089481272 0
1.6277672 -0.76205689 -0.091004141 0
2.5728793 -0.63004071 -0.14142278 0
3.4233873 -0.51123911 -0.14061141 0
5.1409464 -0.2713252 -0.14064239 0
10.287504 0.44756201 -0.14051799 0
0.89491117 -0.84134078 -0.091631524 0
1.0104194 -0.82222354 -0.09174601 0
1.1486547 -0.79934484 -0.090218373 0
1.3334047 -0.76876771 -0.088829555 0
1.61911 -0.72148186 -0.090719126 0
2.5508487 -0.56727386 -0.1402735 0
3.4159958 -0.42408726 -0.14101954 0
5.117826 -0.14242485 -0.14048339 0
10.256253 0.70801347 -0.14071302 0
0.88927186 -0.81914365 -0.091280527 0
0.99987727 -0.79795778 -0.090594329 0
1.1440381 -0.77034456 -0.090308942 0
1.3280574 -0.73509657 -0.088921271 0
1.3470887 -0.73145121 -0.059214521 0
1.3496832 -0.73095429 -0.027207142 0
1.3357265 -0.73362762 0.0059622768 0
1.3474767 -0.73137695 0.037144851 0
1.3417727 -0.7324695 0.069229506 0
1.3486564 -0.73115098 0.10100957 0
0.89337909 -0.79489368 -0.093169503 0
1.000235 -0.77161658 -0.091655172 0
1.1337957 -0.74252212 -0.08957655 0
1.2073606 -0.72649693 -0.072544642 0
1.2007043 -0.72794694 -0.042534295 0
1.2001444 -0.72806895 -0.013585491 0
1.1997464 -0.72815561 0.015199566 0
1.2058135 -0.726834 0.043564115 0
1.2018807 -0.7276907 0.072393984 0
1.1994263 -0.72822535 0.10100541 0
0.88553834 -0.7730875 -0.092589237 0
0.9855963 -0.74863136 -0.089943402 0
1.1257782 -0.71436816 -0.089334495 0
1.217188 -0.69202578 -0.074981205 0
1.2084613 -0.69415879 -0.044306848 0
1.2087374 -0.69409132 -0.015081165 0
1.2043459 -0.69516468 0.014366912 0
1.2157739 -0.69237143 0.042751014 0
1.2038821 -0.69527805 0.072178952 0
1.2021542 -0.69570035 0.1010057 0
0.87400603 -0.75241047 -0.091312759 0
0.98133808 -0.72328776 -0.090358578 0
1.123145 -0.68481094 -0.090128325 0
1.2158099 -0.65966797 -0.075929083 0
1.2023492 -0.6633203 -0.044515003 0
1.202136 -0.66337812 -0.015200263 0
1.2049351 -0.66261864 0.013758915 0
1.2094928 -0.66138202 0.042673972 0
1.2123164 -0.66061586 0.071787819 0
1.2063503 -0.66223466 0.10100605 0
0.87694556 -0.72771287 -0.09335237 0
0.98315555 -0.69599682 -0.09209647 0
1.1071439 -0.65897191 -0.088762738 0
1.2135479 -0.62719786 -0.076873846 0
1.2048602 -0.62979215 -0.045871112 0
1.2100682 -0.62823695 -0.01681125 0
1.2019632 -0.63065726 0.013346428 0
1.2088736 -0.62859368 0.042283382 0
1.2030972 -0.63031864 0.07180094 0
1.2046149 -0.62986541 0.10100626 0
0.8511228 -0.71187621 -0.08911664 0
0.9716351 -0.67255127 -0.091342084 0
1.1045552 -0.62917745 -0.089816935 0
1.2056077 -0.59620255 -0.07710766 0
1.2106073 -0.59457111 -0.047739882 0
1.2139251 -0.59348845 -0.018122165 0
1.2046037 -0.5965302 0.012458714 0
1.2053176 -0.5962972 0.041993018 0
1.2166594 -0.59259617 0.071238376 0
1.2103659 -0.59464991 0.10100672 0
0.85340065 -0.68712997 -0.091269918 0
0.9609791 -0.64899629 -0.090871416 0
1.1019596 -0.59902251 -0.091009937 0
1.2016767 -0.56367546 -0.078057535 0
1.2002927 -0.56416607 -0.047743563 0
1.2088765 -0.56112331 -0.018649412 0
1.2040836 -0.56282228 0.011733847 0
1.213732 -0.55940217 0.04106871 0
1.2104737 -0.56055713 0.071134515 0
1.2069538 -0.56180489 0.10100693 0
0.84457618 -0.66607463 -0.091058381 0
0.96327746 -0.6205954 -0.093128465 0
1.0979654 -0.56899112 -0.092101701 0
1.199482 -0.53009599 -0.079400904 0
1.2075961 -0.5269872 -0.050047908 0
1.2031809 -0.52867883 -0.019198386 0
1.2059854 -0.52760428 0.010757225 0
1.2152128 -0.52406889 0.040434882 0
1.2078665 -0.5268836 0.070920505 0
1.200268 -0.52979487 0.10100706 0
0.8316915 -0.64673221 -0.090032689 0
0.93776155 -0.60299248 -0.089887612 0
1.0806284 -0.54407895 -0.090966947 0
1.202237 -0.49393162 -0.08163894 0
1.2046324 -0.49294388 -0.051196415 0
1.2105998 -0.49048311 -0.021159453 0
1.2114342 -0.49013898 0.0094352905 0
1.1952548 -0.49681085 0.040829353 0
1.2026328 -0.49376845 0.070749044 0
1.2027426 -0.49372315 0.10100751 0
0.83079219 -0.62234014 -0.091893949 0
0.94284594 -0.57278907 -0.093003429 0
1.0657487 -0.51844049 -0.090373389 0
1.1959091 -0.46088251 -0.082645886 0
1.2004951 -0.45885459 -0.052317057 0
1.2053516 -0.45670697 -0.021947591 0
1.2053636 -0.45670167 0.0089071784 0
1.2165085 -0.45177332 0.039095599 0
1.2139932 -0.4528856 0.070132673 0
1.2073566 -0.45582035 0.10100806 0
0.81654823 -0.60375166 -0.090783916 0
0.91307771 -0.55811995 -0.089053474 0
1.0465255 -0.49503615 -0.089100115 0
1.2361653 -0.40538904 -0.09103512 0
1.4782755 -0.29093793 -0.090006374 0
1.8614845 -0.10978618 -0.091116436 0
3.1159453 0.48322645 -0.13990138 0
4.6876445 1.2262051 -0.14036646 0
9.3994875 3.4536016 -0.14073512 0
0.81408715 -0.57950372 -0.092575364 0
0.92322928 -0.52449876 -0.093550436 0
1.0472074 -0.46201697 -0.091581993 0
1.2178993 -0.37599245 -0.090540938 0
1.4722855 -0.24778816 -0.091590039 0
1.8327267 -0.066134781 -0.090491943 0
3.0935941 0.56931096 -0.14113778 0
4.6347094 1.3459947 -0.14059877 0
9.2885618 3.6914203 -0.14084357 0
0.7958594 -0.56320822 -0.090735324 0
0.89702213 -0.5089817 -0.090518765 0
1.0292635 -0.43809614 -0.09077882 0
1.1997598 -0.34670457 -0.090177722 0
1.4416286 -0.21705505 -0.090067782 0
1.8155508 -0.016620662 -0.091201447 0
3.0431581 0.64141661 -0.14033458 0
4.5769076 1.4635558 -0.14073582 0
9.1634359 3.9220831 -0.14073619 0
0.78571236 -0.54280078 -0.090944789 0
0.88128752 -0.48842147 -0.089796983 0
1.005366 -0.41782472 -0.088951655 0
1.176376 -0.32052538 -0.089079998 0
1.2136178 -0.29933593 -0.062089596 0
1.2151958 -0.2984381 -0.029426208 0
3.0029662 0.71874768 -0.14048909 0
4.5039511 1.5727613 -0.14022098 0
9.045805 4.1569347 -0.14098242 0
0.77626061 -0.52189922 -0.091456957 0
0.87075883 -0.46492949 -0.090322413 0
0.99492502 -0.39007404 -0.089776374 0
1.1633812 -0.28851768 -0.089777924 0
1.1413596 -0.30179378 -0.054656956 0
1.1918187 -0.27137372 -0.028820267 0
2.9655561 0.7979508 -0.14103119 0
4.4486246 1.6920412 -0.14080538 0
8.9120855 4.3829064 -0.1409554 0
0.75463152 -0.50860298 -0.089039288 0
0.86203456 -0.4401004 -0.0913909 0
0.99286473 -0.35665575 -0.092383631 0
1.1536262 -0.25412074 -0.091160782 0
1.1401101 -0.26274136 -0.056938652 0
1.1859231 -0.23352149 -0.030214911 0
2.9227748 0.87425822 -0.14130123 0
4.3827343 1.8054333 -0.14098087 0
8.7657204 4.6009407 -0.14073525 0
0.75319606 -0.48237303 -0.091841601 0
0.83189434 -0.42933854 -0.087754704 0
0.96704537 -0.33826086 -0.090492614 0
1.1203762 -0.2349318 -0.088731654 0
1.1490425 -0.21561369 -0.060832206 0
1.1557246 -0.21111068 -0.029004654 0
2.8674073 0.94238561 -0.14067584 0
4.3098693 1.9144549 -0.14092717 0
8.6263866 4.823339 -0.14086154 0
0.7438581 -0.46092954 -0.092804514 0
0.82551926 -0.40284953 -0.089607827 0
0.94348145 -0.31895104 -0.089115091 0
1.1021202 -0.20612213 -0.088927142 0
1.1386954 -0.18010864 -0.062200282 0
1.1423104 -0.17753759 -0.029759204 0
2.8178999 1.0141954 -0.14068815 0
4.2376218 2.023947 -0.14106363 0
8.4760284 5.0384378 -0.14083432 0
0.72866255 -0.44357494 -0.092371978 0
0.81478828 -0.37898639 -0.090626769 0
0.93840778 -0.28628007 -0.091608994 0
1.083981 -0.17710993 -0.089273475 0
1.0962451 -0.16791275 -0.059034336 0
1.098318 -0.1663582 -0.027058518 0
1.0970978 -0.16727331 0.0051867757 0
1.1016049 -0.16389319 0.036923114 0
1.0941362 -0.16949424 0.069200791 0
1.1041322 -0.16199788 0.10100976 0
1.101337 -0.16409418 0.13302784 0
1.0975728 -0.16691706 0.16486149 0
1.0986491 -0.16610977 0.19696832 0
0.69498205 -0.44093797 -0.087040596 0
0.80365294 -0.35507414 -0.091712363 0
0.91353357 -0.26825449 -0.090176664 0
1.0612061 -0.15157446 -0.088926353 0
1.0962555 -0.12388089 -0.062174771 0
1.0949703 -0.12489632 -0.02917189 0
1.1001601 -0.12079576 0.0030348992 0
1.0977415 -0.1227068 0.035895903 0
1.0899299 -0.12887892 0.068702199 0
1.1006632 -0.12039837 0.10101041 0
1.0946475 -0.12515149 0.13345802 0
1.0969423 -0.12333831 0.16607739 0
1.0927485 -0.12665191 0.19832537 0
0.69154519 -0.414767 -0.089976974 0
0.78113902 -0.34022877 -0.090179466 0
0.89787591 -0.24310866 -0.090780713 0
1.0335125 -0.13026491 -0.087789334 0
1.0990659 -0.075727314 -0.06597469 0
1.1007445 -0.074330777 -0.032563362 0
1.1030576 -0.072406322 0.00074680359 0
1.1053591 -0.070491582 0.034089316 0
1.1057868 -0.070135802 0.067555539 0
1.099965 -0.074979335 0.10101121 0
1.0979486 -0.076656848 0.1342297 0
1.0981727 -0.076470464 0.16749793 0
1.1009725 -0.074141055 0.20108646 0
0.66903627 -0.40434971 -0.087775178 0
0.76667732 -0.31885698 -0.090721019 0
0.87533832 -0.22371545 -0.09003251 0
0.99525779 -0.11871627 -0.084753625 0
1.1077231 -0.02024379 -0.070954479 0
1.0996103 -0.027347114 -0.03533015 0
1.0997404 -0.027233269 -0.0011271664 0
1.0891131 -0.036538269 0.033638354 0
1.1013752 -0.025801804 0.066964313 0
1.0968992 -0.029721048 0.10101198 0
1.1000959 -0.026922073 0.13502041 0
1.0996538 -0.027309086 0.16903824 0
1.0963401 -0.030210581 0.20283553 0
1.1006298 -0.026454475 0.23748161 0
1.0924141 -0.033647981 0.37429476 0
0.66534644 -0.37728783 -0.091035567 0
0.75076133 -0.29860553 -0.091039442 0
0.84778053 -0.20923367 -0.088253073 0
0.97167218 -0.095107466 -0.084504552 0
1.0609301 -0.012885179 -0.067460112 0
1.099858 0.022974286 -0.038486112 0
1.1056139 0.028276596 -0.0040259119 0
1.0956018 0.019053612 0.031684142 0
1.102368 0.02528647 0.066153385 0
1.0957117 0.019154821 0.10101289 0
1.1017268 0.024695788 0.13585263 0
1.1012542 0.024260435 0.17070004 0
1.0909047 0.014726792 0.20465364 0
1.105103 0.027805958 0.241179 0
1.0305736 -0.040848877 0.36471894 0
0.6491909 -0.3612068 -0.090886839 0
0.72982085 -0.28308097 -0.090180509 0
0.83032525 -0.18569776 -0.08882428 0
0.84183705 -0.17454353 -0.063573189 0
0.84107876 -0.17527828 -0.035746116 0
0.84227937 -0.17411491 -0.0083736833 0
0.83447015 -0.18168166 0.019834774 0
0.83896273 -0.17732856 0.046648677 0
0.84178931 -0.17458978 0.073749393 0
0.84453142 -0.17193285 0.10100393 0
0.84383678 -0.17260584 0.12832473 0
0.84191716 -0.17446592 0.15555063 0
0.84727114 -0.16927817 0.18341973 0
1.0983973 0.074048907 0.24369001 0
1.0080386 -0.013503518 0.29811865 0
1.0119708 -0.0096935295 0.33241668 0
0.98837954 -0.03255203 0.36001348 0
0.64064157 -0.33740404 -0.093164317 0
0.72144675 -0.25505504 -0.092782728 0
0.82735831 -0.14712003 -0.092947818 0
0.83957529 -0.13466963 -0.067297898 0
0.84007478 -0.13416055 -0.039050464 0
0.83747649 -0.13680848 -0.010510361 0
0.84000874 -0.1342279 0.017221527 0
0.83529466 -0.13903198 0.045513012 0
0.84125268 -0.13296017 0.073075943 0
0.83817244 -0.13609925 0.10100452 0
0.83503628 -0.13929531 0.12872653 0
0.84047729 -0.13375041 0.15684086 0
0.83475602 -0.13958094 0.18426327 0
0.83544117 -0.13888273 0.21224852 0
1.0946943 0.12532344 0.28357002 0
0.94558728 -0.026632216 0.29058889 0
0.94775975 -0.024418261 0.32322112 0
0.95216119 -0.019932713 0.35684869 0
0.60883594 -0.33771613 -0.088442199 0
0.69752115 -0.24265316 -0.091355018 0
0.79613602 -0.13694629 -0.090608306 0
0.83836013 -0.091685623 -0.071544878 0
0.84485453 -0.084724218 -0.043611724 0
0.83854544 -0.09148702 -0.013636185 0
0.83272165 -0.097729594 0.015729966 0
0.8393299 -0.090646118 0.043755405 0
0.83442783 -0.095900744 0.072563022 0
0.83211571 -0.098379165 0.10100518 0
0.83674467 -0.093417317 0.12952673 0
0.83953005 -0.090431601 0.15826939 0
0.84737563 -0.082021862 0.18778381 0
0.83781564 -0.092269331 0.21554779 0
1.1065775 0.19582048 0.29048735 0
0.92814934 0.0045607421 0.29206285 0
0.93390989 0.010735545 0.32582322 0
0.93055528 0.0071397158 0.35772005 0
0.59919751 -0.31469861 -0.090683199 0
0.67557502 -0.22857061 -0.090535767 0
0.77867937 -0.11230376 -0.091673948 0
0.85106611 -0.030675974 -0.079089649 0
0.83649516 -0.047107067 -0.046206851 0
0.84245783 -0.040383186 -0.01741088 0
0.8368122 -0.046749558 0.012900831 0
0.83525598 -0.048504438 0.042431593 0
0.83993304 -0.043230321 0.071570896 0
0.84366542 -0.039021399 0.10100666 0
0.83786219 -0.045565512 0.1303694 0
0.83813512 -0.045257773 0.15978342 0
0.84307253 -0.039690044 0.18977241 0
0.83812302 -0.045271423 0.21881452 0
1.1055064 0.2562466 0.2956304 0
1.1006763 0.25079992 0.33399746 0
0.58097899 -0.30101511 -0.090350874 0
0.65312964 -0.21539572 -0.08964812 0
0.73172331 -0.1221306 -0.085404597 0
0.8487497 0.016741786 -0.083918326 0
0.83738112 0.0032509302 -0.050727312 0
0.84727043 0.01498631 -0.021614766 0
0.83739311 0.0032651757 0.010228956 0
0.83928955 0.0055156085 0.040406112 0
0.83808887 0.0040907594 0.070766546 0
0.8415702 0.0082219578 0.10100764 0
0.84123033 0.0078186728 0.13136208 0
0.84342802 0.010426614 0.16190848 0
0.84001708 0.0063789221 0.19207121 0
0.83800256 0.0039884183 0.22228792 0
0.83970714 0.0060111615 0.2531653 0
1.103904 0.31952694 0.34160456 0
0.56553143 -0.28397283 -0.091066219 0
0.63488579 -0.19732615 -0.090097196 0
0.72620225 -0.083241552 -0.089768089 0
0.85048753 0.072032005 -0.090078317 0
0.85712004 0.080318242 -0.059152532 0
0.84168416 0.061033759 -0.024605429 0
0.84290397 0.062557727 0.0067809839 0
0.84198838 0.061413798 0.038315233 0
0.83572984 0.053594742 0.069911852 0
0.84363574 0.063471824 0.10100889 0
0.83649099 0.054545794 0.13213365 0
0.835491 0.05329648 0.16321793 0
0.83824879 0.056741867 0.1947159 0
0.84141058 0.060691867 0.22658283 0
0.84080315 0.059932981 0.2581194 0
1.1031864 0.38773683 0.34895173 0
1.1006116 0.38451996 0.3902835 0
0.54274189 -0.27628848 -0.089374892 0
0.61323088 -0.18352005 -0.089639239 0
0.70071352 -0.068386823 -0.089116849 0
0.73006296 -0.029760864 -0.068388216 0
0.73231405 -0.026798274 -0.040308718 0
0.73180056 -0.027474131 -0.011782316 0
0.7355895 -0.022487547 0.016083794 0
0.72988993 -0.029988613 0.044880603 0
0.73814303 -0.019126978 0.072640717 0
0.73108512 -0.028415646 0.10100485 0
0.72912246 -0.030998673 0.12902217 0
0.7327264 -0.026255634 0.15734766 0
0.72790682 -0.032598522 0.18503819 0
0.73205143 -0.027143922 0.21383142 0
0.72401017 -0.037726786 0.24071456 0
0.7298525 -0.030037906 0.27035028 0
0.72802979 -0.032436695 0.2985487 0
0.72690678 -0.033914652 0.32704091 0
0.52644789 -0.26025411 -0.090054058 0
0.59437013 -0.16601929 -0.090175427 0
0.6827302 -0.043429222 -0.090655677 0
0.72795343 0.019313131 -0.073755734 0
0.95309818 0.33167735 -0.089339428 0
0.85083938 0.18980423 -0.034695853 0
0.83923888 0.17370978 0.00074696005 0
0.8415941 0.17697743 0.034041274 0
0.83569741 0.16879645 0.067778952 0
0.83170706 0.16326025 0.10101096 0
0.84141344 0.17672673 0.13447124 0
0.83787066 0.17181149 0.16768497 0
0.83704078 0.17066017 0.20101307 0
0.83547354 0.16848579 0.23426595 0
0.83908451 0.17349556 0.26857421 0
0.84104705 0.17621842 0.30296171 0
1.0929011 0.52563876 0.40799567 0
0.50926155 -0.24521467 -0.09057232 0
0.57116479 -0.15459511 -0.089425974 0
0.65774798 -0.02784666 -0.090393417 0
0.76864237 0.13449076 -0.09029118 0
0.91804987 0.35320714 -0.089046068 0
1.1549876 0.70005816 -0.08999335 0
0.84777629 0.25033417 -0.0039810445 0
0.83809233 0.23615792 0.031879541 0
0.83766496 0.23553231 0.066482477 0
0.83924437 0.23784438 0.10101283 0
0.83819193 0.23630372 0.13556483 0
0.84194607 0.24179938 0.17046463 0
0.84158975 0.24127784 0.20524059 0
0.84196395 0.24182561 0.24022153 0
0.83817434 0.23627797 0.27452269 0
0.837511 0.23530701 0.30947667 0
1.1053913 0.62745458 0.42287856 0
1.0940903 0.61091143 0.46609512 0
0.49042261 -0.23247752 -0.090610169 0
0.55389351 -0.13433495 -0.090803079 0
0.63101888 -0.015079048 -0.089708902 0
0.73400539 0.14416495 -0.08872851 0
0.88101494 0.37148014 -0.088428311 0
1.1135637 0.73106092 -0.090262763 0
1.4846621 1.3048759 -0.090031289 0
0.85297036 0.32811585 0.027930582 0
0.84203476 0.31120661 0.064960867 0
0.84207714 0.31127205 0.10101461 0
0.84098446 0.3095825 0.13702333 0
0.83733398 0.30393794 0.17275786 0
0.84239435 0.3117626 0.20937903 0
0.84398133 0.31421641 0.24595685 0
0.83930486 0.30698541 0.28148177 0
0.84078783 0.30927852 0.31839326 0
0.84063816 0.30904713 0.35518038 0
1.097746 0.70660275 0.48149201 0
0.47067285 -0.22118482 -0.090406947 0
0.53695875 -0.11278614 -0.092540644 0
0.60209364 -0.0062697199 -0.088403307 0
0.70926678 0.16899255 -0.089831091 0
0.85454583 0.40657035 -0.090252943 0
1.0626404 0.74687153 -0.088981219 0
1.4248095 1.3391337 -0.089830808 0
0.85089236 0.40059569 0.025125595 0
0.85715014 0.41082922 0.062812895 0
0.83919132 0.38146082 0.10101627 0
0.83986712 0.382566 0.1384495 0
0.84112328 0.3846201 0.17603558 0
0.84567362 0.39206138 0.21425733 0
0.84508336 0.39109614 0.25209025 0
0.83490443 0.37445036 0.28788605 0
0.84188265 0.3858619 0.32759011 0
0.84168684 0.38554183 0.36591884 0
1.0970031 0.80306548 0.49680319 0
0.45589626 -0.20134589 -0.092427574 0
0.51092649 -0.10603091 -0.091129325 0
0.58072317 0.014860187 -0.089594342 0
0.68131024 0.18908182 -0.090250902 0
0.81382722 0.41860738 -0.089030929 0
1.0261045 0.78628165 -0.090401314 0
1.3664292 1.3757401 -0.089945652 0
1.3691005 1.3803668 -0.026414683 0
0.85071671 0.48250178 0.061456677 0
0.84484142 0.47232547 0.10101858 0
0.84075749 0.46525195 0.14011696 0
0.84031701 0.46448901 0.17921697 0
0.83720607 0.45910063 0.21798716 0
0.8402434 0.46436146 0.25774217 0
0.83515549 0.45554903 0.29605368 0
0.83630735 0.457544 0.33585382 0
0.83804065 0.46054617 0.37621412 0
0.83893269 0.46209124 0.41672957 0
0.43098807 -0.19909117 -0.090256251 0
0.48982897 -0.090964049 -0.091661431 0
0.56054199 0.038979445 -0.09143015 0
0.64881051 0.20118323 -0.089500703 0
0.77881825 0.44008783 -0.089219831 0
0.98666024 0.82202202 -0.091510795 0
1.2942762 1.3873026 -0.088183828 0
1.2875904 1.3750167 -0.024341529 0
1.291852 1.3828478 0.038179498 0
0.85211343 0.57477635 0.10102123 0
0.84229404 0.55673212 0.14199445 0
0.84261858 0.55732852 0.18304439 0
0.8399418 0.55240971 0.22377582 0
0.84237045 0.55687255 0.2653766 0
0.83620733 0.54554707 0.30529392 0
0.83932149 0.55126971 0.34755597 0
0.83561611 0.54446059 0.38805419 0
0.83712935 0.54724139 0.43055838 0
0.41462454 -0.18124393 -0.091987289 0
0.46787298 -0.077225357 -0.092019118 0
0.53131491 0.046705756 -0.090310387 0
0.62346691 0.22672072 -0.09101174 0
0.74691981 0.46788076 -0.090351887 0
0.9347167 0.83473414 -0.090296425 0
1.2438394 1.438592 -0.089708604 0
1.243968 1.4388435 -0.026021248 0
1.2484608 1.4476199 0.037318658 0
1.2459048 1.4426267 0.1010484 0
0.85142118 0.67201978 0.14447021 0
0.83983916 0.64939493 0.18677919 0
0.84351391 0.65657324 0.23033799 0
0.83972389 0.64916974 0.27288499 0
0.83724874 0.64433461 0.31556675 0
0.84244084 0.65447718 0.36059353 0
0.84021443 0.65012795 0.40377158 0
0.84557223 0.66059417 0.45018896 0
0.39493898 -0.16932866 -0.092396624 0
0.44032827 -0.074859291 -0.090112559 0
0.50659525 0.063063055 -0.090913199 0
0.59302294 0.24294594 -0.091153033 0
0.70953667 0.48544744 -0.090249412 0
0.88647878 0.85371929 -0.089882873 0
1.1810232 1.4667583 -0.089520939 0
1.78207 2.7177246 -0.090494789 0
4.506227 8.3875465 -0.14090398 0
0.85101479 0.77990764 0.19246082 0
0.84053975 0.75810581 0.23660986 0
0.8371973 0.75114912 0.28131321 0
0.83767098 0.7521351 0.32688165 0
0.8418119 0.76075357 0.37394041 0
0.83994508 0.75686818 0.4194741 0
0.83909464 0.75509804 0.4655984 0
0.37063116 -0.16741773 -0.090586074 0
0.4189766 -0.059929159 -0.090966739 0
0.47874051 0.072946578 -0.090455703 0
0.55416697 0.24064556 -0.088557132 0
0.67323148 0.50536698 -0.090571232 0
0.8429544 0.88271958 -0.09062437 0
1.1212249 1.5014105 -0.089954831 0
1.6882353 2.7620699 -0.090524741 0
4.2679286 8.4976168 -0.14088827 0
1.0719118 1.3917706 0.22266549 0
0.8519876 0.90280348 0.24612835 0
0.83748376 0.87055641 0.29143775 0
0.83917534 0.87431735 0.33991152 0
0.83893538 0.87378377 0.3881804 0
0.8348003 0.86459011 0.43517777 0
0.8412807 0.87899822 0.48694101 0
0.3482911 -0.16189185 -0.089770176 0
0.4009583 -0.036424663 -0.093674116 0
0.4516201 0.084265143 -0.090384789 0
0.52323365 0.25486746 -0.088657089 0
0.63804734 0.52838403 -0.091399081 0
0.79342276 0.89852935 -0.090134598 0
1.0588846 1.5309293 -0.090110011 0
1.5945417 2.8070059 -0.090704434 0
4.0266747 8.6009903 -0.14085634 0
0.99633062 1.3819094 0.22083935 0
0.85147566 1.0368266 0.25471455 0
0.84049565 1.0106694 0.30355227 0
0.83651394 1.001184 0.35339344 0
0.83955824 1.0084362 0.40557852 0
0.84038186 1.0103983 0.45753044 0
0.83787221 1.0044197 0.50835842 0
0.33061671 -0.14490756 -0.091706209 0
0.36988926 -0.044310298 -0.090100445 0
0.4250212 0.096911103 -0.090670176 0
0.4944979 0.27487686 -0.089747585 0
0.59798408 0.53995854 -0.090895168 0
0.74938864 0.92778367 -0.091122679 0
0.99948788 1.5684171 -0.090980418 0
1.4974344 2.8439155 -0.090600021 0
3.7826486 8.6975307 -0.14080696 0
0.92376941 1.3744631 0.21924789 0
0.8497501 1.1848612 0.26427004 0
0.84096581 1.1623602 0.31670132 0
0.83908522 1.1575432 0.37045383 0
0.84152699 1.1637976 0.42592937 0
0.83743531 1.1533167 0.47912914 0
0.84176713 1.1644127 0.53657597 0
0.30952567 -0.13597819 -0.091905348 0
0.34853891 -0.028085198 -0.091546081 0
0.3949706 0.10032395 -0.089457206 0
0.43725327 0.21725872 -0.079336442 0
0.43444562 0.20949402 -0.04801378 0
0.43482667 0.21054783 -0.018119751 0
0.93207771 1.5857201 -0.090454362 0
1.4011527 2.8829699 -0.090724654 0
3.5358148 8.7864828 -0.14072342 0
0.85818028 1.3813531 0.21847266 0
0.85110104 1.3617749 0.27589068 0
0.8417418 1.3358917 0.33189896 0
0.8428902 1.3390677 0.39048034 0
0.83911532 1.3286281 0.44750363 0
0.84039193 1.3321586 0.50682527 0
0.84139341 1.334928 0.56662571 0
0.28608328 -0.13390782 -0.090685792 0
0.32313371 -0.022749092 -0.090925194 0
0.36679009 0.10822883 -0.089164577 0
0.4039492 0.21971372 -0.078126378 0
0.40618488 0.22642115 -0.048798759 0
0.40235215 0.21492222 -0.01751071 0
0.86881417 1.6144023 -0.090897195 0
1.3028326 2.9165449 -0.090699129 0
3.2881248 8.8728218 -0.14072987 0
0.79310209 1.3872507 0.21773686 0
0.84982497 1.5574307 0.28879374 0
0.83961815 1.5268083 0.34867901 0
0.83657211 1.5176694 0.40996712 0
0.83733428 1.5199561 0.47283331 0
0.84084153 1.5304787 0.53765219 0
0.84179431 1.5333371 0.60196555 0
0.26332352 -0.13054398 -0.089895122 0
0.30079666 -0.0078831576 -0.092312731 0
0.33892012 0.11690643 -0.089129724 0
0.38172457 0.25701836 -0.082170658 0
0.38289982 0.26086536 -0.051805917 0
0.37903139 0.24820283 -0.019807873 0
0.72900414 1.3937693 -0.073229112 0
0.72696143 1.3870828 -0.014708465 0
0.72473454 1.3797934 0.043374971 0
0.72557622 1.3825486 0.1010412 0
0.72630793 1.3849437 0.15883285 0
0.72983986 1.3965046 0.21725066 0
0.84097642 1.7602882 0.30212703 0
0.83671588 1.7463422 0.3681303 0
0.83766973 1.7494643 0.43582764 0
0.83838326 1.7517998 0.50393134 0
0.83353931 1.7359443 0.56946903 0
0.24687931 -0.1051186 -0.09410461 0
0.27026537 -0.021031883 -0.088324316 0
0.31125614 0.12635413 -0.089346908 0
0.36688367 0.32636788 -0.090943135 0
0.43848023 0.58379978 -0.089860134 0
0.55281234 0.99489123 -0.091263346 0
0.66304564 1.3912451 -0.071768098 0
0.65942812 1.378238 -0.013432501 0
0.66186112 1.3869858 0.043623891 0
0.65808606 1.3734121 0.10104041 0
0.65781772 1.3724475 0.15810609 0
0.66004795 1.3804665 0.21562172 0
0.81145144 1.9248514 0.31260243 0
0.81396711 1.9338968 0.38435259 0
0.81459934 1.9361699 0.45603159 0
0.81148696 1.924979 0.52624726 0
0.808029 1.9125454 0.59616941 0
0.22128333 -0.1119751 -0.091303848 0
0.25139627 0.0079410411 -0.092691205 0
0.28370583 0.13660446 -0.089817457 0
0.33332264 0.33418921 -0.090799384 0
0.3948333 0.57913762 -0.088028498 0
0.49610478 0.98242205 -0.088784151 0
0.59230077 1.3654947 -0.068762578 0
0.59726256 1.3852537 -0.013007997 0
0.59667432 1.3829112 0.044103172 0
0.59697092 1.3840921 0.10104026 0
0.59458315 1.3745837 0.15777723 0
0.59931672 1.3934338 0.21548201 0
0.76758367 2.0635083 0.32119676 0
0.76983052 2.0724559 0.39580983 0
0.76993805 2.0728838 0.47015136 0
0.76807475 2.0654638 0.54378176 0
0.19945464 -0.10501602 -0.091669776 0
0.22299065 -0.0001576807 -0.089969449 0
0.25695267 0.15115109 -0.091126464 0
0.29842353 0.33591345 -0.089900635 0
0.35790154 0.6009019 -0.089504935 0
0.44749013 1.0000398 -0.089334495 0
0.55179822 1.4647567 -0.074859299 0
0.55124754 1.4623032 -0.016002497 0
0.55198097 1.4655707 0.042473637 0
0.5506199 1.459507 0.10104205 0
0.55179179 1.4647281 0.15959075 0
0.55023634 1.457798 0.21787183 0
0.71416092 2.1881201 0.32881507 0
0.71268648 2.1815512 0.40448901 0
0.71431679 2.1888146 0.48183629 0
0.71404308 2.1875954 0.55873108 0
0.17490417 -0.11127505 -0.08928933 0
0.19848756 0.0077765319 -0.090477787 0
0.22609881 0.14716104 -0.089436688 0
0.26699105 0.35358968 -0.091418274 0
0.32108372 0.62665552 -0.091560684 0
0.39639354 1.0068276 -0.088968627 0
0.41671786 1.109427 -0.048600916 0
0.41465598 1.0990183 0.0018606356 0
0.4170154 1.110929 0.051190436 0
0.41545677 1.103061 0.10103129 0
0.41710347 1.1113737 0.15088324 0
0.41637403 1.1076913 0.20061409 0
0.4164542 1.1080961 0.25056952 0
0.41513136 1.1014183 0.30003285 0
0.41631502 1.1073935 0.35090241 0
0.40408418 1.0456507 0.39262834 0
0.29464915 0.49321082 0.34944499 0
0.27219892 0.37987962 0.36394897 0
0.1535915 -0.10195705 -0.090412848 0
0.17333052 0.012807999 -0.090547614 0
0.19775775 0.15483096 -0.089828841 0
0.23399772 0.36553457 -0.092225455 0
0.28189632 0.64402288 -0.092723466 0
0.3465659 1.0200198 -0.089333333 0
0.36926541 1.1519973 -0.050923992 0
0.88147819 4.1300654 -0.14085899 0
1.7633942 9.2576323 -0.1407734 0
0.58089715 2.3824501 0.2604413 0
0.58187479 2.388134 0.34074792 0
0.58056116 2.3804967 0.42032304 0
0.26259261 0.53178877 0.2814438 0
0.2712459 0.58209997 0.32514092 0
0.27333391 0.59424001 0.36514172 0
0.23807271 0.38922694 0.36451101 0
0.13264535 -0.088186592 -0.092604496 0
0.14864072 0.021279488 -0.091393121 0
0.16787277 0.1528962 -0.088743307 0
0.19878776 0.36446634 -0.091299973 0
0.23872112 0.63775462 -0.091207333 0
0.29590175 1.0290768 -0.089425512 0
0.39689302 1.7202215 -0.090461709 0
0.75124687 4.1452818 -0.14060636 0
1.505115 9.3044615 -0.14090556 0
0.50699723 2.4737322 0.26410261 0
0.50390381 2.4525619 0.34434325 0
0.50574404 2.4651556 0.42703491 0
0.22143379 0.51944691 0.27926251 0
0.27597558 0.89270991 0.36837637 0
0.20080221 0.37825242 0.36136582 0
0.10953493 -0.087913781 -0.092013039 0
0.123205 0.025588665 -0.091564827 0
0.13872936 0.15448728 -0.088369794 0
0.16397782 0.36412504 -0.090606175 0
0.19668862 0.63572258 -0.090322949 0
0.24716169 1.0548 -0.091204695 0
0.32835129 1.7289169 -0.09043131 0
0.62288338 4.1744146 -0.14116143 0
1.2436787 9.3288727 -0.1406652 0
0.42443228 2.5266764 0.26604062 0
0.4243257 2.5257914 0.34868687 0
0.42354855 2.5193388 0.43103746 0
0.42317995 2.5162783 0.51384318 0
0.22958536 0.90886396 0.36976621 0
0.16576993 0.37900487 0.36063445 0
0.086505555 -0.088118464 -0.091445766 0
0.097568125 0.028438959 -0.091581739 0
0.11038829 0.16351452 -0.089346416 0
0.13052042 0.37563029 -0.091710575 0
0.15682428 0.65277284 -0.091805629 0
0.19561574 1.0614867 -0.09131027 0
0.25970131 1.7367046 -0.090458907 0
0.49237534 4.1882024 -0.14114925 0
0.98246521 9.351881 -0.14054699 0
0.34127828 2.596215 0.26884869 0
0.33928528 2.5752163 0.35148844 0
0.34013808 2.5842016 0.43622723 0
0.3402116 2.584976 0.52079207 0
0.34021017 2.5849609 0.60574329 0
0.17424981 0.83637148 0.40247664 0
0.13108689 0.38159874 0.36042085 0
0.063550472 -0.08898595 -0.090862237 0
0.07184159 0.030301366 -0.091534398 0
0.080978617 0.16175893 -0.08866284 0
0.095652655 0.37287942 -0.090923809 0
0.11416809 0.63926774 -0.089824013 0
0.14160787 1.0340531 -0.088345014 0
0.19064096 1.7395098 -0.090258859 0
0.36072531 4.186574 -0.14057159 0
0.72266513 9.3939304 -0.1410266 0
0.25333315 2.641485 0.27061602 0
0.25274074 2.6329618 0.35501939 0
0.1330463 0.91087514 0.27887028 0
0.13352412 0.9177497 0.32450107 0
0.13410087 0.92604762 0.37090322 0
0.12458294 0.78910965 0.39406285 0
0.096044213 0.37851301 0.35930046 0
0.040593594 -0.092702955 -0.089796416 0
0.045549896 0.019458566 -0.089214243 0
0.051945359 0.16418853 -0.088790737 0
0.061206538 0.37376991 -0.090774037 0
0.07362175 0.6547274 -0.091359131 0
0.090963192 1.0471659 -0.089298807 0
0.12209077 1.751586 -0.090829827 0
0.22985828 4.1903744 -0.14040248 0
0.46029675 9.4052181 -0.14094244 0
0.16306084 2.6787419 0.27211121 0
0.16269514 2.6704662 0.35728186 0
0.086606868 0.94858176 0.28214046 0
0.085731186 0.928765 0.32546997 0
0.087045558 0.95850939 0.3750847 0
0.077329926 0.73864359 0.38533756 0
0.061436426 0.3789722 0.35901684 0
0.018077303 -0.085747033 -0.09112341 0
0.020092789 0.020730052 -0.089302383 0
0.023258233 0.18795875 -0.092547067 0
0.0268142 0.37581864 -0.090909384 0
0.031974114 0.64841431 -0.090468071 0
0.039441239 1.0428984 -0.088748954 0
0.052872639 1.7524722 -0.090739138 0
0.09931615 4.2060585 -0.14094068 0
0.19755958 9.3962069 -0.14054035 0
0.070939414 2.7069304 0.27328914 0
0.070726685 2.6956921 0.35884315 0
0.070753537 2.6971107 0.44533449 0
0.070820287 2.7006369 0.53251547 0
0.032610439 0.68203098 0.37580186 0
0.027070822 0.38937584 0.36077195 0
-0.004793671 -0.074790508 -0.093421809 0
-0.0054239617 0.025141988 -0.090103097 0
-0.006316816 0.16670361 -0.089022897 0
-0.0075532729 0.36274365 -0.0890413 0
-0.0094124489 0.65751547 -0.091501288 0
-0.011777293 1.0324607 -0.087744482 0
-0.01638505 1.7630196 -0.091445975 0
-0.031804487 4.2077665 -0.14098169 0
-0.064597569 9.4070997 -0.14075515 0
-0.022465575 2.7270849 0.27420115 0
-0.022412162 2.7186162 0.36040607 0
-0.022395004 2.7158957 0.44703418 0
-0.022418413 2.7196071 0.53466505 0
-0.0093460912 0.64699429 0.36999762 0
-0.0076763248 0.38225344 0.35938862 0
-0.027430279 -0.089024752 -0.090487517 0
-0.031428006 0.037681255 -0.092557348 0
-0.035515271 0.16722515 -0.089199401 0
-0.04219009 0.37878028 -0.091386907 0
-0.050632384 0.64635462 -0.090288199 0
-0.063781016 1.0630939 -0.090695374 0
-0.085591227 1.7543578 -0.090932079 0
-0.11870044 2.8037384 -0.075700708 0
-0.1185728 2.7996929 0.01283096 0
-0.11893985 2.811326 0.10107895 0
-0.11870831 2.8039875 0.18942654 0
-0.11654268 2.7353492 0.27466932 0
-0.11644807 2.7323503 0.36149141 0
-0.11651655 2.7345212 0.44893995 0
-0.1161644 2.7233601 0.53531128 0
-0.050375879 0.6382249 0.36868364 0
-0.042038545 0.37397709 0.35795194 0
-0.050379645 -0.085738868 -0.09140069 0
-0.056401957 0.020221625 -0.089479409 0
-0.065715663 0.18409291 -0.092188291 0
-0.076641127 0.37632254 -0.091255553 0
-0.091796875 0.64298254 -0.090106837 0
-0.11605392 1.0697765 -0.091533966 0
-0.15396717 1.7368469 -0.089920007 0
-0.21401812 2.7934222 -0.075416766 0
-0.21440996 2.8003163 0.012718106 0
-0.21330006 2.7807882 0.1010782 0
-0.21459737 2.8036139 0.18951651 0
-0.21159051 2.7507093 0.27558023 0
-0.2110014 2.740344 0.36234227 0
-0.21126124 2.7449157 0.45030057 0
-0.077969767 0.39969948 0.26364896 0
-0.077078968 0.3840262 0.29436082 0
-0.076976337 0.38222042 0.32682469 0
-0.077111408 0.38459697 0.36024278 0
-0.072830178 -0.091345221 -0.090542682 0
-0.082670227 0.028374586 -0.091354527 0
-0.09339013 0.15879896 -0.088356264 0
-0.1115583 0.3798435 -0.092089482 0
-0.13442597 0.65806478 -0.092210911 0
-0.16704832 1.0549672 -0.090484925 0
-0.22375369 1.7448773 -0.090818413 0
-0.42465135 4.1891141 -0.14092146 0
-0.8504076 9.3691101 -0.1406792 0
-0.30592418 2.7446105 0.27560151 0
-0.30439097 2.7259569 0.36179107 0
-0.3045854 2.7283223 0.44935879 0
-0.30480999 2.7310548 0.53746194 0
-0.11323026 0.4001855 0.29697984 0
-0.11286408 0.39573029 0.3294498 0
-0.11151663 0.37933663 0.35970345 0
-0.09622439 -0.086418539 -0.092055179 0
-0.10768957 0.020081077 -0.090244584 0
-0.12294383 0.16177717 -0.089302532 0
-0.14471127 0.363974 -0.090309314 0
-0.17563941 0.65126413 -0.091874726 0
-0.21895605 1.0536306 -0.090818532 0
-0.29136169 1.726203 -0.089965247 0
-0.5547235 4.1725593 -0.14072633 0
-1.1128092 9.3565941 -0.14096595 0
-0.39817858 2.7184205 0.27479243 0
-0.39842212 2.7206826 0.36204532 0
-0.39840254 2.7205007 0.44945943 0
-0.39912319 2.727195 0.53805465 0
-0.14859051 0.40000811 0.29742476 0
-0.14796816 0.39422706 0.32974911 0
-0.14739273 0.38888207 0.36213273 0
-0.11910904 -0.088143736 -0.092272766 0
-0.13450253 0.027374659 -0.092212521 0
-0.15330763 0.16849497 -0.090995528 0
-0.17917347 0.36260167 -0.090696968 0
-0.21589394 0.6381653 -0.090917282 0
-0.27061212 1.0487902 -0.090946533 0
-0.3600848 1.7202258 -0.090124853 0
-0.68570989 4.1638355 -0.14105228 0
-1.3735964 9.3259859 -0.14098443 0
-0.49196592 2.7099097 0.2749213 0
-0.48831436 2.682507 0.36014536 0
-0.2403806 0.82192212 0.27162942 0
-0.24235994 0.83677584 0.31638214 0
-0.18412924 0.39979151 0.29799202 0
-0.18527316 0.40837589 0.33279225 0
-0.18228444 0.3859475 0.36236987 0
-0.14159726 -0.092783481 -0.09198799 0
-0.15868858 0.014689002 -0.09050677 0
-0.18018028 0.14983168 -0.088598795 0
-0.21256363 0.35346261 -0.090104528 0
-0.25743437 0.63561589 -0.091324426 0
-0.32049909 1.0321751 -0.090085126 0
-0.42760575 1.7056761 -0.089800842 0
-0.81638688 4.1503844 -0.14131227 0
-1.6308784 9.2720175 -0.14060768 0
-0.5816741 2.6744788 0.27389166 0
-0.58071911 2.6684737 0.36010858 0
-0.27828386 0.76672024 0.2670393 0
-0.27831733 0.76693064 0.30890819 0
-0.27891096 0.77066356 0.35151702 0
-0.2163347 0.3771756 0.361662 0
-0.1656618 -0.088611871 -0.093729071 0
-0.18581276 0.020305667 -0.092415474 0
-0.2104751 0.1536074 -0.090054445 0
-0.2479254 0.35602918 -0.091302447 0
-0.29599544 0.61585134 -0.089811705 0
-0.37083697 1.0203755 -0.089796089 0
-0.49670395 1.700696 -0.090276577 0
-0.94241673 4.109808 -0.14044502 0
-1.8903669 9.2335501 -0.14074892 0
-0.67157996 2.6459141 0.27328974 0
-0.66778278 2.6253901 0.35817015 0
-0.66695642 2.6209235 0.44387937 0
-0.66667837 2.6194208 0.53010255 0
-0.28924751 0.57937819 0.36325231 0
-0.25230867 0.37972096 0.36328366 0
-0.18633367 -0.10257164 -0.091671981 0
-0.21030885 0.010927472 -0.091579251 0
-0.23797762 0.14191225 -0.089047186 0
-0.27854505 0.33395949 -0.089095987 0
-0.33600792 0.60599023 -0.089589857 0
-0.4216263 1.0113099 -0.089887224 0
-0.56146073 1.67329 -0.089276753 0
-0.61798322 1.9408689 -0.038452465 0
-0.61867684 1.9441524 0.031261448 0
-0.61899906 1.945678 0.10105603 0
-0.7547828 2.5884817 0.2714172 0
-0.75276428 2.5789261 0.35613641 0
-0.75367045 2.583216 0.44199827 0
-0.75359637 2.582865 0.5278843 0
-0.28641135 0.3711988 0.36295709 0
-0.20804952 -0.11009243 -0.091123022 0
-0.23237652 -0.0077678231 -0.089053534 0
-0.26802465 0.14217606 -0.090171091 0
-0.31215015 0.32777765 -0.089282624 0
-0.37475762 0.5911184 -0.088885687 0
-0.47227296 1.0012892 -0.090009935 0
-0.52340436 1.2163591 -0.057523254 0
-0.62023777 1.6236618 -0.024065336 0
-0.61849892 1.6163478 0.038699523 0
-0.61791545 1.6138935 0.10104679 0
-0.83721715 2.5363247 0.26988646 0
-0.8345291 2.525018 0.35370889 0
-0.83315724 2.5192478 0.43779433 0
-0.83133382 2.5115781 0.52174121 0
-0.83284956 2.5179536 0.60780799 0
-0.22945817 -0.11832181 -0.090534724 0
-0.26027453 -0.001844671 -0.091415532 0
-0.29753807 0.13900128 -0.090846442 0
-0.34686419 0.32544032 -0.090152286 0
-0.41539678 0.58447438 -0.08928939 0
-0.52063096 0.98223048 -0.089383818 0
-0.57732993 1.1965368 -0.057097349 0
-0.64630705 1.4572511 -0.016846431 0
-0.64630079 1.4572275 0.042130578 0
-0.64821666 1.464469 0.10104286 0
-0.91354346 2.4673305 0.26763365 0
-0.91028035 2.4549968 0.35024783 0
-0.91128129 2.4587801 0.43409365 0
-0.91240716 2.4630356 0.51854461 0
-0.9101373 2.4544561 0.60179549 0
-0.2529594 -0.1189321 -0.091748349 0
-0.28392231 -0.012806322 -0.09061978 0
-0.32579258 0.13070443 -0.090776958 0
-0.34413144 0.19356111 -0.072192051 0
-0.45861527 0.58595568 -0.09080971 0
-0.56978035 0.96697515 -0.089241184 0
-0.71286637 1.4574039 -0.077208035 0
-0.71590567 1.4678211 -0.01818881 0
-0.71404117 1.4614308 0.041614369 0
-0.71214187 1.4549208 0.10104308 0
-0.98368359 2.385633 0.2648406 0
-0.97968835 2.3719392 0.34594992 0
-0.9838084 2.3860607 0.42936483 0
-0.98083931 2.3758841 0.51086998 0
-0.98284101 2.382745 0.59482038 0
-0.27399337 -0.12826291 -0.091157772 0
