# .PCD v0.7 - Point Cloud Data file format
VERSION 0.7
FIELDS x y z intensity
SIZE 4 4 4 4
TYPE F F F F
COUNT 1 1 1 1
WIDTH 1331
HEIGHT 1
VIEWPOINT 0 0 0 1 0 0 0
POINTS 1331
DATA ascii
0.240701 -2.1994593 -0.072404794 0
0.24159774 -2.2039862 -0.043753523 0
0.24376166 -2.2149098 -0.015652141 0
0.2425127 -2.2086048 0.014072554 0
0.24259253 -2.209008 0.04308356 0
0.2407012 -2.1994603 0.072286703 0
0.24346928 -2.213434 0.10100602 0
0.20010071 -1.8764471 -0.092296831 0
0.22368869 -1.981537 -0.090569787 0
0.25437585 -2.1182554 -0.089192726 0
0.27379251 -2.2047613 -0.074095108 0
0.27202755 -2.1968977 -0.043678004 0
0.27187744 -2.1962292 -0.014488442 0
0.27310869 -2.2017145 0.014101783 0
0.2720114 -2.196826 0.043355398 0
0.27260146 -2.1994548 0.072133519 0
0.27279919 -2.2003357 0.10100583 0
0.22178239 -1.868597 -0.091739409 0
0.25003573 -1.9811078 -0.091639049 0
0.28422785 -2.1172681 -0.090169705 0
0.3052671 -2.2010508 -0.074610926 0
0.30675563 -2.2069783 -0.045763168 0
0.30808094 -2.2122562 -0.016725635 0
0.30804369 -2.2121077 0.012829909 0
0.30652061 -2.2060425 0.042566296 0
0.30346316 -2.1938672 0.072093941 0
0.30401579 -2.1960678 0.10100592 0
0.24102312 -1.8524097 -0.089458935 0
0.2731199 -1.9678166 -0.090330876 0
0.31109044 -2.1043432 -0.089245282 0
0.33756456 -2.199533 -0.075565748 0
0.33928847 -2.2057316 -0.046594862 0
0.33966768 -2.2070951 -0.01701404 0
0.33803004 -2.2012069 0.013030464 0
0.33764625 -2.199827 0.04247541 0
0.34041157 -2.2097697 0.07151673 0
0.33729681 -2.1985705 0.10100623 0
0.26305977 -1.8471773 -0.089703225 0
0.29997495 -1.9680119 -0.091783009 0
0.34167996 -2.1045249 -0.090682171 0
0.3710272 -2.2005873 -0.077025227 0
0.36985484 -2.1967499 -0.046587709 0
0.36939919 -2.1952584 -0.016730664 0
0.36809874 -2.1910017 0.013126606 0
0.37163562 -2.2025788 0.041909181 0
0.37082955 -2.1999404 0.071538039 0
0.37011194 -2.1975913 0.10100646 0
0.28804556 -1.8505641 -0.092004888 0
0.32077318 -1.9487536 -0.089519136 0
0.36946642 -2.0948431 -0.090555631 0
0.4264864 -2.2659144 -0.08814273 0
0.51925498 -2.5442388 -0.090590395 0
0.65102637 -2.9395797 -0.090915836 0
0.86414158 -3.578968 -0.089864142 0
1.3066195 -4.9064908 -0.091256656 0
3.2891111 -10.854365 -0.1408024 0
0.31176725 -1.8488057 -0.093306564 0
0.34714109 -1.9466337 -0.090771832 0
0.39928687 -2.0908453 -0.091543354 0
0.46436694 -2.2708275 -0.090542085 0
0.5630247 -2.5436704 -0.092206441 0
0.69901842 -2.9197679 -0.090638973 0
0.93147016 -3.5626245 -0.090329461 0
1.4018109 -4.8633747 -0.090814762 0
3.5377846 -10.770514 -0.1408581 0
0.33797014 -1.852513 -0.0960043 0
0.37133503 -1.9379778 -0.090849258 0
0.42471609 -2.0747142 -0.090532281 0
0.49701539 -2.2599101 -0.090720452 0
0.59787309 -2.5182588 -0.090859495 0
0.74329734 -2.8907654 -0.08955925 0
1.0010815 -3.5510838 -0.091286756 0
1.5008856 -4.8313403 -0.091041826 0
3.7846704 -10.681293 -0.14093623 0
0.35365006 -1.8294593 -0.092713214 0
0.39377207 -1.9250405 -0.090177067 0
0.45597211 -2.0732174 -0.092232756 0
0.52516723 -2.2380586 -0.089359157 0
0.6311841 -2.4906187 -0.089326672 0
0.79316205 -2.876493 -0.09007173 0
1.0623056 -3.517664 -0.090727918 0
1.594865 -4.7863607 -0.090743326 0
4.0257406 -10.577349 -0.14080022 0
0.3734045 -1.817333 -0.092023216 0
0.41616508 -1.9124045 -0.089675747 0
0.47838247 -2.0507352 -0.09031225 0
0.56210721 -2.2368841 -0.091277517 0
0.67156297 -2.480242 -0.09009584 0
0.83925486 -2.8530788 -0.089782529 0
1.1252096 -3.4888544 -0.090633936 0
1.694508 -4.754601 -0.091236658 0
4.2653356 -10.470436 -0.14074129 0
0.38709339 -1.7929269 -0.088545837 0
0.44502935 -1.9135097 -0.092157133 0
0.5060674 -2.040549 -0.090712883 0
0.5916515 -2.2186763 -0.09070798 0
0.71069974 -2.4664528 -0.09056329 0
0.89373618 -2.8474088 -0.091447063 0
1.1930411 -3.4703557 -0.091460936 0
1.7835327 -4.6993532 -0.090652011 0
4.507525 -10.368833 -0.14097369 0
0.41575074 -1.7995408 -0.092512645 0
0.46437123 -1.8945189 -0.090571694 0
0.53511286 -2.0327096 -0.091680206 0
0.61374414 -2.1863124 -0.08801315 0
0.74128681 -2.4354618 -0.08890713 0
0.93972117 -2.8230948 -0.091321521 0
1.2509372 -3.4310422 -0.090797536 0
1.8810302 -4.661902 -0.091107331 0
4.7381501 -10.243165 -0.1407392 0
0.43593615 -1.7885863 -0.092456646 0
0.4893516 -1.8867434 -0.091473334 0
0.55948937 -2.0156298 -0.091068231 0
0.64991766 -2.1818025 -0.089826204 0
0.78600293 -2.4318752 -0.090976544 0
0.98374313 -2.7952461 -0.090941153 0
1.3210307 -3.4150519 -0.092096843 0
1.9726098 -4.6124053 -0.091060035 0
4.9709806 -10.122266 -0.14078076 0
0.45245832 -1.7712841 -0.090966038 0
0.50921667 -1.8695923 -0.090485238 0
0.58116704 -1.9942137 -0.089740254 0
0.67947495 -2.1644876 -0.089735053 0
0.82270503 -2.4125688 -0.091106094 0
1.0237713 -2.7608249 -0.089965753 0
1.3707525 -3.3618128 -0.090550132 0
2.5942612 -5.480988 -0.14048839 0
5.1986723 -9.991951 -0.14072683 0
0.46883786 -1.7543991 -0.089659281 0
0.52987653 -1.8542168 -0.089983694 0
0.60629857 -1.9791913 -0.08972799 0
0.70611942 -2.1424303 -0.088983245 0
0.85164303 -2.380408 -0.089602642 0
1.0722339 -2.7411447 -0.090697668 0
1.4257803 -3.3193061 -0.089960895 0
2.7035882 -5.4089313 -0.14020486 0
5.4251957 -9.8596296 -0.14077283 0
0.49186981 -1.7483449 -0.091176622 0
0.55673802 -1.8486481 -0.091789655 0
0.63884139 -1.9756013 -0.092076339 0
0.74207342 -2.1352248 -0.090816416 0
0.891276 -2.365931 -0.090636663 0
1.1204469 -2.720289 -0.091445886 0
1.495404 -3.3000705 -0.091414146 0
2.825839 -5.3572702 -0.14119925 0
5.6504502 -9.7248554 -0.14090873 0
0.50611907 -1.7287698 -0.08938811 0
0.57951015 -1.8362063 -0.092212625 0
0.66027915 -1.9544435 -0.09113092 0
0.76254648 -2.1041517 -0.088772409 0
0.91625351 -2.3291621 -0.088673867 0
1.1609926 -2.6874337 -0.090987064 0
1.5495504 -3.2562404 -0.090957917 0
2.9221857 -5.2656298 -0.1401294 0
5.8671284 -9.5767069 -0.14082916 0
0.52891791 -1.7217575 -0.090951987 0
0.59786117 -1.8174089 -0.091299973 0
0.68351471 -1.936244 -0.090876199 0
0.7960909 -2.0924313 -0.090132259 0
0.95749199 -2.3163579 -0.090217657 0
1.2002418 -2.6531472 -0.090471886 0
1.6063743 -3.2166123 -0.090972222 0
3.0342822 -5.1976814 -0.14053789 0
6.0905447 -9.4379168 -0.14117172 0
0.54287755 -1.7024748 -0.089422561 0
0.61410981 -1.7962214 -0.089912869 0
0.70765889 -1.9193385 -0.091003589 0
0.82088387 -2.0683503 -0.089484833 0
0.98973513 -2.2905703 -0.090036936 0
1.2464268 -2.6283944 -0.091179438 0
1.6589545 -3.1713095 -0.090613298 0
3.1469421 -5.1296048 -0.14111067 0
6.2957788 -9.2736921 -0.14094137 0
0.56693208 -1.6963618 -0.091542654 0
0.63492912 -1.7813127 -0.090110265 0
0.73100609 -1.9013448 -0.091031514 0
0.85959065 -2.0619895 -0.092125542 0
1.0252991 -2.2690144 -0.090606652 0
1.2906255 -2.6004951 -0.091663234 0
1.7097837 -3.1241632 -0.090199657 0
3.2449501 -5.0420961 -0.1407043 0
6.5009723 -9.1099501 -0.14087343 0
0.5857752 -1.6832612 -0.09193296 0
0.65455604 -1.7648816 -0.09006504 0
0.75499368 -1.8840685 -0.091339625 0
0.8766858 -2.0284774 -0.090010814 0
1.0493262 -2.2333455 -0.089167409 0
1.3252939 -2.5608296 -0.090855964 0
1.7733564 -3.0925341 -0.09131185 0
3.3487854 -4.9620566 -0.140893 0
6.7083235 -8.9487371 -0.14103681 0
0.59448481 -1.6585717 -0.089173384 0
0.67446083 -1.7487576 -0.09021946 0
0.7787841 -1.866399 -0.091699891 0
0.90385145 -2.0074327 -0.090270244 0
1.089377 -2.2166429 -0.090752058 0
1.3654599 -2.527971 -0.090987675 0
1.814923 -3.0348136 -0.090159573 0
3.4477406 -4.87608 -0.14087786 0
6.902061 -8.7713861 -0.14086328 0
0.61566472 -1.6481885 -0.090570085 0
0.69846523 -1.7369435 -0.091615699 0
0.79826957 -1.8439254 -0.091122352 0
0.9361245 -1.9916942 -0.091685943 0
1.1132655 -2.1815741 -0.089598604 0
1.3984088 -2.4872236 -0.090243421 0
1.8637187 -2.9859965 -0.089930288 0
3.5494082 -4.792913 -0.14119846 0
7.0928059 -8.591135 -0.14074713 0
0.63658381 -1.6370454 -0.091932826 0
0.70958048 -1.7114367 -0.089591585 0
0.81794518 -1.8218718 -0.09073896 0
0.95952106 -1.9661524 -0.091365434 0
1.1430889 -2.1532273 -0.089614473 0
1.4384995 -2.4542818 -0.090608753 0
1.9153708 -2.9402637 -0.090116568 0
3.626981 -4.6845751 -0.14005074 0
7.284183 -8.4116488 -0.14080797 0
0.65158844 -1.619701 -0.091596447 0
0.73488617 -1.7004118 -0.091508977 0
0.84148759 -1.8037026 -0.091378741 0
0.97874939 -1.9367015 -0.090364777 0
1.1724234 -2.1243608 -0.089668311 0
1.4774127 -2.4198782 -0.090921693 0
1.9676604 -2.8949008 -0.090474226 0
3.7230942 -4.5958176 -0.14031211 0
7.4735088 -8.2297592 -0.14094949 0
0.66323245 -1.5993495 -0.09042462 0
0.73966813 -1.6697603 -0.088198639 0
0.86597353 -1.78611 -0.092318408 0
1.0080594 -1.9169962 -0.091457166 0
1.2009802 -2.0947106 -0.089714535 0
1.5184627 -2.3871682 -0.091610156 0
2.5578377 -3.3446171 -0.14206021 0
3.823621 -4.5106277 -0.14099036 0
7.6395297 -8.0257559 -0.14049794 0
0.6790362 -1.5829908 -0.090600438 0
0.77463007 -1.6666909 -0.092711963 0
0.88664085 -1.7647655 -0.092501514 0
1.0188591 -1.8805333 -0.089162149 0
1.2310514 -2.0663249 -0.090112589 0
1.5268519 -2.3253224 -0.088335194 0
2.6128042 -3.2761621 -0.14172135 0
3.9181018 -4.4190559 -0.14141428 0
7.8293543 -7.8436756 -0.14095283 0
0.70220119 -1.5726831 -0.092923425 0
0.78275692 -1.639702 -0.090575881 0
0.89603788 -1.7339468 -0.090387739 0
1.0464752 -1.8591042 -0.090159051 0
1.2433009 -2.0228548 -0.08790303 0
1.555468 -2.2825642 -0.087775744 0
2.6604781 -3.2018855 -0.1408852 0
4.0006571 -4.3168564 -0.1412487 0
7.9946036 -7.6396484 -0.1407955 0
0.71239895 -1.5514083 -0.091758944 0
0.80170798 -1.6219739 -0.091245495 0
0.9223423 -1.7172903 -0.092021771 0
1.0689719 -1.8331462 -0.090317272 0
1.2761883 -1.9968735 -0.088976242 0
1.5958339 -2.2494342 -0.08875484 0
2.7149534 -3.1336811 -0.14084029 0
4.0796084 -4.2119317 -0.14102721 0
8.1697664 -7.4436765 -0.14108923 0
0.71410453 -1.5240923 -0.088504009 0
0.80878747 -1.5950981 -0.089214005 0
0.93328905 -1.688466 -0.090557449 0
1.1039091 -1.8164195 -0.092774086 0
1.3186469 -1.9774585 -0.091524355 0
1.6175276 -2.2015989 -0.087635584 0
2.7702315 -3.0660496 -0.14101829 0
4.1583257 -4.1070271 -0.14095187 0
8.32617 -7.2326303 -0.14097744 0
0.74109399 -1.5156893 -0.092083521 0
0.83565575 -1.5829446 -0.091950692 0
0.9594323 -1.6709784 -0.092332073 0
1.1178477 -1.7836485 -0.091639407 0
1.3250047 -1.9309852 -0.088920556 0
1.6777914 -2.1818984 -0.091093652 0
2.8288214 -3.0005479 -0.14162508 0
4.2293425 -3.9966435 -0.14059065 0
8.4714489 -7.0137649 -0.14070365 0
0.74741733 -1.4923174 -0.090360366 0
0.84334731 -1.5569643 -0.090355985 0
0.96493918 -1.6389046 -0.090075202 0
1.134806 -1.7533771 -0.091177039 0
1.3444725 -1.8946706 -0.088375084 0
1.7045175 -2.1373034 -0.090775035 0
2.8679328 -2.9213245 -0.14072014 0
4.3030767 -3.8884623 -0.14054585 0
8.6259146 -6.8016047 -0.14084828 0
0.76686698 -1.4777855 -0.092124037 0
0.85240299 -1.5323412 -0.089239202 0
0.99233943 -1.6215938 -0.09228123 0
1.1524674 -1.723725 -0.090967633 0
1.3794593 -1.8685023 -0.090117671 0
1.7354033 -2.0955265 -0.091047682 0
2.9122839 -2.8461516 -0.14043133 0
4.3844609 -3.7851191 -0.14107621 0
8.7699862 -6.5822453 -0.14085288 0
0.76684111 -1.4510068 -0.089119025 0
0.88048941 -1.5195214 -0.092462458 0
0.9913578 -1.5863601 -0.0890918 0
1.1811457 -1.7007766 -0.092693008 0
1.4067025 -1.8367569 -0.090868078 0
1.7653499 -2.0529728 -0.091329671 0
2.9625905 -2.7747476 -0.14078912 0
4.4461536 -3.6691363 -0.14067104 0
8.9114618 -6.3611145 -0.14093848 0
0.78287429 -1.4341692 -0.090250723 0
0.89276695 -1.4966947 -0.092284627 0
1.020261 -1.5692347 -0.091768168 0
1.1896852 -1.6656319 -0.091231965 0
1.4099549 -1.7909585 -0.088490389 0
1.7876987 -2.005883 -0.090907939 0
3.0035601 -2.6976702 -0.14053684 0
4.5179687 -3.5593216 -0.14097181 0
9.0426569 -6.133728 -0.14089821 0
0.79018748 -1.4123361 -0.089367397 0
0.89826512 -1.4702692 -0.090784378 0
1.0342917 -1.5431839 -0.091716476 0
1.2088146 -1.6367338 -0.091621526 0
1.4432656 -1.7624071 -0.090284847 0
1.8144783 -1.9613892 -0.091087855 0
3.0468369 -2.621973 -0.14062637 0
4.5837035 -3.4457834 -0.14109479 0
9.170289 -5.9043412 -0.14091699 0
0.79539514 -1.3896607 -0.088126101 0
0.90101737 -1.4428916 -0.088865526 0
1.0440009 -1.5149517 -0.090991847 0
1.2163028 -1.6017876 -0.090289675 0
1.4601406 -1.7246758 -0.090000547 0
1.8443816 -1.9183236 -0.091710158 0
3.0776913 -2.539881 -0.13989283 0
4.6388321 -3.3266571 -0.14081368 0
9.2908268 -5.6711459 -0.14090253 0
0.81604069 -1.3745931 -0.090664588 0
0.91026318 -1.4191343 -0.088467114 0
1.0596107 -1.4897343 -0.091478877 0
1.2214562 -1.5662423 -0.088748656 0
1.4886148 -1.6925343 -0.091342963 0
1.8569843 -1.8666712 -0.090651818 0
3.1142981 -2.4610324 -0.13977401 0
4.6969161 -3.2091725 -0.14084388 0
9.3949919 -5.4300613 -0.14061952 0
0.82345891 -1.3530017 -0.090189569 0
0.93331486 -1.4015809 -0.091040559 0
1.0636524 -1.4592172 -0.089996673 0
1.2447542 -1.5393019 -0.090151526 0
1.5021542 -1.6531262 -0.090866245 0
1.8774024 -1.819064 -0.090536691 0
3.1556969 -2.3843362 -0.1401758 0
4.7497587 -3.0892432 -0.14075877 0
9.5111265 -5.1947579 -0.14079949 0
0.83341026 -1.3325613 -0.090427868 0
0.95035952 -1.3807873 -0.092454292 0
1.0671705 -1.4289562 -0.088574417 0
1.2609346 -1.508858 -0.09056183 0
1.5272151 -1.6186632 -0.09197744 0
1.8959848 -1.7707316 -0.090359367 0
3.200418 -2.3086364 -0.14097188 0
4.7900763 -2.9641583 -0.14019705 0
9.6187057 -4.9553242 -0.14091265 0
0.84186244 -1.3114703 -0.090440653 0
0.94894958 -1.3524996 -0.090238489 0
1.082734 -1.4037578 -0.089420952 0
1.2748786 -1.4773761 -0.090747826 0
1.5265938 -1.5738183 -0.089973025 0
1.9239111 -1.7260464 -0.091240294 0
3.2301741 -2.2265282 -0.14078367 0
4.8609385 -2.8513393 -0.14132175 0
9.7103357 -4.7093372 -0.14077881 0
0.85266638 -1.2911944 -0.091104321 0
0.96333367 -1.330423 -0.091341935 0
1.0977248 -1.3780611 -0.090271525 0
1.2734561 -1.4403532 -0.088760026 0
1.5489275 -1.5380005 -0.090973862 0
1.935865 -1.6751593 -0.090643845 0
3.2578719 -2.1437755 -0.14059892 0
4.9069448 -2.7283278 -0.14135 0
9.8111773 -4.4667468 -0.14102729 0
0.85275847 -1.2672422 -0.089482374 0
0.95904124 -1.3019239 -0.088846929 0
1.1020433 -1.3485875 -0.089382656 0
1.2847672 -1.408213 -0.088809617 0
1.553555 -1.4959224 -0.089901306 0
1.962502 -1.6293679 -0.091620557 0
3.2920799 -2.0632291 -0.1410487 0
4.9379554 -2.6003027 -0.14079638 0
9.8832226 -4.2140164 -0.14071983 0
0.87458092 -1.2501657 -0.092827819 0
0.97716278 -1.2807983 -0.090918474 0
1.1226823 -1.3242528 -0.091427945 0
1.3013614 -1.3776094 -0.089753158 0
1.5521325 -1.4524937 -0.088228934 0
1.9655573 -1.5759492 -0.090405829 0
3.3179331 -1.9797909 -0.14103442 0
4.9739475 -2.4743042 -0.14064658 0
9.9729233 -3.9670806 -0.14099847 0
0.86847347 -1.224673 -0.090094231 0
0.98543835 -1.2564094 -0.0911588 0
1.1163357 -1.2919261 -0.088968746 0
1.3147658 -1.3457667 -0.09033864 0
1.5642208 -1.4134519 -0.088337339 0
1.9595301 -1.5207121 -0.08845181 0
3.3329871 -1.8933758 -0.1403911 0
5.0186834 -2.35076 -0.14107351 0
10.032944 -3.7112918 -0.14071091 0
0.86602074 -1.2007267 -0.088318415 0
0.9866212 -1.2302039 -0.090142123 0
1.1306323 -1.2654029 -0.090155758 0
1.3180647 -1.3112152 -0.089575194 0
1.5813215 -1.3755603 -0.089167066 0
1.9773647 -1.472361 -0.088937052 0
3.358037 -1.8098245 -0.14062858 0
5.0500937 -2.2233963 -0.14100912 0
10.10982 -3.460093 -0.14098355 0
0.88646388 -1.1821846 -0.091665111 0
0.99364871 -1.2055334 -0.090385564 0
1.1410431 -1.2376413 -0.090795599 0
1.3287921 -1.27854 -0.090010189 0
1.6099519 -1.3397869 -0.091486089 0
1.9858544 -1.4216723 -0.088643827 0
3.3908613 -1.7277347 -0.14157231 0
5.0753403 -2.094676 -0.14080501 0
10.161466 -3.2026215 -0.14080562 0
0.88981867 -1.1595458 -0.091398872 0
0.99970627 -1.1805942 -0.090561546 0
1.1575924 -1.2108364 -0.092577107 0
1.3361671 -1.2450415 -0.090081684 0
1.6204576 -1.2994958 -0.091744877 0
2.541887 -1.4759908 -0.14051089 0
3.3950255 -1.6394049 -0.14061932 0
5.0956969 -1.9651595 -0.14052449 0
10.214929 -2.9457211 -0.14082582 0
0.88816661 -1.1361276 -0.090178393 0
1.0092936 -1.1561748 -0.09153109 0
1.1462286 -1.1788384 -0.089814208 0
1.3388953 -1.2107258 -0.089611687 0
1.6155173 -1.2565082 -0.090293519 0
2.5502806 -1.4112167 -0.14021973 0
3.4222152 -1.5555269 -0.14146025 0
5.1237702 -1.8371437 -0.14076389 0
10.253044 -2.6860669 -0.14063738 0
0.88654572 -1.1129917 -0.089095972 0
1.0042795 -1.1294371 -0.089837782 0
1.1504709 -1.1498575 -0.089785062 0
1.3407459 -1.1764357 -0.089141928 0
1.623595 -1.215945 -0.090511791 0
2.5680213 -1.3478653 -0.14096491 0
3.4204869 -1.4669404 -0.14040665 0
5.1397939 -1.7070985 -0.14058821 0
10.305014 -2.4285922 -0.14092901 0
0.90280193 -1.0921386 -0.091966428 0
1.0154824 -1.1049889 -0.09135177 0
1.15421 -1.1208097 -0.089793973 0
1.3575721 -1.1440015 -0.090914361 0
1.6373849 -1.1759119 -0.091521986 0
2.5672708 -1.281958 -0.14012124 0
3.4298952 -1.3803334 -0.14029728 0
5.1665778 -1.5783882 -0.14107125 0
10.332176 -2.1674833 -0.14079159 0
0.9012183 -1.0690073 -0.091136016 0
1.029177 -1.0803378 -0.09345033 0
1.1350216 -1.0897101 -0.086141072 0
1.1290143 -1.0891782 -0.058178607 0
1.6299059 -1.1335312 -0.090153135 0
2.5832338 -1.2179466 -0.14100169 0
3.4501905 -1.294714 -0.14110583 0
5.1720433 -1.4471809 -0.14070888 0
10.363774 -1.906899 -0.14091206 0
0.90789443 -1.0465807 -0.092190586 0
1.0185698 -1.0535718 -0.091076724 0
1.1334002 -1.0608253 -0.085516281 0
1.1269679 -1.0604191 -0.057586137 0
1.6370718 -1.0926412 -0.090626843 0
2.5801558 -1.1522139 -0.14025113 0
3.4506407 -1.2072008 -0.14067447 0
5.1809983 -1.3165039 -0.14066446 0
10.37489 -1.6445913 -0.14070851 0
0.90636724 -1.0235783 -0.091619693 0
1.0322242 -1.0283443 -0.093405761 0
1.1320978 -1.0321264 -0.085064538 0
1.1399342 -1.0324231 -0.059207682 0
1.6357737 -1.0511999 -0.090230949 0
2.5835717 -1.0870916 -0.14026292 0
3.4618087 -1.1203492 -0.14114797 0
5.1822171 -1.1854986 -0.14041346 0
10.391612 -1.3827709 -0.1407897 0
0.90334296 -1.0006779 -0.090854175 0
1.0218264 -1.0021729 -0.091323413 0
1.1315329 -1.0035572 -0.084853239 0
1.1279826 -1.0035124 -0.05742595 0
1.1292527 -1.0035284 -0.030905729 0
1.1298219 -1.0035356 -0.0044050198 0
1.1245829 -1.0034695 0.022413308 0
1.1249987 -1.0034747 0.048637666 0
1.1372958 -1.0036299 0.074548312 0
1.1282675 -1.003516 0.10100258 0
1.1387711 -1.0036485 0.12749179 0
1.122324 -1.003441 0.15324277 0
1.1385653 -1.0036459 0.18057033 0
1.1258637 -1.0034857 0.2060411 0
1.1336269 -1.0035836 0.23342335 0
1.1344732 -1.0035943 0.26034495 0
1.1240273 -1.0034624 0.28562623 0
1.1223723 -1.0034416 0.31226993 0
0.91235536 -0.97779298 -0.092770018 0
1.0163772 -0.97648048 -0.090296961 0
1.1303865 -0.97504199 -0.084664799 0
1.133947 -0.97499704 -0.058264229 0
1.6405244 -0.96860534 -0.090664499 0
2.5862749 -0.95667231 -0.14036165 0
3.462379 -0.94561809 -0.14103369 0
5.1851749 -0.9238807 -0.14039747 0
10.394062 -0.85815758 -0.14069274 0
0.9132278 -0.9547466 -0.093079023 0
1.0116102 -0.95102102 -0.089520298 0
1.1349468 -0.94635046 -0.085533105 0
1.1273024 -0.9466399 -0.05743121 0
1.6414454 -0.92717004 -0.090894304 0
2.5919564 -0.89117557 -0.14104609 0
3.4589128 -0.85834515 -0.14094539 0
5.1765475 -0.79330081 -0.14014933 0
10.392744 -0.5957709 -0.14081605 0
0.89729846 -0.93267339 -0.089933805 0
1.0162457 -0.92515975 -0.090638109 0
1.1247852 -0.91830349 -0.084097572 0
1.1332479 -0.91776896 -0.058470432 0
1.6394998 -0.88579005 -0.090911172 0
2.5929244 -0.82556415 -0.14144532 0
3.449548 -0.77145302 -0.14059794 0
5.1831512 -0.66194481 -0.14076491 0
10.368005 -0.33442828 -0.1405481 0
0.91031301 -0.90877211 -0.093076773 0
1.0185578 -0.89918721 -0.091442369 0
1.1572919 -0.88690257 -0.089815564 0
1.355702 -0.86933374 -0.09016075 0
1.6374197 -0.84438813 -0.091034733 0
2.5705199 -0.76176387 -0.13981031 0
3.4433022 -0.68448061 -0.14062238 0
5.1739578 -0.53123426 -0.14079835 0
10.35443 -0.072513074 -0.14069396 0
0.88974148 -0.88793552 -0.089172266 0
1.0048418 -0.87480927 -0.0893346 0
1.1563905 -0.85752636 -0.090154685 0
1.3466109 -0.83583325 -0.089363955 0
1.6241323 -0.80418414 -0.089963056 0
2.5732427 -0.69594562 -0.14068228 0
3.4390473 -0.59720755 -0.14094125 0
5.1611438 -0.40081623 -0.14081661 0
10.329708 0.18861714 -0.14073384 0
0.89943528 -0.86379254 -0.091862403 0
1.0027612 -0.84935963 -0.089549042 0
1.1476684 -0.82911861 -0.089319997 0
1.3470931 -0.80126232 -0.090042599 0
1.6285638 -0.76194561 -0.091098152 0
2.5665305 -0.6309275 -0.14082442 0
3.4367044 -0.50937897 -0.14155143 0
5.1357908 -0.27204534 -0.14040002 0
10.300547 0.44938365 -0.14082415 0
0.89501083 -0.84132433 -0.091652997 0
1.0070976 -0.82277334 -0.091111831 0
1.148801 -0.79932064 -0.090242736 0
1.3335615 -0.76874173 -0.088851906 0
1.6221516 -0.72097844 -0.091079451 0
2.5652139 -0.5648964 -0.14163257 0
3.4149466 -0.42426088 -0.1409452 0
5.1237459 -0.14144507 -0.14076276 0
10.255105 0.70782346 -0.14068596 0
0.88711935 -0.81955594 -0.090814672 0
1.0090102 -0.79620838 -0.092345797 0
1.1508179 -0.76904589 -0.091443472 0
1.3354356 -0.73368335 -0.089977019 0
1.3517507 -0.73055828 -0.059769291 0
1.3478667 -0.73130226 -0.027034497 0
1.3534898 -0.73022515 0.0046978835 0
1.3466848 -0.73152864 0.037182387 0
1.3449545 -0.73186004 0.069154181 0
1.3358568 -0.73360264 0.1010092 0
0.89354151 -0.79485834 -0.093204834 0
0.98859775 -0.77415156 -0.089411907 0
1.1394088 -0.74129939 -0.090520702 0
1.2114294 -0.72561067 -0.07312984 0
1.2006145 -0.72796655 -0.042523537 0
1.2002121 -0.72805417 -0.013591951 0
1.2083805 -0.72627479 0.014581809 0
1.2114642 -0.72560304 0.043294877 0
1.2063682 -0.72671312 0.072287202 0
1.213542 -0.72515041 0.10100582 0
0.87932289 -0.7746067 -0.091229178 0
0.99094445 -0.74732417 -0.090980373 0
1.130963 -0.71310091 -0.090211712 0
1.2120458 -0.69328266 -0.074237265 0
1.2098856 -0.69381064 -0.044478226 0
1.2017677 -0.69579482 -0.014411462 0
1.2013186 -0.69590455 0.014584774 0
1.2103336 -0.69370115 0.043011744 0
1.2036971 -0.69532323 0.072183378 0
1.2019641 -0.69574684 0.1010057 0
0.87889057 -0.7510851 -0.092388578 0
0.98687369 -0.72178578 -0.091438912 0
1.1214725 -0.68526477 -0.089843504 0
1.2042515 -0.66280413 -0.074245997 0
1.2098939 -0.66127318 -0.045428667 0
1.2101424 -0.66120577 -0.015974594 0
1.2073681 -0.66195852 0.013582671 0
1.2027788 -0.66320372 0.042997833 0
1.2104677 -0.66111749 0.071832359 0
1.2093902 -0.66140985 0.10100614 0
0.8530162 -0.73485857 -0.088043965 0
0.9769519 -0.69784933 -0.090877019 0
1.1229309 -0.6542576 -0.091470577 0
1.2123604 -0.62755245 -0.076699667 0
1.208001 -0.62885427 -0.046254206 0
1.1993989 -0.631423 -0.015771916 0
1.2075839 -0.62897885 0.012936341 0
1.2044295 -0.62992078 0.0424993 0
1.2096275 -0.62836856 0.071642481 0
1.2083535 -0.62874901 0.10100637 0
0.85661089 -0.71008539 -0.090343736 0
0.96794325 -0.673756 -0.090610631 0
1.1051174 -0.62899399 -0.089914136 0
1.2079268 -0.59544581 -0.077450491 0
1.2013721 -0.59758466 -0.046604533 0
1.2049057 -0.59643161 -0.017236603 0
1.2028371 -0.59710664 0.012588622 0
1.2061727 -0.5960182 0.041951146 0
1.2004125 -0.59789783 0.071635723 0
1.207953 -0.59543729 0.10100664 0
0.85265398 -0.68739462 -0.09110152 0
0.96210015 -0.64859891 -0.09109544 0
1.0971798 -0.60071683 -0.090176471 0
1.1938921 -0.56643486 -0.076896824 0
1.2091838 -0.56101435 -0.048846055 0
1.2120355 -0.56000352 -0.018962262 0
1.2028301 -0.56326658 0.011826815 0
1.2031249 -0.56316209 0.041592628 0
1.2040353 -0.56283939 0.071293339 0
1.2112778 -0.5602721 0.10100706 0
0.85331404 -0.66272682 -0.093047388 0
0.95166838 -0.62504333 -0.090786882 0
1.0824893 -0.57492065 -0.089377873 0
1.2016151 -0.52927876 -0.07972192 0
1.2084841 -0.52664697 -0.050159041 0
1.2132169 -0.52483368 -0.02020154 0
1.204854 -0.52803779 0.01084193 0
1.2080226 -0.52682382 0.040793352 0
1.2135512 -0.52470553 0.070778966 0
1.2045019 -0.52817273 0.10100719 0
0.8361364 -0.64489931 -0.091054685 0
0.94270474 -0.60095406 -0.090894736 0
1.0797689 -0.54443341 -0.090814121 0
1.1963029 -0.49637866 -0.080736868 0
1.203451 -0.493431 -0.051047076 0
1.2028912 -0.49366185 -0.020381166 0
1.210777 -0.49041003 0.0094849933 0
1.208917 -0.49117699 0.040141355 0
1.2016112 -0.49418971 0.070774741 0
1.2012627 -0.49433342 0.10100746 0
0.8333233 -0.62122083 -0.092482232 0
0.93527907 -0.57613522 -0.091445081 0
1.0630413 -0.5196377 -0.089886881 0
1.2078329 -0.45560971 -0.084478118 0
1.2033446 -0.45759448 -0.052681196 0
1.1995844 -0.45925733 -0.02135898 0
1.1967865 -0.46049449 0.0095628072 0
1.1965202 -0.46061227 0.040113073 0
1.2055067 -0.45663843 0.070348419 0
1.2051712 -0.45678672 0.10100798 0
0.81517917 -0.60439885 -0.090462036 0
0.91617477 -0.55665588 -0.08969871 0
1.0544963 -0.49126816 -0.090549134 0
1.2258747 -0.41025367 -0.089435495 0
1.4788575 -0.2906628 -0.09008161 0
1.8603321 -0.11033097 -0.090997465 0
3.1166718 0.48356989 -0.13995756 0
4.6957917 1.2300563 -0.14078599 0
9.4017076 3.4546511 -0.14079222 0
0.80301428 -0.58508414 -0.089939691 0
0.91470325 -0.52879566 -0.091752134 0
1.0431662 -0.4640536 -0.090838231 0
1.2174619 -0.37621287 -0.09047211 0
1.4652768 -0.25132033 -0.090672769 0
1.8290818 -0.067971796 -0.09011095 0
3.0871978 0.56608742 -0.14063706 0
4.6534686 1.355449 -0.14157674 0
9.2849264 3.6895878 -0.1407489 0
0.78838843 -0.56721288 -0.08893352 0
0.91182047 -0.50104934 -0.093681224 0
1.033271 -0.43594792 -0.091526128 0
1.2005597 -0.34627578 -0.090305261 0
1.4333936 -0.22146925 -0.08897578 0
1.8061352 -0.021667745 -0.090204276 0
3.0465078 0.64321226 -0.14060028 0
4.5773191 1.4637766 -0.14075758 0
9.1711483 3.9262173 -0.14093965 0
0.79848456 -0.53553379 -0.094068371 0
0.88099504 -0.48858795 -0.089733608 0
1.0139157 -0.41296026 -0.090568312 0
1.1775044 -0.31988332 -0.089262463 0
1.2108961 -0.30088446 -0.061723638 0
1.2150003 -0.29854938 -0.029405212 0
3.0124714 0.72415584 -0.14125361 0
4.5050869 1.5734076 -0.14028183 0
9.0381956 4.1526055 -0.14077887 0
0.77687186 -0.52153069 -0.091608666 0
0.87535858 -0.4621565 -0.091334037 0
1.0007486 -0.38656321 -0.090893976 0
1.160709 -0.29012868 -0.089339413 0
1.1386201 -0.30344531 -0.054283116 0
1.2049953 -0.26343003 -0.030256396 0
2.9563675 0.79241127 -0.14028113 0
4.4374299 1.685292 -0.14019682 0
8.9071655 4.3799405 -0.14082183 0
0.76001137 -0.50517172 -0.090395637 0
0.85125476 -0.44697586 -0.088982679 0
0.9852187 -0.36153248 -0.090893142 0
1.1502345 -0.25628397 -0.090595432 0
1.1336143 -0.26688448 -0.056038205 0
1.1853429 -0.23389152 -0.030150672 0
2.9145646 0.86902159 -0.14062044 0
4.3864546 1.8078058 -0.14118628 0
8.771903 4.6048841 -0.14090577 0
0.75581169 -0.4806104 -0.092512049 0
0.84937829 -0.4175562 -0.091725789 0
0.97242457 -0.33463582 -0.091558702 0
1.1256 -0.23141149 -0.089616917 0
1.1489297 -0.21568975 -0.060816307 0
1.1569088 -0.21031269 -0.02913793 0
2.8699009 0.94406611 -0.14088605 0
4.3062077 1.9119875 -0.14072162 0
8.6193066 4.8185678 -0.14066301 0
0.73820394 -0.46495095 -0.091329671 0
0.83909601 -0.39319333 -0.092745833 0
0.94512826 -0.31777975 -0.089447238 0
1.1045363 -0.20440367 -0.089343823 0
1.1349705 -0.18275794 -0.06166606 0
1.1440874 -0.17627367 -0.029962754 0
2.8253045 1.0194619 -0.14132337 0
4.231297 2.019449 -0.14070232 0
8.4760742 5.0384707 -0.14083563 0
0.72133529 -0.44906989 -0.090425171 0
0.81937337 -0.37554786 -0.091706254 0
0.93645573 -0.28774402 -0.091207974 0
1.0819421 -0.17863902 -0.088915296 0
1.1000246 -0.16507831 -0.059586484 0
1.0930612 -0.17030045 -0.026445201 0
1.104476 -0.16174009 0.0045420397 0
1.1038761 -0.16218993 0.036790948 0
1.0920811 -0.17103538 0.069260515 0
1.1014694 -0.16399482 0.10100967 0
1.0949144 -0.16891065 0.13284074 0
1.1036673 -0.16234657 0.16521657 0
1.1042761 -0.16189 0.19746041 0
0.71632099 -0.42407742 -0.092821442 0
0.80246258 -0.3560147 -0.091426618 0
0.91056001 -0.27060392 -0.089553826 0
1.0597913 -0.15269223 -0.088672958 0
1.0989283 -0.12176904 -0.062572889 0
1.0964901 -0.12369552 -0.029352671 0
1.0976775 -0.12275746 0.003256107 0
1.1023126 -0.11909512 0.035624694 0
1.0976151 -0.12280664 0.068474464 0
1.1054248 -0.11663607 0.10101058 0
1.1024035 -0.11902317 0.13368841 0
1.0984231 -0.12216827 0.16616537 0
1.1047515 -0.1171681 0.19939569 0
0.69998878 -0.40774229 -0.092311688 0
0.78175813 -0.33971366 -0.09033116 0
0.89733922 -0.24355516 -0.090665959 0
1.0294404 -0.13365272 -0.087044902 0
1.1081648 -0.068157345 -0.067358024 0
1.1029882 -0.072464079 -0.0328358 0
1.1000236 -0.074930459 0.0010227209 0
1.090385 -0.082949489 0.034996148 0
1.1066917 -0.069382936 0.067528166 0
1.1005473 -0.074494749 0.10101123 0
1.1043605 -0.071322411 0.13442412 0
1.1008358 -0.074254781 0.16765942 0
1.1010736 -0.074056953 0.20109567 0
0.67979109 -0.39493296 -0.090813704 0
0.76906365 -0.3167676 -0.091318421 0
0.88096327 -0.21879038 -0.09126126 0
0.99813741 -0.11619487 -0.085291512 0
1.1018595 -0.025377896 -0.070043616 0
1.0933369 -0.03284004 -0.034551848 0
1.0925277 -0.0335485 -0.00045696436 0
1.0977458 -0.028979685 0.033104185 0
1.0999651 -0.027036455 0.067007892 0
1.0944918 -0.031828787 0.10101189 0
1.1007864 -0.026317384 0.13504179 0
1.0973499 -0.029326346 0.1688955 0
1.099032 -0.027853455 0.20308588 0
1.0963311 -0.030218389 0.23694797 0
1.0878649 -0.037631299 0.3731555 0
0.66720569 -0.3755751 -0.091572903 0
0.75238419 -0.29711059 -0.09145505 0
0.85555565 -0.2020714 -0.089990474 0
0.97422004 -0.092760473 -0.084991373 0
1.0588083 -0.014839735 -0.067122944 0
1.0912758 0.015068684 -0.037396971 0
1.0954461 0.018910203 -0.0030594596 0
1.0989598 0.022146855 0.031471591 0
1.0976971 0.02098373 0.06630104 0
1.0978268 0.021103296 0.10101297 0
1.097315 0.020631704 0.13571283 0
1.1035187 0.026346479 0.17084356 0
1.1007164 0.023765001 0.20558698 0
1.1006631 0.023715887 0.24061519 0
1.0352144 -0.036573794 0.36590779 0
0.64230955 -0.36787447 -0.088850103 0
0.72792459 -0.28491828 -0.089683197 0
0.83516377 -0.18100956 -0.089931555 0
0.83989942 -0.17642096 -0.063194029 0
0.83703268 -0.17919871 -0.035087664 0
0.83520192 -0.18097255 -0.0074538346 0
0.83588207 -0.18031356 0.019697333 0
0.84184796 -0.17453292 0.046461646 0
0.84617174 -0.17034349 0.073607519 0
0.84234214 -0.17405412 0.10100384 0
0.84550142 -0.17099294 0.12837876 0
0.83863932 -0.17764196 0.1553379 0
0.84645474 -0.17006925 0.18334019 0
1.1015538 0.07710734 0.24410053 0
1.0082362 -0.013312127 0.29815733 0
1.0120859 -0.0095820092 0.33244303 0
0.99493659 -0.026198652 0.3617337 0
0.63537866 -0.34276745 -0.091567062 0
0.71851313 -0.25804469 -0.091993801 0
0.82183671 -0.15274712 -0.091652133 0
0.84283739 -0.13134518 -0.067952447 0
0.84265143 -0.13153467 -0.039480422 0
0.83768713 -0.13659385 -0.010538435 0
0.84206903 -0.13212821 0.017015876 0
0.84268433 -0.13150117 0.045021825 0
0.83946574 -0.13478127 0.073135264 0
0.84681797 -0.12728855 0.10100488 0
0.83480465 -0.1395314 0.12871881 0
0.83679044 -0.13750765 0.1565955 0
0.84616971 -0.12794921 0.18540347 0
0.8349309 -0.13940272 0.2121805 0
1.0978523 0.12854186 0.28409728 0
0.94369256 -0.028563108 0.29020855 0
0.95406359 -0.017993953 0.32470092 0
0.95490593 -0.017135587 0.35758707 0
0.61467373 -0.33145854 -0.090261273 0
0.69360209 -0.24685404 -0.090272926 0
0.79145449 -0.14196452 -0.089480378 0
0.84060234 -0.089282185 -0.072006814 0
0.84346104 -0.08621797 -0.043372978 0
0.84378558 -0.085870057 -0.014353206 0
0.83815581 -0.09190467 0.01517305 0
0.84019792 -0.089715689 0.043696169 0
0.84880406 -0.080490679 0.07207302 0
0.83638793 -0.09379968 0.10100536 0
0.83344895 -0.096950024 0.12941413 0
0.84355235 -0.086120039 0.15854423 0
0.83866543 -0.091358393 0.18689042 0
0.84208691 -0.08769086 0.21613258 0
1.0972468 0.18581882 0.28888792 0
0.92825556 0.0046746465 0.29208475 0
0.92413563 0.00025835974 0.32346746 0
0.92540044 0.0016141866 0.3562963 0
0.59510738 -0.31931093 -0.089372821 0
0.67649865 -0.22752908 -0.090797953 0
0.7775352 -0.11359397 -0.091390528 0
0.8463887 -0.035950448 -0.078098916 0
0.83700711 -0.046529796 -0.046297017 0
0.84073573 -0.042325165 -0.017168617 0
0.83806008 -0.045342352 0.012769343 0
0.83737224 -0.046118047 0.042283103 0
0.84001976 -0.04313251 0.071567856 0
0.84138286 -0.041595425 0.10100656 0
0.83995938 -0.043200638 0.13044305 0
0.83843577 -0.044918742 0.15980454 0
0.83823597 -0.045143988 0.18926239 0
0.83913678 -0.044128206 0.21895725 0
1.1043024 0.25488892 0.2954182 0
1.0907433 0.2395989 0.33189267 0
0.58193487 -0.29988083 -0.090666182 0
0.65671229 -0.2111443 -0.090695284 0
0.72992933 -0.12425944 -0.084947042 0
0.84786052 0.015686546 -0.083724402 0
0.83542168 0.00092569331 -0.050371919 0
0.84492755 0.012206111 -0.021275384 0
0.83872557 0.0048463675 0.0100844 0
0.84296679 0.0098793246 0.04014045 0
0.83749795 0.0033895706 0.070787869 0
0.83860171 0.0046993229 0.10100751 0
0.83756703 0.003471527 0.13122958 0
0.83468872 5.5882745e-05 0.16127633 0
0.844181 0.011320148 0.19252332 0
0.83614141 0.0017797683 0.22201817 0
0.84227479 0.0090580918 0.2536312 0
1.0912176 0.30447224 0.33883667 0
0.56499118 -0.28464773 -0.090882458 0
0.63733 -0.19427255 -0.090833895 0
0.71510619 -0.097104281 -0.086849771 0
0.84685934 0.067499191 -0.089262374 0
0.84813184 0.069088966 -0.057471488 0
0.8446328 0.064717561 -0.025045862 0
0.84434772 0.064361364 0.0066194702 0
0.84994006 0.071348101 0.037722837 0
0.84086466 0.060009871 0.069720805 0
0.83810616 0.056563649 0.10100864 0
0.84334671 0.063110858 0.13238935 0
0.84362185 0.063454539 0.16382442 0
0.83941525 0.058199082 0.1948465 0
0.8441636 0.064131409 0.22699429 0
0.83675122 0.054870877 0.2573612 0
1.0953462 0.37794188 0.34718782 0
1.1006532 0.38457206 0.39029446 0
0.54924905 -0.26772454 -0.091661133 0
0.61490661 -0.18131474 -0.090160914 0
0.71013772 -0.055983867 -0.091676988 0
0.72491491 -0.036536124 -0.067192383 0
0.72187769 -0.04053333 -0.038292635 0
0.73434073 -0.024131026 -0.012174224 0
0.72742254 -0.033235934 0.017027514 0
0.7277239 -0.032839265 0.045047279 0
0.72668904 -0.034201231 0.073080897 0
0.72383773 -0.037953701 0.1010045 0
0.72885096 -0.031355944 0.12901171 0
0.72902328 -0.031129148 0.15706237 0
0.72362405 -0.038234975 0.18454289 0
0.7267068 -0.034177806 0.21300633 0
0.73617172 -0.02172133 0.24306507 0
0.7284233 -0.03191885 0.27001813 0
0.72855741 -0.03174236 0.29869208 0
0.73063123 -0.029013004 0.32820079 0
0.52900362 -0.25670829 -0.090983145 0
0.59506387 -0.16505679 -0.0903989 0
0.67924923 -0.048258629 -0.089677267 0
0.72704852 0.018057737 -0.073538236 0
0.95250171 0.3308498 -0.089220203 0
0.84893352 0.18716004 -0.034391601 0
0.8405661 0.17555121 0.00058827014 0
0.84353471 0.17966977 0.033886764 0
0.8417483 0.17719141 0.067538343 0
0.83836967 0.17250386 0.10101128 0
0.84186989 0.17735997 0.13448943 0
0.84291482 0.17880967 0.16808707 0
0.8431353 0.17911568 0.20174232 0
0.84464926 0.18121603 0.2357316 0
0.84171247 0.17714158 0.26909974 0
0.83370811 0.1660364 0.30119708 0
1.0962467 0.53028053 0.40893638 0
0.51441431 -0.23767158 -0.09251409 0
0.57998383 -0.14168492 -0.092370816 0
0.6548894 -0.032031324 -0.089560516 0
0.76377648 0.12736753 -0.089078866 0
0.91750216 0.35240534 -0.088932581 0
1.1506133 0.69365484 -0.089269526 0
0.85235429 0.257036 -0.004548436 0
0.83786321 0.23582247 0.03189845 0
0.83628631 0.23351422 0.066539302 0
0.84092766 0.24030855 0.10101291 0
0.84393936 0.24471739 0.13580231 0
0.83916575 0.23772934 0.17023489 0
0.84273589 0.24295571 0.20538276 0
0.8408159 0.240145 0.24003144 0
0.84543961 0.24691358 0.27602878 0
0.83816522 0.23626462 0.30963975 0
1.1035459 0.6247533 0.42234072 0
1.0976886 0.61617869 0.46729696 0
0.49253583 -0.22920993 -0.091437317 0
0.55381274 -0.13445982 -0.09077508 0
0.62879032 -0.018524971 -0.089034431 0
0.73773819 0.14993683 -0.089694507 0
0.88479501 0.37732509 -0.08924184 0
1.1125119 0.72943479 -0.090081997 0
1.4769311 1.2929218 -0.089036055 0
0.84830558 0.32090285 0.028330484 0
0.8419643 0.31109765 0.064963877 0
0.83294868 0.2971572 0.10101414 0
0.83990902 0.30791965 0.13697717 0
0.84214163 0.31137183 0.17317052 0
0.83741361 0.30406108 0.20873731 0
0.84205097 0.31123164 0.24562487 0
0.83910024 0.30666903 0.28143772 0
0.8365584 0.3027387 0.31729826 0
0.83740854 0.30405322 0.3542026 0
1.1002024 0.71040112 0.48234427 0
0.46895072 -0.22400108 -0.089705266 0
0.53158742 -0.12157008 -0.090601377 0
0.60309625 -0.004630175 -0.088719152 0
0.7070846 0.16542402 -0.089243241 0
0.85181046 0.40209714 -0.089640133 0
1.0584832 0.74007314 -0.088237397 0
1.4276074 1.3437092 -0.090205736 0
0.85122609 0.40114143 0.025095815 0
0.84838498 0.39649537 0.063203536 0
0.82966137 0.36587623 0.10101575 0
0.83718872 0.3781859 0.13832983 0
0.84145731 0.38516644 0.17606543 0
0.84598345 0.39256814 0.21429889 0
0.83850509 0.38033858 0.25091255 0
0.84101766 0.38444737 0.28925624 0
0.83912051 0.38134494 0.32684571 0
0.83852082 0.38036433 0.36492106 0
1.1021385 0.81146342 0.49865782 0
0.45335498 -0.20574751 -0.091347225 0
0.51009756 -0.10746673 -0.090817057 0
0.57993203 0.013489876 -0.089334302 0
0.67945242 0.185864 -0.08972872 0
0.81948608 0.42840877 -0.090353675 0
1.0243615 0.78326267 -0.090075932 0
1.3632461 1.3702266 -0.089500599 0
1.368964 1.3801305 -0.026401987 0
0.84741551 0.4767839 0.061610185 0
0.83902949 0.46225896 0.10101825 0
0.84320033 0.46948305 0.14023083 0
0.84157175 0.4666622 0.17933393 0
0.83701718 0.45877352 0.21796073 0
0.84382761 0.47056952 0.25841168 0
0.84034681 0.46454063 0.29726776 0
0.83522016 0.45566097 0.33554813 0
0.84021902 0.46431926 0.37693042 0
0.83823138 0.46087661 0.41646531 0
0.4284786 -0.20370266 -0.089140274 0
0.48834425 -0.093692392 -0.091076396 0
0.5546844 0.028215442 -0.089416079 0
0.6517874 0.20665374 -0.090375938 0
0.78240079 0.44667116 -0.090095781 0
0.98176378 0.81302434 -0.090554647 0
1.2904425 1.3802576 -0.087623097 0
1.2908069 1.3809273 -0.024654811 0
1.286974 1.3738837 0.038416777 0
0.84904575 0.56913918 0.10102105 0
0.84190881 0.55602425 0.14197566 0
0.83579326 0.54478616 0.1823788 0
0.8380419 0.54891831 0.22349772 0
0.83672941 0.54650646 0.26427433 0
0.8349002 0.54314512 0.30497414 0
0.83666879 0.54639512 0.34677571 0
0.83996528 0.55245274 0.38955015 0
0.83779782 0.54846984 0.43082187 0
0.40951329 -0.19122854 -0.089603029 0
0.46495321 -0.082928985 -0.090812258 0
0.52637786 0.037061486 -0.088529713 0
0.61744821 0.21496359 -0.089155532 0
0.74770778 0.46941999 -0.090553991 0
0.94058543 0.8461985 -0.091498561 0
1.2478296 1.4463866 -0.090320759 0
1.2495267 1.449702 -0.026589161 0
1.2433634 1.4376621 0.03757875 0
1.2421622 1.4353158 0.10104816 0
0.84941393 0.66809875 0.14436755 0
0.84370124 0.65693921 0.18717423 0
0.83517987 0.64029318 0.22905836 0
0.84104043 0.65174145 0.27315482 0
0.83836609 0.64651734 0.31585345 0
0.83809626 0.64599019 0.35925305 0
0.8398543 0.64942449 0.40364167 0
0.84146059 0.65256232 0.44848892 0
0.39161861 -0.17623934 -0.090766914 0
0.44056728 -0.074361831 -0.09021651 0
0.50448179 0.058664117 -0.090111129 0
0.59237605 0.24159959 -0.090943106 0
0.71074557 0.48796347 -0.090575658 0
0.89201987 0.86525208 -0.091077156 0
1.1821696 1.4691441 -0.089705981 0
1.7875249 2.7290778 -0.09108118 0
4.4988871 8.3722706 -0.14050993 0
0.84983635 0.77745503 0.19233398 0
0.83866978 0.75421375 0.23630776 0
0.84263283 0.7624622 0.28248546 0
0.84089172 0.75883847 0.32775125 0
0.84364575 0.76457042 0.37453574 0
0.84304076 0.76331121 0.42064932 0
0.84256291 0.76231664 0.46710727 0
0.37501472 -0.15767154 -0.092857637 0
0.4199298 -0.057809856 -0.091404416 0
0.47976607 0.075226814 -0.090866618 0
0.56183213 0.25768784 -0.091183268 0
0.67339677 0.5057345 -0.09061832 0
0.84317142 0.88320202 -0.090673737 0
0.86486143 0.93142635 -0.046262596 0
0.83869082 0.87324005 0.0058940295 0
4.2660675 8.4934788 -0.14078277 0
1.0694745 1.3863513 0.22238852 0
0.85107142 0.90076643 0.24597207 0
0.84171295 0.8799594 0.29240072 0
0.84389454 0.88480979 0.3412568 0
0.83677357 0.86897749 0.38743946 0
0.83835942 0.87250322 0.43660429 0
0.83942091 0.87486333 0.48608679 0
0.34829947 -0.16187188 -0.089774765 0
0.39422375 -0.052468147 -0.090396874 0
0.44979244 0.079911143 -0.089608721 0
0.52283573 0.25391963 -0.088512622 0
0.64240336 0.53876132 -0.092714421 0
0.76063579 0.82042211 -0.082227759 0
0.75957841 0.8179031 -0.036049146 0
0.76114011 0.8216235 0.0095373858 0
4.0258131 8.598937 -0.14080459 0
0.99870497 1.3875659 0.2211253 0
0.8454957 1.0225809 0.25363359 0
0.83846402 1.0058295 0.30306205 0
0.84092659 1.0116961 0.35472652 0
0.83950871 1.0083182 0.40556052 0
0.83988255 1.0092088 0.45731834 0
0.8399598 1.0093927 0.50937462 0
0.32470587 -0.16004828 -0.088251315 0
0.37186301 -0.039254453 -0.091122724 0
0.42103422 0.086698323 -0.088868327 0
0.49547121 0.27737001 -0.09012372 0
0.59478742 0.53177017 -0.089867823 0
0.74787098 0.92389637 -0.090733163 0
0.71752393 0.84616178 -0.036776636 0
0.71776527 0.84678 0.0092098732 0
0.73948079 0.90240473 0.053754762 0
0.92821592 1.3858528 0.2198178 0
0.84946167 1.1841226 0.26421455 0
0.84006828 1.1600611 0.3164708 0
0.83913201 1.1576629 0.37046888 0
0.83923841 1.1579354 0.4250446 0
0.84223044 1.1655996 0.48129699 0
0.84056723 1.1613393 0.53595436 0
0.30948699 -0.13608524 -0.091881149 0
0.3449344 -0.038053598 -0.089549549 0
0.39687905 0.10560182 -0.090379603 0
0.43729156 0.21736458 -0.079352267 0
0.43411553 0.20858112 -0.047900323 0
0.43773973 0.218604 -0.018919377 0
0.68904942 0.91361338 -0.040490393 0
0.6885199 0.91214889 0.0068401862 0
0.69331831 0.92541927 0.053631548 0
0.70112336 0.9470045 0.10102918 0
0.85913533 1.3839943 0.21860357 0
0.85306859 1.3672163 0.27629551 0
0.84245741 1.3378708 0.3320955 0
0.83777338 1.3249166 0.38872081 0
0.83914685 1.3287151 0.44751665 0
0.84083134 1.3333735 0.5070377 0
0.83898985 1.3282809 0.56529397 0
0.28826204 -0.12737116 -0.092150383 0
0.3242248 -0.019475605 -0.091575123 0
0.36847675 0.11328915 -0.090041243 0
0.40312105 0.21722904 -0.07775832 0
0.40612015 0.22622696 -0.048774842 0
0.40631285 0.226805 -0.01867984 0
0.63917071 0.92542547 -0.040126134 0
0.6413281 0.9318983 0.0066926125 0
0.6479972 0.95190686 0.053395573 0
0.65824699 0.98265821 0.10102974 0
0.79198301 1.3838933 0.21757188 0
0.84951037 1.5564868 0.28872412 0
0.83761692 1.5208042 0.34808791 0
0.83994716 1.5277953 0.41121519 0
0.84053373 1.5295551 0.47425583 0
0.84162182 1.5328197 0.53805792 0
0.842816 1.5364022 0.60257423 0
0.26585048 -0.12227252 -0.091733538 0
0.30150178 -0.0055750874 -0.092767291 0
0.33854848 0.11569002 -0.088920675 0
0.384846 0.26723567 -0.083672054 0
0.38168406 0.25688568 -0.051319588 0
0.37989169 0.25101879 -0.02008271 0
0.59192914 0.94508141 -0.04043046 0
0.60119444 0.97540945 0.0053312574 0
0.60368258 0.98355383 0.05300805 0
0.61169326 1.0097752 0.10103007 0
0.72540843 1.3819993 0.1587611 0
0.72485608 1.3801913 0.21645556 0
0.8426404 1.7657349 0.30252552 0
0.83590299 1.7436812 0.36787042 0
0.83781433 1.7499375 0.43588549 0
0.83381373 1.7368426 0.50173247 0
0.83293539 1.7339675 0.56912923 0
0.24380374 -0.11617711 -0.091664769 0
0.27388853 -0.008004453 -0.090871178 0
0.31194296 0.12882367 -0.089768179 0
0.36296088 0.31226316 -0.088885702 0
0.43943143 0.58721989 -0.090275027 0
0.55025649 0.9857015 -0.090373017 0
0.66006404 1.3805244 -0.070990182 0
0.66048378 1.3820336 -0.013615912 0
0.66223621 1.3883345 0.043591343 0
0.65841186 1.3745837 0.10104045 0
0.66099024 1.3838546 0.15838206 0
0.65935153 1.3779624 0.21550058 0
0.81245512 1.9284601 0.31286451 0
0.81191003 1.9265003 0.38363555 0
0.81341636 1.9319165 0.45551535 0
0.81216037 1.9274004 0.5266006 0
0.8123498 1.9280815 0.59882057 0
0.21873403 -0.12212697 -0.089078955 0
0.24539839 -0.015943792 -0.088052787 0
0.28398806 0.13772848 -0.090007924 0
0.33313954 0.33346 -0.090693735 0
0.39793122 0.59147424 -0.089515083 0
0.49886471 0.99341267 -0.08984188 0
0.59744233 1.3859694 -0.070238389 0
0.59587544 1.37973 -0.012742853 0
0.59927499 1.3932676 0.043854903 0
0.59795338 1.3880048 0.10104037 0
0.59504473 1.3764219 0.1578214 0
0.59723359 1.3851383 0.21508335 0
0.76827919 2.066278 0.32139656 0
0.76904225 2.0693166 0.39550751 0
0.76920962 2.0699832 0.46980169 0
0.77111733 2.07758 0.54553807 0
0.19778685 -0.11244646 -0.090051062 0
0.2226155 -0.0018290546 -0.089646809 0
0.25409859 0.13843551 -0.088984646 0
0.29818553 0.3348532 -0.089747928 0
0.35508674 0.58836132 -0.088002808 0
0.45008662 1.0116076 -0.090441115 0
0.55239624 1.4674208 -0.075050198 0
0.55111903 1.4617305 -0.015975161 0
0.55269527 1.4687531 0.042397801 0
0.55204564 1.4658589 0.10104223 0
0.55095023 1.4609787 0.15950119 0
0.55094874 1.4609718 0.21802345 0
0.71352124 2.1852703 0.32861072 0
0.71393973 2.1871347 0.40502349 0
0.71434253 2.1889293 0.48185006 0
0.71268225 2.1815324 0.55785745 0
0.17654064 -0.10301396 -0.091079451 0
0.19688295 -0.00032373922 -0.088922448 0
0.22463293 0.13976112 -0.088196881 0
0.2662513 0.34985533 -0.090883277 0
0.31757334 0.6089347 -0.089449354 0
0.39610171 1.0053545 -0.088828467 0
0.41669652 1.1093192 -0.048593242 0
0.41777438 1.1147604 0.0011135286 0
0.41514292 1.1014764 0.051414482 0
0.4133701 1.0925272 0.10103098 0
0.41495153 1.1005104 0.15062512 0
0.41575509 1.1045668 0.20046562 0
0.41561466 1.103858 0.25026724 0
0.41623521 1.1069906 0.30056342 0
0.41258854 1.0885818 0.34865999 0
0.40548298 1.052712 0.3936404 0
0.29497686 0.49486509 0.34972227 0
0.26953572 0.36643556 0.36136675 0
0.15426768 -0.098025709 -0.091260783 0
0.17440358 0.019046936 -0.09173999 0
0.19754198 0.1535764 -0.089619629 0
0.23149842 0.3510032 -0.090153329 0
0.27831233 0.62318522 -0.090252332 0
0.34713429 1.0233243 -0.089646332 0
0.36907092 1.1508665 -0.050843779 0
0.88270086 4.1371737 -0.14119479 0
1.7636403 9.2590628 -0.14080715 0
0.58281606 2.3936069 0.26096898 0
0.57793504 2.3652282 0.33912173 0
0.58269489 2.3929024 0.42149872 0
0.25958645 0.51431066 0.27937007 0
0.27126563 0.58221465 0.32515728 0
0.27190006 0.58590347 0.36375096 0
0.23804611 0.38907233 0.36448145 0
0.13155875 -0.095622867 -0.091007032 0
0.14775078 0.015189085 -0.09023381 0
0.16809718 0.15443197 -0.0889984 0
0.19650936 0.34887376 -0.089085408 0
0.23770449 0.63079721 -0.090385549 0
0.29591635 1.0291765 -0.089434929 0
0.39452499 1.704016 -0.089316748 0
0.75131166 4.1457253 -0.14062721 0
1.5031434 9.2909689 -0.14058852 0
0.50675446 2.4720705 0.26402435 0
0.50640124 2.4696534 0.34555179 0
0.50560117 2.4641778 0.42694265 0
0.22184463 0.52225858 0.27959478 0
0.27623317 0.89447266 0.36862683 0
0.2029233 0.39276829 0.36412981 0
0.11010695 -0.083164245 -0.093029909 0
0.12326431 0.026081238 -0.091658272 0
0.13821405 0.15020862 -0.087661527 0
0.16292316 0.35536805 -0.089366637 0
0.19752133 0.6426366 -0.09113685 0
0.24808285 1.0624483 -0.091923751 0
0.32652795 1.7137775 -0.089365281 0
0.62176454 4.1651254 -0.14072582 0
1.2453318 9.342598 -0.14098664 0
0.42605981 2.5401897 0.26667506 0
0.42501467 2.531512 0.34909004 0
0.42449597 2.5272052 0.43177748 0
0.42479071 2.5296526 0.51541835 0
0.23086596 0.91949672 0.37127191 0
0.16545901 0.37642339 0.36014453 0
0.086214177 -0.091188401 -0.090790279 0
0.096645661 0.018719587 -0.089742877 0
0.11162095 0.17650202 -0.091490529 0
0.13012898 0.37150601 -0.091128372 0
0.15606757 0.64479989 -0.090869628 0
0.19492607 1.0542202 -0.090628959 0
0.25833803 1.7223411 -0.089450262 0
0.49254477 4.1899872 -0.14123274 0
0.9830699 9.3582516 -0.1406958 0
0.34001037 2.5828559 0.2682232 0
0.33944723 2.5769224 0.35160837 0
0.34078535 2.5910213 0.43686706 0
0.33985245 2.581192 0.5203476 0
0.33987099 2.5813873 0.60523862 0
0.17381333 0.83177251 0.40171716 0
0.13131231 0.38397387 0.36087039 0
0.063149549 -0.094754308 -0.089633144 0
0.071246453 0.021738801 -0.089917757 0
0.080656052 0.15711799 -0.087898262 0
0.095970958 0.37745908 -0.091568954 0
0.11480076 0.64837009 -0.090890385 0
0.14245561 1.0462499 -0.089486219 0
0.19146493 1.7513647 -0.091089614 0
0.35983205 4.1737223 -0.13997185 0
0.72243923 9.3906813 -0.14095086 0
0.25219631 2.6251287 0.2698518 0
0.25227675 2.626286 0.35455117 0
0.13235836 0.90097743 0.27794361 0
0.1337132 0.92047006 0.32481992 0
0.13402724 0.92498821 0.37075394 0
0.12486959 0.79323405 0.39474258 0
0.095679641 0.3732678 0.35830984 0
0.040756729 -0.089011163 -0.090581916 0
0.046036154 0.030462775 -0.091288902 0
0.05229833 0.17217627 -0.090104826 0
0.061190758 0.37341276 -0.09072379 0
0.073481821 0.65156072 -0.090988658 0
0.09109918 1.0502431 -0.089586325 0
0.12196191 1.7486696 -0.090625755 0
0.2304654 4.2041135 -0.14104274 0
0.45959285 9.3892889 -0.14057173 0
0.16350272 2.6887417 0.27257776 0
0.16334587 2.6851923 0.35831323 0
0.086927697 0.95584208 0.28281921 0
0.085756116 0.9293291 0.32553598 0
0.086606219 0.94856721 0.37368551 0
0.076269299 0.71464163 0.38138753 0
0.061517797 0.38081363 0.35936412 0
