# .PCD v0.7 - Point Cloud Data file format
VERSION 0.7
FIELDS x y z intensity
SIZE 4 4 4 4
TYPE F F F F
COUNT 1 1 1 1
WIDTH 1318
HEIGHT 1
VIEWPOINT 0 0 0 1 0 0 0
POINTS 1318
DATA ascii
1.0169433 -1.0277656 -0.09052553 0
1.1355146 -1.0322558 -0.085626505 0
1.1296165 -1.0320324 -0.057756636 0
1.6393038 -1.0513335 -0.090643831 0
2.5849319 -1.0871432 -0.14038996 0
3.4428511 -1.1196313 -0.13982171 0
5.1907892 -1.1858232 -0.14081283 0
10.394487 -1.3828797 -0.14085661 0
0.89709711 -1.0005991 -0.089526437 0
1.0113711 -1.002041 -0.089353986 0
1.1245449 -1.003469 -0.083704643 0
1.1257557 -1.0034842 -0.057112966 0
1.130217 -1.0035405 -0.031018427 0
1.1258777 -1.0034858 -0.0040368345 0
1.1325914 -1.0035706 0.021853397 0
1.1287478 -1.003522 0.048463114 0
1.1341882 -1.0035907 0.074620575 0
1.1245017 -1.0034685 0.10100248 0
1.1276475 -1.0035081 0.12723251 0
1.1309119 -1.0035493 0.1536431 0
1.1430762 -1.0037028 0.18088597 0
1.1357018 -1.0036098 0.20696004 0
1.1283761 -1.0035174 0.23280933 0
1.1327481 -1.0035725 0.26010242 0
1.1382786 -1.0036423 0.28796947 0
1.1249069 -1.0034735 0.31274751 0
0.90632743 -0.97786903 -0.091488607 0
1.0221226 -0.976408 -0.091379218 0
1.1298057 -0.97504932 -0.084569342 0
1.1333377 -0.97500473 -0.058178592 0
1.6372956 -0.96864605 -0.090287097 0
2.6005447 -0.9564923 -0.14169371 0
3.4541628 -0.94572175 -0.14045925 0
5.19525 -0.92375362 -0.14086655 0
10.398005 -0.85810786 -0.14078444 0
0.91123343 -0.95482212 -0.092654787 0
1.0207464 -0.95067507 -0.091242336 0
1.1214551 -0.94686133 -0.083314128 0
1.1383945 -0.94621986 -0.058991138 0
1.6334804 -0.9274717 -0.089962743 0
2.5988429 -0.8909148 -0.14168935 0
3.4688704 -0.85796809 -0.14164202 0
5.1998014 -0.79242021 -0.14123268 0
10.403688 -0.59535646 -0.14107069 0
0.90411693 -0.93224269 -0.091386043 0
1.013414 -0.92533863 -0.090103678 0
1.1393061 -0.91738623 -0.08648885 0
1.127224 -0.91814947 -0.057622183 0
1.6322142 -0.88625026 -0.090057977 0
2.5840013 -0.82612783 -0.14061077 0
3.4370849 -0.77224028 -0.13972491 0
5.1798897 -0.66215086 -0.14061275 0
10.369794 -0.33431527 -0.14058977 0
0.90369862 -0.90935779 -0.09166529 0
1.0083294 -0.9000929 -0.089508317 0
1.1547041 -0.88713175 -0.089388572 0
1.3514506 -0.86971021 -0.089560933 0
1.6295066 -0.84508884 -0.090106271 0
2.5784795 -0.76105905 -0.14055619 0
3.4464433 -0.68420243 -0.14084284 0
5.1752133 -0.5311231 -0.14085703 0
10.362198 -0.071825296 -0.14087525 0
0.88729095 -0.88821501 -0.088647999 0
1.0064056 -0.87463093 -0.089631058 0
1.1580322 -0.85733914 -0.090426229 0
1.3523586 -0.83517778 -0.090176933 0
1.6333921 -0.80312812 -0.091052301 0
2.5788875 -0.69530189 -0.14121257 0
3.4320297 -0.59800786 -0.14044747 0
5.1630497 -0.40059879 -0.14090595 0
10.344761 0.19033387 -0.1410861 0
0.89175081 -0.86486596 -0.090213127 0
0.99899721 -0.8498854 -0.08883322 0
1.1492987 -0.82889086 -0.089590557 0
1.3372505 -0.80263716 -0.088645928 0
1.6262575 -0.76226777 -0.090825997 0
2.5627658 -0.63145339 -0.14046961 0
3.4270802 -0.51072329 -0.14087206 0
5.1438742 -0.27091619 -0.14078002 0
10.30734 0.45033255 -0.14098363 0
0.90027583 -0.84045291 -0.092787363 0
1.0061753 -0.82292598 -0.090935759 0
1.1434134 -0.80021232 -0.089345224 0
1.3453103 -0.76679724 -0.090525486 0
1.6189636 -0.72150612 -0.090701781 0
2.5662718 -0.56472129 -0.14173265 0
3.4232466 -0.42288718 -0.14153334 0
5.1172791 -0.14251539 -0.14045759 0
10.256556 0.70806342 -0.14072014 0
0.87771338 -0.82135761 -0.088778965 0
1.0044526 -0.79708141 -0.091471754 0
1.1387154 -0.77136409 -0.08941824 0
1.3398056 -0.73284632 -0.090602316 0
1.3374541 -0.73329669 -0.058068026 0
1.3414774 -0.73252606 -0.026427289 0
1.3414086 -0.73253924 0.0055578221 0
1.3434886 -0.73214084 0.037333895 0
1.3420882 -0.73240906 0.06922204 0
1.3525434 -0.73040646 0.10100968 0
0.87673837 -0.79851866 -0.089549355 0
0.99261796 -0.77327585 -0.090186872 0
1.1269851 -0.74400574 -0.088430963 0
1.2056203 -0.72687608 -0.072294332 0
1.2079402 -0.72637069 -0.0433998 0
1.2208771 -0.72355258 -0.015566086 0
1.2060899 -0.7267738 0.014745699 0
1.207592 -0.72644657 0.043479376 0
1.1980894 -0.72851658 0.072484203 0
1.2134868 -0.72516245 0.10100582 0
0.8764956 -0.7752977 -0.090610512 0
0.98303092 -0.7492584 -0.089445986 0
1.1353538 -0.71202767 -0.090954594 0
1.2038808 -0.69527835 -0.07305602 0
1.200502 -0.69610417 -0.043349255 0
1.2108365 -0.69357824 -0.015282875 0
1.2089289 -0.69404447 0.014037082 0
1.206148 -0.6947242 0.043212336 0
1.1991993 -0.69642258 0.072291031 0
1.2059537 -0.69477171 0.10100581 0
0.87708759 -0.75157434 -0.091991462 0
0.97563201 -0.72483599 -0.089244969 0
1.1243427 -0.68448597 -0.090332292 0
1.2075651 -0.66190505 -0.074728511 0
1.2131857 -0.66038001 -0.045827303 0
1.2040609 -0.6628558 -0.015386431 0
1.2027512 -0.66321123 0.013917113 0
1.207525 -0.6619159 0.042768888 0
1.207582 -0.66190046 0.071901873 0
1.2071071 -0.66202933 0.10100608 0
0.87458408 -0.72841805 -0.092828505 0
0.97886848 -0.69727701 -0.091253765 0
1.1033645 -0.66010046 -0.088114493 0
1.1990805 -0.63151813 -0.074751936 0
1.1993198 -0.6314466 -0.04519533 0
1.2076305 -0.6289649 -0.016573785 0
1.2122867 -0.6275745 0.012593227 0
1.2130009 -0.62736124 0.042082854 0
1.2133641 -0.62725276 0.071551815 0
1.2060224 -0.62944514 0.1010063 0
0.85550177 -0.71044731 -0.090095751 0
0.95998377 -0.67635328 -0.089033656 0
1.1135994 -0.62622625 -0.091380499 0
1.1986829 -0.59846222 -0.076083995 0
1.2050947 -0.59636998 -0.047062177 0
1.2166526 -0.59259844 -0.018389961 0
1.2108402 -0.59449512 0.012000093 0
1.2060695 -0.59605187 0.041956197 0
1.2021056 -0.59734535 0.07159432 0
1.2139934 -0.59346616 0.10100682 0
0.84929258 -0.68858618 -0.090343453 0
0.95918202 -0.64963329 -0.090512298 0
1.1094778 -0.59635746 -0.092320897 0
1.2016438 -0.56368709 -0.078052633 0
1.2042295 -0.56277055 -0.048231725 0
1.1962395 -0.56560278 -0.017397953 0
1.2079868 -0.56143868 0.01144434 0
1.2064167 -0.56199521 0.041430026 0
1.2077066 -0.56153804 0.071202777 0
1.2087518 -0.56116754 0.10100698 0
0.84542465 -0.66574955 -0.091251515 0
0.94596994 -0.62722665 -0.089637481 0
1.0889378 -0.57244992 -0.090512834 0
1.2018703 -0.52918094 -0.079760335 0
1.2049086 -0.52801687 -0.049711559 0
1.2105812 -0.5258435 -0.01993808 0
1.2086034 -0.52660125 0.01056123 0
1.2032006 -0.52867132 0.041033752 0
1.1964968 -0.53123975 0.071203597 0
1.2159938 -0.52376968 0.10100754 0
0.83615357 -0.64489222 -0.091058634 0
0.9476226 -0.59892607 -0.09189669 0
1.0722408 -0.54753768 -0.089475818 0
1.2042261 -0.49311137 -0.081941314 0
1.2091047 -0.49109966 -0.05176181 0
1.2042352 -0.49310762 -0.020516863 0
1.2178165 -0.48750713 0.0089526642 0
1.215714 -0.48837414 0.039799079 0
1.2022741 -0.49391633 0.070758067 0
1.2015922 -0.49419755 0.10100747 0
0.83193672 -0.62183398 -0.092159964 0
0.93429148 -0.57657188 -0.09124168 0
1.0605491 -0.52073979 -0.089439027 0
1.20057 -0.45882145 -0.083362095 0
1.1939061 -0.4617683 -0.051475037 0
1.2148315 -0.45251492 -0.022915101 0
1.2077692 -0.4556379 0.0087232981 0
1.216695 -0.45169082 0.039086107 0
1.1977168 -0.46008316 0.070546456 0
1.2102948 -0.45452103 0.10100815 0
0.81399518 -0.60495853 -0.090183653 0
0.92068338 -0.5545246 -0.090638004 0
1.0577919 -0.48971027 -0.091148235 0
1.2285546 -0.40898678 -0.089852087 0
1.4735438 -0.29317471 -0.089394681 0
1.856333 -0.11222139 -0.090584584 0
3.1339157 0.49172142 -0.14129096 0
4.698256 1.2312212 -0.14091289 0
9.4075518 3.4574139 -0.14094251 0
0.79807699 -0.58757246 -0.088764451 0
0.90467203 -0.53385121 -0.089636363 0
1.0441173 -0.46357426 -0.09101329 0
1.2060227 -0.38197795 -0.088671885 0
1.4529511 -0.25753221 -0.089059614 0
1.845636 -0.059628811 -0.091841273 0
3.0889819 0.56698662 -0.14077672 0
4.6401248 1.3487239 -0.14088109 0
9.2790251 3.6866138 -0.14059527 0
0.79636407 -0.56293768 -0.090857036 0
0.89450878 -0.51032895 -0.089981638 0
1.0240959 -0.44086608 -0.089815207 0
1.2078472 -0.34236941 -0.091467269 0
1.4338818 -0.22120759 -0.08904051 0
1.8133143 -0.01781949 -0.090964578 0
3.0543568 0.64741951 -0.14122285 0
4.5852704 1.4680386 -0.14117756 0
9.1645346 3.922672 -0.14076518 0
0.79298806 -0.53866112 -0.092724137 0
0.87973249 -0.48930627 -0.089460008 0
1.0115675 -0.4142963 -0.090124287 0
1.1825017 -0.31704006 -0.090070449 0
1.200346 -0.30688718 -0.060304988 0
1.2111597 -0.30073455 -0.028992763 0
3.0057962 0.72035784 -0.1407167 0
4.5133944 1.5781343 -0.1407268 0
9.0370598 4.1519589 -0.14074849 0
0.78333658 -0.51763332 -0.093213223 0
0.86472631 -0.46856633 -0.088995658 0
1.0055654 -0.38365933 -0.09181834 0
1.1693994 -0.28488955 -0.090765484 0
1.1355138 -0.30531803 -0.053859193 0
1.1967258 -0.26841542 -0.029355085 0
2.9555614 0.79192549 -0.14021534 0
4.4462776 1.6906264 -0.14067779 0
8.9040947 4.378089 -0.14073846 0
0.76416045 -0.50252539 -0.091441683 0
0.85792536 -0.44272128 -0.090472899 0
0.98780751 -0.35988131 -0.0913978 0
1.1464006 -0.25872931 -0.089956366 0
1.1336595 -0.26685569 -0.056044448 0
1.1830152 -0.23537609 -0.029892987 0
2.9197137 0.87230569 -0.14104739 0
4.3808608 1.8042383 -0.14087743 0
8.7612886 4.5981145 -0.14061305 0
0.75772673 -0.47931978 -0.093002923 0
0.84636915 -0.41958407 -0.091042332 0
0.96908396 -0.33688703 -0.090896644 0
1.1286424 -0.22936127 -0.090132497 0
1.1355618 -0.22469828 -0.058932308 0
1.1598084 -0.20835862 -0.02946431 0
2.8671405 0.94220585 -0.14065336 0
4.3046346 1.9109273 -0.1406333 0
8.6211309 4.8197975 -0.14071417 0
0.72767258 -0.47244123 -0.088582657 0
0.8303408 -0.39942029 -0.090722241 0
0.94222873 -0.31984201 -0.088862456 0
1.1146357 -0.19722065 -0.091085501 0
1.1457713 -0.1750761 -0.063215099 0
1.1435126 -0.1766825 -0.029896906 0
2.8225644 1.017513 -0.14108829 0
4.2326555 2.0204148 -0.14077991 0
8.4660559 5.0313449 -0.14054978 0
0.72284091 -0.44794074 -0.090825208 0
0.81629229 -0.37785849 -0.09098088 0
0.93741673 -0.28702328 -0.091405399 0
1.0844256 -0.17677656 -0.089351557 0
1.0974262 -0.16702697 -0.059206877 0
1.098245 -0.16641292 -0.027050009 0
1.1011742 -0.16421619 0.004830556 0
1.0908434 -0.17196354 0.037549336 0
1.0984656 -0.16624746 0.069074973 0
1.0992573 -0.16565374 0.10100958 0
1.0915635 -0.17142364 0.13274311 0
1.1011055 -0.16426775 0.1650673 0
1.0973678 -0.16707078 0.19685625 0
0.70278031 -0.43477634 -0.089153178 0
0.79648572 -0.36073712 -0.08999189 0
0.90785909 -0.27273807 -0.088988073 0
1.0550236 -0.15645942 -0.087819003 0
1.0981146 -0.12241206 -0.062451679 0
1.0976239 -0.12279966 -0.029487556 0
1.0949029 -0.12494972 0.0035033172 0
1.1003019 -0.12068376 0.035743985 0
1.1016556 -0.11961415 0.068354741 0
1.1068726 -0.11549214 0.10101064 0
1.0941564 -0.12553951 0.13344343 0
1.0937152 -0.12588808 0.16588569 0
1.0894144 -0.12928638 0.19802804 0
0.69433141 -0.41244897 -0.090747379 0
0.78069562 -0.34059766 -0.090070821 0
0.90644413 -0.2359803 -0.092612527 0
1.0209155 -0.14074501 -0.085486464 0
1.1002729 -0.074723095 -0.066158198 0
1.0928864 -0.080868334 -0.031609241 0
1.1029532 -0.072493225 0.00075631053 0
1.0923824 -0.081287652 0.034875181 0
1.0933409 -0.080490202 0.067931958 0
1.0987283 -0.076008171 0.10101116 0
1.1001315 -0.074840695 0.1342959 0
1.1070483 -0.069086224 0.1680361 0
1.0995946 -0.075287372 0.20096105 0
0.68098247 -0.39388981 -0.091150306 0
0.75876176 -0.32578775 -0.088739373 0
0.88096493 -0.21878889 -0.091261618 0
0.98994768 -0.12336567 -0.083761744 0
1.099323 -0.027598646 -0.069649614 0
1.1009276 -0.026193824 -0.035493571 0
1.0983057 -0.028489437 -0.0009938532 0
1.1086043 -0.019472208 0.032432284 0
1.1077579 -0.020213213 0.066767067 0
1.1010062 -0.02612504 0.10101214 0
1.0929674 -0.033163633 0.13479957 0
1.1025678 -0.024757709 0.16921876 0
1.0971812 -0.029474046 0.20291375 0
1.1020821 -0.025182869 0.2376619 0
1.0900578 -0.035711136 0.37370467 0
0.66632831 -0.37638333 -0.09131933 0
0.75144953 -0.29797158 -0.091215692 0
0.85401416 -0.20349136 -0.089646034 0
0.95751131 -0.10815218 -0.08179877 0
1.0604266 -0.013348963 -0.067380108 0
1.1026508 0.025546942 -0.038840536 0
1.0999175 0.023029123 -0.0034844705 0
1.0951467 0.018634353 0.031712946 0
1.097815 0.021092329 0.066297308 0
1.1057684 0.028418813 0.10101328 0
1.0992556 0.022419367 0.13577433 0
1.0954016 0.018869314 0.17032914 0
1.0991337 0.022307191 0.20543644 0
1.0994642 0.022611532 0.24046294 0
1.0362109 -0.035656001 0.36616302 0
0.65130234 -0.35916093 -0.091511779 0
0.72667933 -0.28612486 -0.089356609 0
0.83084518 -0.18519399 -0.088943265 0
0.83966601 -0.17664716 -0.063148357 0
0.83027244 -0.18574896 -0.033987526 0
0.8476485 -0.16891256 -0.0090715047 0
0.83517563 -0.18099806 0.019766102 0
0.8429932 -0.17342326 0.046387408 0
0.8319118 -0.18416056 0.074069172 0
0.8345803 -0.18157491 0.10100354 0
0.84514481 -0.17133847 0.12836719 0
0.84653419 -0.16999224 0.15585029 0
0.84332663 -0.1731002 0.18303543 0
1.0979706 0.07363537 0.24363452 0
1.0068034 -0.014700498 0.29787683 0
1.0058998 -0.015576031 0.33102682 0
0.98844576 -0.032487895 0.36003083 0
0.63666469 -0.34145686 -0.091957368 0
0.71405137 -0.26259169 -0.090793915 0
0.8195703 -0.1550568 -0.09112031 0
0.83857954 -0.13568434 -0.067098089 0
0.83238095 -0.14200142 -0.03776658 0
0.83921367 -0.13503817 -0.010741873 0
0.84505105 -0.12908927 0.016718226 0
0.84203643 -0.13216147 0.045064889 0
0.83796549 -0.13631013 0.073185064 0
0.84263581 -0.13155058 0.1010047 0
0.84089893 -0.13332066 0.12892163 0
0.84863037 -0.12544158 0.15738346 0
0.84458709 -0.12956205 0.18524538 0
0.84356964 -0.13059893 0.21333247 0
1.0932918 0.12389413 0.28333586 0
0.94794291 -0.024231579 0.29106176 0
0.95101082 -0.021105018 0.3239843 0
0.95414549 -0.017910507 0.35738251 0
0.61891395 -0.32691339 -0.091582544 0
0.6953457 -0.24498495 -0.090754367 0
0.79990613 -0.1329051 -0.091516636 0
0.84056109 -0.089326411 -0.071998306 0
0.84116459 -0.088679522 -0.042979527 0
0.83633804 -0.093853146 -0.013334146 0
0.83754969 -0.09255442 0.015235173 0
0.83474755 -0.095558017 0.044068135 0
0.83637214 -0.093816668 0.072496749 0
0.8421917 -0.087578565 0.1010056 0
0.84504759 -0.08451727 0.12981042 0
0.83797026 -0.09210363 0.1581628 0
0.84454042 -0.085060924 0.18749301 0
0.84358752 -0.086082369 0.21633804 0
1.1010004 0.18984249 0.28953135 0
0.93084812 0.0074535939 0.29261908 0
0.92265111 -0.0013329055 0.32310966 0
0.92317075 -0.00077590009 0.35568044 0
0.59465486 -0.31982121 -0.089227863 0
0.67444015 -0.22985038 -0.090213604 0
0.7785635 -0.11243442 -0.091645248 0
0.84739047 -0.034820821 -0.078311108 0
0.84056455 -0.042518225 -0.046923671 0
0.8404361 -0.042663004 -0.017126476 0
0.83750945 -0.045963254 0.012827361 0
0.84154993 -0.041407015 0.041989967 0
0.83535737 -0.048390117 0.07173124 0
0.84134078 -0.041642871 0.10100655 0
0.83628404 -0.047345128 0.13031395 0
0.83924252 -0.044008996 0.15986122 0
0.83726394 -0.046240177 0.18915989 0
0.84017384 -0.042958762 0.21910322 0
1.0886464 0.23723426 0.29265901 0
1.0934565 0.24265841 0.33246759 0
0.57314682 -0.31030932 -0.087767355 0
0.65672892 -0.21112457 -0.090700142 0
0.72559643 -0.12940118 -0.083841957 0
0.85637325 0.025788341 -0.085580908 0
0.84031582 0.0067334506 -0.051259566 0
0.83192438 -0.0032244588 -0.019391892 0
0.83704013 0.0028462743 0.010267252 0
0.8427422 0.0096127726 0.040156677 0
0.83952832 0.005798969 0.070714608 0
0.83908194 0.0052692625 0.10100753 0
0.84015363 0.0065409872 0.13132314 0
0.84463876 0.011863384 0.16199605 0
0.83827329 0.0043096277 0.19188188 0
0.84125757 0.0078510381 0.22275969 0
0.84389424 0.010979805 0.25392509 0
1.1019875 0.31725267 0.3411864 0
0.56091547 -0.28973964 -0.089496084 0
0.64102656 -0.18965432 -0.091948085 0
0.72674209 -0.082567126 -0.089910068 0
0.84932047 0.070573956 -0.089815848 0
0.8590678 0.082751662 -0.059516806 0
0.83750117 0.055807862 -0.023980623 0
0.84462619 0.064709336 0.0065883193 0
0.83755851 0.055879388 0.03864526 0
0.83874303 0.057359252 0.069799744 0
0.84686655 0.06750825 0.10100904 0
0.83711833 0.055329476 0.13215704 0
0.83791763 0.056328092 0.16339894 0
0.83670855 0.054817472 0.19454344 0
0.83768409 0.056036267 0.22602585 0
0.83483553 0.052477513 0.25700274 0
1.1007402 0.38468078 0.34840137 0
1.1014067 0.38551345 0.39049274 0
0.54781908 -0.26960656 -0.09115871 0
0.6154713 -0.18057147 -0.090336733 0
0.70243692 -0.066118687 -0.089585029 0
0.73126787 -0.028175142 -0.068668105 0
0.73250878 -0.026542094 -0.040346328 0
0.7303766 -0.029348101 -0.011562636 0
0.7263754 -0.034613933 0.017148504 0
0.72723174 -0.033486988 0.045085151 0
0.72924322 -0.030839767 0.072982743 0
0.72926468 -0.030811515 0.10100476 0
0.72751302 -0.033116844 0.12896016 0
0.72776169 -0.032789554 0.15696517 0
0.74072874 -0.01572397 0.18652101 0
0.72742271 -0.033235636 0.21311685 0
0.73161453 -0.027718928 0.2421843 0
0.72244579 -0.03978565 0.26862907 0
0.73040617 -0.029309239 0.29919448 0
0.72634196 -0.034657981 0.32686502 0
0.53178829 -0.2528449 -0.09199544 0
0.60199887 -0.15543523 -0.092632823 0
0.68655187 -0.038127091 -0.091729872 0
0.72246891 0.011704002 -0.072437562 0
0.95742214 0.33767632 -0.090203695 0
0.85175771 0.19107834 -0.03484245 0
0.84600788 0.18310097 -6.234437e-05 0
0.84434551 0.18079475 0.033822205 0
0.84173948 0.17717913 0.067538694 0
0.83826172 0.17235413 0.10101128 0
0.84074593 0.17580071 0.13444464 0
0.8411358 0.17634156 0.16794525 0
0.84232396 0.17798999 0.20164526 0
0.8360728 0.16931716 0.23436168 0
0.83986694 0.17458108 0.26873067 0
0.83789235 0.17184165 0.30220318 0
1.1032267 0.5399645 0.41089898 0
0.50836414 -0.24652842 -0.090234138 0
0.56877279 -0.1580967 -0.088627242 0
0.65809023 -0.027345624 -0.090493135 0
0.76178211 0.12444809 -0.088581987 0
0.91341162 0.34641734 -0.088085033 0
1.1500801 0.69287425 -0.089181282 0
0.85142255 0.25567201 -0.0044329669 0
0.84257156 0.24271503 0.03150985 0
0.84107232 0.24052039 0.066342026 0
0.84061402 0.23984948 0.10101289 0
0.83829528 0.23645511 0.1355691 0
0.83894628 0.23740807 0.17021674 0
0.84299493 0.24333492 0.20541489 0
0.84545326 0.24693361 0.24079929 0
0.84007049 0.23905376 0.27491575 0
0.83896142 0.23743024 0.30983821 0
1.1042274 0.62575096 0.42253938 0
1.0994662 0.61878103 0.46789074 0
0.4893907 -0.23407313 -0.090206258 0
0.55740023 -0.12891266 -0.092019342 0
0.63118452 -0.014822867 -0.089759029 0
0.73760861 0.14973643 -0.089660965 0
0.88857663 0.38317242 -0.090055712 0
1.1120063 0.72865301 -0.089995094 0
1.4830409 1.3023691 -0.089822598 0
0.84873688 0.32156983 0.028293515 0
0.83792031 0.30484453 0.065137021 0
0.84598756 0.31731859 0.10101482 0
0.84264582 0.31215146 0.13709463 0
0.83790302 0.30481783 0.17280671 0
0.83932525 0.30701688 0.20898362 0
0.8362751 0.30230072 0.2446315 0
0.83941352 0.30715349 0.28150517 0
0.83310741 0.29740253 0.31640482 0
0.83920717 0.30683437 0.35474718 0
1.0953039 0.70282656 0.48064473 0
0.4686285 -0.22452798 -0.089573987 0
0.53431618 -0.1171076 -0.091586582 0
0.60828108 0.0038486456 -0.090352543 0
0.70691592 0.16514817 -0.089197807 0
0.84987283 0.39892843 -0.089206062 0
1.0694861 0.75806636 -0.090206034 0
1.4241304 1.3380234 -0.089739807 0
0.85404021 0.40574339 0.024844693 0
0.85225785 0.40282872 0.063030936 0
0.83843434 0.38022295 0.10101622 0
0.84328157 0.38814965 0.13860205 0
0.84106666 0.38452759 0.17603052 0
0.84233057 0.38659444 0.21380898 0
0.84210497 0.38622549 0.25155702 0
0.84646177 0.39335027 0.29047647 0
0.8425712 0.38698795 0.32777566 0
0.84137636 0.38503399 0.365821 0
1.0951006 0.79995435 0.4961161 0
0.45523548 -0.20249042 -0.092146657 0
0.50946683 -0.10855916 -0.090579472 0
0.58429813 0.021052275 -0.090769462 0
0.6812821 0.18903306 -0.090242989 0
0.82037711 0.42995217 -0.090561949 0
1.0319566 0.79641765 -0.091493778 0
1.3674358 1.3774836 -0.090086393 0
1.3699971 1.3819199 -0.026498174 0
0.85143602 0.48374763 0.061423227 0
0.84308678 0.46928635 0.10101848 0
0.84154165 0.4666101 0.14015351 0
0.84042412 0.46467462 0.17922695 0
0.83579487 0.45665649 0.21778968 0
0.84367156 0.47029927 0.25838253 0
0.84194511 0.46730903 0.29764155 0
0.84258735 0.46842125 0.33761966 0
0.84502482 0.47264317 0.37851068 0
0.8400895 0.46409491 0.41716549 0
0.42992094 -0.20105216 -0.089781694 0
0.48719934 -0.095796317 -0.090625234 0
0.5512746 0.021949444 -0.088243656 0
0.65264398 0.20822766 -0.090627767 0
0.78315991 0.44806615 -0.09028139 0
0.97969496 0.80922264 -0.090150662 0
1.2917984 1.3827493 -0.087821417 0
1.2889611 1.3775353 -0.024475029 0
1.2904483 1.3802683 0.038247775 0
0.85350382 0.57733136 0.10102131 0
0.83826643 0.54933089 0.14179805 0
0.83876806 0.55025274 0.18266889 0
0.84255803 0.55721718 0.22415878 0
0.8378576 0.54857963 0.26449478 0
0.83824492 0.54929131 0.30579236 0
0.8389101 0.55051368 0.34743494 0
0.84027106 0.5530147 0.38965532 0
0.83892268 0.55053693 0.43126526 0
0.41287977 -0.1846523 -0.091173403 0
0.46407139 -0.084651619 -0.090447761 0
0.52772838 0.039699588 -0.089016803 0
0.61711377 0.2143102 -0.089052372 0
0.75137955 0.47659269 -0.091495745 0
0.94075888 0.84653729 -0.091534086 0
1.2416275 1.4342711 -0.089369245 0
1.2401457 1.4313767 -0.025630733 0
1.251855 1.4542503 0.037145469 0
1.2443899 1.4396675 0.1010483 0
0.85038996 0.6700055 0.14441746 0
0.84190369 0.6534279 0.18699037 0
0.83924741 0.64823884 0.22968289 0
0.8396588 0.64904255 0.27287164 0
0.84174252 0.65311295 0.31671989 0
0.83598721 0.6418702 0.35860232 0
0.83918011 0.64810747 0.40339839 0
0.83860618 0.64698631 0.44730869 0
0.39146516 -0.1765587 -0.090691604 0
0.44262844 -0.070071965 -0.091112934 0
0.50596964 0.061760936 -0.090675779 0
0.59264278 0.24215487 -0.091029681 0
0.70808595 0.4824281 -0.089857914 0
0.88772702 0.85631734 -0.090151913 0
1.1828541 1.4705689 -0.089816473 0
1.7799237 2.7132571 -0.09026406 0
4.498692 8.3718634 -0.14049946 0
0.85242522 0.78284317 0.19261263 0
0.84016865 0.75733346 0.23654991 0
0.83864802 0.75416857 0.28162608 0
0.83740354 0.75157839 0.32680944 0
0.84004045 0.75706667 0.37336531 0
0.83984685 0.75666362 0.41943681 0
0.84346491 0.76419395 0.4674997 0
0.373137 -0.16184637 -0.091884606 0
0.42486694 -0.046832945 -0.093671434 0
0.47590503 0.066642314 -0.089319609 0
0.5615527 0.25706664 -0.091087528 0
0.67270005 0.5041855 -0.090419821 0
0.84314114 0.88313478 -0.090666853 0
1.1198645 1.4983859 -0.089722969 0
1.6922706 2.7710419 -0.090982728 0
4.2637763 8.4883852 -0.14065292 0
1.0693361 1.3860438 0.22237282 0
0.84731305 0.89241034 0.245331 0
0.83751768 0.87063187 0.29144546 0
0.8441447 0.88536602 0.34132811 0
0.84137642 0.87921101 0.38901708 0
0.83655363 0.86848837 0.43588051 0
0.84548694 0.88835019 0.48887303 0
0.35301751 -0.15063229 -0.092365824 0
0.39563638 -0.049102869 -0.091084294 0
0.45286363 0.087227494 -0.090912826 0
0.52534252 0.25989142 -0.0894228 0
0.6387614 0.53008515 -0.091614686 0
0.79830629 0.91016322 -0.091312297 0
1.0619987 1.538348 -0.090672486 0
1.5995238 2.8188748 -0.091303699 0
4.026258 8.5999975 -0.14083132 0
0.99762177 1.3849852 0.22099486 0
0.85018212 1.0337451 0.25448072 0
0.83864093 1.006251 0.30310473 0
0.84234613 1.0150778 0.35515538 0
0.83898968 1.0070817 0.40537199 0
0.8410722 1.0120428 0.45782366 0
0.84240329 1.015214 0.51056409 0
0.32811606 -0.15131304 -0.090244584 0
0.36863515 -0.04752275 -0.089450918 0
0.42050546 0.085343987 -0.088629372 0
0.49519947 0.27667394 -0.090018712 0
0.5980227 0.54005748 -0.090907581 0
0.74924374 0.92741269 -0.091085501 0
1.0002055 1.5702553 -0.091118358 0
1.499714 2.8497546 -0.090891846 0
3.7809284 8.6931238 -0.14069697 0
0.92931879 1.3886778 0.21995917 0
0.85077894 1.1874967 0.26446798 0
0.84023935 1.1604993 0.31651476 0
0.83601314 1.1496739 0.36946604 0
0.84017366 1.1603312 0.42540616 0
0.8371864 1.1526792 0.4790166 0
0.83984405 1.1594868 0.53557968 0
0.30831793 -0.13931826 -0.091150381 0
0.34616923 -0.03463861 -0.090233527 0
0.39539373 0.1014941 -0.08966171 0
0.43314904 0.20590821 -0.077640243 0
0.4380579 0.21948388 -0.049255315 0
0.43763688 0.21831957 -0.018891146 0
0.93271744 1.5874891 -0.09058588 0
1.3986421 2.8760264 -0.090380929 0
3.5323019 8.7767677 -0.14048323 0
0.86017615 1.3868725 0.21874624 0
0.84746081 1.3517077 0.27514166 0
0.83776921 1.3249052 0.33080783 0
0.84257525 1.3381965 0.39037204 0
0.83768409 1.3246698 0.4469119 0
0.84120029 1.334394 0.5072161 0
0.83824027 1.3262079 0.56487864 0
0.28490555 -0.13744125 -0.089894108 0
0.32247674 -0.024720039 -0.09053389 0
0.37003958 0.11797789 -0.09085352 0
0.40487903 0.22250333 -0.078539632 0
0.40420109 0.22046939 -0.048065532 0
0.40724176 0.229592 -0.018954044 0
0.86871779 1.6141129 -0.090875871 0
1.3046113 2.9218812 -0.090961002 0
3.2881265 8.8728266 -0.14072998 0
0.79413325 1.3903444 0.21788885 0
0.84862959 1.5538442 0.28852925 0
0.84057444 1.5296774 0.34896147 0
0.84101057 1.5309858 0.41160843 0
0.8393681 1.526058 0.47373757 0
0.84238344 1.5351045 0.53845394 0
0.83950818 1.5264783 0.60060334 0
0.26289964 -0.13193145 -0.089586727 0
0.29846367 -0.015519645 -0.090808757 0
0.3388387 0.11663988 -0.089083917 0
0.38083333 0.25410107 -0.081741966 0
0.38398033 0.26440218 -0.05223814 0
0.38210693 0.25826994 -0.020790426 0
0.72932017 1.3948035 -0.073304735 0
0.72634441 1.3850629 -0.01461014 0
0.72322011 1.3748362 0.043495487 0
0.72652686 1.3856602 0.10104129 0
0.723598 1.3760731 0.15861668 0
0.72599429 1.3839169 0.21663715 0
0.84408611 1.7704673 0.30287173 0
0.83915341 1.7543211 0.36890951 0
0.83610255 1.7443345 0.43520042 0
0.83712399 1.747678 0.50332534 0
0.83762938 1.7493324 0.57177061 0
0.24303696 -0.11893412 -0.091056503 0
0.27338865 -0.0098017715 -0.090519793 0
0.31249797 0.13081935 -0.090108611 0
0.36394647 0.3158069 -0.089402623 0
0.43981615 0.58860332 -0.090442844 0
0.54952139 0.98305827 -0.09011694 0
0.6590957 1.3770425 -0.070737533 0
0.66053224 1.3822076 -0.013624324 0
0.66222376 1.3882897 0.043592427 0
0.65758055 1.3715947 0.10104036 0
0.66133666 1.3851001 0.15841219 0
0.66262227 1.3897226 0.21606955 0
0.8119238 1.9265499 0.31272578 0
0.81169319 1.9257205 0.38355997 0
0.8115117 1.9250681 0.45468417 0
0.81025034 1.9205327 0.52559841 0
0.81410366 1.9343877 0.59989673 0
0.21941745 -0.11940536 -0.089675419 0
0.24905108 -0.0013980534 -0.090877555 0
0.28485185 0.14116827 -0.090590797 0
0.33330885 0.33413425 -0.090791427 0
0.39885399 0.59514898 -0.089957885 0
0.49820086 0.99076909 -0.089587472 0
0.59802681 1.3882971 -0.070406161 0
0.59475613 1.3752725 -0.012528902 0
0.59662104 1.382699 0.044108257 0
0.59888375 1.3917096 0.10104048 0
0.59610736 1.3806534 0.15792309 0
0.59860653 1.3906057 0.2153461 0
0.77061951 2.0755975 0.32206887 0
0.77129138 2.0782731 0.39637002 0
0.77030307 2.0743375 0.47032663 0
0.76762825 2.0636857 0.54352397 0
0.200929 -0.098447472 -0.093100749 0
0.22486056 0.0081732608 -0.091577627 0
0.25701478 0.15142789 -0.09117309 0
0.29835436 0.33560529 -0.08985626 0
0.35619947 0.59331876 -0.08859662 0
0.44790852 1.0019039 -0.089512818 0
0.55337822 1.471796 -0.075363658 0
0.55283749 1.4693868 -0.016340462 0
0.55362278 1.4728854 0.042299334 0
0.54968691 1.4553502 0.10104192 0
0.55027384 1.4579649 0.15942921 0
0.5536359 1.4729438 0.21859539 0
0.71353996 2.1853535 0.32861668 0
0.71640986 2.1981399 0.40607691 0
0.71394187 2.1871443 0.48163614 0
0.71382433 2.1866205 0.55859059 0
0.1779796 -0.095749944 -0.092653506 0
0.19965306 0.013659988 -0.091607474 0
0.22231644 0.1280674 -0.086237632 0
0.26763734 0.3568522 -0.091885693 0
0.32042333 0.62332171 -0.091163479 0
0.39748397 1.0123322 -0.089492418 0
0.41604334 1.1060219 -0.048358236 0
0.41702032 1.1109538 0.0012941903 0
0.41344449 1.0929027 0.051617704 0
0.41408482 1.0961351 0.10103109 0
0.41545555 1.1030548 0.15068558 0
0.41437295 1.0975897 0.20013408 0
0.41569439 1.1042604 0.25029594 0
0.41653821 1.10852 0.30070907 0
0.41804177 1.1161103 0.35194147 0
0.40694591 1.0600972 0.39469889 0
0.29394326 0.48964742 0.34884778 0
0.27197641 0.37875643 0.36373323 0
0.15376884 -0.10092601 -0.090635218 0
0.1728673 0.010114763 -0.090032898 0
0.19591805 0.14413467 -0.088045098 0
0.23220432 0.35510746 -0.090738572 0
0.27832699 0.62327045 -0.09026245 0
0.34644908 1.0193405 -0.089269005 0
0.36935002 1.1524894 -0.05095889 0
0.8806327 4.1251497 -0.14062679 0
1.7638851 9.2604866 -0.14084075 0
0.58384073 2.3995645 0.26125076 0
0.57980347 2.3760912 0.33989295 0
0.58005315 2.3775432 0.42004314 0
0.26315871 0.53508013 0.28183433 0
0.27200049 0.58648735 0.3257668 0
0.27155897 0.5839203 0.36342013 0
0.23459451 0.36900428 0.36064491 0
0.13144727 -0.096385807 -0.090843149 0
0.14674048 0.008275006 -0.088917695 0
0.16840367 0.15652946 -0.089346774 0
0.19836932 0.36160269 -0.090893246 0
0.2373402 0.6283043 -0.090091102 0
0.29631698 1.0319185 -0.089693584 0
0.39668578 1.7188034 -0.090361513 0
0.75181538 4.1491728 -0.1407894 0
1.5044042 9.2995968 -0.14079125 0
0.50701505 2.4738541 0.26410836 0
0.50522482 2.4616024 0.3449825 0
0.50367504 2.4509962 0.42569843 0
0.22301124 0.53024238 0.28053826 0
0.27740276 0.90247697 0.36976412 0
0.20038831 0.37541988 0.36082646 0
0.10807627 -0.10002509 -0.089420043 0
0.12202877 0.015822444 -0.089712061 0
0.13906977 0.15731362 -0.088837676 0
0.1647802 0.37078717 -0.09154921 0
0.19782118 0.64512616 -0.091429926 0
0.24759993 1.0584388 -0.091546796 0
0.3265391 1.71387 -0.089371808 0
0.62151009 4.163012 -0.14062673 0
1.2435126 9.3274946 -0.14063293 0
0.42487508 2.5303531 0.26621324 0
0.42412734 2.5241446 0.34857082 0
0.42405298 2.5235271 0.43143144 0
0.42497125 2.5311515 0.5155949 0
0.23140992 0.92401332 0.3719115 0
0.16637461 0.3840256 0.36158723 0
0.086678661 -0.086294562 -0.091835193 0
0.098104104 0.034086142 -0.092650168 0
0.11134875 0.17363408 -0.091017045 0
0.12969413 0.36692443 -0.090481617 0
0.15495302 0.63305682 -0.089491002 0
0.19439146 1.0485876 -0.090100832 0
0.25927657 1.7322295 -0.090144671 0
0.49103585 4.174089 -0.14048928 0
0.98252618 9.3525229 -0.140562 0
0.34143773 2.5978949 0.26892734 0
0.34112084 2.5945561 0.35284767 0
0.33974463 2.580056 0.43583831 0
0.34054449 2.5884836 0.52120405 0
0.34069714 2.5900917 0.60646784 0
0.17288472 0.82198864 0.40010133 0
0.13113198 0.38207379 0.36051077 0
0.063930802 -0.083514065 -0.092028148 0
0.071680643 0.027985606 -0.091097169 0
0.080376416 0.1530948 -0.087235458 0
0.095157191 0.36575118 -0.089919619 0
0.1147908 0.6482268 -0.090873592 0
0.14210173 1.0411587 -0.089009859 0
0.19134359 1.7496188 -0.09096726 0
0.36120769 4.1935143 -0.14089547 0
0.72186786 9.3824596 -0.14075926 0
0.25333419 2.6414998 0.27061674 0
0.25276795 2.633353 0.35504681 0
0.13235188 0.90088397 0.27793488 0
0.13368891 0.92012054 0.32477894 0
0.13404295 0.92521423 0.3707858 0
0.12523842 0.79854029 0.39561707 0
0.097205542 0.39522138 0.36245611 0
0.040821556 -0.087544113 -0.090894051 0
0.045553528 0.01954082 -0.08922974 0
0.052076869 0.16716459 -0.089280345 0
0.061184175 0.37326375 -0.090702839 0
0.073523797 0.65251058 -0.091099791 0
0.09042231 1.0349255 -0.088155173 0
0.12209994 1.7517931 -0.090844326 0
0.23016953 4.1974182 -0.14073074 0
0.45986319 9.3954067 -0.14071411 0
0.16310193 2.6796718 0.27215457 0
0.16289739 2.6750431 0.35760242 0
0.086732171 0.95141751 0.28240556 0
0.085189193 0.91649967 0.32403436 0
0.08643654 0.94472724 0.37314513 0
0.076663248 0.72355682 0.3828547 0
0.061612524 0.38295737 0.35976842 0
0.018116768 -0.083662122 -0.09156666 0
0.020062763 0.019143853 -0.08900357 0
0.023087129 0.17891935 -0.091061182 0
0.026751829 0.3725237 -0.090446241 0
0.031732529 0.63565141 -0.088976167 0
0.039616372 1.0521507 -0.08961273 0
0.053013377 1.7599072 -0.09125901 0
0.099279664 4.2041311 -0.14085093 0
0.19771995 9.4046793 -0.14073735 0
0.070966549 2.7083642 0.27335596 0
0.070997916 2.7100213 0.35984591 0
0.070779145 2.6984637 0.44546092 0
0.070935525 2.7067251 0.5332275 0
0.032715861 0.6876002 0.37671766 0
0.026815714 0.37589863 0.35823226 0
-0.0046726321 -0.093981177 -0.089342527 0
-0.0054389224 0.027513895 -0.090549879 0
-0.006291958 0.16276243 -0.088375144 0
-0.0076691946 0.38112298 -0.091624297 0
-0.0093597481 0.64915973 -0.090524711 0
-0.011813154 1.0381463 -0.088275202 0
-0.016383879 1.7628336 -0.091432981 0
-0.031808294 4.2083707 -0.14100979 0
-0.064517684 9.394433 -0.14046066 0
-0.02254246 2.739275 0.27476937 0
-0.02236476 2.7111006 0.35988021 0
-0.022358289 2.7100747 0.44649053 0
-0.022407467 2.7178717 0.53446209 0
-0.0093222558 0.64321524 0.3693763 0
-0.0076966137 0.3854703 0.35999471 0
-0.027129684 -0.098551959 -0.088461377 0
-0.03119396 0.030263338 -0.09115947 0
-0.03528066 0.15978923 -0.087976687 0
-0.042265072 0.38115671 -0.09172105 0
-0.05058638 0.64489657 -0.0901177 0
-0.064069338 1.0722322 -0.091548778 0
-0.085171707 1.7410614 -0.090002067 0
-0.11908872 2.8160446 -0.076273911 0
-0.11889867 2.8100212 0.012590708 0
-0.11885698 2.8086998 0.10107888 0
-0.11861645 2.8010762 0.18935865 0
-0.11659089 2.736877 0.27474055 0
-0.11684912 2.7450616 0.36238122 0
-0.11636146 2.7296054 0.44848061 0
-0.11620981 2.7247987 0.53547955 0
-0.050593082 0.645109 0.36981601 0
-0.04227791 0.38156369 0.35938203 0
-0.049883522 -0.094467968 -0.089542232 0
-0.056880224 0.028636608 -0.091066934 0
-0.065336592 0.17742327 -0.091090344 0
-0.076175436 0.36812893 -0.090102203 0
-0.091633111 0.64010125 -0.089769535 0
-0.1149649 1.0506158 -0.089742608 0
-0.15424119 1.7416682 -0.090257607 0
-0.21391612 2.7916274 -0.075333081 0
-0.21459377 2.8035502 0.012642795 0
-0.21337254 2.7820632 0.10107823 0
-0.2143752 2.7997048 0.18942524 0
-0.21123226 2.7444057 0.27528593 0
-0.21113756 2.7427397 0.36251014 0
-0.21066928 2.7345004 0.44932622 0
-0.077756345 0.39594439 0.26320916 0
-0.076993816 0.38252798 0.29414985 0
-0.076370321 0.37155786 0.32506883 0
-0.077031635 0.3831934 0.3599779 0
-0.073092856 -0.088149339 -0.09122429 0
-0.082958162 0.03187767 -0.09201657 0
-0.093271852 0.15735999 -0.088118963 0
-0.11146308 0.37868503 -0.091926135 0
-0.13433586 0.65696853 -0.092082359 0
-0.16692066 1.0534139 -0.090339459 0
-0.22447212 1.753618 -0.091431536 0
-0.42431161 4.1849809 -0.14072837 0
-0.85050923 9.370347 -0.14070806 0
-0.30583775 2.7435589 0.27555233 0
-0.30422103 2.7238891 0.36164591 0
-0.3053014 2.7370338 0.45017517 0
-0.30567765 2.7416112 0.53870046 0
-0.11335011 0.40164366 0.29718554 0
-0.11354584 0.40402511 0.33081818 0
-0.1123883 0.3899416 0.36170828 0
-0.095606081 -0.092161983 -0.090827279 0
-0.10781962 0.021289025 -0.090473421 0
-0.12285411 0.16094378 -0.089164786 0
-0.14457041 0.36266556 -0.090124376 0
-0.17366196 0.63289577 -0.089715548 0
-0.21776079 1.0425277 -0.08977621 0
-0.29211739 1.733223 -0.090458833 0
-0.55481637 4.1734223 -0.14076672 0
-1.1120151 9.3492174 -0.14079346 0
-0.39885017 2.7246587 0.27508488 0
-0.39862064 2.7225268 0.36217511 0
-0.39801738 2.7169232 0.44912338 0
-0.39720008 2.709331 0.53595376 0
-0.14770563 0.39178851 0.29626247 0
-0.14813039 0.39573398 0.32999831 0
-0.1470934 0.38610163 0.36160582 0
-0.11808451 -0.095832258 -0.090624027 0
-0.13301203 0.01618937 -0.090087123 0
-0.15220964 0.16025534 -0.08962936 0
-0.17869547 0.35901454 -0.090188406 0
-0.21596763 0.63871831 -0.090982489 0
-0.27042106 1.0473564 -0.090811498 0
-0.35935935 1.7147818 -0.089740895 0
-0.68428063 4.1531096 -0.14054853 0
-1.3715661 9.3107491 -0.14062704 0
-0.49065074 2.7000401 0.27445719 0
-0.48912302 2.6885755 0.36057371 0
-0.24172041 0.83197659 0.27257678 0
-0.24371406 0.84693772 0.31758088 0
-0.18535435 0.40898517 0.29929602 0
-0.18474863 0.40443972 0.33213937 0
-0.18092403 0.37573841 0.36042938 0
-0.14084797 -0.097495168 -0.090973876 0
-0.15726598 0.005743477 -0.088800691 0
-0.18086639 0.15414611 -0.089316778 0
-0.21248029 0.35293856 -0.090029962 0
-0.25826797 0.64085752 -0.091944732 0
-0.32025468 1.0306382 -0.089939885 0
-0.42690217 1.701252 -0.089487679 0
-0.81368208 4.1333766 -0.14051051 0
-1.6311634 9.2738094 -0.14064987 0
-0.58067501 2.6681964 0.27359512 0
-0.57926542 2.6593328 0.35946098 0
-0.28004056 0.77776653 0.26808399 0
-0.27825287 0.76652533 0.30886018 0
-0.2791757 0.7723282 0.35175401 0
-0.21641181 0.37766054 0.36175454 0
-0.16323218 -0.10174415 -0.090890281 0
-0.18483035 0.014995608 -0.091398366 0
-0.20819214 0.14126793 -0.087992005 0
-0.24779151 0.35530546 -0.091199018 0
-0.29584631 0.61504525 -0.089715905 0
-0.37116072 1.0221252 -0.089962192 0
-0.49397638 1.6859534 -0.089228429 0
-0.94471723 4.122242 -0.14103372 0
-1.889861 9.2308168 -0.14068426 0
-0.66828662 2.6281135 0.27244595 0
-0.66694039 2.620837 0.35784617 0
-0.66811591 2.6271906 0.44447464 0
-0.66850811 2.6293106 0.53127867 0
-0.28998604 0.58337003 0.36391973 0
-0.2542679 0.39031079 0.36531276 0
-0.18657154 -0.10144559 -0.091916628 0
-0.2075496 -0.0021348263 -0.08906465 0
-0.24073388 0.15496042 -0.091238998 0
-0.28150633 0.34797826 -0.091109596 0
-0.33782339 0.61458474 -0.090616487 0
-0.42009336 1.0040529 -0.089194916 0
-0.56350303 1.6829581 -0.089967556 0
-0.62088305 1.9545965 -0.039105657 0
-0.61932021 1.9471982 0.031189064 0
-0.61917514 1.9465113 0.10105606 0
-0.7545954 2.5875947 0.27137494 0
-0.75342661 2.5820615 0.35636061 0
-0.75181133 2.5744147 0.44115812 0
-0.75269169 2.578582 0.52737242 0
-0.28871822 0.38211945 0.36506006 0
-0.20950516 -0.10396972 -0.092460759 0
-0.23231529 -0.0080253147 -0.089003675 0
-0.2683605 0.14358869 -0.090409733 0
-0.31149867 0.32503739 -0.088886775 0
-0.37451717 0.59010702 -0.088764198 0
-0.47171479 0.9989416 -0.089784674 0
-0.52341211 1.2163918 -0.057525609 0
-0.6198346 1.6219659 -0.023984184 0
-0.61791819 1.613905 0.038757902 0
-0.61443686 1.599262 0.10104635 0
-0.83433586 2.5242054 0.2693058 0
-0.83365953 2.5213604 0.35344583 0
-0.83290923 2.5182047 0.43769419 0
-0.83165872 2.5129447 0.52190548 0
-0.83333075 2.5199776 0.60810047 0
-0.23018101 -0.11558971 -0.09113545 0
-0.25935698 -0.0053127077 -0.090739839 0
-0.29784396 0.14015749 -0.091043003 0
-0.34658319 0.32437816 -0.08999788 0
-0.41435364 0.58053166 -0.088812731 0
-0.5210712 0.98389441 -0.089544483 0
-0.58412462 1.2222188 -0.058954541 0
-0.64589638 1.455699 -0.01677168 0
-0.647255 1.4608343 0.042043835 0
-0.64809942 1.4640255 0.10104284 0
-0.91254193 2.4635448 0.26745114 0
-0.9116472 2.4601631 0.35062173 0
-0.91148031 2.4595325 0.43416634 0
-0.91255671 2.4636006 0.51861298 0
-0.91167307 2.4602609 0.60263968 0
-0.25250024 -0.1205059 -0.091399886 0
-0.28298235 -0.016028132 -0.089987643 0
-0.32491642 0.12770143 -0.090262823 0
-0.34591016 0.19965771 -0.073084556 0
-0.4592081 0.5879876 -0.091057099 0
-0.57433182 0.98257536 -0.090758018 0
-0.7148158 1.4640856 -0.077694617 0
-0.71489501 1.4643571 -0.018020837 0
-0.71495539 1.4645641 0.041538477 0
-0.71312392 1.4582868 0.10104319 0
-0.98519379 2.3908091 0.26509196 0
-0.98005354 2.3731909 0.34604114 0
-0.98087382 2.3760026 0.42838624 0
-0.98166275 2.3787065 0.51121378 0
-0.97974187 2.3721228 0.5932647 0
-0.27484873 -0.12558445 -0.091755442 0
-0.30957621 -0.016839352 -0.091305099 0
-0.35031 0.11071387 -0.088811971 0
-0.37952852 0.20220831 -0.07480786 0
-0.39512679 0.25105253 -0.051205266 0
-0.39248925 0.24279335 -0.019754751 0
-0.39592984 0.25356713 0.0097598229 0
-0.39814782 0.2605125 0.039891284 0
-0.39311635 0.24475709 0.070850655 0
-0.39377502 0.24681953 0.10100744 0
-0.39943728 0.26455024 0.13164844 0
-0.39782599 0.25950471 0.16207527 0
-0.39618501 0.25436619 0.19231452 0
-0.39558664 0.25249246 0.22272098 0
-0.39808542 0.26031712 0.25435862 0
-0.39552739 0.25230697 0.28421542 0
-0.39567816 0.25277904 0.31533951 0
-0.3980706 0.26027074 0.34811422 0
-0.29227051 -0.14514676 -0.088981338 0
-0.3325558 -0.029179897 -0.090468548 0
-0.38338229 0.11713114 -0.091531478 0
-0.42970848 0.25048748 -0.083475225 0
-0.42810756 0.24587896 -0.051850531 0
-0.42643407 0.2410616 -0.020603342 0
-0.43498075 0.26566449 0.0080941115 0
-0.43094563 0.25404885 0.039693929 0
-0.4286229 0.24736241 0.070532121 0
-0.43374979 0.26212099 0.10100821 0
-0.4319399 0.25691095 0.13171907 0
-0.42931527 0.24935558 0.1620906 0
-0.43050644 0.25278452 0.1929689 0
-0.42771906 0.24476066 0.2229849 0
-0.43077919 0.25356963 0.25481901 0
-0.42900211 0.24845412 0.28518978 0
-0.42962694 0.25025275 0.31671047 0
-0.42969847 0.25045863 0.34824467 0
-0.31904915 -0.13798836 -0.092348106 0
-0.35717306 -0.036573853 -0.090735562 0
-0.40605336 0.093454152 -0.089138828 0
-0.4785752 0.28637174 -0.09055347 0
-0.48346397 0.2993764 -0.059930984 0
-0.50912833 0.36764696 -0.034340549 0
-0.5075165 0.36335924 -5.3671891e-05 0
-0.51365203 0.37968066 0.032883886 0
-0.51195931 0.37517777 0.0670783 0
-0.51233643 0.37618104 0.10101204 0
-1.2022839 2.2115312 0.18067107 0
-1.1912289 2.1821234 0.25889611 0
-1.1582977 2.0945222 0.33147702 0
-1.1595865 2.0979509 0.40901333 0
-1.1607289 2.1009898 0.48700973 0
-1.1598227 2.0985789 0.56476498 0
-0.33741984 -0.15375778 -0.090645559 0
-0.38578039 -0.034349825 -0.093085445 0
-0.43378237 0.084172636 -0.08937519 0
-0.50948602 0.27109376 -0.090133138 0
-0.51251215 0.27856568 -0.058899809 0
-0.51307356 0.27995184 -0.026848828 0
-0.50891006 0.26967171 0.0060125832 0
-0.51820904 0.29263189 0.036582079 0
-0.50971675 0.27166358 0.069339402 0
-0.51047993 0.2735478 0.10100929 0
-1.2764902 2.1649172 0.25959435 0
-1.1986591 1.972743 0.32456633 0
-1.2004602 1.9771903 0.39989433 0
-1.1966754 1.9678452 0.47403449 0
-1.2025726 1.9824059 0.55173486 0
-0.35910061 -0.16093495 -0.091022618 0
-0.40796748 -0.048516002 -0.092242606 0
-0.46617112 0.085382372 -0.091618992 0
-0.51294893 0.19299534 -0.080200605 0
-0.51399642 0.19540516 -0.050004531 0
-0.51354808 0.19437364 -0.019500075 0
-0.51637083 0.20086744 0.010246212 0
-0.5136348 0.19457319 0.040874127 0
-0.51442474 0.19639054 0.070910886 0
-0.51306176 0.19325486 0.10100721 0
-1.3538529 2.127507 0.25938219 0
-1.226637 1.8348451 0.31642705 0
-1.2253259 1.8318291 0.38827401 0
-1.2287847 1.8397861 0.4616797 0
-1.2249217 1.8308992 0.53330904 0
-1.2273253 1.8364289 0.60754049 0
-0.37806857 -0.17419246 -0.090106316 0
-0.43190074 -0.058430877 -0.092388548 0
-0.48622388 0.058386479 -0.088924281 0
-0.51355928 0.11716905 -0.070516549 0
-0.51013201 0.10979894 -0.040693898 0
-0.512995 0.1159555 -0.012802927 0
-0.50841874 0.10611466 0.016515935 0
-0.51053751 0.11067095 0.044495873 0
-0.50976098 0.10900095 0.072808564 0
-0.50812113 0.10547462 0.10100486 0
-1.4296682 2.0871849 0.25911763 0
-1.2511866 1.7033749 0.30874193 0
-1.2406827 1.6807873 0.37599578 0
-1.2411729 1.6818414 0.44542918 0
-1.2391579 1.6775084 0.51446062 0
-1.237708 1.6743903 0.58394247 0
-0.39909992 -0.18283382 -0.090386726 0
-0.44732687 -0.085619241 -0.08903075 0
-0.51661658 0.054052982 -0.090445645 0
-0.51340187 0.047573004 -0.061690349 0
-0.50800496 0.036693964 -0.032884378 0
-0.51215166 0.0450528 -0.0068030711 0
-0.51111072 0.042954478 0.02041469 0
-0.50957012 0.039849076 0.047487475 0
-0.50748527 0.035646353 0.074368894 0
-0.50785637 0.03639451 0.10100308 0
-1.2494131 1.5312045 0.29782933 0
-1.2408029 1.5138481 0.36194575 0
-1.2447278 1.52176 0.42873576 0
-1.2397276 1.5116806 0.4934791 0
-1.2359277 1.5040207 0.55856621 0
-0.4234997 -0.18526831 -0.092289589 0
-0.46995538 -0.097273558 -0.089018919 0
-0.53203082 0.020307574 -0.086662896 0
-0.53572667 0.02730814 -0.060584847 0
-0.53205806 0.020359311 -0.032465953 0
-0.53268218 0.021541391 -0.0057227146 0
-0.52962303 0.015746865 0.021518173 0
-0.53354138 0.023168836 0.047670208 0
-0.52969301 0.015879426 0.074542731 0
-0.53064513 0.017682824 0.1010029 0
-1.2498037 1.3798885 0.28841698 0
-1.2408921 1.3630085 0.34940806 0
-1.2440459 1.3689823 0.41279617 0
-1.2407562 1.362751 0.47490528 0
-1.2421267 1.3653471 0.53873426 0
-1.2399167 1.361161 0.6017459 0
-0.44148898 -0.20009026 -0.091349892 0
-0.50200987 -0.092141837 -0.092754059 0
-0.55246466 -0.0021478797 -0.085026316 0
-0.56008756 0.011448774 -0.060263548 0
-0.55483472 0.0020795201 -0.031861741 0
-0.55881608 0.0091808774 -0.0058753099 0
-0.55947906 0.010363434 0.020851033 0
-0.55680025 0.0055853459 0.047871679 0
-0.56155115 0.014059339 0.074225821 0
-0.55650491 0.0050586197 0.10100294 0
-1.2911505 1.3154135 0.16255382 0
-1.2916387 1.3162844 0.22417516 0
-1.2519581 1.245508 0.28022984 0
-1.2422802 1.2282457 0.33841354 0
-1.2407005 1.2254279 0.39786375 0
-1.2372878 1.219341 0.45696077 0
-1.2407891 1.2255862 0.51844436 0
-1.2427698 1.2291191 0.58014917 0
-0.45520097 -0.22170141 -0.088828735 0
-0.51481587 -0.12138936 -0.089189015 0
-0.58294082 -0.0067577627 -0.086874716 0
-0.58509576 -0.0031316543 -0.060246263 0
-0.58649319 -0.00078031083 -0.033422414 0
-0.58719379 0.00039854986 -0.0064898264 0
-0.58427978 -0.0045047668 0.020884307 0
-0.58755004 0.00099799375 0.047340814 0
-0.58744156 0.00081548432 0.074191511 0
-0.58863163 0.0028179621 0.10100334 0
-1.359701 1.300271 0.16304709 0
-1.3528447 1.2887342 0.22448951 0
-1.2448601 1.1070318 0.27159014 0
-1.2425251 1.1031032 0.328302 0
-1.2346766 1.0898964 0.38378578 0
-1.235329 1.0909944 0.44119471 0
-1.2347965 1.0900984 0.49865896 0
-1.2455074 1.1081212 0.56066251 0
-0.47898114 -0.22620824 -0.090648614 0
-0.5369696 -0.13401195 -0.089337565 0
-0.61743009 -0.0060872701 -0.089926101 0
-0.61370867 -0.012003984 -0.061280359 0
-0.61091453 -0.016446438 -0.033349369 0
-0.61249715 -0.013930228 -0.0065809395 0
-0.61016214 -0.017642643 0.020723911 0
-0.60951698 -0.01866838 0.047588419 0
-0.60847819 -0.020320024 0.074355595 0
-0.60543072 -0.025165167 0.10100291 0
-1.2534343 1.0051 0.26581821 0
-1.2391843 0.98244387 0.31852418 0
-1.2420155 0.98694509 0.37396243 0
-1.2400783 0.98386532 0.42869246 0
-1.2406262 0.98473638 0.48437932 0
-1.2386566 0.98160487 0.53965127 0
-0.49664757 -0.24071822 -0.090097971 0
-0.56305575 -0.14082018 -0.090929113 0
-0.63227689 -0.036690559 -0.087027527 0
-0.63085276 -0.038832989 -0.059422601 0
-0.64008713 -0.024941649 -0.034367267 0
-0.64121085 -0.023251262 -0.0073058959 0
-0.6339103 -0.034233477 0.020796264 0
-0.63413221 -0.033899631 0.047561526 0
-0.63455927 -0.033257212 0.074278861 0
-0.63841307 -0.027459946 0.10100337 0
-1.2491018 0.8912012 0.25896135 0
-1.2361077 0.87165421 0.30967861 0
-1.2415736 0.87987655 0.36342078 0
-1.2441057 0.88368553 0.41717222 0
-1.2401069 0.87767035 0.46955076 0
-1.2444706 0.88423449 0.52484018 0
-0.5172286 -0.2508727 -0.090783365 0
-0.58544701 -0.15366402 -0.091310464 0
-0.6621924 -0.044304695 -0.088767655 0
-0.65925908 -0.04848459 -0.060554449 0
-0.66680056 -0.03773829 -0.034893412 0
-0.66157842 -0.045179632 -0.0066880863 0
-0.66884303 -0.034827854 0.019452954 0
-0.66387177 -0.041911688 0.047088534 0
-0.66614223 -0.038676348 0.073968679 0
-0.66141295 -0.045415368 0.10100332 0
-1.2995129 0.86385328 0.25937089 0
-1.2556543 0.80135649 0.30528656 0
-1.2301973 0.76508111 0.35158557 0
-1.2418495 0.78168505 0.40515089 0
-1.2405399 0.77981883 0.45630568 0
-1.2371097 0.77493089 0.50705147 0
-0.53455013 -0.26572898 -0.090374403 0
-0.60746408 -0.16721275 -0.091665067 0
-0.68655866 -0.060345616 -0.088970535 0
-0.69403416 -0.050245252 -0.063211523 0
-0.69420302 -0.050017145 -0.035601918 0
-0.6876359 -0.05889013 -0.0070720967 0
-0.69370848 -0.050685253 0.019335838 0
-0.69331467 -0.051217344 0.04663847 0
-0.69174367 -0.053339984 0.073897205 0
-0.68785059 -0.058600094 0.10100345 0
-1.3451442 0.82948953 0.25928724 0
-1.2546545 0.70722622 0.29809931 0
-1.2392462 0.68640763 0.34474084 0
-1.2398827 0.6872676 0.39421964 0
-1.2441896 0.69308668 0.4450877 0
-1.2435836 0.69226784 0.49512905 0
-0.55109501 -0.28144678 -0.08984182 0
-0.63190109 -0.17783979 -0.092856072 0
-0.71502298 -0.071263582 -0.090372197 0
-0.71712691 -0.068565935 -0.063124903 0
-0.71705228 -0.06866166 -0.035482515 0
-0.71840733 -0.066924304 -0.0082127806 0
-0.71588826 -0.070154101 0.01948146 0
-0.71318448 -0.073620826 0.046909299 0
-0.71982896 -0.065101475 0.073719859 0
-0.71845013 -0.066869348 0.1010038 0
-1.3896394 0.79370815 0.25917736 0
-1.2485752 0.61284012 0.29073611 0
-1.2395805 0.60130745 0.33684072 0
-1.2435759 0.60643023 0.38548383 0
-1.2412357 0.60342985 0.43305618 0
-1.2405922 0.60260469 0.48133597 0
-0.57305968 -0.29038939 -0.091275491 0
-0.64632994 -0.20118073 -0.091121994 0
-0.73706633 -0.090706557 -0.090141349 0
-0.74877286 -0.076453477 -0.065038793 0
-0.7441684 -0.082059532 -0.036240492 0
-0.75339341 -0.070827812 -0.0099691357 0
-0.74491978 -0.08114472 0.018812986 0
-0.74658233 -0.079120547 0.046137523 0
-0.74342757 -0.082961529 0.073701188 0
-0.74862796 -0.076629907 0.10100412 0
-1.4314119 0.7546795 0.25887182 0
-1.2543173 0.53906173 0.28569117 0
-1.2479426 0.53130025 0.33106038 0
-1.2437947 0.52625018 0.37670165 0
-1.2453778 0.52817756 0.4238219 0
-1.24209 0.52417463 0.46997488 0
-0.59106106 -0.30445895 -0.09145429 0
-0.67031825 -0.21277872 -0.092363156 0
-0.7558555 -0.11383393 -0.089224584 0
-0.76864552 -0.099039167 -0.064411215 0
