# .PCD v0.7 - Point Cloud Data file format
VERSION 0.7
FIELDS x y z intensity
SIZE 4 4 4 4
TYPE F F F F
COUNT 1 1 1 1
WIDTH 1332
HEIGHT 1
VIEWPOINT 0 0 0 1 0 0 0
POINTS 1332
DATA ascii
0.50251192 -1.7234893 -0.088028796 0
0.57551479 -1.8303577 -0.090878524 0
0.66071063 -1.9550751 -0.091256656 0
0.76904845 -2.1136699 -0.090392359 0
0.92623425 -2.3437729 -0.09074185 0
1.1636763 -2.6913624 -0.091431163 0
1.5479207 -3.2538545 -0.090755947 0
2.9292991 -5.2760429 -0.14071649 0
5.87536 -9.5887575 -0.14116846 0
0.52489907 -1.7161818 -0.089491017 0
0.59917706 -1.8192345 -0.091723852 0
0.68537468 -1.9388244 -0.091399007 0
0.80374324 -2.1030481 -0.091971464 0
0.95443493 -2.3121166 -0.08960662 0
1.2005796 -2.653616 -0.090525828 0
1.6081986 -3.2191436 -0.091190346 0
3.035816 -5.1998091 -0.14065999 0
6.0854268 -9.4308167 -0.14096823 0
0.54630983 -1.7069919 -0.090628453 0
0.62385118 -1.8090417 -0.092945583 0
0.70324957 -1.9135355 -0.089805789 0
0.82663739 -2.0759225 -0.090821318 0
0.99398351 -2.2961617 -0.090857632 0
1.2428781 -2.623724 -0.090631939 0
1.6623554 -3.1757855 -0.091006286 0
3.145205 -5.1273184 -0.14097701 0
6.2896748 -9.2656593 -0.14070679 0
0.56367487 -1.6922925 -0.090434708 0
0.64041489 -1.7881662 -0.091763727 0
0.72892457 -1.8987442 -0.090484075 0
0.84924239 -2.0490611 -0.089798294 0
1.01574 -2.257072 -0.088818856 0
1.2910625 -2.6010411 -0.091728516 0
1.7202015 -3.1371784 -0.091365136 0
3.2406638 -5.0367408 -0.14038497 0
6.4994569 -9.1080561 -0.14081703 0
0.58656931 -1.6842035 -0.092194907 0
0.65591806 -1.766498 -0.090463154 0
0.7511723 -1.8795338 -0.090365 0
0.88138163 -2.03405 -0.091034912 0
1.0491015 -2.2330787 -0.089126654 0
1.3255558 -2.5611403 -0.090893902 0
1.7706394 -3.0893102 -0.091017105 0
3.3482308 -4.9613986 -0.14085293 0
6.7046509 -8.9443789 -0.14090429 0
0.60594028 -1.6714896 -0.092843376 0
0.67354089 -1.7477202 -0.089958318 0
0.77951932 -1.8672282 -0.091882013 0
0.91102874 -2.0155263 -0.091790475 0
1.084438 -2.2110732 -0.089882039 0
1.3666098 -2.5292678 -0.091149442 0
1.8173482 -3.0375485 -0.090415113 0
3.443989 -4.8718495 -0.14061463 0
6.8907609 -8.7586441 -0.1404673 0
0.61629045 -1.6488591 -0.090765052 0
0.69092238 -1.7288584 -0.089533024 0
0.79921079 -1.8449342 -0.091349103 0
0.92454404 -1.9792808 -0.089300178 0
1.1138796 -2.1822324 -0.089703806 0
1.3992652 -2.4881415 -0.090360604 0
1.8590362 -2.9809771 -0.089450397 0
3.5419555 -4.784924 -0.14068982 0
7.0952287 -8.5937319 -0.14082971 0
0.62753725 -1.627826 -0.089187242 0
0.71106374 -1.7129483 -0.089990474 0
0.81831658 -1.8222502 -0.090826117 0
0.95446801 -1.9610028 -0.090351529 0
1.1470009 -2.1572142 -0.090267278 0
1.4345039 -2.4502099 -0.090076275 0
1.9183621 -2.9433124 -0.090415142 0
3.6376052 -4.6954021 -0.14075692 0
7.2804141 -8.4078083 -0.14068286 0
0.64741969 -1.6156617 -0.090362601 0
0.73358959 -1.6991554 -0.091168918 0
0.84214824 -1.8043427 -0.091529943 0
0.97779518 -1.9357769 -0.09017805 0
1.171821 -2.1237769 -0.089570276 0
1.4759756 -2.4184856 -0.090734921 0
1.9587848 -2.8863008 -0.089610226 0
3.7394063 -4.6116228 -0.14136951 0
7.4696636 -8.2260332 -0.140825 0
0.66644406 -1.602308 -0.091352783 0
0.75085992 -1.6800699 -0.091064699 0
0.86281139 -1.7831972 -0.09161181 0
1.0110178 -1.9197215 -0.092022441 0
1.1969019 -2.0909536 -0.089066483 0
1.5092961 -2.3787241 -0.090446852 0
2.54368 -3.3315752 -0.14071451 0
3.8210447 -4.5082545 -0.14082728 0
7.6549549 -8.0399656 -0.14098556 0
0.68738568 -1.5903014 -0.092959382 0
0.76509905 -1.6583457 -0.090325885 0
0.87436032 -1.7540129 -0.089818858 0
1.0336373 -1.8934728 -0.091922604 0
1.2253513 -2.0613341 -0.089227132 0
1.5303212 -2.3283598 -0.088765614 0
2.5999434 -3.2649014 -0.14052634 0
3.9032106 -4.4060178 -0.14049286 0
7.8296738 -7.8439555 -0.14096269 0
0.69867903 -1.5697528 -0.09194953 0
0.78172034 -1.6388396 -0.090321891 0
0.90170521 -1.7386619 -0.091599382 0
1.0488595 -1.8610878 -0.09059494 0
1.2525018 -2.0305095 -0.089301877 0
1.5718262 -2.2961736 -0.089761965 0
2.6680326 -3.2081704 -0.14157221 0
3.993587 -4.3109746 -0.14082055 0
7.9962945 -7.6410556 -0.14084665 0
0.7156418 -1.5539706 -0.092637442 0
0.79958421 -1.6202958 -0.090735666 0
0.92045236 -1.7157969 -0.091625907 0
1.0740476 -1.8371567 -0.091226362 0
1.2733319 -1.9946166 -0.088550784 0
1.604353 -2.2561653 -0.089768268 0
2.7177691 -3.135906 -0.14109118 0
4.0654869 -4.2007742 -0.14018936 0
8.1590033 -7.4351721 -0.1407703 0
0.72962642 -1.5357326 -0.092628084 0
0.81785679 -1.6018995 -0.091349192 0
0.93854249 -1.6924057 -0.091636665 0
1.0924891 -1.8078554 -0.090768032 0
1.3135424 -1.9736304 -0.090778641 0
1.6204625 -2.2038 -0.087977998 0
2.7570884 -3.0561934 -0.13986982 0
4.1593833 -4.10782 -0.14101343 0
8.3255043 -7.232131 -0.14095809 0
0.73277777 -1.5097744 -0.089914314 0
0.8311646 -1.5797503 -0.090912633 0
0.9494611 -1.6638865 -0.090321071 0
1.1135108 -1.780564 -0.090891518 0
1.3207482 -1.9279579 -0.0883101 0
1.6714996 -2.1774235 -0.090372987 0
2.8216813 -2.9954698 -0.14101253 0
4.2300873 -3.9971733 -0.14063321 0
8.4758911 -7.0169244 -0.1408304 0
0.75388366 -1.496675 -0.092017852 0
0.8377583 -1.5531979 -0.08908657 0
0.97488219 -1.6456051 -0.092045762 0
1.1328303 -1.7520456 -0.090842195 0
1.3445494 -1.8947223 -0.088385917 0
1.6970636 -2.1322801 -0.089936055 0
2.8709974 -2.9233897 -0.14097852 0
4.3050671 -3.8898034 -0.14065757 0
8.6187267 -6.7967615 -0.14064677 0
0.75450009 -1.4698979 -0.089006148 0
0.85838449 -1.5361563 -0.090575464 0
0.98200703 -1.6150038 -0.090267085 0
1.1447453 -1.7187997 -0.089680471 0
1.3695271 -1.8621676 -0.088740863 0
1.7259223 -2.0894794 -0.089998059 0
2.9163842 -2.8487668 -0.14077133 0
4.3735037 -3.7781305 -0.14047118 0
8.7616949 -6.5769572 -0.14062424 0
0.7773999 -1.4573723 -0.091739722 0
0.87383586 -1.5155102 -0.090999149 0
1.0036371 -1.5937629 -0.091448285 0
1.1644194 -1.6906929 -0.089948289 0
1.4065734 -1.8366791 -0.090850465 0
1.7608067 -2.0502338 -0.090834521 0
2.9650402 -2.7762244 -0.14098908 0
4.4527035 -3.6730847 -0.14102709 0
8.9101572 -6.3603277 -0.14090303 0
0.79014927 -1.4383084 -0.092029877 0
0.89126402 -1.4958396 -0.091958933 0
1.014906 -1.566188 -0.090755589 0
1.1913235 -1.6665641 -0.091496862 0
1.4170706 -1.7950071 -0.089447223 0
1.7823697 -2.002851 -0.09033566 0
3.0066307 -2.6994174 -0.14078382 0
4.5108733 -3.5552847 -0.14059177 0
9.0342522 -6.1289458 -0.14067338 0
0.80157679 -1.4184412 -0.092114203 0
0.89906287 -1.4706969 -0.090954877 0
1.0344262 -1.5432559 -0.091741525 0
1.2045805 -1.6344641 -0.090946384 0
1.4495136 -1.7657562 -0.091113366 0
1.80957 -1.9587581 -0.090568043 0
3.0486283 -2.6229334 -0.14076847 0
4.572329 -3.4396865 -0.140494 0
9.1733999 -5.9060087 -0.14099903 0
0.81597489 -1.4000324 -0.093024708 0
0.90431446 -1.4445533 -0.089560933 0
1.0432729 -1.5145849 -0.090857871 0
1.2275426 -1.6074523 -0.092058532 0
1.4719347 -1.7306197 -0.091544114 0
1.8295404 -1.9108441 -0.090158887 0
3.0970016 -2.549613 -0.14140454 0
4.6417317 -3.3281186 -0.14096487 0
9.2787294 -5.6650496 -0.14058757 0
0.82378703 -1.3782549 -0.092485867 0
0.92547828 -1.4263268 -0.091636948 0
1.0474501 -1.4839857 -0.0892682 0
1.2287729 -1.5697011 -0.089886002 0
1.4878004 -1.6921494 -0.091237687 0
1.8604053 -1.8682884 -0.09100502 0
3.1279774 -2.467499 -0.1408318 0
4.7018509 -3.2115054 -0.14109801 0
9.3974724 -5.4312339 -0.14068331 0
0.82586104 -1.354064 -0.090747856 0
0.93908495 -1.4041325 -0.092228882 0
1.0648084 -1.4597284 -0.09020441 0
1.2499593 -1.5416037 -0.090951361 0
1.5029376 -1.6534727 -0.090966351 0
1.8903331 -1.8247821 -0.091856383 0
3.1669376 -2.3893068 -0.14103504 0
4.7613559 -3.0943718 -0.14134912 0
9.5008421 -5.1902103 -0.14053805 0
0.82857841 -1.3305687 -0.089316912 0
0.94192547 -1.3773093 -0.090735964 0
1.070447 -1.4303073 -0.089156918 0
1.2494935 -1.50414 -0.088822611 0
1.5148748 -1.6135745 -0.090417378 0
1.8984565 -1.7717508 -0.090608917 0
3.1867025 -2.3029804 -0.1399347 0
4.795321 -2.9663212 -0.14046118 0
9.6220112 -4.956687 -0.14099577 0
0.84656215 -1.3132709 -0.091510452 0
0.96454346 -1.3584743 -0.093383811 0
1.0859603 -1.4049939 -0.08998879 0
1.2830578 -1.4805099 -0.091978781 0
1.528729 -1.5746363 -0.090240248 0
1.9176852 -1.7236611 -0.090617962 0
3.2258778 -2.2248821 -0.14046204 0
4.8486876 -2.8466454 -0.14071096 0
9.7070246 -4.7080688 -0.14069638 0
0.85543305 -1.2921752 -0.091728263 0
0.96140701 -1.32974 -0.090956919 0
1.0916121 -1.3758943 -0.08920563 0
1.2866583 -1.445033 -0.090728514 0
1.5614996 -1.5424569 -0.092532761 0
1.9307981 -1.6733633 -0.090142049 0
3.259758 -2.144444 -0.14073883 0
4.9056559 -2.7278709 -0.14128634 0
9.8050184 -4.4645638 -0.14087535 0
0.85736281 -1.2687447 -0.090511866 0
0.96673316 -1.3044338 -0.090370886 0
1.1041116 -1.3492624 -0.089740224 0
1.280285 -1.4067504 -0.088147037 0
1.5677427 -1.5005522 -0.091645531 0
1.955307 -1.6270201 -0.090914123 0
3.2845905 -2.0607851 -0.14049795 0
4.9357586 -2.5995858 -0.14068882 0
9.8854294 -4.2147369 -0.1407738 0
0.85964739 -1.2457063 -0.089515008 0
0.98117399 -1.2819961 -0.091706969 0
1.1190741 -1.3231753 -0.090809055 0
1.2954733 -1.375851 -0.088889562 0
1.5562856 -1.4537339 -0.088735513 0
1.955224 -1.5728636 -0.089399226 0
3.3170323 -1.979522 -0.14096871 0
4.9703836 -2.4732399 -0.14047341 0
9.9725533 -3.96697 -0.1409895 0
0.86081058 -1.2225939 -0.088406496 0
0.98618692 -1.2566125 -0.091304876 0
1.1203592 -1.2930179 -0.089653917 0
1.310307 -1.3445568 -0.089689367 0
1.571968 -1.4155539 -0.089275517 0
1.9648061 -1.5221437 -0.088962086 0
3.3444624 -1.8964894 -0.14122233 0
5.0128107 -2.3491664 -0.14079022 0
10.047089 -3.7151296 -0.14105166 0
0.8695069 -1.2015789 -0.08908125 0
0.99516392 -1.2322918 -0.091798522 0
1.1294372 -1.2651109 -0.089953549 0
1.3251866 -1.3129559 -0.090605535 0
1.5647899 -1.3715196 -0.087178089 0
1.9658482 -1.4695461 -0.087830447 0
3.3594344 -1.810166 -0.14072913 0
5.0580029 -2.2253296 -0.14138816 0
10.106825 -3.4593608 -0.14091186 0
0.87378985 -1.1794237 -0.08890792 0
1.0047354 -1.2079484 -0.092522688 0
1.1407638 -1.2375804 -0.090748601 0
1.3310494 -1.2790318 -0.090334855 0
1.5998666 -1.33759 -0.090279751 0
1.9905602 -1.4226974 -0.089093365 0
3.3726244 -1.7237619 -0.14026749 0
5.0786805 -2.0954039 -0.14096418 0
10.168075 -3.2040613 -0.14096288 0
0.88882357 -1.1593552 -0.091183506 0
0.99973196 -1.1805991 -0.090566464 0
1.1465889 -1.2087288 -0.090735801 0
1.3331394 -1.2444615 -0.089648463 0
1.620239 -1.299454 -0.09171886 0
2.5491304 -1.4773781 -0.14119928 0
3.4004602 -1.6404459 -0.14100617 0
5.1099868 -1.9678966 -0.14120185 0
10.211896 -2.9451404 -0.14075403 0
0.88256711 -1.1352009 -0.08897195 0
1.0027915 -1.1550987 -0.090289764 0
1.1460866 -1.1788148 -0.08979056 0
1.3367598 -1.2103723 -0.08930748 0
1.6158141 -1.2565573 -0.090328686 0
2.5517528 -1.4114604 -0.14035901 0
3.4137886 -1.5541322 -0.14086314 0
5.1198349 -1.8364923 -0.1405782 0
10.253798 -2.6861916 -0.14065515 0
0.9011907 -1.1150373 -0.092239164 0
1.0174433 -1.1312759 -0.092341281 0
1.168676 -1.1524005 -0.092806168 0
1.3473793 -1.1773623 -0.090083204 0
1.6277882 -1.2165307 -0.091006614 0
2.5654619 -1.3475078 -0.14072371 0
3.4295809 -1.4682107 -0.1410486 0
5.1384511 -1.706911 -0.14052507 0
10.301393 -2.4280865 -0.140844 0
0.90870684 -1.0928121 -0.093229719 0
1.0103738 -1.1044064 -0.090383314 0
1.164221 -1.1219513 -0.091449983 0
1.3487328 -1.1429935 -0.089664094 0
1.6282171 -1.1748664 -0.090443559 0
2.5910542 -1.2846702 -0.14235558 0
3.4218163 -1.3794121 -0.13972883 0
5.1592259 -1.5775498 -0.14072677 0
10.339681 -2.1683393 -0.14096722 0
0.89764839 -1.0686911 -0.090374224 0
1.0152348 -1.0791032 -0.090814047 0
1.1272739 -1.0890241 -0.084862746 0
1.1310165 -1.0893555 -0.058461074 0
1.635232 -1.1340028 -0.090778045 0
2.5848024 -1.2180855 -0.14114866 0
3.4439235 -1.2941591 -0.14066598 0
5.1873236 -1.4485339 -0.14142303 0
10.352286 -1.9058816 -0.14064389 0
0.91642243 -1.0471194 -0.094006948 0
1.0176585 -1.0535142 -0.090904735 0
1.1393456 -1.061201 -0.086495377 0
1.1272011 -1.0604337 -0.057618964 0
1.6340964 -1.0924534 -0.090278395 0
2.590086 -1.1528412 -0.14117986 0
3.456697 -1.2075833 -0.14109872 0
5.1772299 -1.3162658 -0.14048868 0
10.375278 -1.6446159 -0.14071754 0
0.89463466 -1.023134 -0.089124002 0
1.0188047 -1.0278361 -0.090876348 0
1.1250918 -1.0318611 -0.083912246 0
1.1332129 -1.0321686 -0.058262426 0
1.6507763 -1.0517679 -0.091985621 0
2.5886812 -1.0872852 -0.14074019 0
3.4623444 -1.1203694 -0.14118546 0
5.1895952 -1.185778 -0.14075719 0
10.390252 -1.3827194 -0.14075805 0
0.89728791 -1.0006015 -0.089566983 0
1.0187954 -1.0021347 -0.09075246 0
1.1298903 -1.0035365 -0.08458326 0
1.1347492 -1.0035977 -0.058376957 0
1.1339874 -1.0035881 -0.031459127 0
1.1321723 -1.0035652 -0.0046244096 0
1.1309153 -1.0035493 0.021970579 0
1.1251669 -1.0034769 0.048629839 0
1.1388141 -1.003649 0.074513011 0
1.146762 -1.0037494 0.10100311 0
1.1303065 -1.0035417 0.12729448 0
1.130056 -1.0035385 0.15360321 0
1.1321275 -1.0035647 0.18011987 0
1.131686 -1.0035591 0.20658495 0
1.1247194 -1.0034713 0.2323817 0
1.1303198 -1.0035418 0.25976098 0
1.1274737 -1.0035059 0.28619289 0
1.1255221 -1.0034814 0.31286344 0
0.91550863 -0.97775322 -0.093440332 0
1.0266237 -0.9763512 -0.092227049 0
1.1301444 -0.97504503 -0.084625013 0
1.1198376 -0.97517508 -0.056281198 0
1.6406386 -0.96860391 -0.090677835 0
2.5955825 -0.95655489 -0.14123051 0
3.4616466 -0.94562733 -0.14098248 0
5.1969333 -0.92373234 -0.14094493 0
10.395137 -0.85814404 -0.14071774 0
0.90760624 -0.95495951 -0.09188325 0
1.020857 -0.95067084 -0.091263197 0
1.1260046 -0.94668907 -0.08406239 0
1.1382951 -0.94622362 -0.058977161 0
1.6298625 -0.92760867 -0.08953961 0
2.5811772 -0.89158374 -0.14003927 0
3.456188 -0.85844833 -0.14075476 0
5.1913929 -0.79273862 -0.14084093 0
10.387398 -0.59597337 -0.14069167 0
0.89926863 -0.93254894 -0.090353422 0
1.0073123 -0.92572403 -0.088952132 0
1.1264937 -0.91819561 -0.08437892 0
1.1388555 -0.91741472 -0.059260074 0
1.6466825 -0.88533634 -0.091752313 0
2.5838645 -0.82613647 -0.14059797 0
3.4476521 -0.77157277 -0.14046513 0
5.1802669 -0.66212702 -0.14063036 0
10.379092 -0.33372787 -0.14080641 0
0.91291511 -0.90854168 -0.093632035 0
1.0172675 -0.89930147 -0.091198407 0
1.1507114 -0.88748527 -0.088729821 0
1.3494629 -0.86988622 -0.089280494 0
1.6312363 -0.84493566 -0.090309225 0
2.5859578 -0.76039684 -0.14125693 0
3.4363196 -0.68509889 -0.14013234 0
5.1652856 -0.53200215 -0.14039303 0
10.35742 -0.072248429 -0.14076373 0
0.89902633 -0.8868767 -0.091158666 0
1.0205131 -0.87302208 -0.092305429 0
1.1533815 -0.85786951 -0.089656927 0
1.3532454 -0.83507663 -0.09030237 0
1.6275479 -0.80379462 -0.090364836 0
2.5725005 -0.69603032 -0.14061254 0
3.4348474 -0.59768653 -0.14064573 0
5.1675076 -0.40009049 -0.14111482 0
10.332823 0.18897238 -0.14080673 0
0.89271873 -0.86473072 -0.090420865 0
1.0164839 -0.84744281 -0.092158817 0
1.160634 -0.82730752 -0.09147162 0
1.334254 -0.8030557 -0.088220738 0
1.6207358 -0.76303905 -0.09017437 0
2.5653594 -0.63109112 -0.14071403 0
3.4213052 -0.51152998 -0.14046444 0
5.150311 -0.27001712 -0.14108257 0
10.297924 0.4490172 -0.14076258 0
0.88043815 -0.84373617 -0.088513263 0
1.0105164 -0.82220751 -0.091764547 0
1.1456888 -0.79983574 -0.08972428 0
1.3336664 -0.76872438 -0.088866852 0
1.6187875 -0.72153521 -0.09068092 0
2.5615194 -0.56550783 -0.14128304 0
3.4178488 -0.42378053 -0.14115085 0
5.1197729 -0.14210263 -0.14057527 0
10.260015 0.70863611 -0.14080168 0
0.89293563 -0.81844187 -0.092073463 0
1.0107026 -0.79588425 -0.092670359 0
1.1481023 -0.76956606 -0.090989046 0
1.3423737 -0.7323544 -0.090969779 0
1.3462783 -0.73160648 -0.059118081 0
1.3391547 -0.73297095 -0.026206559 0
1.349483 -0.73099262 0.0049830768 0
1.3490638 -0.73107296 0.037069622 0
1.3488971 -0.73110485 0.069060847 0
1.3398778 -0.73283243 0.10100932 0
0.87593424 -0.79869384 -0.08937443 0
0.99705917 -0.77230835 -0.091042988 0
1.1319278 -0.74292904 -0.089262359 0
1.210048 -0.72591156 -0.072931163 0
1.2061633 -0.72675776 -0.043187264 0
1.2018378 -0.72770005 -0.013747266 0
1.2106565 -0.725779 0.014418961 0
1.210068 -0.72590721 0.043361399 0
1.2034537 -0.72734803 0.072356552 0
1.2015893 -0.72775418 0.10100548 0
0.87653315 -0.77528852 -0.090618722 0
0.99102241 -0.7473051 -0.090995498 0
1.1312872 -0.71302164 -0.090266563 0
1.1959397 -0.69721931 -0.07190717 0
1.2006749 -0.69606197 -0.043370042 0
1.2211311 -0.69106203 -0.016272051 0
1.2092682 -0.69396156 0.014012666 0
1.2074057 -0.69441676 0.04315206 0
1.2022529 -0.69567627 0.072217949 0
1.2070967 -0.69449228 0.10100584 0
0.87487072 -0.75217581 -0.09150321 0
0.98614371 -0.72198385 -0.091296442 0
1.1223511 -0.68502641 -0.089993127 0
1.2086062 -0.66162258 -0.074880101 0
1.2046623 -0.66269267 -0.044795129 0
1.2011317 -0.66365063 -0.015103122 0
1.2036276 -0.6629734 0.013853626 0
1.2030134 -0.66314006 0.042986516 0
1.2011364 -0.66364938 0.072057158 0
1.2076977 -0.66186905 0.10100609 0
0.8689149 -0.73011094 -0.091570877 0
0.97606218 -0.69811499 -0.090702139 0
1.113217 -0.65715832 -0.089804433 0
1.2057351 -0.62953091 -0.075727947 0
1.2141409 -0.62702078 -0.047003109 0
1.2085663 -0.62868547 -0.016664943 0
1.2055881 -0.62957478 0.013081947 0
1.2051679 -0.6297003 0.042463426 0
1.2053127 -0.62965703 0.071747176 0
1.1993456 -0.63143891 0.1010061 0
0.85580999 -0.71034676 -0.090164654 0
0.96831727 -0.67363393 -0.090684734 0
1.111434 -0.62693286 -0.091006123 0
1.1920408 -0.60062963 -0.075102098 0
1.2134917 -0.5936299 -0.048094485 0
1.2048446 -0.59645158 -0.017230606 0
1.2073922 -0.59562027 0.012253659 0
1.2224338 -0.59071195 0.041154832 0
1.2085661 -0.5952372 0.071436316 0
1.2014503 -0.59755915 0.10100645 0
0.84733641 -0.68927956 -0.089902304 0
0.96252388 -0.64844871 -0.091180108 0
1.1103389 -0.59605223 -0.092471056 0
1.1998075 -0.56433803 -0.077778839 0
1.2071934 -0.56171989 -0.048599247 0
1.2074353 -0.56163418 -0.018506682 0
1.2094355 -0.56092513 0.011336887 0
1.2076468 -0.5615592 0.041369274 0
1.2084405 -0.56127787 0.071184672 0
1.2001518 -0.56421596 0.10100672 0
0.84335613 -0.66654205 -0.090780683 0
0.95567596 -0.62350786 -0.09159521 0
1.089854 -0.57209891 -0.09067408 0
1.2085179 -0.52663404 -0.08076077 0
1.2116333 -0.52544039 -0.050553206 0
1.197184 -0.53097647 -0.01859895 0
1.2051022 -0.52794272 0.010823349 0
1.2137958 -0.52461189 0.040505532 0
1.2051325 -0.52793109 0.070988581 0
1.2084125 -0.52667439 0.10100731 0
0.82859004 -0.64801115 -0.089319579 0
0.95446193 -0.59610581 -0.093290098 0
1.0875977 -0.54120499 -0.092205919 0
1.2060053 -0.49237767 -0.082211785 0
1.2063762 -0.49222475 -0.051416878 0
1.211027 -0.49030694 -0.021202592 0
1.1966243 -0.49624613 0.010555224 0
1.2095728 -0.49090663 0.040108338 0
1.2019944 -0.4940317 0.0707651 0
1.2057891 -0.4924669 0.1010076 0
0.83018672 -0.62260789 -0.091753237 0
0.92488724 -0.58073056 -0.089304931 0
1.0624856 -0.51988345 -0.089787014 0
1.2072845 -0.4558523 -0.084393837 0
1.2145243 -0.45265076 -0.054109845 0
1.2091093 -0.45504525 -0.022331117 0
1.201676 -0.45833239 0.0091890637 0
1.2085521 -0.45529166 0.039500605 0
1.2100403 -0.45463356 0.070233159 0
1.1985707 -0.45970556 0.10100778 0
0.82475644 -0.59987146 -0.092713796 0
0.92069519 -0.554519 -0.090640463 0
1.048641 -0.49403614 -0.089484684 0
1.221372 -0.41238216 -0.088735573 0
1.4855446 -0.28750172 -0.090946056 0
1.8656547 -0.10781482 -0.09154699 0
3.1192291 0.48477879 -0.14015532 0
4.6888933 1.2267952 -0.14043076 0
9.4174757 3.462105 -0.14119774 0
0.80170649 -0.58574325 -0.089628391 0
0.91067427 -0.53082621 -0.090902351 0
1.0330789 -0.46913734 -0.088981755 0
1.2196038 -0.37513342 -0.090809174 0
1.4656805 -0.25111696 -0.090725593 0
1.8342259 -0.065379232 -0.090648644 0
3.0928178 0.56891972 -0.14107701 0
4.6410942 1.3492126 -0.14093164 0
9.2893162 3.6917999 -0.1408632 0
0.79351908 -0.56446266 -0.090170898 0
0.89589053 -0.50958824 -0.090276934 0
1.0274603 -0.43906268 -0.090442576 0
1.2020994 -0.34545043 -0.090550773 0
1.4438792 -0.21584865 -0.090366237 0
1.8108549 -0.019137826 -0.090704121 0
3.0479686 0.64399523 -0.14071614 0
4.589066 1.4700732 -0.14137806 0
9.1648016 3.9228151 -0.14077222 0
0.78917938 -0.54082811 -0.091792695 0
0.89163876 -0.48253193 -0.092040144 0
1.0152959 -0.41217491 -0.09082932 0
1.1748246 -0.32140806 -0.088829152 0
1.2179478 -0.29687229 -0.062671863 0
1.2180189 -0.29683188 -0.029729387 0
3.0066977 0.72087079 -0.14078921 0
4.5198836 1.5818264 -0.14107437 0
9.0380087 4.1524987 -0.14077386 0
0.76720035 -0.52736133 -0.089208193 0
0.87868452 -0.4601514 -0.092065506 0
0.99455041 -0.39029989 -0.089704491 0
1.1610771 -0.28990671 -0.089399822 0
1.1529567 -0.29480228 -0.056239624 0
1.1938924 -0.27012363 -0.029046273 0
2.970011 0.80063647 -0.14139485 0
4.4416361 1.6878281 -0.14042549 0
8.9035177 4.3777413 -0.1407228 0
0.76092076 -0.5045917 -0.090624906 0
0.85717678 -0.44319877 -0.090305664 0
0.97750884 -0.36644992 -0.089390226 0
1.1464901 -0.25867221 -0.089971296 0
1.1407782 -0.2623153 -0.057031278 0
1.1762605 -0.23968437 -0.029145157 0
2.9151843 0.86941677 -0.1406718 0
4.3741641 1.7999671 -0.14050764 0
8.7656555 4.6008992 -0.14073347 0
0.74954689 -0.4848322 -0.09090624 0
0.84211057 -0.42245391 -0.090075083 0
0.96583331 -0.33907762 -0.090252392 0
1.1288912 -0.22919354 -0.090174668 0
1.1404305 -0.22141734 -0.059618477 0
1.1592126 -0.20876011 -0.02939724 0
2.8698637 0.94404107 -0.14088294 0
4.3024831 1.9094775 -0.14051251 0
8.6287594 4.8249378 -0.14092804 0
0.73625112 -0.46633986 -0.090820305 0
0.82175553 -0.40552637 -0.088737912 0
0.94870692 -0.31523451 -0.090168975 0
1.1125885 -0.19867668 -0.090732463 0
1.1336111 -0.18372479 -0.061471108 0
1.1460575 -0.17487249 -0.030188402 0
2.829216 1.0222437 -0.14165892 0
4.2316422 2.0196941 -0.14072202 0
8.4664974 5.0316591 -0.14056239 0
0.72392613 -0.4471269 -0.091113545 0
0.80909365 -0.38325694 -0.089286096 0
0.93578899 -0.28824398 -0.091071017 0
1.0904534 -0.17225614 -0.090410404 0
1.0997385 -0.16529289 -0.059544686 0
1.0972838 -0.16713372 -0.026937878 0
1.0923737 -0.17081597 0.0055995751 0
1.097396 -0.16704962 0.037168037 0
1.1055436 -0.16093948 0.06886927 0
1.0989734 -0.16586664 0.10100958 0
1.1008166 -0.16448441 0.13301268 0
1.1031573 -0.162729 0.16518685 0
1.1012546 -0.16415599 0.19719617 0
0.70030123 -0.43673512 -0.088481583 0
0.79432279 -0.3624461 -0.089472674 0
0.9194963 -0.26354316 -0.091425635 0
1.0604438 -0.15217671 -0.088789828 0
1.1059034 -0.11625788 -0.063611858 0
1.1005362 -0.12049863 -0.029833993 0
1.1093677 -0.11352065 0.0022145233 0
1.0972719 -0.1230779 0.035923768 0
1.1021868 -0.11919442 0.068338998 0
1.1063852 -0.11587718 0.10101061 0
1.1047798 -0.11714569 0.13375899 0
1.1060013 -0.11618057 0.16661556 0
1.0967156 -0.12351742 0.19867912 0
0.69709772 -0.41014752 -0.091512285 0
0.78170693 -0.33975628 -0.090318613 0
0.89666069 -0.24411967 -0.090520911 0
1.0306147 -0.13267574 -0.087259598 0
1.0975897 -0.076955408 -0.065750264 0
1.0925806 -0.081122845 -0.031572107 0
1.0959979 -0.078279704 0.0013888201 0
1.0952547 -0.078898102 0.034701239 0
1.0962883 -0.078038126 0.067842819 0
1.1007267 -0.074345559 0.10101124 0
1.1054814 -0.070389837 0.13445809 0
1.1026253 -0.072766036 0.16776793 0
1.1020894 -0.073211819 0.20118812 0
0.67951542 -0.39517435 -0.09073583 0
0.76734102 -0.3182759 -0.090887167 0
0.87061179 -0.22785392 -0.088999994 0
0.99611139 -0.11796883 -0.084913068 0
1.1019818 -0.025270727 -0.07006263 0
1.091772 -0.034210291 -0.034357686 0
1.1004192 -0.026638892 -0.0011902356 0
1.1087761 -0.019321825 0.032421652 0
1.1028508 -0.024509873 0.066918716 0
1.096583 -0.029997792 0.10101197 0
1.1014013 -0.025778975 0.13506085 0
1.1103808 -0.017916765 0.16970281 0
1.1028205 -0.024536397 0.20343819 0
1.0975298 -0.029168811 0.23709677 0
1.0855387 -0.03966799 0.37257296 0
0.66503078 -0.37757859 -0.090944342 0
0.74467319 -0.30421379 -0.089480363 0
0.85138243 -0.20591566 -0.089057945 0
0.95992833 -0.10592565 -0.082260601 0
1.0609998 -0.012821045 -0.067471169 0
1.1048052 0.027531538 -0.039113943 0
1.0964617 0.019845638 -0.0031559819 0
1.1009029 0.023936901 0.031348597 0
1.1008085 0.023849878 0.066202678 0
1.1031008 0.025961433 0.10101318 0
1.1020246 0.024970088 0.13586208 0
1.1059092 0.028548632 0.17099504 0
1.1005986 0.023656521 0.20557578 0
1.1092039 0.0315837 0.24169977 0
1.0298089 -0.041553285 0.36452305 0
0.65151787 -0.35895213 -0.091575556 0
0.73511684 -0.27794942 -0.091569461 0
0.84223652 -0.17415646 -0.091550134 0
0.83554214 -0.18064293 -0.062341381 0
0.84354806 -0.17288563 -0.036147971 0
0.84326798 -0.17315707 -0.008502176 0
0.83168411 -0.18438116 0.020105982 0
0.84443915 -0.17202219 0.046293676 0
0.84460902 -0.17185763 0.073658109 0
0.8464905 -0.17003456 0.101004 0
0.84485918 -0.17161527 0.12835792 0
0.83008176 -0.18593368 0.15478247 0
0.84614176 -0.17037246 0.1833097 0
1.1036968 0.079183847 0.24437922 0
0.9993012 -0.021969583 0.29640818 0
1.0040805 -0.017338779 0.33061036 0
0.99330997 -0.027774777 0.36130697 0
0.63558823 -0.34255388 -0.09163066 0
0.71209699 -0.26458344 -0.090268336 0
0.82018209 -0.15443328 -0.091263868 0
0.84029847 -0.13393262 -0.067443006 0
0.84643543 -0.12767842 -0.040111858 0
0.83964652 -0.13459703 -0.010799563 0
0.84109151 -0.13312444 0.017113449 0
0.8400833 -0.13415191 0.045194715 0
0.84130573 -0.13290611 0.073074177 0
0.84573305 -0.12839422 0.10100483 0
0.8365683 -0.13773403 0.1287775 0
0.84875655 -0.12531295 0.15739186 0
0.84085613 -0.13336429 0.18487266 0
0.84085423 -0.1333662 0.21297038 0
1.1022575 0.13303116 0.28483272 0
0.94430965 -0.027934279 0.29033244 0
0.94728208 -0.024905112 0.323109 0
0.9552961 -0.016737904 0.357692 0
0.61299777 -0.33325502 -0.089739032 0
0.69679964 -0.24342653 -0.091155805 0
0.79878676 -0.134105 -0.09124694 0
0.8387596 -0.091257483 -0.071627177 0
0.84278309 -0.08694461 -0.043256823 0
0.8422755 -0.087488741 -0.014146572 0
0.84055448 -0.089333504 0.014927225 0
0.83127272 -0.099282771 0.04430528 0
0.84218806 -0.087582439 0.072298519 0
0.84076309 -0.089109868 0.10100554 0
0.84381324 -0.085840434 0.12976825 0
0.84122664 -0.088613003 0.15838532 0
0.83082634 -0.099761277 0.18608639 0
0.84248227 -0.087267071 0.2161867 0
1.0952159 0.18364194 0.2885398 0
0.9240669 0.00018468838 0.29122144 0
0.92358738 -0.00032928245 0.32333532 0
0.92655236 0.0028488969 0.35661444 0
0.59675664 -0.31745115 -0.089901201 0
0.68154734 -0.22183582 -0.092231192 0
0.77939069 -0.1115016 -0.091850154 0
0.84990972 -0.031980004 -0.078844704 0
0.84596026 -0.036433663 -0.047874127 0
0.84208202 -0.040806975 -0.017358026 0
0.83304465 -0.050998058 0.013297806 0
0.83287919 -0.05118468 0.042598363 0
0.83679372 -0.04677042 0.071680911 0
0.83823133 -0.045149233 0.10100643 0
0.83990324 -0.043263938 0.13044108 0
0.83526176 -0.048497941 0.15958156 0
0.83673292 -0.046838906 0.18910389 0
0.84020519 -0.042923417 0.21910763 0
1.0923482 0.24140862 0.29331142 0
1.103761 0.25427845 0.33465111 0
0.58433473 -0.29703292 -0.091457807 0
0.65484929 -0.21335509 -0.090150751 0
0.72991949 -0.12427112 -0.084944539 0
0.8506757 0.019027267 -0.08433836 0
0.8375712 0.0034764742 -0.050761778 0
0.84725761 0.014971171 -0.021612903 0
0.83978933 0.0061087343 0.0099689979 0
0.83611447 0.0017478202 0.0406355 0
0.83963114 0.0059209797 0.070710897 0
0.84558618 0.012987647 0.10100781 0
0.83873701 0.0048599574 0.1312719 0
0.84099001 0.0075335237 0.16173212 0
0.83400536 -0.00075497886 0.19141848 0
0.83929569 0.0055228802 0.22247534 0
0.83316118 -0.0017568137 0.25197747 0
1.1037323 0.31932321 0.3415671 0
0.56927019 -0.27930185 -0.092337988 0
0.63940442 -0.19168088 -0.091459163 0
0.72630191 -0.083117038 -0.0897943 0
0.84766698 0.068508178 -0.089443989 0
0.84760338 0.068428785 -0.057372648 0
0.84093988 0.060103927 -0.024494266 0
0.84046859 0.059515033 0.0070534442 0
0.84208429 0.061533604 0.038308088 0
0.83631444 0.054325137 0.069890104 0
0.84155214 0.060868774 0.1010088 0
0.83422232 0.051711354 0.13204902 0
0.83435822 0.051881108 0.16313343 0
0.84059221 0.059669528 0.19497828 0
0.84043384 0.059471641 0.22643684 0
0.83905596 0.057750139 0.25779247 0
1.1057589 0.39095083 0.34953052 0
1.10276 0.38720408 0.39084876 0
0.54396063 -0.27468452 -0.089803092 0
0.60926342 -0.18874153 -0.088404067 0
0.71163952 -0.054007437 -0.092084952 0
0.72612584 -0.034942415 -0.067473672 0
0.73187321 -0.027378466 -0.040223572 0
0.7307899 -0.028804149 -0.011626391 0
0.72681838 -0.034031 0.017097319 0
0.72702235 -0.0337626 0.045101263 0
0.7335645 -0.02515265 0.07281667 0
0.7282778 -0.0321103 0.10100472 0
0.72980803 -0.030096438 0.12904859 0
0.72835118 -0.03201374 0.15701059 0
0.72693926 -0.033871915 0.18492629 0
0.7279073 -0.032597926 0.21319166 0
0.73014778 -0.029649284 0.2419008 0
0.72945195 -0.030565049 0.27025717 0
0.72589731 -0.035243239 0.29796919 0
0.72355545 -0.038325276 0.32599723 0
0.52764893 -0.25858781 -0.090490676 0
0.59868461 -0.16003343 -0.091565229 0
0.68372667 -0.042046752 -0.090935774 0
0.73422283 0.028011236 -0.075262539 0
0.95853835 0.33922496 -0.09042681 0
0.85385364 0.19398621 -0.035177026 0
0.83937424 0.17389765 0.00073076994 0
0.83822316 0.17230049 0.034309667 0
0.83966035 0.1742945 0.067621373 0
0.83937687 0.17390123 0.10101133 0
0.83726412 0.17096999 0.13430585 0
0.84105903 0.17623499 0.16793913 0
0.83821654 0.17229143 0.20115377 0
0.8380515 0.17206243 0.23467775 0
0.84873396 0.18688312 0.27050388 0
0.83870411 0.17296782 0.30239835 0
1.1027373 0.5392856 0.41076139 0
0.50717109 -0.24827495 -0.089784555 0
0.58029723 -0.14122614 -0.092475452 0
0.65850103 -0.026744273 -0.090612836 0
0.76836389 0.13408306 -0.0902218 0
0.92136824 0.35806492 -0.089733638 0
1.1514693 0.69490796 -0.089411177 0
0.8433376 0.24383655 -0.0034309232 0
0.84475976 0.24591842 0.031329248 0
0.8395561 0.23830071 0.066404521 0
0.84170407 0.24144521 0.10101295 0
0.8373487 0.2350693 0.13552998 0
0.83462769 0.23108616 0.16985987 0
0.83916587 0.23772946 0.20493993 0
0.84090972 0.24028233 0.24004698 0
0.84085268 0.24019888 0.27507791 0
0.83904481 0.23755231 0.30985898 0
1.0998089 0.61928266 0.42125148 0
1.0994643 0.61877829 0.46789014 0
0.48551878 -0.24006012 -0.088690706 0
0.55673516 -0.12994102 -0.091788687 0
0.6285401 -0.018911865 -0.088958718 0
0.73903328 0.15193942 -0.090029664 0
0.88876981 0.38347116 -0.090097271 0
1.1117678 0.72828406 -0.089954086 0
1.4828184 1.3020251 -0.089793943 0
0.84784913 0.32019714 0.028369615 0
0.84435934 0.31480101 0.064861342 0
0.84157968 0.31050292 0.10101458 0
0.83580577 0.30157498 0.13680106 0
0.84161228 0.31055334 0.17312509 0
0.84231472 0.31163946 0.20936877 0
0.83694702 0.30333963 0.24474706 0
0.84369999 0.31378153 0.28242815 0
0.84216011 0.31140044 0.31874853 0
0.84306282 0.31279615 0.35591444 0
1.0977418 0.70659631 0.48149058 0
0.47243643 -0.21830085 -0.091125511 0
0.53306752 -0.11914954 -0.091135778 0
0.60901022 0.0050410959 -0.090582274 0
0.70842272 0.16761234 -0.089603715 0
0.85045445 0.3998796 -0.089336358 0
1.0697582 0.75851125 -0.090254702 0
1.4207447 1.3324864 -0.089286096 0
0.84509909 0.39112189 0.025642576 0
0.85094005 0.40067378 0.063089661 0
0.84148341 0.38520911 0.10101639 0
0.8389923 0.38113526 0.13841042 0
0.84150445 0.38524345 0.17606963 0
0.84342402 0.38838258 0.21395563 0
0.84782678 0.39558247 0.25258139 0
0.84055418 0.38368943 0.28915235 0
0.84184235 0.3857961 0.32757923 0
0.83953494 0.38202265 0.36524066 0
1.0977236 0.80424374 0.4970634 0
0.4533917 -0.20568392 -0.091362827 0
0.50193566 -0.12160346 -0.08774247 0
0.58106458 0.015451584 -0.089706577 0
0.68259704 0.19131055 -0.090612583 0
0.81333685 0.41775814 -0.088916324 0
1.0281247 0.78978068 -0.090778448 0
1.3626025 1.3691118 -0.089410596 0
1.368916 1.3800473 -0.026397517 0
0.85195893 0.48465338 0.061398912 0
0.84105563 0.46576825 0.10101836 0
0.84273666 0.46867993 0.14020921 0
0.84376508 0.47046116 0.1795384 0
0.84404927 0.47095349 0.21894474 0
0.83315164 0.45207825 0.25641745 0
0.8399846 0.46391323 0.29718304 0
0.83525139 0.45571509 0.33555689 0
0.84364891 0.47026005 0.37805825 0
0.84138936 0.46634629 0.41765529 0
0.43110016 -0.19888517 -0.090306081 0
0.49187306 -0.087207824 -0.092466898 0
0.55660254 0.031740222 -0.09007562 0
0.64572781 0.1955184 -0.08859434 0
0.78159124 0.44518355 -0.089897834 0
0.98470592 0.81843084 -0.091129176 0
1.2935691 1.386003 -0.088080384 0
1.2956643 1.3898535 -0.025127908 0
1.2869258 1.3737953 0.038419116 0
0.84822524 0.56763142 0.101021 0
0.84073734 0.55387157 0.14191854 0
0.84007525 0.5526548 0.18279636 0
0.84716696 0.56568676 0.22483341 0
0.83721524 0.54739922 0.26436928 0
0.83310306 0.53984255 0.30453452 0
0.84143567 0.55515486 0.34817782 0
0.83995497 0.55243391 0.3895466 0
0.83991843 0.55236667 0.43165776 0
0.41172466 -0.18690875 -0.090634562 0
0.46941796 -0.074207336 -0.092657723 0
0.53629196 0.056428228 -0.092105485 0
0.62582231 0.23132208 -0.091738172 0
0.74735194 0.46872488 -0.090462722 0
0.93733716 0.83985311 -0.090833195 0
1.2428787 1.4367154 -0.089561217 0
1.2436112 1.4381464 -0.025984799 0
1.244861 1.4405878 0.037502337 0
1.242828 1.4366164 0.1010482 0
0.85027272 0.66977638 0.14441147 0
0.84002107 0.64975017 0.18679778 0
0.83789366 0.64559442 0.22947504 0
0.83722663 0.64429146 0.27237314 0
0.83482987 0.6396094 0.31494603 0
0.8420403 0.65369469 0.36046994 0
0.83821005 0.64621252 0.4030484 0
0.84072447 0.6511243 0.44818455 0
0.39275199 -0.17388043 -0.091323204 0
0.43993574 -0.075676292 -0.089941837 0
0.4980379 0.045252476 -0.08766567 0
0.59039432 0.23747495 -0.090300031 0
0.70682997 0.47981396 -0.089518957 0
0.88688833 0.85457176 -0.089971147 0
1.1862688 1.4776759 -0.090367697 0
1.785971 2.7258437 -0.090914138 0
4.5024967 8.3797827 -0.14070372 0
0.85097623 0.77982742 0.19245668 0
0.83619303 0.74905902 0.23590761 0
0.83852637 0.75391537 0.28159985 0
0.83873993 0.75435978 0.32717025 0
0.83728045 0.75132221 0.37246931 0
0.84068936 0.75841731 0.41975668 0
0.83701277 0.75076514 0.46469268 0
0.371748 -0.16493461 -0.09116482 0
0.42174336 -0.053777661 -0.092237167 0
0.47765726 0.070538193 -0.090021677 0
0.55824393 0.24971011 -0.089953922 0
0.67728627 0.5143823 -0.091726549 0
0.84298402 0.88278538 -0.090631105 0
1.1205554 1.499922 -0.089840718 0
1.6913544 2.7690046 -0.090878733 0
4.2639627 8.4887991 -0.14066347 0
1.0756766 1.4001408 0.2230933 0
0.84973371 0.89779216 0.24574389 0
0.84230816 0.88128263 0.29253623 0
0.83865923 0.87316984 0.33976442 0
0.84065092 0.87759811 0.38876843 0
0.84350681 0.88394767 0.43866745 0
0.84356368 0.88407415 0.48798963 0
0.35017788 -0.157397 -0.090806358 0
0.39584938 -0.048595455 -0.091187946 0
0.44629467 0.071578532 -0.088123493 0
0.52453166 0.25795975 -0.089128397 0
0.63783032 0.52786702 -0.091333546 0
0.79368442 0.8991527 -0.09019769 0
1.068212 1.5531499 -0.091794752 0
1.5961084 2.8107383 -0.090892889 0
4.0258756 8.5990858 -0.14080833 0
0.99558264 1.3801277 0.22074929 0
0.85243911 1.0391219 0.25488871 0
0.84341204 1.017617 0.30425602 0
0.8413406 1.0126822 0.3548516 0
0.8415755 1.0132418 0.40631127 0
0.84135699 1.0127213 0.45794466 0
0.84620023 1.0242591 0.51241237 0
0.33216193 -0.14094946 -0.092609413 0
0.37095129 -0.041589882 -0.090650506 0
0.42101449 0.086647898 -0.088859417 0
0.49494368 0.27601865 -0.089919858 0
0.59956098 0.5439977 -0.091401927 0
0.74700958 0.92168981 -0.090512075 0
0.99801111 1.5646343 -0.090696521 0
1.4975928 2.8443213 -0.090620302 0
3.7815473 8.6947098 -0.14073656 0
0.92641616 1.3812428 0.21958713 0
0.85213071 1.1909592 0.26472807 0
0.84203249 1.1650925 0.31697527 0
0.83951533 1.1586447 0.37059212 0
0.8402546 1.1605384 0.42543745 0
0.8427673 1.1669748 0.4815397 0
0.83941323 1.1583831 0.53535646 0
0.30766553 -0.14112255 -0.090742566 0
0.34680542 -0.032879259 -0.09058591 0
0.39484933 0.09998849 -0.0893986 0
0.43625617 0.21450117 -0.078924365 0
0.43361765 0.20720425 -0.047729213 0
0.43327659 0.20626095 -0.017694263 0
0.93276834 1.5876298 -0.090596341 0
1.4015392 2.8840387 -0.090777569 0
3.5353231 8.7851238 -0.14068981 0
0.85710973 1.3783922 0.21832591 0
0.85182494 1.3637769 0.27603963 0
0.83747143 1.3240817 0.33072603 0
0.83925682 1.3290191 0.38923091 0
0.84221888 1.3372109 0.44878682 0
0.84072691 1.3330848 0.50698721 0
0.84127897 1.3346117 0.56656229 0
0.28568721 -0.1350961 -0.090419538 0
0.32282779 -0.023666885 -0.090742983 0
0.36827967 0.11269787 -0.089938812 0
0.40686509 0.22846189 -0.079422303 0
0.40342441 0.2181392 -0.047778461 0
0.40763098 0.23075977 -0.01906894 0
0.87221062 1.6245923 -0.091648109 0
1.304693 2.9221261 -0.090973012 0
3.2892213 8.876112 -0.14081049 0
0.79413909 1.3903618 0.21788971 0
0.85020095 1.5585587 0.28887695 0
0.839701 1.5270567 0.34870347 0
0.84443241 1.5412519 0.4128738 0
0.83920443 1.5255668 0.47366479 0
0.84110171 1.5312591 0.5377875 0
0.8408826 1.5306017 0.60142225 0
0.26583186 -0.12233344 -0.091719992 0
0.30064678 -0.0083737038 -0.092216112 0
0.33737895 0.11186174 -0.088262789 0
0.38250321 0.25956717 -0.082545184 0
0.38230947 0.25893286 -0.051569749 0
0.385654 0.26988056 -0.0219236 0
0.72768825 1.3894618 -0.07291425 0
0.72081786 1.3669732 -0.013729556 0
0.72556686 1.3825178 0.043308739 0
0.72591394 1.3836541 0.10104124 0
0.72767603 1.3894217 0.15894198 0
0.72580314 1.3832912 0.21660666 0
0.84012055 1.7574866 0.30192208 0
0.83413053 1.7378793 0.36730382 0
0.83697897 1.7472034 0.4355512 0
0.83400673 1.7374742 0.50182533 0
0.83954066 1.7555885 0.57284611 0
0.24158852 -0.12414214 -0.08990746 0
0.27267298 -0.012375083 -0.090016715 0
0.31005251 0.12202647 -0.088608645 0
0.36269748 0.31131616 -0.088747568 0
0.43856442 0.58410257 -0.089896865 0
0.54921204 0.98194593 -0.090009175 0
0.66066843 1.3826976 -0.071147867 0
0.65993154 1.3800478 -0.013519963 0
0.66262698 1.3897395 0.043557439 0
0.6591295 1.3771641 0.10104052 0
0.66087145 1.3834274 0.15837172 0
0.66212857 1.3879473 0.21598367 0
0.81387079 1.9335504 0.31323415 0
0.81247705 1.928539 0.3838332 0
0.81426209 1.9349573 0.4558844 0
0.81306237 1.9306436 0.52707386 0
0.81061918 1.9218588 0.59775871 0
0.21962388 -0.11858335 -0.089855574 0
0.24852259 -0.0035025741 -0.090468861 0
0.28428921 0.13892773 -0.090211131 0
0.32892302 0.3166689 -0.088260733 0
0.39796788 0.59162027 -0.089532681 0
0.49755573 0.98820001 -0.089340217 0
0.59692395 1.3839052 -0.070089601 0
0.59832156 1.3894708 -0.013210414 0
0.59671015 1.3830538 0.044099752 0
0.59683907 1.3835673 0.10104024 0
0.59831166 1.3894315 0.15813404 0
0.59562671 1.3787394 0.21477582 0
0.77030921 2.0743618 0.32197973 0
0.76719308 2.0619528 0.39479843 0
0.76840633 2.0667844 0.46941599 0
0.76975036 2.0721366 0.54474902 0
0.19846113 -0.10944232 -0.090705507 0
0.22323346 0.00092414359 -0.090178274 0
0.25677362 0.15035334 -0.090992101 0
0.29758289 0.33216825 -0.089361213 0
0.35604605 0.59263521 -0.088514738 0
0.44615942 0.99411124 -0.088767357 0
0.55113834 1.4618168 -0.074648671 0
0.55040675 1.4585574 -0.01582375 0
0.55158502 1.4638069 0.042515669 0
0.55358905 1.4727352 0.10104243 0
0.55315399 1.4707968 0.15973572 0
0.5541234 1.475116 0.21869914 0
0.71287161 2.1823761 0.32840317 0
0.71273714 2.181777 0.40451062 0
0.71098828 2.1739855 0.48005915 0
0.71317208 2.1837146 0.55817193 0
0.17476772 -0.11196384 -0.08914008 0
0.19891395 0.0099289753 -0.090891071 0
0.2235048 0.13406625 -0.087242715 0
0.32006672 0.62152153 -0.090949006 0
0.40056738 1.0278976 -0.090973534 0
0.41575372 1.1045599 -0.048254047 0
0.41665369 1.1091032 0.0013820252 0
0.41602579 1.1059334 0.051308844 0
0.41364869 1.0939336 0.10103103 0
0.41457912 1.0986304 0.15058045 0
0.41693008 1.1104982 0.20074748 0
0.41599113 1.1057584 0.25040281 0
0.41547301 1.103143 0.30019706 0
0.414666 1.0990691 0.34991011 0
0.40607005 1.0556757 0.39406517 0
0.29642528 0.50217694 0.35094777 0
0.27107516 0.37420669 0.36285937 0
0.15503292 -0.093576461 -0.092220403 0
0.3488813 1.0334818 -0.090608351 0
0.36957631 1.153805 -0.051052216 0
0.88341522 4.1413274 -0.14139099 0
1.763024 9.2554798 -0.14072262 0
0.58242708 2.3913455 0.26086202 0
0.57999438 2.3772016 0.33997178 0
0.58123469 2.3844128 0.42069417 0
0.26269454 0.53238136 0.28151411 0
0.27143219 0.58318323 0.32529545 0
0.27025864 0.57635993 0.36215889 0
0.23735201 0.38503674 0.36370996 0
0.29454195 1.0197709 -0.088547669 0
0.3964875 1.7174466 -0.090265639 0
0.75117916 4.1448183 -0.14058454 0
1.5046979 9.3016071 -0.14083847 0
0.50726515 2.4755659 0.264189 0
0.50585389 2.4659076 0.34528691 0
0.50529808 2.4621038 0.42674688 0
0.22274511 0.5284211 0.28032303 0
0.27606079 0.89329308 0.36845922 0
0.20230559 0.38854089 0.36332488 0
0.3273797 1.7208495 -0.089863263 0
0.6221562 4.1683769 -0.1408783 0
1.24471 9.3374357 -0.14086574 0
0.42472416 2.5291002 0.26615441 0
0.42434624 2.5259619 0.34869891 0
0.42397293 2.5228624 0.43136892 0
0.42483917 2.5300548 0.51546574 0
0.22953741 0.9084658 0.36970982 0
0.16693716 0.38869634 0.36247361 0
0.086835563 -0.084641427 -0.092188172 0
0.4913272 4.1771584 -0.14063281 0
0.98289019 9.3563585 -0.14065157 0
0.34077594 2.5909221 0.26860085 0
0.34071714 2.5903025 0.35254872 0
0.34073442 2.5904846 0.43681669 0
0.34055606 2.5886054 0.52121836 0
0.34005344 2.5833097 0.60551006 0
0.17337124 0.82711476 0.4009479 0
0.1305282 0.37571231 0.35930681 0
0.063099943 -0.095467955 -0.04628526 0
0.72214365 9.3864279 -0.14085174 0
0.25250009 2.6294992 0.27005601 0
0.25150007 2.6151116 0.35376745 0
0.13264523 0.90510494 0.27833006 0
0.13351725 0.91765076 0.32448947 0
0.13448827 0.93162125 0.37168872 0
0.12536103 0.80030411 0.39590779 0
0.09658213 0.38625208 0.36076212 0
0.045782268 0.024717245 -0.090205692 0
0.16306955 2.6789391 0.27212039 0
0.1626084 2.6685033 0.35714442 0
0.086932003 0.95593959 0.28282833 0
0.085447423 0.92234343 0.32471836 0
0.086734615 0.95147282 0.37409443 0
0.07677982 0.7261948 0.38328886 0
0.061339352 0.37677541 0.35860252 0
0.07109344 2.7150679 0.2736685 0
0.070543811 2.6860311 0.35816708 0
0.070963711 2.7082143 0.44637173 0
0.070781924 2.6986103 0.53227848 0
0.032794219 0.69173986 0.37739837 0
0.026961554 0.38360325 0.35968411 0
-0.022404509 2.7174025 0.27374983 0
-0.022413 2.718749 0.36041537 0
-0.022433858 2.7220562 0.44760957 0
-0.022450356 2.7246716 0.53525722 0
-0.0093129864 0.64174563 0.36913466 0
-0.0076789111 0.3826634 0.35946587 0
-0.11897227 2.8123536 0.18962164 0
-0.11680227 2.7435765 0.27505299 0
-0.1161498 2.7228968 0.36082965 0
-0.11631169 2.7280281 0.4483332 0
-0.11635477 2.7293937 0.53601712 0
-0.050383136 0.63845485 0.36872146 0
-0.04255183 0.39024547 0.3610186 0
-0.21358077 2.7857273 0.18909894 0
-0.21175617 2.7536237 0.27571627 0
-0.21116897 2.7432923 0.36254889 0
-0.21111022 2.7422585 0.45005199 0
-0.077450618 0.39056531 0.26257917 0
-0.07658954 0.37541488 0.29314816 0
-0.076563373 0.37495461 0.32562819 0
-0.076277137 0.36991826 0.35747269 0
-0.3066082 2.7529328 0.27599072 0
-0.30530155 2.7370353 0.3625688 0
-0.30422956 2.7239928 0.44895306 0
-0.30519587 2.7357495 0.53801274 0
-0.11299732 0.39735141 0.29658005 0
-0.11309311 0.3985168 0.3299095 0
-0.1110054 0.37311652 0.35852757 0
-0.096362308 -0.085137397 -0.026828906 0
-0.398808 2.7242672 0.27506652 0
-0.39844635 2.7209079 0.36206117 0
-0.39778996 2.7148106 0.44892493 0
-0.3989566 2.7256474 0.53787267 0
-0.14900663 0.40387347 0.29797134 0
-0.14879224 0.40188196 0.33101493 0
-0.14658943 0.38142017 0.3607187 0
-0.11779948 -0.097971231 -0.025398364 0
-0.49211204 2.7110062 0.27497286 0
-0.48984933 2.694026 0.36095843 0
-0.2425108 0.83790797 0.27313566 0
-0.24134433 0.82915443 0.31548309 0
-0.18497287 0.40612248 0.29888996 0
-0.18602461 0.41401497 0.33372757 0
-0.18145037 0.37968829 0.36118013 0
-0.17940462 0.14495423 -0.087787114 0
-0.58189636 2.6758764 0.27395761 0
-0.58079565 2.6689548 0.36014268 0
-0.27907842 0.77171642 0.26751181 0
-0.2773867 0.76107877 0.30821532 0
-0.27999964 0.77750927 0.35249159 0
-0.21766391 0.38553396 0.3632566 0
-0.1623268 -0.10663775 -0.089832433 0
-0.18376043 0.0092126466 -0.090290643 0
-0.20813632 0.14096621 -0.087941565 0
-1.8911155 9.2375975 -0.1408446 0
-0.66896003 2.6317534 0.27261847 0
-0.6681779 2.6275258 0.35832214 0
-0.66737181 2.6231687 0.44409263 0
-0.66704369 2.6213953 0.53033739 0
-0.2894085 0.58024842 0.36339781 0
-0.25118402 0.37364212 0.3621189 0
-0.18694004 -0.099701017 -0.092295639 0
-0.21015379 0.010193501 -0.091437943 0
-0.23945649 0.14891317 -0.090223201 0
-0.2801232 0.34143046 -0.090169109 0
-0.33848882 0.61773497 -0.090992786 0
-0.42108104 1.0087286 -0.089640968 0
-0.5619247 1.6754863 -0.089433692 0
-0.62155169 1.9577622 -0.039256278 0
-0.61813778 1.9416006 0.031322081 0
-0.61825395 1.9421504 0.10105594 0
-0.75281632 2.5791724 0.27097368 0
-0.75154686 2.5731626 0.35572425 0
-0.7537756 2.5837138 0.44204578 0
-0.75268394 2.5785456 0.52736807 0
-0.28728482 0.37533382 0.36375338 0
-0.20758876 -0.11203054 -0.090699576 0
-0.23264925 -0.0066205529 -0.089275636 0
-0.26714787 0.13848808 -0.089548074 0
-0.31128541 0.32414034 -0.088757209 0
-0.3733919 0.58537382 -0.088195585 0
-0.47091436 0.99557477 -0.089461662 0
-0.52571988 1.2260988 -0.058223132 0
-0.61872154 1.6172843 -0.023760153 0
-0.62101597 1.626935 0.038446505 0
-0.61944711 1.6203361 0.10104697 0
-0.83785522 2.5390084 0.27001503 0
-0.83234215 2.5158193 0.35304734 0
-0.8318705 2.5138354 0.43727475 0
-0.83136725 2.5117188 0.52175814 0
-0.83383113 2.5220823 0.60840464 0
-0.22841746 -0.12225547 -0.089669816 0
-0.26148766 0.0027407145 -0.092308901 0
-0.29172561 0.11703172 -0.087111481 0
-0.34503838 0.31853929 -0.08914908 0
-0.41495314 0.58279759 -0.089086674 0
-0.52088517 0.98319131 -0.089476593 0
-0.58166111 1.2129073 -0.058281172 0
-0.64595711 1.4559283 -0.016782736 0
-0.64735091 1.4611964 0.042035121 0
-0.64660251 1.4583676 0.10104268 0
-0.91283607 2.4646568 0.26750475 0
-0.91092664 2.4574397 0.35042462 0
-0.91083866 2.4571071 0.43393204 0
-0.91120309 2.4584844 0.51799417 0
-0.90909523 2.4505172 0.60122263 0
-0.25360322 -0.11672536 -0.092236973 0
-0.2821562 -0.018859711 -0.089432083 0
-0.32567745 0.13030985 -0.090709396 0
-0.34686232 0.20292118 -0.073562302 0
-0.45933303 0.5884158 -0.091109224 0
-0.56781203 0.96022862 -0.088585205 0
-0.71311003 1.4582391 -0.077268861 0
-0.71202278 1.4545126 -0.017543411 0
-0.71246517 1.4560287 0.041745204 0
-0.71113843 1.4514816 0.10104299 0
-0.98828346 2.4013989 0.26560614 0
-0.98193902 2.3796535 0.34651214 0
-0.98376733 2.3859198 0.42935112 0
-0.98239237 2.3812072 0.51151836 0
-0.97985083 2.3724961 0.59331942 0
-0.27142411 -0.13630822 -0.089362554 0
-0.30763492 -0.02291825 -0.090103157 0
-0.35013923 0.1101791 -0.088719703 0
-0.37807375 0.19765285 -0.074135818 0
-0.39230213 0.24220732 -0.050120059 0
-0.39483646 0.25014332 -0.020474931 0
-0.39661416 0.25571004 0.009602556 0
-0.39622641 0.25449589 0.040185325 0
-0.39518982 0.25124982 0.070692182 0
-0.39700094 0.2569212 0.10100774 0
-0.39623702 0.25452903 0.13140324 0
-0.39722285 0.25761607 0.16198286 0
-0.39646783 0.2552518 0.19237956 0
-0.39652359 0.25542644 0.22300865 0
-0.39531147 0.25163081 0.25329241 0
-0.39760447 0.25881115 0.28517538 0
-0.39897725 0.26310983 0.31712249 0
-0.39616555 0.25430527 0.34693438 0
-0.29420638 -0.13957408 -0.09023533 0
-0.33260602 -0.029035416 -0.090497352 0
-0.38237 0.11421719 -0.091024481 0
-0.43026146 0.25207928 -0.083712034 0
-0.43148446 0.25559989 -0.053053234 0
-0.43435726 0.26386955 -0.022857046 0
-0.43274951 0.25924149 0.008569466 0
-0.42997149 0.25124457 0.039832138 0
-0.42886317 0.24805406 0.070515096 0
-0.432208 0.25768271 0.10100808 0
-0.43457437 0.26449457 0.13190618 0
-0.4341197 0.26318577 0.16277304 0
-0.43094313 0.25404158 0.19306202 0
-0.43274078 0.25921634 0.22441417 0
-0.43172789 0.2563006 0.25515705 0
-0.42847306 0.24693111 0.2849631 0
-0.4310517 0.25435415 0.3174243 0
-0.43056488 0.25295272 0.34874213 0
-0.31697085 -0.14351699 -0.091092639 0
-0.35689616 -0.037310448 -0.09058734 0
-0.40776941 0.098019034 -0.089940347 0
-0.47345528 0.27275196 -0.088508658 0
-0.48731527 0.30962136 -0.061210144 0
-0.5117203 0.37454191 -0.035028104 0
-0.51083571 0.37218884 -0.00071310042 0
-0.51409453 0.38085774 0.03282534 0
-0.51288235 0.37763324 0.067017309 0
-0.51045889 0.37118641 0.10101189 0
-1.2020533 2.2109179 0.18065579 0
-1.192314 2.1850102 0.25903988 0
-1.1600273 2.099123 0.33182094 0
-1.1631862 2.1075261 0.40996873 0
-1.160073 2.0992448 0.48679176 0
-1.1618273 2.1039114 0.56556594 0
-0.34147078 -0.14375553 -0.092939414 0
-0.38508201 -0.036074247 -0.09273503 0
-0.43400514 0.084722668 -0.089472719 0
-0.50717449 0.26538649 -0.089267768 0
-0.50949448 0.27111474 -0.05796029 0
-0.51233566 0.27812997 -0.026665365 0
-0.51411611 0.28252605 0.0050430391 0
