# .PCD v0.7 - Point Cloud Data file format
VERSION 0.7
FIELDS x y z intensity
SIZE 4 4 4 4
TYPE F F F F
COUNT 1 1 1 1
WIDTH 1311
HEIGHT 1
VIEWPOINT 0 0 0 1 0 0 0
POINTS 1311
DATA ascii
0.84066778 0.75837237 0.32769078 0
0.83960986 0.75617033 0.37322551 0
0.84080732 0.75866276 0.41980144 0
0.83964461 0.75624281 0.46583769 0
0.37015265 -0.16848162 -0.090338118 0
0.41456667 -0.069733948 -0.08894179 0
0.47527027 0.065230995 -0.089065276 0
0.56297332 0.26022509 -0.091574244 0
0.67268932 0.50416154 -0.090416752 0
0.84650177 0.89060646 -0.091431566 0
1.1182003 1.4946856 -0.08943934 0
1.6890527 2.7638872 -0.0906175 0
4.2666345 8.4947395 -0.1408149 0
1.0723252 1.3926897 0.22271247 0
0.84909284 0.89636737 0.24563459 0
0.84154147 0.87957817 0.29236168 0
0.84137213 0.87920159 0.34053776 0
0.83744532 0.87047094 0.38766971 0
0.84603792 0.8895753 0.43968195 0
0.84015226 0.87648946 0.48642272 0
0.35114509 -0.15509292 -0.091337524 0
0.39802775 -0.043406036 -0.092248015 0
0.44647214 0.072001368 -0.088198848 0
0.53143507 0.27440539 -0.091634952 0
0.63542223 0.52213043 -0.090606399 0
0.7939927 0.89988714 -0.090272047 0
1.0624124 1.5393336 -0.090747215 0
1.5975938 2.8142769 -0.091071554 0
4.0290794 8.6067181 -0.14100079 0
0.99572057 1.3804562 0.22076589 0
0.84877825 1.0304008 0.25422695 0
0.83831578 1.0054764 0.30302629 0
0.83987916 1.0092007 0.35441008 0
0.84630275 1.0245035 0.40802842 0
0.83908999 1.0073206 0.45698169 0
0.83800662 1.0047399 0.50842386 0
0.33162278 -0.1423305 -0.092294268 0
0.37025911 -0.043362942 -0.090292014 0
0.42260972 0.090734035 -0.08958035 0
0.49372652 0.27290097 -0.089449503 0
0.59825087 0.54064184 -0.09098091 0
0.74772692 0.9235273 -0.090696178 0
0.99679154 1.5615106 -0.090462081 0
1.4961522 2.840631 -0.090435885 0
3.7856925 8.705328 -0.14100157 0
0.92368525 1.3742473 0.2192371 0
0.84885913 1.182579 0.26409861 0
0.83867854 1.1565013 0.31611392 0
0.84324592 1.1682007 0.37179163 0
0.84156519 1.1638956 0.42594415 0
0.83970296 1.1591253 0.48015431 0
0.84100026 1.1624484 0.53617865 0
0.3068127 -0.14348111 -0.090209462 0
0.34656429 -0.033546116 -0.090452351 0
0.3900913 0.08683005 -0.087098934 0
0.43556789 0.21259776 -0.078639917 0
0.43389869 0.2079815 -0.047825802 0
0.4347167 0.21024373 -0.018089576 0
0.93805832 1.6022596 -0.091683917 0
1.402308 2.8861647 -0.090882815 0
3.5334494 8.7799416 -0.14056168 0
0.85986805 1.3860207 0.21870402 0
0.84948909 1.3573172 0.27555901 0
0.84020346 1.3316371 0.33147642 0
0.84091693 1.3336103 0.3898018 0
0.83832252 1.3264353 0.44717583 0
0.84256148 1.3381584 0.50787425 0
0.83919787 1.3288562 0.56540924 0
0.28471228 -0.13802108 -0.08976417 0
0.32159129 -0.027376678 -0.090006448 0
0.36746353 0.11024931 -0.089514606 0
0.40523586 0.22357383 -0.07869821 0
0.40237629 0.2149947 -0.047391076 0
0.40553343 0.22446659 -0.018449774 0
0.87153888 1.6225767 -0.091499589 0
1.3052453 2.9237831 -0.091054328 0
3.2913122 8.8823843 -0.14096422 0
0.78844398 1.3732755 0.21705021 0
0.84800112 1.5519588 0.28839019 0
0.84073722 1.5301657 0.34900954 0
0.84139132 1.5321281 0.41174921 0
0.8410092 1.5309815 0.47446725 0
0.84051836 1.5295091 0.53748417 0
0.83984399 1.5274858 0.60080343 0
0.26506361 -0.12484816 -0.09116108 0
0.29836595 -0.015839603 -0.090745755 0
0.33976945 0.11968651 -0.089607485 0
0.37951493 0.24978557 -0.081107818 0
0.38137415 0.25587133 -0.051195625 0
0.38167018 0.25684026 -0.020650884 0
0.7271654 1.3877504 -0.07278914 0
0.72588396 1.3835559 -0.014536781 0
0.72711402 1.3875823 0.043185618 0
0.72611094 1.3842988 0.10104125 0
0.72536093 1.3818438 0.1587573 0
0.72583711 1.3834023 0.21661209 0
0.8445192 1.7718847 0.30297545 0
0.83403784 1.7375762 0.36727422 0
0.83476233 1.7399476 0.43466404 0
0.83508611 1.7410073 0.50234473 0
0.83369917 1.7364676 0.56955904 0
0.24406089 -0.11525247 -0.091868781 0
0.27475497 -0.0048890975 -0.091480233 0
0.3109884 0.12539139 -0.089182682 0
0.36513209 0.32007006 -0.090024479 0
0.43978366 0.58848649 -0.090428673 0
0.55495948 1.0026115 -0.09201131 0
0.66120589 1.38463 -0.071288086 0
0.65742999 1.3710535 -0.013085334 0
0.65633672 1.3671224 0.044103254 0
0.65858585 1.3752093 0.10104046 0
0.66193783 1.3872616 0.15846448 0
0.66159725 1.3860371 0.21589124 0
0.81105113 1.9234121 0.31249788 0
0.81039238 1.9210434 0.38310656 0
0.8133921 1.9318292 0.45550475 0
0.80765754 1.9112101 0.52423793 0
0.8135159 1.9322743 0.59953612 0
0.21988335 -0.11755005 -0.090082027 0
0.2511647 0.0070189568 -0.092512138 0
0.28351331 0.13583794 -0.089687549 0
0.33300787 0.33293572 -0.090617754 0
0.39842227 0.59342974 -0.089750715 0
0.49801406 0.99002522 -0.089515872 0
0.59675711 1.3832407 -0.070041709 0
0.59734893 1.3855977 -0.0130245 0
0.59562296 1.3787243 0.044203538 0
0.59372413 1.3711629 0.10103988 0
0.59632784 1.3815315 0.15794419 0
0.59670991 1.3830528 0.21498311 0
0.77016062 2.0737703 0.32193705 0
0.77022392 2.0740223 0.39596066 0
0.76813495 2.0657036 0.46928573 0
0.76938897 2.0706975 0.54454041 0
0.19869518 -0.10839966 -0.09093266 0
0.22472052 0.007549319 -0.091457181 0
0.25590259 0.14647272 -0.090338446 0
0.29849029 0.33621088 -0.089943491 0
0.35497418 0.58785981 -0.087942742 0
0.45053753 1.0136168 -0.090633295 0
0.55381519 1.4737425 -0.075503133 0
0.54949754 1.4545066 -0.015630482 0
0.55226111 1.466819 0.04244389 0
0.54996693 1.4565978 0.10104196 0
0.5525654 1.4681745 0.15967308 0
0.55236322 1.4672737 0.2183245 0
0.71366799 2.1859243 0.3286576 0
0.71486545 2.1912591 0.40541828 0
0.71417874 2.1881998 0.48176259 0
0.71346784 2.1850324 0.55836177 0
0.17562085 -0.10765716 -0.09007331 0
0.19892047 0.009961877 -0.090897389 0
0.22534916 0.14337674 -0.088802658 0
0.26514503 0.34427086 -0.090083204 0
0.31968978 0.61961859 -0.090722285 0
0.39899686 1.0199695 -0.090219148 0
0.41496593 1.1005831 -0.047970627 0
0.414294 1.0971913 0.0019473529 0
0.41535309 1.1025374 0.051389337 0
0.41535914 1.1025681 0.10103127 0
0.41584668 1.1050291 0.15073249 0
0.41535938 1.1025693 0.2003707 0
0.41696623 1.1106808 0.25075391 0
0.41582105 1.1048999 0.30036435 0
0.41696882 1.1106939 0.35129583 0
0.40562728 1.0534406 0.3937448 0
0.29711038 0.50563532 0.35152739 0
0.26992181 0.36838451 0.3617411 0
0.15478237 -0.095033199 -0.091906212 0
0.17374156 0.015197907 -0.091004364 0
0.19562946 0.1424568 -0.087765269 0
0.23145378 0.35074368 -0.090116315 0
0.28081936 0.63776129 -0.091980912 0
0.34798357 1.0282621 -0.09011399 0
0.36994967 1.1559758 -0.051206205 0
0.88062036 4.1250777 -0.14062339 0
1.762098 9.2500963 -0.14059561 0
0.58083218 2.3820724 0.26042345 0
0.58094054 2.3827026 0.34036231 0
0.58088964 2.3824065 0.42050403 0
0.26464048 0.54369539 0.28285649 0
0.27091479 0.58017486 0.32486629 0
0.27001706 0.5749554 0.36192456 0
0.23592179 0.37672129 0.36212021 0
0.13169439 -0.094694585 -0.091206439 0
0.14926498 0.02555171 -0.092206337 0
0.16776387 0.1521509 -0.088619523 0
0.19901294 0.36600736 -0.091518827 0
0.23834738 0.63519698 -0.090905227 0
0.2964049 1.0325201 -0.089750327 0
0.39494333 1.7068789 -0.089519016 0
0.75145817 4.1467276 -0.14067438 0
1.5059546 9.3102083 -0.14104056 0
0.50741851 2.4766154 0.26423845 0
0.50391316 2.4526258 0.34434777 0
0.50455594 2.4570246 0.42626745 0
0.22315601 0.53123313 0.28065532 0
0.27396888 0.87897676 0.3664251 0
0.20130636 0.38170257 0.36202279 0
0.10926886 -0.090123028 -0.091540046 0
0.12267552 0.021192346 -0.090730794 0
0.13997664 0.16484335 -0.090084128 0
0.16399464 0.36426476 -0.090625949 0
0.19715592 0.63960248 -0.090779684 0
0.24713939 1.0546148 -0.091187291 0
0.32764536 1.7230554 -0.090018593 0
0.62178785 4.1653185 -0.1407349 0
1.2449836 9.3397083 -0.14091894 0
0.42560256 2.5363932 0.26649681 0
0.42502066 2.5315619 0.34909356 0
0.42420453 2.5247855 0.43154985 0
0.42524737 2.5334442 0.51586491 0
0.22953057 0.90840906 0.3697018 0
0.16660258 0.38591841 0.36194643 0
0.085871786 -0.094795972 -0.090020008 0
0.097323775 0.025864396 -0.091094635 0
0.11175144 0.17787698 -0.091717534 0
0.12919803 0.36169735 -0.089743726 0
0.15598086 0.64388639 -0.090762369 0
0.19552842 1.0605667 -0.091224007 0
0.25975767 1.7372985 -0.09050063 0
0.4913733 4.1776443 -0.14065555 0
0.98329437 9.3606167 -0.14075102 0
0.34085506 2.5917559 0.26863989 0
0.34041175 2.5870848 0.35232258 0
0.33990002 2.5816932 0.43599191 0
0.34083635 2.5915585 0.5215652 0
0.34017962 2.5846391 0.60569781 0
0.17387344 0.83240598 0.40182176 0
0.13142474 0.38515845 0.36109456 0
0.062999241 -0.096916825 -0.089172371 0
0.072249152 0.036165033 -0.092641495 0
0.080635108 0.15681663 -0.087848626 0
0.095937483 0.37697735 -0.091501109 0
0.11485703 0.64917976 -0.090985246 0
0.14279094 1.0510747 -0.08993765 0
0.19105402 1.7454526 -0.090675317 0
0.36099058 4.1903906 -0.14074971 0
0.72223383 9.3877249 -0.14088197 0
0.2527476 2.6330605 0.2702224 0
0.25324655 2.6402388 0.35552976 0
0.13282983 0.90776068 0.2785787 0
0.13289966 0.90876514 0.32344794 0
0.13347894 0.91709965 0.3696422 0
0.1252555 0.79878587 0.39565757 0
0.096124999 0.3796753 0.35951999 0
0.040968422 -0.084220499 -0.091601215 0
0.045813315 0.025419865 -0.090338148 0
0.051865697 0.16238573 -0.088494174 0
0.061318379 0.37630084 -0.09113007 0
0.07330697 0.64760381 -0.090525754 0
0.091287307 1.0545006 -0.089984097 0
0.1221555 1.7530506 -0.090932332 0
0.23046905 4.204196 -0.1410466 0
0.46020913 9.4032354 -0.14089631 0
0.16318069 2.6814542 0.27223775 0
0.16268022 2.6701286 0.35725823 0
0.087272577 0.96364683 0.28354889 0
0.085661456 0.92718703 0.32528529 0
0.086801402 0.95298415 0.37430713 0
0.07703729 0.73202139 0.38424772 0
0.061416525 0.37852195 0.3589319 0
0.017771985 -0.10187677 -0.08769422 0
0.020180503 0.025363836 -0.090175338 0
0.023055021 0.17722312 -0.090782337 0
0.026902888 0.38050404 -0.091567956 0
0.032035716 0.65166873 -0.090848498 0
0.039484404 1.0451789 -0.088961862 0
0.052833103 1.7503836 -0.090593092 0
0.099031135 4.1910019 -0.1402396 0
0.1977638 9.4069958 -0.14079122 0
0.07094235 2.7070858 0.27329639 0
0.070817225 2.7004755 0.35917792 0
0.070901789 2.7049427 0.44606614 0
0.070907496 2.7052441 0.53305429 0
0.032800637 0.69207901 0.37745416 0
0.027077746 0.38974157 0.36084086 0
-0.0046800845 -0.092799634 -0.089593686 0
-0.0053822957 0.018535767 -0.088858806 0
-0.0062788688 0.16068712 -0.088034056 0
-0.0076122172 0.37208918 -0.090354703 0
-0.00935743 0.64879209 -0.090481751 0
-0.011784767 1.0336456 -0.087855078 0
-0.016320841 1.7528389 -0.090734251 0
-0.031850412 4.2150478 -0.14132068 0
-0.064625993 9.4116058 -0.14085993 0
-0.022510843 2.734262 0.27453569 0
-0.022443593 2.7235994 0.36075473 0
-0.022470262 2.7278278 0.44814864 0
-0.022461642 2.7264612 0.53546649 0
-0.0094240755 0.6593588 0.3720305 0
-0.00760209 0.37048355 0.357171 0
-0.027475055 -0.087605566 -0.090789326 0
-0.031149309 0.028848086 -0.090892784 0
-0.035128932 0.15498033 -0.087185957 0
-0.042304296 0.38240007 -0.091895856 0
-0.050778016 0.6509704 -0.09082792 0
-0.06401094 1.0703812 -0.09137591 0
-0.085293956 1.744936 -0.090273075 0
-0.11888628 2.8096282 -0.075975038 0
-0.11899688 2.8131337 0.012518296 0
-0.11924811 2.8210964 0.10107923 0
-0.11874607 2.8051848 0.18945447 0
-0.11674573 2.7417843 0.27496943 0
-0.11621834 2.7250695 0.36098173 0
-0.11629363 2.7274556 0.44827974 0
-0.11620376 2.7246072 0.53545719 0
-0.050300613 0.6358394 0.36829123 0
-0.042429406 0.38636521 0.36028716 0
-0.049823556 -0.09552297 -0.089317597 0
-0.056376655 0.019776378 -0.089395411 0
-0.065717131 0.18411878 -0.092192538 0
-0.076822311 0.37951043 -0.091704287 0
-0.091209427 0.63264662 -0.088896878 0
-0.11532746 1.0569947 -0.090338983 0
-0.15448694 1.7459919 -0.090560384 0
-0.21425401 2.7975721 -0.075610287 0
-0.21436366 2.7995017 0.012737082 0
-0.21461965 2.8040059 0.10107887 0
-0.21405238 2.7940247 0.18929265 0
-0.21132433 2.7460258 0.27536157 0
-0.21134818 2.7464452 0.36276984 0
-0.21035604 2.7289889 0.44881064 0
-0.077384949 0.38940981 0.26244384 0
-0.076982088 0.38232163 0.29412079 0
-0.076585189 0.37533823 0.32569137 0
-0.077200733 0.38616863 0.36053938 0
-0.073062658 -0.088516742 -0.091145925 0
-0.082002372 0.020248923 -0.089818902 0
-0.093451485 0.15954557 -0.088479362 0
-0.11130328 0.37674072 -0.091651969 0
-0.13357957 0.64776701 -0.091003321 0
-0.16736324 1.0587986 -0.090843759 0
-0.22381608 1.7456362 -0.09087164 0
-0.42376542 4.1783352 -0.14041796 0
-0.85099638 9.3762732 -0.14084631 0
-0.30539766 2.738205 0.27530193 0
-0.30430913 2.7249613 0.36172116 0
-0.30473909 2.7301922 0.44953403 0
-0.30474895 2.7303121 0.53737479 0
-0.11359666 0.40464333 0.2976087 0
-0.11323827 0.40028289 0.33020082 0
-0.1114772 0.37885681 0.35961273 0
-0.096481949 -0.084026068 -0.092566662 0
-0.10723031 0.015814934 -0.089436419 0
-0.12157162 0.14903072 -0.087195538 0
-0.1455549 0.37181047 -0.091416977 0
-0.17441759 0.63991469 -0.090540625 0
-0.21726328 1.0379064 -0.089342363 0
-0.2908929 1.7218487 -0.089659072 0
-0.5551852 4.1768484 -0.14092715 0
-1.1131661 9.3599081 -0.14104347 0
-0.40003157 2.7356329 0.27559936 0
-0.39917463 2.7276728 0.36253724 0
-0.39781371 2.7150311 0.44894564 0
-0.39787805 2.7156289 0.53669441 0
-0.15018207 0.41479209 0.29951531 0
-0.14940475 0.40757146 0.33195576 0
-0.14705251 0.38572171 0.36153382 0
-0.11824974 -0.094592243 -0.090889938 0
-0.13386078 0.022558723 -0.09129741 0
-0.15199935 0.15867725 -0.08936771 0
-0.17880322 0.35982314 -0.090303041 0
-0.21443518 0.62721831 -0.089626558 0
-0.27197349 1.0590067 -0.091908537 0
-0.35995489 1.7192509 -0.090056099 0
-0.68488812 4.1576681 -0.14076263 0
-1.3731134 9.322361 -0.1408994 0
-0.49176115 2.7083731 0.27484903 0
-0.48934102 2.6902115 0.36068919 0
-0.240786 0.82496446 0.27191606 0
-0.24035473 0.82172805 0.31460702 0
-0.18563919 0.41112271 0.29959917 0
-0.18555537 0.41049364 0.3331435 0
-0.18160726 0.3808656 0.36140391 0
-0.14073114 -0.098229736 -0.090815775 0
-0.15896937 0.01645473 -0.090843521 0
-0.18174656 0.15968063 -0.090237834 0
-0.21303298 0.35641387 -0.090524487 0
-0.25799087 0.63911515 -0.091738544 0
-0.31919807 1.0239942 -0.089311935 0
-0.42704177 1.7021298 -0.089549817 0
-0.8141008 4.1360092 -0.14063463 0
-1.6325232 9.2823601 -0.14085117 0
-0.58220571 2.6778214 0.2740494 0
-0.58038282 2.6663589 0.35995877 0
-0.280083 0.77803355 0.26810923 0
-0.27932706 0.77327996 0.30965996 0
-0.27829167 0.76676923 0.35096264 0
-0.21779208 0.38633981 0.36341035 0
-0.16536698 -0.090205342 -0.093384616 0
-0.18490672 0.01540843 -0.091477431 0
-0.2099628 0.1508384 -0.089591615 0
-0.24747664 0.35360363 -0.090955786 0
-0.29675353 0.6199488 -0.090298705 0
-0.37273246 1.0306206 -0.090768598 0
-0.49651262 1.699662 -0.090203039 0
-0.94272351 4.1114659 -0.14052354 0
-1.8912195 9.2381592 -0.14085789 0
-0.67007345 2.6377714 0.27290377 0
-0.66572714 2.614279 0.35737956 0
-0.66610068 2.6162982 0.44344005 0
-0.66748434 2.6237769 0.53062057 0
-0.28844163 0.5750224 0.362524 0
-0.25209793 0.37858203 0.36306542 0
-0.18719321 -0.098502487 -0.092556022 0
-0.20948225 0.0070143673 -0.090825953 0
-0.23861708 0.14493945 -0.089555703 0
-0.27833539 0.33296695 -0.088953428 0
-0.34010512 0.62538654 -0.091906779 0
-0.42086643 1.0077126 -0.08954405 0
-0.5629034 1.6801195 -0.089764737 0
-0.61723512 1.9373274 -0.038283948 0
-0.61806017 1.9412332 0.031330813 0
-0.61738503 1.9380372 0.10105581 0
-0.75461 2.5876637 0.27137822 0
-0.7526983 2.5786135 0.35611406 0
-0.75075752 2.5694261 0.4406819 0
-0.75361526 2.5829546 0.52789497 0
-0.28740492 0.37590244 0.36386287 0
-0.20908843 -0.10572264 -0.092077769 0
-0.23547237 0.0052540037 -0.091574572 0
-0.26843041 0.14388278 -0.090459399 0
-0.31073883 0.32184127 -0.088425107 0
-0.37376034 0.58692366 -0.08838176 0
-0.47386345 1.0079792 -0.090651773 0
-0.52392387 1.2185445 -0.057680283 0
-0.62028342 1.6238537 -0.024074515 0
-0.61989927 1.6222379 0.038558755 0
-0.61948162 1.6204813 0.10104698 0
-0.83369088 2.5214922 0.26917583 0
-0.83246821 2.5163496 0.35308546 0
-0.8339293 2.5224953 0.43810612 0
-0.8335368 2.5208442 0.52285492 0
-0.83494025 2.5267475 0.60907882 0
-0.22767513 -0.12506124 -0.089052893 0
-0.2587322 -0.0076741842 -0.090279765 0
-0.29569948 0.13205186 -0.089665003 0
-0.34776723 0.32885352 -0.090648465 0
-0.4136413 0.5778392 -0.08848723 0
-0.51916277 0.97668105 -0.088848017 0
-0.58118564 1.2111104 -0.058151234 0
-0.64880693 1.4667001 -0.017301461 0
-0.64811265 1.4640758 0.041965872 0
-0.64409018 1.4488721 0.1010424 0
-0.91091144 2.4573822 0.26715398 0
-0.91105962 2.4579422 0.35046101 0
-0.91002357 2.4540262 0.4336344 0
-0.91191989 2.4611938 0.51832187 0
-0.9111625 2.4583311 0.60235906 0
-0.25283027 -0.11937466 -0.091650359 0
-0.28274718 -0.016834166 -0.089829497 0
-0.32294613 0.12094823 -0.089106657 0
-0.34736788 0.20465401 -0.073815994 0
-0.45658147 0.5789848 -0.089961044 0
-0.57002461 0.96781236 -0.089322589 0
-0.71348584 1.4595273 -0.077362664 0
-0.71145463 1.4525652 -0.017448975 0
-0.71594125 1.4679432 0.04145664 0
-0.7122218 1.4551947 0.10104309 0
-0.98464584 2.388931 0.26500076 0
-0.98127788 2.3773875 0.346347 0
-0.98262131 2.3819921 0.428969 0
-0.98463815 2.3889048 0.512456 0
-0.98260993 2.381953 0.59470439 0
-0.27108234 -0.13737842 -0.089123748 0
-0.3087177 -0.01952764 -0.09077356 0
-0.35136834 0.11402801 -0.089383744 0
-0.38152283 0.20845333 -0.075729169 0
-0.39317691 0.24494663 -0.05045614 0
-0.39794275 0.25987044 -0.021428032 0
-0.39588001 0.25341108 0.0097712744 0
-0.3986125 0.26196757 0.039820176 0
-0.39715713 0.25741032 0.070541821 0
-0.39462653 0.249486 0.10100752 0
-0.39571753 0.2529023 0.13136344 0
-0.39673015 0.25607327 0.16190737 0
-0.39838833 0.26126555 0.19282126 0
-0.39581782 0.25321642 0.22279195 0
-0.39717397 0.25746301 0.25400829 0
-0.39751303 0.25852481 0.28513312 0
-0.39897171 0.26309243 0.31711948 0
-0.39857599 0.26185325 0.34842724 0
-0.2938607 -0.14056912 -0.09001141 0
-0.33346453 -0.026564028 -0.090990134 0
-0.37961215 0.10627821 -0.089643233 0
-0.42893124 0.24825016 -0.083142363 0
-0.429842 0.25087181 -0.052468259 0
-0.43148592 0.25560418 -0.022040313 0
-0.43293965 0.2597889 0.0085289571 0
-0.43505195 0.26586941 0.039111372 0
-0.43168902 0.25618878 0.070314877 0
-0.43315628 0.26041248 0.10100816 0
-0.42955258 0.25003865 0.13154949 0
-0.43237379 0.25815991 0.16252504 0
-0.43096545 0.25410584 0.19306678 0
-0.43065223 0.25320426 0.22381972 0
-0.43344584 0.261246 0.25576922 0
-0.43358153 0.26163653 0.28715178 0
-0.42962328 0.25024226 0.31670865 0
-0.42963228 0.25026813 0.34820667 0
-0.3155295 -0.14735118 -0.090221949 0
-0.35911968 -0.03139564 -0.091777526 0
-0.40855831 0.10011759 -0.090308808 0
-0.47691122 0.28194526 -0.089888908 0
-0.49008703 0.3169947 -0.062130768 0
-0.5125494 0.37674752 -0.035248045 0
-0.50960135 0.36890534 -0.00046787946 0
-0.51096809 0.37254098 0.033238973 0
-0.51161432 0.3742601 0.067101091 0
-0.51279807 0.37740901 0.10101208 0
-1.1998842 2.2051477 0.18051212 0
-1.1898291 2.1783998 0.25871068 0
-1.1588246 2.0959237 0.33158177 0
-1.157607 2.0926847 0.40848789 0
-1.1605275 2.1004539 0.4869428 0
-1.1638839 2.1093822 0.56638765 0
-0.33530265 -0.15898535 -0.089446701 0
-0.38460043 -0.0372633 -0.092493393 0
-0.4360913 0.089873701 -0.090386085 0
-0.51026934 0.27302793 -0.090426393 0
-0.50756508 0.2663509 -0.057359595 0
-0.50970012 0.27162245 -0.026010012 0
-0.51179099 0.27678505 0.0054760594 0
-0.5099166 0.27215698 0.03761049 0
-0.51189095 0.27703193 0.06920474 0
-0.51532513 0.28551129 0.10100966 0
-1.2716677 2.1530099 0.2589955 0
-1.1976005 1.9701293 0.32436901 0
-1.1998537 1.9756925 0.39974341 0
-1.1982263 1.9716744 0.47451761 0
-1.2005525 1.9774179 0.5509783 0
-0.35884103 -0.16153213 -0.090884201 0
-0.40771514 -0.049096551 -0.092123367 0
-0.46332046 0.078824311 -0.090443753 0
-0.50812382 0.18189505 -0.078499623 0
-0.51121229 0.18900016 -0.04918829 0
-0.50794613 0.1814864 -0.018188445 0
-0.51347131 0.19419709 0.010754691 0
-0.51053172 0.18743458 0.041236505 0
-0.51342726 0.19409564 0.070969068 0
-0.50957161 0.18522575 0.10100695 0
-1.352416 2.1242018 0.25921419 0
-1.2284923 1.8391132 0.31675267 0
-1.2281456 1.8383157 0.38893461 0
-1.2307291 1.8442593 0.46225005 0
-1.2272069 1.8361561 0.5341149 0
-1.2267877 1.8351917 0.60731876 0
-0.37667996 -0.17717859 -0.089406319 0
-0.4259389 -0.071251303 -0.089725487 0
-0.48776871 0.061708484 -0.089526407 0
-0.51109028 0.11185959 -0.069693647 0
-0.51415968 0.11846009 -0.041810248 0
-0.51215124 0.11414114 -0.012616141 0
-0.512088 0.11400512 0.015907587 0
-0.50996995 0.10945049 0.044558533 0
-0.51298136 0.11592618 0.072630987 0
-0.50784492 0.10488072 0.10100485 0
-1.4324234 2.0931094 0.25942218 0
-1.2499866 1.7007947 0.30854282 0
-1.2413077 1.6821315 0.37613425 0
-1.2387673 1.6766684 0.44476211 0
-1.2379575 1.6749268 0.51406032 0
-1.2396548 1.6785767 0.58470154 0
-0.40031621 -0.18038204 -0.090968497 0
-0.45019504 -0.07983765 -0.090246357 0
-0.51752287 0.055879865 -0.090780817 0
-0.51034093 0.041402731 -0.060722385 0
-0.51628947 0.053393755 -0.035063092 0
-0.51287293 0.046506677 -0.0069545563 0
-0.51037621 0.041473899 0.020530241 0
-0.51080221 0.042332564 0.047358412 0
-0.50815338 0.03699306 0.074333943 0
-0.51500797 0.05081049 0.10100354 0
-1.2507089 1.5338166 0.29803336 0
-1.238567 1.509341 0.36147583 0
-1.2348126 1.5017731 0.4261269 0
-1.241178 1.5146043 0.49393797 0
-1.2395649 1.5113525 0.55991179 0
-0.42029911 -0.19133076 -0.090832375 0
-0.47129771 -0.094730943 -0.089560457 0
-0.5350709 0.026065979 -0.087733082 0
-0.53381324 0.02368382 -0.060008872 0
-0.53345823 0.02301136 -0.032816444 0
-0.53171641 0.019712005 -0.0055296328 0
-0.53189945 0.020058785 0.021177301 0
-0.528602 0.013812814 0.048162743 0
-0.52918911 0.014924917 0.074567825 0
-0.53226531 0.020751748 0.10100301 0
-1.2475066 1.3755374 0.28807274 0
-1.238641 1.3587446 0.34895772 0
-1.2409924 1.3631988 0.41203141 0
-1.2399127 1.3611534 0.47465128 0
-1.2412963 1.3637741 0.53844184 0
-1.2334675 1.3489449 0.59914327 0
-0.44124478 -0.20052585 -0.091243751 0
-0.49674344 -0.10153535 -0.090725698 0
-0.56068069 0.012506757 -0.087787516 0
-0.55981451 0.010961805 -0.060185079 0
-0.55792505 0.0075915786 -0.032600287 0
-0.5573256 0.0065224501 -0.0055908319 0
-0.55992746 0.011163268 0.020786935 0
-0.55880743 0.0091654398 0.047680601 0
-0.56079459 0.01270989 0.074261792 0
-0.5583747 0.0083936192 0.10100305 0
-1.2961674 1.3243618 0.16279292 0
-1.2938803 1.3202827 0.22438879 0
-1.250639 1.2431548 0.28004107 0
-1.2389376 1.2222836 0.33777514 0
-1.241886 1.2275426 0.39814726 0
-1.2348858 1.2150567 0.45627022 0
-1.2377485 1.2201626 0.51742208 0
-1.2367487 1.2183795 0.57782942 0
-0.46111166 -0.21175566 -0.091287993 0
-0.51977903 -0.11303797 -0.091018833 0
-0.58287197 -0.0068735746 -0.086852573 0
-0.58922756 0.0038207506 -0.061382834 0
-0.58395469 -0.005051699 -0.032841701 0
-0.58109921 -0.0098565482 -0.0053763296 0
-0.58754522 0.00098988751 0.020437466 0
-0.58251953 -0.0074666408 0.047799222 0
-0.58428842 -0.0044901636 0.074335009 0
-0.58553612 -0.0023907686 0.10100317 0
-1.3588234 1.2987943 0.16300705 0
-1.3577491 1.2969866 0.22493696 0
-1.2500066 1.1156917 0.27229497 0
-1.2399478 1.0987663 0.32783082 0
-1.2406064 1.0998745 0.38514301 0
-1.240108 1.099036 0.44250986 0
-1.2395076 1.0980256 0.50017506 0
-1.2346542 1.0898588 0.55665994 0
-0.47615281 -0.23070499 -0.089519434 0
-0.54248542 -0.12524238 -0.091288887 0
-0.61295068 -0.013209071 -0.088543348 0
-0.6139223 -0.011664357 -0.061336759 0
-0.61119097 -0.016006913 -0.033410046 0
-0.61489481 -0.010118093 -0.0070013013 0
-0.60945505 -0.018766906 0.02081676 0
-0.61272907 -0.013561454 0.047307551 0
-0.60693681 -0.02277061 0.074422911 0
-0.61004609 -0.01782712 0.10100316 0
-1.2482202 0.99681014 0.26513299 0
-1.2402725 0.98417407 0.3187151 0
-1.2365556 0.97826451 0.37276334 0
-1.2438407 0.98984712 0.42968598 0
-1.2338573 0.97397441 0.48228905 0
-1.2373718 0.97956222 0.53919667 0
-0.49832231 -0.23819891 -0.090741001 0
-0.56094712 -0.14399222 -0.090211697 0
-0.63502985 -0.032549348 -0.087844796 0
-0.63874352 -0.026962843 -0.061425705 0
-0.64101189 -0.023550477 -0.034562502 0
-0.63520318 -0.032288577 -0.0062929597 0
-0.64160365 -0.022660341 0.019824738 0
-0.6350708 -0.032487776 0.047482599 0
-0.63354003 -0.034790482 0.074321672 0
-0.63667917 -0.030068245 0.10100328 0
-1.245432 0.88568085 0.25849757 0
-1.2395562 0.87684172 0.31026042 0
-1.2390864 0.87613505 0.36289543 0
-1.2425781 0.88138765 0.41678429 0
-1.2388288 0.8757475 0.46917117 0
-1.2404387 0.87816936 0.52346802 0
-0.51515377 -0.25382927 -0.090015583 0
-0.58485287 -0.15451065 -0.091115661 0
-0.66665202 -0.037949946 -0.090043582 0
-0.66406506 -0.041636255 -0.061730225 0
-0.66443306 -0.041111913 -0.034411717 0
-0.66270888 -0.043568816 -0.0068717729 0
-0.66916162 -0.034373846 0.019414181 0
-0.66400468 -0.041722264 0.04707776 0
-0.66753465 -0.036692228 0.073912323 0
-0.66308063 -0.04303905 0.1010034 0
-1.2979242 0.86158937 0.25917739 0
-1.2494781 0.79255551 0.30428234 0
-1.2420337 0.78194755 0.35399497 0
-1.2348988 0.77178055 0.40344971 0
-1.2434524 0.7839691 0.45713928 0
-1.2434587 0.78397816 0.50913393 0
-0.53195673 -0.26923302 -0.089447759 0
-0.6060828 -0.16907904 -0.091227733 0
-0.69280827 -0.051901605 -0.090697072 0
-0.68454254 -0.063069731 -0.060969297 0
-0.69116849 -0.05411711 -0.035005767 0
-0.68903291 -0.05700263 -0.0072912853 0
-0.69087648 -0.054511692 0.019668641 0
-0.69410992 -0.050142851 0.046576235 0
-0.6875537 -0.059001174 0.074060954 0
-0.69241697 -0.052430298 0.10100367 0
-1.3431809 0.826837 0.25905633 0
-1.2465224 0.69623858 0.29682261 0
-1.2367778 0.68307227 0.34425566 0
-1.2421961 0.69039327 0.39476636 0
-1.2436723 0.69238764 0.44494471 0
-1.243239 0.69180232 0.49501994 0
-0.55680972 -0.27411953 -0.091817029 0
-0.62546098 -0.18609712 -0.090883695 0
-0.71387613 -0.072734028 -0.09006571 0
-0.72051221 -0.064225405 -0.063898481 0
-0.71506125 -0.071214467 -0.035104159 0
-0.71334559 -0.073414236 -0.0074445438 0
-0.71230185 -0.074752539 0.019889148 0
-0.72091585 -0.063707918 0.046324041 0
-0.70950133 -0.078343242 0.074110307 0
-0.7183401 -0.067010432 0.10100379 0
-1.3894635 0.79348284 0.25915736 0
-1.2474741 0.61142844 0.29056892 0
-1.2417672 0.60411114 0.33725649 0
-1.2348896 0.59529299 0.3834981 0
-1.2325618 0.59230834 0.43073735 0
-1.2404101 0.60237116 0.48128018 0
-0.57595211 -0.28686777 -0.092244171 0
-0.64496517 -0.20284238 -0.090716995 0
-0.73345989 -0.095097512 -0.089207478 0
-0.74638087 -0.07936576 -0.064509161 0
-0.7517184 -0.072867244 -0.037630755 0
-0.73896581 -0.088393837 -0.0078473669 0
-0.74813139 -0.077234477 0.01845924 0
-0.74128592 -0.085569054 0.046526011 0
-0.74222696 -0.084423274 0.073745169 0
-0.74546653 -0.080479056 0.10100397 0
-1.4321276 0.75555092 0.25895071 0
-1.2458612 0.5287661 0.28444684 0
-1.2419387 0.52399033 0.3299543 0
-1.2399623 0.52158409 0.37585273 0
-1.2424078 0.52456146 0.42305255 0
-1.2403938 0.52210933 0.46947134 0
-0.58250058 -0.31436124 -0.088671945 0
-0.66402316 -0.22006044 -0.090550162 0
-0.75812936 -0.1112037 -0.089795999 0
-0.7648356 -0.10344627 -0.063592516 0
-0.77146375 -0.09577921 -0.037070084 0
-0.77259976 -0.094465107 -0.0094371643 0
-0.77180988 -0.095378846 0.018362517 0
-0.77117705 -0.096110851 0.046004534 0
-0.77070922 -0.096652001 0.073535837 0
-0.77303755 -0.093958706 0.10100418 0
-1.4775633 0.72099739 0.25915053 0
-1.2483984 0.45591238 0.27939588 0
-1.2367827 0.44247583 0.32227644 0
-1.2347968 0.44017866 0.36663207 0
-1.2418623 0.44835165 0.41341266 0
-1.2453868 0.45242873 0.46003753 0
-0.60090309 -0.32758364 -0.089164473 0
-0.68024993 -0.24034914 -0.089718796 0
-0.77410281 -0.13716653 -0.088345163 0
-0.81022495 -0.097453564 -0.068455227 0
-0.80369496 -0.10463271 -0.038795371 0
-0.80727112 -0.10070106 -0.011148995 0
-0.80622929 -0.10184643 0.017104203 0
-0.80299866 -0.10539821 0.045345061 0
-0.79743993 -0.11150947 0.073381923 0
-0.79190803 -0.11759135 0.10100403 0
-1.2509657 0.38710037 0.27474606 0
-1.2484206 0.38430229 0.31808957 0
-1.2351136 0.36967233 0.35924447 0
-1.2377955 0.37262085 0.40365264 0
-1.2401193 0.37517574 0.44848803 0
-0.62580872 -0.3341991 -0.091747753 0
-0.70364851 -0.25284353 -0.091004454 0
-0.79656583 -0.15572932 -0.08863277 0
-0.82192862 -0.12922093 -0.066312619 0
-0.83411533 -0.11648384 -0.040207971 0
-0.82683319 -0.12409487 -0.010797864 0
-0.82839781 -0.12245962 0.017100731 0
-0.82682705 -0.12410131 0.045225006 0
-0.82975817 -0.12103775 0.073031306 0
-0.82664675 -0.12428978 0.10100457 0
-1.2464063 0.31442943 0.26949218 0
-1.2412387 0.30902842 0.31108016 0
-1.2427537 0.31061187 0.35390517 0
-1.2463495 0.31436995 0.39760864 0
-1.2388655 0.30654803 0.43887144 0
-0.63622677 -0.35609594 -0.089976408 0
-0.72568899 -0.26719597 -0.091982536 0
-0.8282696 -0.16526005 -0.091164313 0
-0.85319775 -0.14048854 -0.06826029 0
-0.86200726 -0.13173434 -0.04121897 0
-0.86317945 -0.13056955 -0.012742756 0
-0.85553318 -0.13816777 0.01655587 0
-0.85596508 -0.13773862 0.044728048 0
-0.85848564 -0.13523385 0.072799079 0
-0.85403186 -0.13965967 0.10100481 0
-1.2722679 0.27594796 0.1428072 0
-1.276593 0.28024593 0.18492232 0
-1.2636274 0.26736179 0.22570764 0
-1.2429843 0.24684837 0.2647627 0
-1.25123 0.25504234 0.30739233 0
-1.2371699 0.24107054 0.34637624 0
-1.2384123 0.24230507 0.38823709 0
-1.2442291 0.24808529 0.43171653 0
-0.65493983 -0.36959729 -0.090836056 0
-0.73851418 -0.29063788 -0.090644784 0
-0.84492409 -0.1901038 -0.090288706 0
-0.88770968 -0.14968082 -0.070844747 0
-0.89247185 -0.14518163 -0.042682473 0
-0.88695097 -0.15039763 -0.013048394 0
-0.88932055 -0.14815888 0.015345464 0
-0.88999152 -0.14752498 0.043907374 0
-0.89148718 -0.14611188 0.072423995 0
-0.88101429 -0.15600643 0.10100504 0
-1.2905809 0.23094431 0.14238378 0
-1.2945491 0.23469332 0.18404581 0
-1.2976403 0.23761383 0.22596838 0
-1.2476186 0.19035426 0.26140159 0
-1.246634 0.18942407 0.30166665 0
-1.2366191 0.17996219 0.34034166 0
-1.2443231 0.18724087 0.38263479 0
-1.2440857 0.18701652 0.42368984 0
-0.67687696 -0.38049677 -0.092696138 0
-0.75880444 -0.30691555 -0.091378443 0
-0.86285639 -0.21346381 -0.089855127 0
-0.9158873 -0.16583541 -0.0722192 0
-0.92538291 -0.15730712 -0.04455151 0
-0.91205037 -0.16928145 -0.013577325 0
-0.91576183 -0.16594806 0.014828453 0
-0.91917378 -0.16288373 0.043392554 0
-0.91894561 -0.16308865 0.072221853 0
-0.91011345 -0.17102107 0.10100536 0
-1.3184836 0.19574669 0.14230628 0
-1.3288174 0.20502773 0.18428378 0
-1.3311306 0.20710531 0.22624558 0
-1.238686 0.12407854 0.25659367 0
-1.2469182 0.13147202 0.29709953 0
-1.2368588 0.12243739 0.33488646 0
-1.2398359 0.12511113 0.37517083 0
-1.2359711 0.12164024 0.41421911 0
-0.68094677 -0.40724626 -0.089601122 0
-0.77286452 -0.32879087 -0.090656586 0
-0.88125622 -0.23627433 -0.089660652 0
-0.95086408 -0.17686138 -0.074896835 0
-0.94681537 -0.18031707 -0.044664536 0
-0.95257711 -0.17539921 -0.016047357 0
-0.94477469 -0.18205884 0.014044354 0
-0.94199091 -0.18443492 0.04325429 0
-0.95379966 -0.17435572 0.071784697 0
-0.94481128 -0.18202761 0.1010059 0
-1.4068485 0.21233919 0.14411072 0
-1.403397 0.20939317 0.18703346 0
-1.403441 0.20943072 0.23015951 0
-1.2438613 0.073223263 0.2538282 0
-1.2564399 0.083959609 0.29427713 0
-1.2331147 0.064050704 0.3290824 0
-1.2464204 0.075407535 0.37060174 0
-1.2411009 0.070867091 0.40864408 0
-0.69385672 -0.42590085 -0.089174606 0
-0.79048675 -0.34755006 -0.09094841 0
-0.88836563 -0.26818666 -0.087204285 0
-0.96914721 -0.20268634 -0.07455086 0
-0.97019857 -0.20183387 -0.045157108 0
-0.98009568 -0.19380894 -0.016923001 0
-0.98484337 -0.18995938 0.012244077 0
-0.98389459 -0.19072869 0.041941915 0
-0.97615862 -0.19700125 0.0717218 0
-0.98403901 -0.19061157 0.1010066 0
-1.2547718 0.028907452 0.25196424 0
-1.2455744 0.021449838 0.28862521 0
-1.2376043 0.014987383 0.32515565 0
-1.2424455 0.018912826 0.36415839 0
-1.2354401 0.013232742 0.40087864 0
-0.71431851 -0.43863204 -0.090909697 0
-0.81415462 -0.3617743 -0.092785366 0
-0.91934144 -0.28079739 -0.089914061 0
-1.0186847 -0.20431897 -0.079871438 0
-1.0085521 -0.21211955 -0.047929171 0
-1.0054697 -0.21449247 -0.017584486 0
-1.016345 -0.20612022 0.011216464 0
-1.0158211 -0.20652357 0.041231509 0
-1.0108753 -0.21033093 0.071280561 0
-1.005689 -0.21432361 0.10100666 0
-1.2537103 -0.02338722 0.24885818 0
-1.2409145 -0.033237901 0.28423285 0
-1.2377969 -0.035637822 0.32076395 0
-1.2419373 -0.032450464 0.35885707 0
-1.2366694 -0.036505904 0.39525008 0
-0.72136295 -0.46169135 -0.089166738 0
-0.81361586 -0.39430901 -0.089027308 0
-0.94013661 -0.30189726 -0.090567805 0
-1.0454062 -0.22500739 -0.081131496 0
-1.0388265 -0.22981331 -0.049519319 0
-1.0363095 -0.23165169 -0.018926611 0
-1.0444207 -0.22572729 0.010468537 0
-1.0412977 -0.2280083 0.040882707 0
-1.0428778 -0.22685418 0.070915751 0
-1.0416744 -0.22773322 0.10100726 0
-1.2505924 -0.075137764 0.24572508 0
-1.2366086 -0.085351616 0.28017369 0
-1.2539312 -0.07269904 0.31945243 0
-1.2415632 -0.08173272 0.35394624 0
-1.2412521 -0.081959993 0.39080235 0
-0.74280691 -0.47429463 -0.091328688 0
-0.8340348 -0.41112801 -0.090325423 0
-0.95539016 -0.32710096 -0.090209894 0
-1.0729773 -0.24568304 -0.082605042 0
-1.0772729 -0.24270871 -0.052307684 0
-1.0802126 -0.24067327 -0.021778217 0
-1.0794053 -0.24123225 0.009103613 0
-1.0782148 -0.24205658 0.039861135 0
-1.0735799 -0.24526581 0.070582122 0
-1.0833213 -0.23852077 0.10100805 0
-1.2512952 -0.12221482 0.20754072 0
-1.2497722 -0.12326935 0.24305697 0
-1.2477663 -0.12465826 0.27857286 0
-1.2476099 -0.12476656 0.31448501 0
-1.2434908 -0.12761864 0.34983167 0
-1.2494569 -0.12348774 0.38752696 0
-0.75627148 -0.49276105 -0.0915085 0
-0.85832489 -0.42584392 -0.092570581 0
-0.96980518 -0.3527455 -0.089819126 0
-1.1168494 -0.25632754 -0.086882301 0
-1.1064812 -0.26312605 -0.053805117 0
-1.1120778 -0.25945631 -0.023265062 0
-1.1141464 -0.25809994 0.0077484194 0
-1.1074286 -0.26250485 0.039265249 0
-1.107084 -0.26273075 0.070163026 0
-1.108988 -0.26148227 0.10100829 0
-1.2432771 -0.17342809 0.20507282 0
-1.2376207 -0.17713699 0.23930387 0
-1.2444999 -0.17262623 0.2751213 0
-1.2394633 -0.17592874 0.309515 0
-1.2391994 -0.17610183 0.34479156 0
-1.2463722 -0.17139849 0.38199994 0
-0.75990206 -0.51739383 -0.089343347 0
-0.85514355 -0.4583247 -0.088775285 0
-0.98474252 -0.37794688 -0.08966165 0
-1.1439008 -0.27923635 -0.088356368 0
-1.1480635 -0.27665451 -0.057052542 0
-1.1406826 -0.28123221 -0.024423232 0
-1.1384127 -0.28264001 0.00724064 0
-1.1470717 -0.27726963 0.038078766 0
-1.1366298 -0.2837458 0.069846578 0
-1.1466274 -0.27754518 0.10100895 0
-1.2366444 -0.22171631 0.16885228 0
-1.2392156 -0.22012159 0.20307627 0
-1.2374564 -0.22121266 0.2370771 0
-1.2382672 -0.22070983 0.27148309 0
-1.2470068 -0.21528956 0.30743319 0
-1.2445282 -0.21682677 0.34192947 0
-1.2350028 -0.22273448 0.37499216 0
-0.77540189 -0.53449482 -0.090288244 0
-0.87265283 -0.47752574 -0.089732461 0
-0.99403274 -0.40642193 -0.088552929 0
-1.1683993 -0.30427876 -0.089487962 0
-1.1964051 -0.28787312 -0.061214466 0
-1.1955901 -0.28835055 -0.028469672 0
-1.1870642 -0.293345 0.0047140215 0
-1.1845723 -0.29480472 0.037005018 0
-1.1816677 -0.2965062 0.069102906 0
-1.1865911 -0.29362211 0.10100969 0
-1.2480873 -0.25759795 0.16844551 0
-1.2435334 -0.26026556 0.20188473 0
-1.2427853 -0.26070377 0.23559891 0
-1.2429062 -0.26063296 0.26953727 0
-1.2386265 -0.26314005 0.30295044 0
-1.2445551 -0.25966707 0.33829644 0
-1.2556438 -0.25317129 0.37536198 0
-0.78619981 -0.55446583 -0.090183832 0
-0.88549322 -0.49961725 -0.089776821 0
-1.0142063 -0.42851749 -0.089638911 0
-1.1920062 -0.33030269 -0.090562932 0
-1.4320129 -0.19772556 -0.09036053 0
-1.7990977 0.0050481292 -0.090979017 0
-3.0351398 0.68782455 -0.14151263 0
-4.5483866 1.5237257 -0.14098817 0
-9.1032734 4.0397968 -0.14085555 0
-1.2505287 -0.29797551 0.13429435 0
-1.2545754 -0.29574022 0.16782911 0
-1.2282281 -0.31029412 0.19922276 0
-1.2445352 -0.30128625 0.23386639 0
-1.2382993 -0.30473092 0.26651883 0
-1.241073 -0.30319872 0.30046403 0
-1.2352948 -0.30639055 0.3331739 0
-1.241001 -0.30323854 0.36829853 0
-0.80973321 -0.56780398 -0.093253471 0
-0.90065181 -0.52053523 -0.090431906 0
-1.0214746 -0.45771918 -0.088424258 0
-1.197754 -0.36607119 -0.088899903 0
-1.4479972 -0.23596928 -0.089895345 0
-1.8168854 -0.044183638 -0.090271287 0
-3.0665178 0.60550267 -0.140727 0
-4.6089382 1.4074101 -0.14091441 0
-9.2310619 3.8104613 -0.14095508 0
-1.2424173 -0.34285066 0.13363352 0
-1.2428249 -0.3426387 0.16631348 0
-1.2355998 -0.34639516 0.19848394 0
-1.2400211 -0.34409639 0.23160562 0
-1.2299289 -0.34934339 0.26319137 0
-1.2384605 -0.34490779 0.29736966 0
-1.2422447 -0.34294042 0.33134183 0
-1.2355325 -0.34643009 0.36354548 0
-0.80380559 -0.59635371 -0.089396797 0
-0.92278075 -0.53826332 -0.092651345 0
-1.052358 -0.47499642 -0.091679208 0
-1.216014 -0.39509037 -0.089356132 0
-1.4626459 -0.27467087 -0.089388482 0
-1.8474687 -0.08677873 -0.091031231 0
-3.103617 0.52654332 -0.14055876 0
-4.6764059 1.294467 -0.14135291 0
-9.3398914 3.5714424 -0.14071357 0
-1.2396964 -0.38352731 0.10100982 0
-1.2628368 -0.37222883 0.13375038 0
-1.2407633 -0.38300636 0.16538078 0
-1.2336339 -0.38648739 0.19709855 0
-1.2408789 -0.38294992 0.23004387 0
-1.2471752 -0.37987575 0.26338547 0
-1.2404435 -0.38316253 0.2951979 0
-1.2445107 -0.38117674 0.32884508 0
-1.2367886 -0.38494703 0.36049053 0
-0.81042242 -0.61817515 -0.088685952 0
-0.93153512 -0.5627805 -0.092168458 0
-1.0622801 -0.50298029 -0.091187842 0
-1.2353938 -0.42380139 -0.090094008 0
-1.4885567 -0.30800954 -0.090461127 0
-1.8545853 -0.14059511 -0.089484818 0
-3.1460037 0.45007482 -0.14095306 0
-4.7281761 1.1737299 -0.14112958 0
-9.4610891 3.3384731 -0.14094622 0
-1.2423488 -0.42062029 0.10100943 0
-1.2433285 -0.42017224 0.13286166 0
-1.2382667 -0.42248735 0.164489 0
-1.2397583 -0.42180517 0.1964298 0
-1.2470514 -0.41846946 0.22914718 0
-1.2410369 -0.42122033 0.26067021 0
-1.2448288 -0.41948602 0.29357263 0
-1.2417464 -0.42089579 0.32564309 0
-1.2417057 -0.42091444 0.35843176 0
-0.83021796 -0.63419867 -0.091156952 0
-0.93343079 -0.59010506 -0.090413414 0
-1.0678544 -0.53267789 -0.090051673 0
-1.2474115 -0.45596936 -0.089810289 0
-1.510471 -0.34358767 -0.09112186 0
-1.8882537 -0.18219504 -0.09078867 0
-3.1719325 0.36620536 -0.14023952 0
-4.773067 1.0502262 -0.14071554 0
-9.5635109 3.0967524 -0.14085117 0
-1.253539 -0.45335159 0.10100934 0
-1.2342534 -0.46159062 0.13227774 0
-1.2372868 -0.46029469 0.16373445 0
-1.2351766 -0.46119621 0.19502188 0
-1.2353655 -0.46111551 0.22653791 0
-1.2328254 -0.46220067 0.25785384 0
-1.2437141 -0.45754889 0.29126486 0
-1.2411292 -0.45865318 0.3230395 0
-1.2403128 -0.45900199 0.35528925 0
-0.83926374 -0.65514386 -0.091237269 0
-0.9450354 -0.61308026 -0.090784393 0
-1.0772269 -0.56050992 -0.089731865 0
-1.2664237 -0.48526958 -0.090710677 0
-1.5152385 -0.38632014 -0.089732908 0
-1.9008865 -0.23295441 -0.090072505 0
-3.2037404 0.28516844 -0.1401355 0
-4.8239369 0.92949337 -0.14076217 0
-1.2524874 -0.49081179 0.069606856 0
-1.2386571 -0.49631187 0.10100848 0
-1.2344874 -0.4979701 0.13195951 0
-1.240514 -0.4955734 0.16324657 0
-1.2407707 -0.4954713 0.19446945 0
-1.2400093 -0.49577412 0.22570474 0
-1.2344258 -0.49799457 0.25643113 0
-1.2336789 -0.49829158 0.28777653 0
-1.2326356 -0.49870652 0.31923777 0
-1.2372462 -0.49687299 0.35203466 0
-0.83780062 -0.68000001 -0.08905635 0
-0.95201355 -0.6378848 -0.09034016 0
-1.0905548 -0.58679861 -0.09023156 0
-1.2764046 -0.51826781 -0.090361305 0
-1.5461215 -0.41881165 -0.091744907 0
-1.9294163 -0.27747437 -0.091072522 0
-3.2503877 0.20962456 -0.14129129 0
-4.8703499 0.80697423 -0.14073914 0
-1.2428236 -0.53065056 0.07014811 0
-1.2341788 -0.53383827 0.10100798 0
-1.2349623 -0.53354937 0.13167313 0
-1.245059 -0.52982628 0.16287315 0
-1.2473601 -0.52897775 0.19406119 0
-1.2340645 -0.53388047 0.22391276 0
-1.2361165 -0.53312373 0.255146 0
-1.238992 -0.53206348 0.2867752 0
-1.238379 -0.53228951 0.31814399 0
-1.23972 -0.53179502 0.35011566 0
-0.85652488 -0.69745404 -0.091568343 0
-0.95678723 -0.66333109 -0.089586236 0
-1.0978397 -0.61532575 -0.089793555 0
-1.2891684 -0.55020964 -0.090552203 0
-1.553362 -0.46029487 -0.090922602 0
-1.9405032 -0.3285366 -0.09045545 0
-3.2720146 0.12462547 -0.14073096 0
-1.2491665 -0.56382376 0.039492242 0
-1.2471299 -0.56451684 0.070316836 0
-1.2421699 -0.56620491 0.10100789 0
-1.2435215 -0.56574494 0.13161044 0
-1.2316413 -0.56978816 0.16166122 0
-1.2459074 -0.56493288 0.1931248 0
-1.2510972 -0.56316662 0.22449835 0
-1.2451869 -0.5651781 0.25489333 0
-1.2353019 -0.56854236 0.28457251 0
-1.2419357 -0.5662846 0.31682768 0
-1.2453152 -0.56513447 0.34901053 0
-0.85595083 -0.72157699 -0.08986152 0
-0.96834612 -0.68646312 -0.090304412 0
-1.1059855 -0.6434626 -0.089631714 0
-1.283093 -0.58813173 -0.08808706 0
-1.5667789 -0.49950433 -0.090991743 0
-1.959972 -0.37666526 -0.09078943 0
-3.2961788 0.040784393 -0.14051862 0
-1.2439226 -0.6003691 0.040252175 0
-1.2499899 -0.59847361 0.070498556 0
-1.2376221 -0.60233748 0.10100744 0
-1.2428648 -0.6006996 0.13134313 0
-1.2378073 -0.60227966 0.16146462 0
-1.2417998 -0.60103232 0.19206797 0
-1.242187 -0.60091138 0.22261345 0
-1.2487216 -0.59886986 0.25406405 0
-1.2379043 -0.60224932 0.28345013 0
-1.2394505 -0.60176629 0.31462938 0
-1.2285255 -0.60517937 0.34366226 0
-0.87258518 -0.74039054 -0.092105441 0
-0.97047967 -0.71249759 -0.08928629 0
-1.1206968 -0.66969651 -0.09071482 0
-1.3020849 -0.61801386 -0.089442991 0
-1.5713561 -0.54129088 -0.090106837 0
-1.9819772 -0.42429331 -0.091485538 0
-1.2587653 -0.63035685 0.0093976203 0
-1.252477 -0.63214856 0.04029391 0
-1.2409275 -0.6354394 0.07094641 0
-1.2460761 -0.63397235 0.10100742 0
-1.2323836 -0.63787377 0.13086109 0
-1.2340629 -0.63739526 0.16082898 0
-1.2467827 -0.63377106 0.19174658 0
-1.2475543 -0.63355118 0.22222148 0
-1.2356318 -0.63694823 0.25132322 0
-1.2447021 -0.63436389 0.28307393 0
-1.2429936 -0.63485068 0.31363109 0
-1.2345047 -0.63726938 0.34301165 0
-0.85491616 -0.76861376 -0.086909331 0
-0.97693038 -0.73715419 -0.089242749 0
-1.1111557 -0.70254618 -0.087787442 0
-1.3068454 -0.65209049 -0.088834547 0
-1.5933398 -0.57822216 -0.091456316 0
-1.9833863 -0.47765449 -0.090308093 0
-1.2613347 -0.66382474 0.0098370034 0
-1.2447917 -0.66809011 0.041077442 0
-1.2347507 -0.67067903 0.071299598 0
-1.2537872 -0.66577077 0.10100739 0
-1.235329 -0.6705299 0.13072802 0
-1.24525 -0.66797191 0.16095902 0
-1.2391744 -0.66953844 0.1905774 0
-1.2371857 -0.67005116 0.22039402 0
-1.239292 -0.6695081 0.25073922 0
-1.2375436 -0.66995889 0.28079197 0
-1.2411226 -0.66903609 0.31186226 0
-1.2310898 -0.67162293 0.34069556 0
-0.87324518 -0.78726697 -0.089752786 0
-0.99313289 -0.75956184 -0.091205306 0
-1.1233578 -0.72946787 -0.088685043 0
-1.316461 -0.68484324 -0.089054339 0
-1.6032889 -0.61855948 -0.091466509 0
-2.5257232 -0.40539208 -0.14108792 0
-1.2534636 -0.69940138 0.010962138 0
-1.2439259 -0.7016055 0.041487098 0
-1.2446666 -0.70143437 0.071245417 0
-1.2479762 -0.70066953 0.10100699 0
-1.2383431 -0.70289564 0.13061714 0
-1.2320356 -0.70435327 0.15995798 0
-1.2410592 -0.702268 0.19016175 0
-1.2393517 -0.70266259 0.2198673 0
-1.2462826 -0.70106089 0.25065723 0
-1.2480702 -0.70064777 0.28120521 0
-1.2431004 -0.70179629 0.31089923 0
-1.2486954 -0.70050329 0.34262598 0
-0.89094478 -0.80675256 -0.092547469 0
-0.99825007 -0.78479153 -0.091135584 0
-1.1363037 -0.7565375 -0.089817099 0
-1.3277036 -0.71736568 -0.089625336 0
-1.6192597 -0.65769589 -0.092316799 0
-1.2484874 -0.73357803 -0.018072186 0
-1.249163 -0.73343974 0.011762457 0
-1.2481349 -0.73365021 0.041613188 0
-1.2389897 -0.73552179 0.071543097 0
-1.2379577 -0.73573303 0.1010065 0
-1.2376174 -0.73580265 0.13043734 0
-1.2387389 -0.73557317 0.15995352 0
-1.2465693 -0.73397058 0.19006631 0
-1.2445216 -0.73438966 0.21970835 0
-1.2420568 -0.7348941 0.24933229 0
-1.2503643 -0.73319393 0.28054637 0
-1.2358022 -0.73617417 0.3085236 0
-1.2400872 -0.7352972 0.33964571 0
-0.88728499 -0.83073938 -0.09082409 0
-1.0059935 -0.80955005 -0.091690786 0
-1.1400859 -0.78561473 -0.089528568 0
-1.3433479 -0.74933279 -0.090939604 0
-1.6084796 -0.70200711 -0.09010493 0
-1.2476598 -0.76641297 -0.017419687 0
-1.2320999 -0.76919037 0.013404356 0
-1.2425122 -0.76733178 0.042165305 0
-1.2396239 -0.76784736 0.071670018 0
-1.2351466 -0.76864654 0.10100625 0
-1.2444942 -0.76697803 0.13045807 0
-1.2335527 -0.76893103 0.15942355 0
-1.2381573 -0.76810914 0.18903881 0
-1.2368933 -0.76833475 0.21841207 0
-1.2289784 -0.76974756 0.24706343 0
-1.2471509 -0.76650381 0.2792215 0
-1.2452464 -0.76684374 0.30910003 0
-0.89489669 -0.85260737 -0.091661386 0
-1.016799 -0.83400846 -0.092946567 0
-1.1459939 -0.8142969 -0.089716814 0
-1.3429674 -0.78424424 -0.090085633 0
-1.2508405 -0.79830021 -0.047026385 0
-1.2606727 -0.79680014 -0.018154932 0
-1.242504 -0.79957217 0.013033563 0
-1.2356195 -0.80062252 0.042734999 0
-1.2326531 -0.8010751 0.071956091 0
-1.2463145 -0.79899079 0.10100642 0
-1.2397139 -0.79999781 0.13022247 0
-1.2357558 -0.80060172 0.1592838 0
-1.2374588 -0.8003419 0.18862233 0
-1.2289708 -0.80163693 0.21717407 0
-1.2356404 -0.80061936 0.24724254 0
-1.23124 -0.80129069 0.27621573 0
-1.2325492 -0.80109096 0.30612084 0
-0.89330381 -0.87585789 -0.090642251 0
-1.0198569 -0.85980529 -0.092844822 0
-1.1413929 -0.84438908 -0.088283591 0
-1.3455629 -0.81849122 -0.089781053 0
-1.244069 -0.83136517 -0.04570787 0
-1.2585101 -0.8295334 -0.017532295 0
-1.2361495 -0.83236969 0.013790788 0
-1.2332797 -0.83273375 0.043049715 0
-1.2342558 -0.83260989 0.072020628 0
-1.241044 -0.83174884 0.10100614 0
-1.2513139 -0.83044618 0.13039207 0
-1.2394621 -0.83194953 0.15925275 0
-1.2325569 -0.83282542 0.18796818 0
-1.2380922 -0.83212328 0.21762393 0
-1.2564023 -0.82980078 0.24917501 0
-1.2290648 -0.83326834 0.27529082 0
-1.237793 -0.83216125 0.30626801 0
-0.89008278 -0.89904481 -0.089403428 0
-1.0161834 -0.88627315 -0.091592349 0
-1.159274 -0.87178069 -0.090693526 0
-1.2543947 -0.86214674 -0.076355018 0
-1.2538513 -0.86220175 -0.046435494 0
-1.23523 -0.86408776 -0.015007643 0
-1.2381134 -0.8637957 0.013903329 0
-1.2396706 -0.86363798 0.042917121 0
-1.2411025 -0.86349297 0.07194382 0
-1.2329032 -0.86432344 0.1010058 0
-1.2346621 -0.86414528 0.12991741 0
-1.240845 -0.86351907 0.15915005 0
-1.2485076 -0.86274296 0.1888399 0
-1.2312077 -0.86449516 0.21664241 0
-1.2333195 -0.86428124 0.24603619 0
-1.2403671 -0.86356747 0.27638701 0
-0.88490856 -0.92209941 -0.087875508 0
-1.0126995 -0.91240662 -0.090504475 0
-1.1227124 -0.90406233 -0.08423949 0
-1.1233771 -0.90401191 -0.05749381 0
-1.248911 -0.89449036 -0.045527432 0
-1.2390139 -0.89524102 -0.015102981 0
-1.2445951 -0.89481771 0.013643237 0
-1.2406707 -0.89511538 0.043000009 0
-1.2425417 -0.89497346 0.071975052 0
-1.2451966 -0.89477205 0.10100608 0
-1.2384585 -0.89528316 0.12994155 0
-1.2511066 -0.89432383 0.15949987 0
-1.2362323 -0.89545202 0.18778244 0
-1.2353073 -0.89552218 0.21676822 0
-1.2397623 -0.89518428 0.24646793 0
-1.2471516 -0.89462376 0.27695206 0
-0.89983428 -0.94378996 -0.090751387 0
-1.021919 -0.93762308 -0.091938205 0
-1.130044 -0.93216139 -0.085150979 0
-1.1280935 -0.93225992 -0.057905067 0
-1.2327865 -0.92697155 -0.043407146 0
-1.257758 -0.9257102 -0.016669905 0
-1.2455362 -0.92632753 0.013716454 0
-1.2548535 -0.92585689 0.042431232 0
-1.2302799 -0.92709816 0.072306685 0
-1.2432649 -0.92644227 0.10100596 0
-1.2438275 -0.92641383 0.13002069 0
-1.2520154 -0.92600024 0.15944906 0
-1.2354041 -0.92683935 0.18758614 0
-1.2438208 -0.92641419 0.21737993 0
-1.2420508 -0.9265036 0.24650411 0
-0.88880426 -0.96683288 -0.088222943 0
-1.0106835 -0.96375644 -0.089637049 0
-1.1329188 -0.96067101 -0.085445829 0
-1.1318624 -0.96069765 -0.058283124 0
-1.2372564 -0.95803732 -0.043791804 0
-1.2350522 -0.95809299 -0.014437495 0
-1.2382832 -0.95801145 0.014307024 0
-1.2343314 -0.95811117 0.043442853 0
-1.2333108 -0.95813692 0.072263576 0
-1.2424314 -0.95790672 0.1010059 0
-1.2347877 -0.95809966 0.12978218 0
-1.2426891 -0.95790023 0.15895835 0
-1.239108 -0.95799059 0.18776263 0
-1.242946 -0.95789373 0.217187 0
-1.2335809 -0.95813012 0.24537438 0
-0.8909325 -0.98929 -0.088615082 0
-1.0161828 -0.98928964 -0.090612136 0
-1.1187236 -0.9892894 -0.083053462 0
-1.1345764 -0.98928934 -0.05861384 0
-1.1340332 -0.98928934 -0.031681675 0
-1.1240422 -0.98928934 -0.0040390249 0
-1.1219292 -0.98928934 0.022468852 0
-1.1320969 -0.98928934 0.048220661 0
-1.1305423 -0.98928934 0.074662134 0
-1.1295516 -0.98928934 0.10100267 0
