# .PCD v0.7 - Point Cloud Data file format
VERSION 0.7
FIELDS x y z intensity
SIZE 4 4 4 4
TYPE F F F F
COUNT 1 1 1 1
WIDTH 1311
HEIGHT 1
VIEWPOINT 0 0 0 1 0 0 0
POINTS 1311
DATA ascii
-0.95674038 -1.3424429 -0.091289066 0
-1.0891343 -1.3912622 -0.089982711 0
-1.2713674 -1.4584595 -0.089606814 0
-1.5461243 -1.5597742 -0.091745265 0
-1.9255812 -1.6996962 -0.090690978 0
-3.2436388 -2.1857207 -0.14078844 0
-4.8736482 -2.7867751 -0.1409028 0
-9.7486687 -4.5844049 -0.14063337 0
-0.83393782 -1.3213228 -0.090018936 0
-0.94356829 -1.364921 -0.090487011 0
-1.0911428 -1.4236089 -0.092193179 0
-1.2547108 -1.4886571 -0.088939212 0
-1.527977 -1.5973305 -0.09133511 0
-1.9118307 -1.7499826 -0.091171838 0
-3.2094691 -2.2660315 -0.14056651 0
-4.8302722 -2.9105973 -0.14107957 0
-9.6614399 -4.8318715 -0.14079809 0
-0.83842176 -1.3478907 -0.093053244 0
-0.93340713 -1.3884695 -0.090408571 0
-1.0669556 -1.4455228 -0.089891009 0
-1.260443 -1.5281825 -0.0918018 0
-1.5002742 -1.6306409 -0.089825951 0
-1.8883494 -1.7964305 -0.090798385 0
-3.1675689 -2.342926 -0.13990781 0
-4.7860608 -3.0343621 -0.14137337 0
-9.5695791 -5.0779295 -0.14100461 0
-0.81903195 -1.3643473 -0.090698354 0
-0.92977941 -1.4150012 -0.091804825 0
-1.0494231 -1.4697239 -0.088864259 0
-1.2341876 -1.5542316 -0.089907624 0
-1.4782054 -1.6658407 -0.089130796 0
-1.8768976 -1.8481948 -0.091774948 0
-3.14253 -2.4270706 -0.14068602 0
-4.7202272 -3.148679 -0.14072266 0
-9.4568014 -5.3150969 -0.1408366 0
-0.81412512 -1.3872696 -0.091837846 0
-0.91335618 -1.4357197 -0.090675928 0
-1.0478877 -1.5014056 -0.090861611 0
-1.2138122 -1.5824193 -0.089011781 0
-1.4673648 -1.7062179 -0.090002216 0
-1.8410645 -1.888679 -0.090365998 0
-3.1034913 -2.5050666 -0.14054899 0
-4.662879 -3.2664473 -0.14065212 0
-9.3421135 -5.5511117 -0.14077106 0
-0.79738539 -1.404361 -0.090295263 0
-0.90226483 -1.4588881 -0.09077432 0
-1.038241 -1.5295824 -0.091530018 0
-0.894638 -1.4549229 -0.040888403 0
-0.87955368 -1.4470805 -0.01501712 0
-0.95614558 -1.4869008 0.00027989061 0
-3.0706804 -2.5862515 -0.14105499 0
-4.5985875 -3.3806133 -0.14037129 0
-9.2214546 -5.7840509 -0.14070332 0
-0.78428686 -1.4230621 -0.089719303 0
-0.85758907 -1.4635535 -0.083772503 0
-0.85664499 -1.463032 -0.060055349 0
-0.84840822 -1.4584821 -0.035398174 0
-0.97778463 -1.5299482 -0.029712444 0
-0.8632111 -1.4666591 0.008818591 0
-3.0191531 -2.6575782 -0.14023584 0
-4.5436788 -3.4997101 -0.14073779 0
-9.1076422 -6.0207949 -0.14097162 0
-0.78472972 -1.449554 -0.092586122 0
-0.83700162 -1.4801747 -0.081950225 0
-0.83234787 -1.4774486 -0.0577561 0
-0.84109026 -1.4825698 -0.036178414 0
-1.4090779 -1.8152944 -0.090020977 0
-0.83729416 -1.4803461 0.010289514 0
-0.87022138 -1.4996346 0.030385027 0
-4.4783845 -3.6132798 -0.14071043 0
-8.9741583 -6.2468829 -0.14087366 0
-0.76964861 -1.4672357 -0.091781192 0
-0.87001944 -1.5294861 -0.092072286 0
-0.81925088 -1.4979992 -0.0576565 0
-0.84477746 -1.5138309 -0.038890664 0
-0.82672817 -1.5026367 -0.01286046 0
-0.83774114 -1.509467 0.0088502783 0
-0.83677208 -1.508866 0.032054607 0
-0.89998525 -1.548071 0.051614527 0
-8.823576 -6.4623137 -0.14046134 0
-0.75617272 -1.4857589 -0.091483392 0
-0.84740883 -1.545583 -0.090111949 0
-0.81175268 -1.5222031 -0.058756698 0
-0.81215531 -1.5224671 -0.035677794 0
-0.82049197 -1.5279335 -0.01383589 0
-0.82999432 -1.5341642 0.0082202423 0
-0.84155416 -1.5417441 0.030536616 0
-0.8488549 -1.5465312 0.053660132 0
-0.86806458 -1.5591272 0.07680849 0
-0.74620324 -1.5066417 -0.092206769 0
-0.83547664 -1.568455 -0.090655737 0
-0.79135329 -1.5379038 -0.057418395 0
-0.81397426 -1.5535667 -0.038332451 0
-0.80250609 -1.545626 -0.013248241 0
-0.82484722 -1.5610951 0.0072137732 0
-0.82054782 -1.5581182 0.031114774 0
-0.82544756 -1.5615108 0.054174125 0
-0.8257671 -1.5617321 0.077590242 0
-0.73379344 -1.5259727 -0.092438765 0
-0.8252539 -1.5927762 -0.091741808 0
-0.78042668 -1.560034 -0.058063064 0
-0.77851045 -1.5586344 -0.034683544 0
-0.79148149 -1.5681086 -0.013721226 0
-0.7948525 -1.5705707 0.0089828018 0
-0.79463875 -1.5704147 0.032092649 0
-0.81208789 -1.5831596 0.054096814 0
-0.81043714 -1.5819539 0.077608198 0
-0.8258149 -1.5931859 0.10099962 0
-0.70817882 -1.5352261 -0.089262687 0
-0.79911041 -1.6052288 -0.08920937 0
-0.76734555 -1.5807749 -0.058388297 0
-0.76000428 -1.5751233 -0.033993099 0
-0.89645582 -1.6801691 -0.031395588 0
-0.77016759 -1.5829475 0.010133119 0
-0.78352815 -1.5932329 0.031756949 0
-0.78637207 -1.5954223 0.054712128 0
-0.79232353 -1.600004 0.077693343 0
-0.8022052 -1.6076113 0.10099933 0
-0.69786435 -1.5559334 -0.090271316 0
-0.73800945 -1.5884843 -0.078223355 0
-0.75000137 -1.5982078 -0.057927895 0
-0.73466903 -1.5857759 -0.032127399 0
-0.86643481 -1.6926159 -0.029544299 0
-0.74623871 -1.5951569 0.011179173 0
-0.75756305 -1.604339 0.032699939 0
-0.75409234 -1.6015248 0.0557152 0
-0.78043377 -1.6228834 0.077580445 0
-0.69641668 -1.5845426 -0.093924381 0
-0.71214622 -1.5979683 -0.075620808 0
-0.70251644 -1.589749 -0.05103882 0
-0.7111147 -1.597088 -0.030599331 0
-0.8307696 -1.699218 -0.026833242 0
-0.72967774 -1.6129322 0.01130637 0
-0.73985142 -1.6216159 0.032879349 0
-0.73890132 -1.6208049 0.055684805 0
-0.75903809 -1.6379924 0.077738203 0
-0.78003359 -1.6559129 0.10099971 0
-0.66895735 -1.5909752 -0.090433456 0
-0.75479293 -1.6680663 -0.090362869 0
-0.86671382 -1.7685853 -0.090707265 0
-0.81545389 -1.7225475 -0.053247932 0
-0.70805317 -1.6260881 -0.010411074 0
-0.71692479 -1.634056 0.010903055 0
-0.71874744 -1.635693 0.033341091 0
-0.72251481 -1.6390765 0.055698402 0
-0.73201197 -1.6476061 0.078063741 0
-0.74250591 -1.6570311 0.10099892 0
-0.7565068 -1.6696056 0.12470071 0
-0.65729123 -1.611209 -0.091523685 0
-0.73701507 -1.6865306 -0.090256341 0
-0.84388524 -1.7874994 -0.090053819 0
-0.72685051 -1.6769272 -0.039744783 0
-0.72298378 -1.673274 -0.01543132 0
-0.72191006 -1.6722596 0.0081445668 0
-0.70819843 -1.6593051 0.032765057 0
-0.70419562 -1.6555233 0.055806909 0
-0.71196836 -1.6628668 0.078166112 0
-0.71710759 -1.6677223 0.1009986 0
-0.63330299 -1.6195834 -0.089100249 0
-0.72662163 -1.7123156 -0.092230178 0
-0.82919008 -1.8142394 -0.091377594 0
-0.96922803 -1.9533973 -0.09124849 0
-1.1546372 -2.1376412 -0.089434229 0
-1.453944 -2.4350669 -0.090480901 0
-1.9306262 -2.9087534 -0.089401729 0
-3.6809082 -4.648035 -0.14067766 0
-7.374845 -8.3187571 -0.14079373 0
-0.6253885 -1.6439464 -0.09161853 0
-0.70947176 -1.7318275 -0.09259101 0
-0.80081439 -1.8272959 -0.0896428 0
-0.9446584 -1.9776369 -0.091261618 0
-1.1316975 -2.1731243 -0.090516575 0
-1.4237421 -2.4783597 -0.091390856 0
-1.8869666 -2.9625068 -0.089946307 0
-3.5917518 -4.7442927 -0.14096922 0
-7.1864872 -8.5013943 -0.14075741 0
-0.61382145 -1.6652036 -0.093245395 0
-0.68452829 -1.7429392 -0.090916403 0
-0.78246838 -1.8506154 -0.090388484 0
-0.91730517 -1.9988559 -0.090819828 0
-1.1014533 -2.2013099 -0.090514071 0
-1.3789614 -2.5064046 -0.090453617 0
-1.8443172 -3.0180204 -0.090750255 0
-3.4984767 -4.836616 -0.14114988 0
-6.9999585 -8.6861725 -0.14094044 0
-0.59356374 -1.6770207 -0.0922677 0
-0.66388518 -1.7583646 -0.090510421 0
-0.75816095 -1.8674176 -0.089803942 0
-0.88802141 -2.017633 -0.090063594 0
-1.0738118 -2.2325449 -0.091101967 0
-1.3446339 -2.5458167 -0.091080166 0
-1.79527 -3.0670874 -0.091041751 0
-3.3880749 -4.909555 -0.14028026 0
-6.8013954 -8.8578939 -0.14086455 0
-0.57390881 -1.6892291 -0.09155985 0
-0.63583744 -1.764629 -0.088008262 0
-0.74204123 -1.8939352 -0.091429569 0
-0.86385298 -2.0422447 -0.090519868 0
-1.0419266 -2.2590544 -0.09106984 0
-1.2988183 -2.5718277 -0.090180941 0
-1.7460455 -3.1163397 -0.09145724 0
-3.2974851 -5.0052619 -0.14096983 0
-6.6031141 -9.0299616 -0.14095308 0
-0.55097926 -1.6969895 -0.089801826 0
-0.62408584 -1.7907245 -0.090462558 0
-0.71179307 -1.9031798 -0.089509033 0
-0.84056181 -2.0682831 -0.09133134 0
-1.0135764 -2.2901168 -0.091833629 0
-1.2596229 -2.6055899 -0.090355061 0
-1.6856241 -3.1517951 -0.090752713 0
-3.1965847 -5.0890999 -0.1410816 0
-6.390655 -9.1844358 -0.1406702 0
-0.53675628 -1.7158365 -0.091162674 0
-0.60791498 -1.8119812 -0.091807835 0
-0.69199085 -1.9255787 -0.09047126 0
-0.80850929 -2.0830102 -0.090253986 0
-0.97582549 -2.3090763 -0.090928577 0
-1.223074 -2.6431413 -0.091081984 0
-1.6291656 -3.1918242 -0.090592958 0
-3.0851905 -5.1591039 -0.14053898 0
-6.1902413 -9.3544331 -0.1409982 0
-0.51791358 -1.728688 -0.091036804 0
-0.58242524 -1.8206147 -0.090319641 0
-0.66751736 -1.9418678 -0.090291165 0
-0.78145003 -2.1042175 -0.090448253 0
-0.94341618 -2.3350134 -0.091172941 0
-1.1752731 -2.6654007 -0.090158574 0
-1.5751876 -3.2352638 -0.090850092 0
-2.9802306 -5.2373972 -0.14063874 0
-5.9771276 -9.507863 -0.14099488 0
-0.49489534 -1.7352306 -0.089425184 0
-0.56451511 -1.8399599 -0.09142562 0
-0.64084101 -1.9547771 -0.089570008 0
-0.75666511 -2.1290116 -0.091360815 0
-0.9074465 -2.3558326 -0.090810858 0
-1.1401178 -2.7058408 -0.091424637 0
-1.5169507 -3.272712 -0.090715356 0
-2.8749065 -5.3154893 -0.14087495 0
-5.7552242 -9.6483603 -0.14078201 0
-0.47770762 -1.7503518 -0.090140186 0
-0.54343414 -1.8548508 -0.091624536 0
-0.62648612 -1.9868956 -0.092721604 0
-0.7188341 -2.1337202 -0.089029111 0
-0.87738484 -2.3858011 -0.091844045 0
-1.091729 -2.7265885 -0.090597965 0
-1.4561138 -3.3059261 -0.090355478 0
-2.7664676 -5.3892655 -0.14101754 0
-5.5356693 -9.792038 -0.14081496 0
-0.46239534 -1.7689891 -0.09182208 0
-0.51792574 -1.8624282 -0.090335555 0
-0.59202176 -1.9871072 -0.089796059 0
-0.69281149 -2.1567028 -0.089876793 0
-0.83101225 -2.3892486 -0.08936017 0
-1.0414271 -2.7433069 -0.089479767 0
-1.3967782 -3.3412445 -0.0902979 0
-2.6535084 -5.4559026 -0.14092073 0
-5.3143029 -9.9331341 -0.14092866 0
-0.43926802 -1.774533 -0.09038455 0
-0.49941283 -1.8818107 -0.091753818 0
-0.56773818 -2.0036795 -0.090159364 0
-0.66622102 -2.1793389 -0.090763427 0
-0.80041957 -2.4187031 -0.090553783 0
-1.0038658 -2.7815814 -0.090820812 0
-1.3392063 -3.3797135 -0.090614565 0
-2.5388815 -5.5195208 -0.14081745 0
-5.0880709 -10.066397 -0.14098199 0
-0.42403635 -1.7943329 -0.092533909 0
-0.47493553 -1.8907444 -0.091028087 0
-0.53751427 -2.0092788 -0.088593237 0
-0.63611525 -2.1960454 -0.090803362 0
-0.76208693 -2.4346566 -0.090050094 0
-0.95884538 -2.8073499 -0.090924881 0
-1.2785115 -3.4128506 -0.090621211 0
-1.9204507 -4.6287899 -0.090627976 0
-4.8506351 -10.179045 -0.14064378 0
-0.40297064 -1.8035533 -0.092238106 0
-0.45056775 -1.8994983 -0.090404309 0
-0.5116443 -2.0226147 -0.088606812 0
-0.60296929 -2.2067051 -0.090014182 0
-0.72544551 -2.4535894 -0.090068363 0
-0.9131586 -2.8319762 -0.091027819 0
-1.2182956 -3.4470632 -0.090832032 0
-1.8288462 -4.6777945 -0.090715475 0
-4.6176462 -10.299381 -0.14066586 0
-0.38372612 -1.8165584 -0.092958309 0
-0.43121472 -1.9186786 -0.09208212 0
-0.48945004 -2.0439088 -0.090181731 0
-0.572227 -2.2219136 -0.090069674 0
-0.68860793 -2.4721811 -0.090162404 0
-0.86195105 -2.8449409 -0.090048559 0
-1.1537888 -3.4725139 -0.090482764 0
-1.7371722 -4.7270312 -0.090933315 0
-4.3814797 -10.413393 -0.14067721 0
-0.36122021 -1.822526 -0.092152797 0
-0.40360978 -1.9200438 -0.090183713 0
-0.4610143 -2.0521035 -0.089492984 0
-0.54238439 -2.2392967 -0.090577342 0
-0.6478231 -2.4818599 -0.089238741 0
-0.81648481 -2.8698688 -0.090429805 0
-1.0939472 -3.5081751 -0.091040455 0
-1.6438013 -4.7731223 -0.091107227 0
-4.141674 -10.519515 -0.14064042 0
-0.33325425 -1.8145417 -0.08828681 0
-0.38020521 -1.930469 -0.09028808 0
-0.43435055 -2.0641603 -0.08962395 0
-0.50762331 -2.2450793 -0.089435793 0
-0.61337358 -2.5061889 -0.090302281 0
-0.77096927 -2.8953114 -0.090975232 0
-1.0319837 -3.5397868 -0.091401555 0
-1.5457898 -4.808434 -0.090856947 0
-3.9044192 -10.632166 -0.14092042 0
-0.31738025 -1.8361567 -0.091339938 0
-0.3525016 -1.9295841 -0.088235073 0
-0.40885189 -2.0794833 -0.090445928 0
-0.47681007 -2.2602608 -0.089848511 0
-0.57537848 -2.5224657 -0.090459473 0
-0.72492659 -2.9202831 -0.091583692 0
-0.96344674 -3.5547779 -0.090635322 0
-1.4487457 -4.8457365 -0.090831675 0
-3.6620533 -10.733423 -0.14106424 0
-0.29841536 -1.8511268 -0.092961736 0
-0.33283046 -1.9501953 -0.090626173 0
-0.37890625 -2.0828309 -0.089289702 0
-0.44657522 -2.2776253 -0.090698622 0
-0.53614551 -2.535466 -0.090329118 0
-0.67667603 -2.9400024 -0.091783173 0
-0.90175468 -3.5879226 -0.091347866 0
-1.3500444 -4.8783865 -0.090698607 0
-3.4101555 -10.808702 -0.14071864 0
-0.27117759 -1.8415046 -0.089190312 0
-0.31103384 -1.9663099 -0.092207588 0
-0.34938663 -2.0864072 -0.08831311 0
-0.41163579 -2.2813332 -0.089640252 0
-0.49819055 -2.5523696 -0.09080071 0
-0.62621391 -2.9532599 -0.091467731 0
-0.8255043 -3.5773149 -0.088958584 0
-1.2499217 -4.9063292 -0.090458803 0
-3.1636224 -10.898863 -0.14089487 0
-0.25177845 -1.8556049 -0.090852089 0
-0.28355977 -1.9645357 -0.090375952 0
-0.32672629 -2.1124895 -0.091324858 0
-0.37760001 -2.2868595 -0.088985451 0
-0.4555752 -2.5541203 -0.08954113 0
-0.57479233 -2.9627385 -0.090911485 0
-0.76824218 -3.6257901 -0.091030143 0
-1.1522222 -4.9418855 -0.090713017 0
-2.9104619 -10.96827 -0.14071849 0
-0.23013021 -1.862803 -0.091093235 0
-0.26220146 -1.9840233 -0.09283454 0
-0.29324585 -2.1013625 -0.088088371 0
-0.34620082 -2.3015175 -0.089787774 0
-0.42139208 -2.5857198 -0.092028938 0
-0.52337748 -2.9711962 -0.09038613 0
-0.70009607 -3.6391435 -0.090652995 0
-1.0541782 -4.9774761 -0.09108635 0
-2.6569409 -11.035473 -0.14064443 0
-0.2077561 -1.8672581 -0.090853371 0
-0.23519729 -1.9826818 -0.091350563 0
-0.26573893 -2.1111465 -0.088546939 0
-0.3132706 -2.3110752 -0.089963399 0
-0.37751746 -2.5813115 -0.090280227 0
-0.47252494 -2.9809339 -0.090111621 0
-0.63281649 -3.6551554 -0.090593137 0
-0.94828665 -4.9820919 -0.090094052 0
-2.4015427 -11.094806 -0.14053616 0
-0.18550384 -1.8720846 -0.090818532 0
-0.20898578 -1.9832487 -0.090373479 0
-0.23751071 -2.1182866 -0.088675909 0
-0.27889216 -2.3141873 -0.089332022 0
-0.33825785 -2.595226 -0.090862162 0
-0.42534274 -3.0074883 -0.091565661 0
-0.56711781 -3.6786554 -0.091190301 0
-0.84568864 -4.997417 -0.089744098 0
-2.1480072 -11.162627 -0.14078379 0
-0.16348606 -1.8782128 -0.091186933 0
-0.18284675 -1.9828589 -0.089344703 0
-0.21054886 -2.1325908 -0.090121083 0
-0.2440822 -2.3138411 -0.088333614 0
-0.29556531 -2.5921111 -0.089535363 0
-0.36935088 -2.9909277 -0.089033611 0
-0.4980413 -3.6865091 -0.090790488 0
-0.94392258 -6.0965314 -0.14083037 0
-1.8915812 -11.218699 -0.14090411 0
-0.13902478 -1.8696251 -0.088506363 0
-0.15975483 -1.9999784 -0.091785483 0
-0.18054189 -2.1306903 -0.08897721 0
-0.21277073 -2.3333495 -0.090289839 0
-0.25718114 -2.612608 -0.091135971 0
-0.32017121 -3.0086982 -0.089890264 0
-0.42929018 -3.6948531 -0.090550639 0
-0.81459457 -6.1176982 -0.14078099 0
-1.6311065 -11.252036 -0.14064145 0
-0.11824799 -1.8839793 -0.090887122 0
-0.13346235 -1.9981536 -0.090729274 0
-0.15352261 -2.1486928 -0.091263019 0
-0.17870405 -2.3376637 -0.090197541 0
-0.2160347 -2.6178062 -0.091041826 0
-0.26657343 -2.9970675 -0.088092588 0
-0.36139655 -3.7086544 -0.090819113 0
-0.68480909 -6.1356592 -0.14073476 0
-1.3712524 -11.28698 -0.14057185 0
-0.095221363 -1.8828491 -0.090063266 0
-0.1078309 -1.9999787 -0.090493284 0
-0.12328248 -2.1435077 -0.089822538 0
-0.14494419 -2.3447223 -0.090615131 0
-0.17532815 -2.6269577 -0.091534875 0
-0.21768732 -3.0204301 -0.089712135 0
-0.29182133 -3.7090576 -0.09026546 0
-0.55459231 -6.1499252 -0.14066929 0
-1.1115643 -11.323613 -0.14069553 0
-0.072266281 -1.8803788 -0.089079447 0
-0.08233925 -2.0029323 -0.090593494 0
-0.093424685 -2.137804 -0.088425599 0
-0.10999834 -2.3394487 -0.089413218 0
-0.13303617 -2.6197402 -0.090228014 0
-0.16690527 -3.0318115 -0.090321921 0
-0.2230235 -3.7145782 -0.090195246 0
-0.42484054 -6.1700001 -0.14102897 0
-0.85029644 -11.346342 -0.14064765 0
-0.050337218 -1.8920994 -0.091241769 0
-0.056800257 -2.0058143 -0.090801485 0
-0.064664565 -2.1441839 -0.089143924 0
-0.075929426 -2.3423851 -0.089492925 0
-0.081614278 -2.4424081 -0.069134109 0
-0.080946162 -2.4306529 -0.033783812 0
-0.081414811 -2.4388986 -0.00053429394 0
-0.081253029 -2.4360518 0.033508305 0
-0.08150126 -2.4404194 0.067176588 0
-0.081313416 -2.4371145 0.1010118 0
-0.027687782 -1.8977214 -0.09222319 0
-0.031350188 -2.0137994 -0.092092566 0
-0.035270799 -2.1380613 -0.087925307 0
-0.040655166 -2.3087163 -0.084546678 0
-0.040862568 -2.3152897 -0.054080416 0
-0.040700894 -2.3101656 -0.022381721 0
-0.04069921 -2.3101122 0.0085866842 0
-0.040709514 -2.3104389 0.039434273 0
-0.040402696 -2.3007145 0.070464075 0
-0.04089015 -2.316164 0.1010083 0
-0.0046851709 -1.8865916 -0.089765109 0
-0.0054821074 -2.0129457 -0.09183953 0
-0.006347327 -2.150126 -0.089817964 0
-0.0066481535 -2.1978219 -0.068873279 0
-0.0066770092 -2.2023969 -0.04081196 0
-0.0067382269 -2.2121029 -0.013169436 0
-0.0067608934 -2.2156968 0.015231462 0
-0.0067030857 -2.2065313 0.04430113 0
-0.0066959024 -2.2053924 0.072694965 0
-0.0067815837 -2.2189772 0.1010055 0
0.017986285 -1.8880292 -0.09010113 0
0.020173512 -2.0035791 -0.090105765 0
0.022938358 -2.1496446 -0.089769237 0
0.02400689 -2.2060947 -0.070063151 0
0.023930917 -2.202081 -0.04079761 0
0.023732731 -2.1916108 -0.01127453 0
0.02395742 -2.2034812 0.016071947 0
0.023946427 -2.2029004 0.044461176 0
0.023715083 -2.1906786 0.073032625 0
0.023818938 -2.1961651 0.10100485 0
0.040528763 -1.8844146 -0.089484252 0
0.045516651 -1.9972911 -0.089072414 0
0.052384671 -2.1527147 -0.090426259 0
0.054406654 -2.1984725 -0.06912718 0
0.054430023 -2.1990013 -0.040550265 0
0.054656517 -2.2041271 -0.012533342 0
0.054230168 -2.1944788 0.016634287 0
0.054187182 -2.1935058 0.044853944 0
0.054346941 -2.1971211 0.072860435 0
0.054362155 -2.1974654 0.10100492 0
0.063748613 -1.8924494 -0.091469638 0
0.070804648 -1.9939672 -0.088717632 0
0.081459522 -2.1472626 -0.08980272 0
0.085420758 -2.2042544 -0.070185818 0
0.084579907 -2.1921568 -0.039951507 0
0.08478982 -2.1951766 -0.011858827 0
0.08537031 -2.2035284 0.015879052 0
0.085331462 -2.2029696 0.044331759 0
0.085925899 -2.2115219 0.072484456 0
0.08487498 -2.1964021 0.10100494 0
0.085206248 -1.8767766 -0.088522784 0
0.097308151 -2.0042844 -0.091063492 0
0.111732 -2.1562567 -0.091683693 0
0.11653209 -2.2068315 -0.070904993 0
0.1162234 -2.2035792 -0.041585092 0
0.11530667 -2.1939201 -0.011975287 0
0.11572365 -2.1983135 0.016068572 0
0.11589842 -2.200155 0.044345774 0
0.11524375 -2.1932573 0.072851874 0
0.11645029 -2.2059696 0.10100529 0
0.11119272 -1.9044355 -0.094960012 0
0.12279356 -2.0007572 -0.09091673 0
0.13999796 -2.1436052 -0.090113454 0
0.14728498 -2.2041092 -0.070987247 0
0.14517601 -2.1865983 -0.039973963 0
0.146744 -2.1996174 -0.012818163 0
0.14685279 -2.2005208 0.015682193 0
0.14848691 -2.2140889 0.043538362 0
0.14576165 -2.1914611 0.072817452 0
0.14703125 -2.2020023 0.10100527 0
0.13049346 -1.8756714 -0.089440919 0
0.14853022 -1.999108 -0.09124916 0
0.16798101 -2.1322217 -0.088866346 0
0.17746674 -2.1971381 -0.070576392 0
0.17756575 -2.1978159 -0.041773666 0
0.17859505 -2.20486 -0.013695991 0
0.17868863 -2.2055004 0.015043082 0
0.17815304 -2.2018349 0.043921437 0
0.17574455 -2.1853523 0.072866157 0
0.17942216 -2.2105203 0.10100563 0
0.15366748 -1.8770694 -0.090508126 0
0.17436047 -1.997381 -0.091692083 0
0.19730748 -2.1307976 -0.089392252 0
0.20949869 -2.2016788 -0.071913727 0
0.20949858 -2.2016783 -0.042805705 0
0.20775627 -2.1915481 -0.01289632 0
0.20779265 -2.1917598 0.015672246 0
0.20744774 -2.1897542 0.044262696 0
0.20930453 -2.2005498 0.072394602 0
0.2096644 -2.2026422 0.10100555 0
0.17705111 -1.8781476 -0.091637842 0
0.19976111 -1.9927902 -0.091712214 0
0.2259703 -2.125097 -0.089328013 0
0.24069594 -2.1994338 -0.072401129 0
0.24063729 -2.1991377 -0.04317585 0
0.2403173 -2.1975222 -0.01399765 0
0.24098195 -2.2008774 0.014623271 0
0.24148555 -2.2034197 0.043348767 0
0.24002543 -2.196049 0.072367556 0
0.24065217 -2.1992128 0.10100561 0
0.20036565 -1.8776274 -0.092553966 0
0.22297297 -1.9783483 -0.08995425 0
0.25621951 -2.1264694 -0.090576284 0
0.26999316 -2.1878343 -0.071657084 0
0.27121919 -2.1932964 -0.043246631 0
0.27280995 -2.2003837 -0.014885871 0
0.27487025 -2.2095628 0.013539473 0
0.27374125 -2.2045329 0.042987678 0
0.27393299 -2.2053871 0.071992159 0
0.27329156 -2.2025294 0.1010059 0
0.21793748 -1.8532858 -0.088383771 0
0.24967913 -1.9796877 -0.091363259 0
0.28348863 -2.1143243 -0.089670889 0
0.30506048 -2.200228 -0.074491717 0
0.30624196 -2.2049329 -0.045516688 0
0.30553445 -2.2021155 -0.015749706 0
0.30263409 -2.1905656 0.01438267 0
0.30435786 -2.1974299 0.042979699 0
0.30319521 -2.1928 0.072119519 0
0.30286011 -2.1914656 0.10100579 0
0.24062377 -1.8509737 -0.089142121 0
0.27658498 -1.9802756 -0.09276662 0
0.31311372 -2.1116178 -0.090486281 0
0.33826354 -2.2020464 -0.075932346 0
0.33678165 -2.196718 -0.045501444 0
0.34004876 -2.2084653 -0.017146787 0
0.34079814 -2.2111597 0.012308257 0
0.33881202 -2.2040186 0.042272862 0
0.34006497 -2.2085235 0.0715468 0
0.34189618 -2.2151079 0.10100672 0
0.2626642 -1.8458825 -0.089415438 0
0.29959345 -1.9667631 -0.091537081 0
0.34049401 -2.1006429 -0.090015061 0
0.37057814 -2.1991174 -0.07680922 0
0.37261865 -2.2057965 -0.047693286 0
0.37107277 -2.2007365 -0.017265325 0
0.37237203 -2.2049892 0.012104118 0
0.37128872 -2.2014434 0.041964456 0
0.37180644 -2.2031381 0.071460299 0
0.36848223 -2.1922569 0.10100631 0
0.28483424 -1.8409295 -0.089846157 0
0.32381347 -1.957875 -0.091330104 0
0.36820787 -2.0910671 -0.089901485 0
0.43202668 -2.2825365 -0.090605043 0
0.51837999 -2.5416138 -0.090266995 0
0.64994633 -2.9363391 -0.090597026 0
0.86421341 -3.5791836 -0.089880027 0
1.3030527 -4.8957891 -0.090731509 0
3.2896233 -10.855902 -0.14084004 0
0.30743164 -1.8368154 -0.09059637 0
0.34721214 -1.9468303 -0.090811186 0
0.39547592 -2.0803061 -0.089701436 0
0.46095279 -2.2613857 -0.089131065 0
0.5605433 -2.536808 -0.091353573 0
0.70095962 -2.9251363 -0.091171823 0
0.93128484 -3.5621121 -0.090291359 0
1.4035286 -4.868125 -0.091049917 0
3.5366426 -10.767357 -0.14078002 0
0.33105469 -1.8347991 -0.091962211 0
0.37476596 -1.9467661 -0.092626236 0
0.42693284 -2.0803926 -0.0915341 0
0.49571806 -2.256587 -0.090219103 0
0.59839922 -2.5196064 -0.091028579 0
0.74445361 -2.8937273 -0.089856036 0
0.99749112 -3.5418873 -0.090596579 0
1.4986968 -4.8257337 -0.090761624 0
3.7807827 -10.671336 -0.14068767 0
0.35423261 -1.8308471 -0.093033142 0
0.39877278 -1.9369535 -0.092610575 0
0.4530842 -2.0663376 -0.091006495 0
0.52523351 -2.2382164 -0.089383237 0
0.62943584 -2.4864538 -0.088798769 0
0.79429018 -2.8791804 -0.090343781 0
1.0645931 -3.5231135 -0.091141097 0
1.5968311 -4.7910447 -0.090979822 0
4.0290437 -10.585217 -0.14099865 0
0.36377737 -1.7959286 -0.087034442 0
0.41907004 -1.9188633 -0.091009639 0
0.48284435 -2.0606556 -0.092099972 0
0.55780959 -2.227329 -0.089805119 0
0.66923124 -2.4750578 -0.089431472 0
0.84352714 -2.8625774 -0.09075468 0
1.1266658 -3.4920924 -0.09088213 0
1.6912071 -4.7472615 -0.090862013 0
4.2603498 -10.459351 -0.14045867 0
0.39390534 -1.8071047 -0.091889285 0
0.44319496 -1.9096918 -0.091359325 0
0.50452304 -2.0373347 -0.090126775 0
0.59086883 -2.2170472 -0.090454005 0
0.70918733 -2.463305 -0.090155132 0
0.89011413 -2.8398702 -0.090666406 0
1.1927962 -3.4698462 -0.091421403 0
1.7846673 -4.7017145 -0.090773977 0
4.5020823 -10.357505 -0.14068148 0
0.4118658 -1.7919517 -0.09070041 0
0.4665083 -1.8986934 -0.091455035 0
0.53068817 -2.0240662 -0.090084337 0
0.6177873 -2.1942105 -0.089260109 0
0.74560845 -2.4439037 -0.090015553 0
0.94156355 -2.8266938 -0.091698922 0
1.2515042 -3.4321496 -0.090884514 0
1.8786079 -4.6571703 -0.090859838 0
4.738204 -10.24327 -0.14074196 0
0.42936736 -1.7765154 -0.089535527 0
0.48943055 -1.8868885 -0.091504432 0
0.55745161 -2.0118852 -0.090367563 0
0.65360695 -2.1885819 -0.090910904 0
0.78228587 -2.4250448 -0.090067692 0
0.98762274 -2.8023753 -0.091698758 0
1.3103442 -3.3954144 -0.090533875 0
1.9705802 -4.6086755 -0.090862371 0
4.9752626 -10.130135 -0.14098907 0
0.45035529 -1.7676415 -0.090071984 0
0.50739086 -1.8664298 -0.089797445 0
0.58105576 -1.9940211 -0.089703687 0
0.67778295 -2.161557 -0.089259483 0
0.81255388 -2.3949866 -0.088733293 0
1.0300499 -2.7716999 -0.091137849 0
1.3718872 -3.3637784 -0.090708785 0
2.6015992 -5.4936976 -0.14117162 0
5.2052574 -10.003357 -0.14103304 0
0.46924347 -1.7550623 -0.08982455 0
0.52811164 -1.8513308 -0.089346506 0
0.6129837 -1.9901237 -0.091834046 0
0.71077901 -2.1500504 -0.090238459 0
0.85644543 -2.3882613 -0.090678506 0
1.0681531 -2.7344713 -0.089967541 0
1.4310491 -3.3279223 -0.090666942 0
2.7062707 -5.4133177 -0.14044423 0
5.4229016 -9.8558788 -0.1406706 0
0.48903129 -1.7439559 -0.090065576 0
0.55971622 -1.8532531 -0.092822619 0
0.63627642 -1.9716352 -0.091300063 0
0.73639697 -2.1264477 -0.089347415 0
0.88912791 -2.3626096 -0.090174355 0
1.1162484 -2.7137971 -0.090724237 0
1.4916656 -3.2942901 -0.090932898 0
2.8241181 -5.354609 -0.14105172 0
5.6493611 -9.7231712 -0.14086211 0
0.51042718 -1.7350763 -0.091011576 0
0.57453954 -1.8289299 -0.090552859 0
0.65496182 -1.9466594 -0.089581616 0
0.76613861 -2.1094103 -0.089667372 0
0.92276031 -2.3386874 -0.090022065 0
1.1574029 -2.6821787 -0.090393044 0
1.5450746 -3.2496881 -0.090403192 0
2.9233441 -5.2673254 -0.14022502 0
5.8665638 -9.575881 -0.1408059 0
0.53323549 -1.7277477 -0.092521541 0
0.59150195 -1.8085861 -0.089251526 0
0.6809361 -1.9326664 -0.090151407 0
0.79580939 -2.0920408 -0.090064593 0
0.95493782 -2.3128142 -0.089707144 0
1.2051628 -2.6599743 -0.091257431 0
1.6006571 -3.2086804 -0.090288661 0
3.0332398 -5.1962347 -0.14045487 0
6.0801444 -9.4234877 -0.14075817 0
0.54144037 -1.7005833 -0.088917606 0
0.62014145 -1.8041594 -0.091790654 0
0.71046388 -1.92303 -0.091765575 0
0.82394522 -2.0723794 -0.090195946 0
0.9880529 -2.2883565 -0.089711972 0
1.2436869 -2.6247885 -0.090756722 0
1.6624874 -3.1759591 -0.091021515 0
3.1425774 -5.1238604 -0.14077482 0
6.2935386 -9.2707443 -0.14085527 0
0.56535643 -1.6943933 -0.091006689 0
0.64020669 -1.7879062 -0.091700979 0
0.73435122 -1.9055239 -0.091911308 0
0.85593784 -2.057426 -0.091304041 0
1.0215086 -2.2642787 -0.089897729 0
1.2868817 -2.595818 -0.091104038 0
1.7244395 -3.1424732 -0.091839246 0
3.2423229 -5.0388141 -0.14050858 0
6.5077267 -9.1183882 -0.14112474 0
0.58217943 -1.6789941 -0.090746842 0
0.65958703 -1.7708519 -0.091535546 0
0.74864715 -1.8765372 -0.089720972 0
0.88218421 -2.0350022 -0.091209956 0
1.0517656 -2.2362401 -0.089609839 0
1.3263354 -2.5620654 -0.091006823 0
1.7693251 -3.0877504 -0.090874515 0
3.3424637 -4.954555 -0.14043629 0
6.7069407 -8.9470968 -0.14098692 0
0.60226536 -1.6673455 -0.091666035 0
0.67886049 -1.753719 -0.091468431 0
0.77216071 -1.8589301 -0.090059213 0
0.9000259 -2.0031188 -0.089459948 0
1.0822165 -2.2085681 -0.089490704 0
1.3612171 -2.5231867 -0.090390794 0
1.8226813 -3.0435624 -0.090977035 0
3.4523089 -4.8812318 -0.1411984 0
6.8982859 -8.7671299 -0.14073099 0
0.61924839 -1.6520299 -0.091686763 0
0.69769621 -1.7361193 -0.091403358 0
0.79588366 -1.8413678 -0.090547495 0
0.92661411 -1.9814998 -0.089726649 0
1.1134883 -2.181813 -0.08963678 0
1.4001013 -2.489038 -0.09047503 0
1.8611076 -2.9831975 -0.089662679 0
3.5387805 -4.7815208 -0.14047313 0
7.1001172 -8.5989714 -0.14099632 0
0.63200605 -1.6323801 -0.090543486 0
0.71741879 -1.7194247 -0.091699503 0
0.82290602 -1.8269273 -0.091903068 0
0.95304382 -1.9595515 -0.090065755 0
1.1403959 -2.1504829 -0.089165099 0
1.4377203 -2.4534879 -0.090504922 0
1.9114853 -2.9363041 -0.089728735 0
3.6328514 -4.6905575 -0.14044093 0
7.2869797 -8.4144993 -0.14090082 0
0.65058208 -1.6187259 -0.091298573 0
0.7312634 -1.6969016 -0.090558849 0
0.83714008 -1.7994901 -0.090383835 0
0.98202097 -1.9398715 -0.091004975 0
1.1733791 -2.1252866 -0.089823835 0
1.4785604 -2.4209902 -0.091070868 0
1.9559671 -2.8835704 -0.089335941 0
3.7374589 -4.609736 -0.14124328 0
7.4712939 -8.2276125 -0.14087778 0
0.6664207 -1.6022866 -0.091346048 0
0.74804378 -1.6774758 -0.090343527 0
0.85262531 -1.773814 -0.089335687 0
1.0044867 -1.9137051 -0.090774514 0
1.204843 -2.0982687 -0.090328343 0
1.509167 -2.3786051 -0.090430461 0
2.5399346 -3.328125 -0.14035849 0
3.8272197 -4.5139427 -0.14121816 0
7.6492677 -8.0347261 -0.14080577 0
0.67740405 -1.5815617 -0.090139292 0
0.77740937 -1.6691245 -0.093407743 0
0.87759584 -1.756846 -0.090525649 0
1.0286678 -1.8891217 -0.090994336 0
1.2268562 -2.0626516 -0.089460902 0
1.5220622 -2.3211284 -0.087740965 0
2.607451 -3.2714748 -0.14122392 0
3.9096489 -4.4116549 -0.14089122 0
7.8147588 -7.8308959 -0.14050177 0
0.69918847 -1.5701766 -0.092090391 0
0.78368443 -1.6404736 -0.090803124 0
0.89388955 -1.7321595 -0.089928456 0
1.0531236 -1.8646355 -0.091374479 0
1.2575816 -2.0347357 -0.090074159 0
1.5733821 -2.2974682 -0.089950897 0
2.6566467 -3.1986978 -0.14053677 0
3.9950778 -4.3122149 -0.14091083 0
7.9894657 -7.6353741 -0.14064011 0
0.71285325 -1.5517673 -0.091882013 0
0.79734415 -1.6185259 -0.090197958 0
0.92904794 -1.7225885 -0.093426339 0
1.0741235 -1.8372167 -0.091239981 0
1.2774718 -1.9978877 -0.089167438 0
1.6024927 -2.2546954 -0.089546971 0
2.7162941 -3.1347404 -0.14095974 0
4.063621 -4.1992998 -0.14007865 0
8.1542387 -7.4314075 -0.1406291 0
0.73176694 -1.5373379 -0.093196802 0
0.81603998 -1.6005369 -0.090921469 0
0.94054657 -1.6939086 -0.092048384 0
1.0981047 -1.8120666 -0.091754459 0
1.3210644 -1.9792714 -0.091877498 0
1.6248753 -2.2071092 -0.088492848 0
2.7694592 -3.0654707 -0.14095083 0
4.1519504 -4.1022463 -0.14058091 0
8.3195772 -7.2276864 -0.14078584 0
0.72969419 -1.5075814 -0.089109994 0
0.83238459 -1.580618 -0.091194607 0
0.94883245 -1.6634395 -0.090194292 0
1.1114919 -1.7791281 -0.090543337 0
1.3264638 -1.9320229 -0.089129828 0
1.6754895 -2.1802611 -0.090830006 0
2.8204546 -2.9945972 -0.14090729 0
4.2255125 -3.9939194 -0.14037184 0
8.4640827 -7.0085258 -0.14049348 0
0.74743038 -1.4923263 -0.090363719 0
0.83817542 -1.553479 -0.089181311 0
0.97675472 -1.6468669 -0.09241689 0
1.1375812 -1.7552472 -0.091647334 0
1.3567473 -1.9029424 -0.090105005 0
1.697456 -2.1325448 -0.089980222 0
2.8673639 -2.9209411 -0.14067218 0
4.2998891 -3.8863142 -0.14036688 0
8.6248579 -6.8008933 -0.14081867 0
0.76923722 -1.4792973 -0.092721619 0
0.86902684 -1.542944 -0.092952959 0
0.99477828 -1.6231494 -0.092756651 0
1.1524986 -1.7237449 -0.090972833 0
1.3664562 -1.8602089 -0.088315167 0
1.7327842 -2.0938561 -0.09075772 0
2.9156537 -2.8483009 -0.14071074 0
4.3796735 -3.7820656 -0.14081185 0
8.7651854 -6.5791841 -0.14072052 0
0.76928616 -1.4524808 -0.089725889 0
0.86521512 -1.510313 -0.08910317 0
0.99340963 -1.5875971 -0.089485563 0
1.1784887 -1.6991748 -0.092257015 0
1.3963585 -1.8305209 -0.089456446 0
1.7651931 -2.0528784 -0.09131261 0
2.9669206 -2.7773581 -0.14114259 0
4.4456887 -3.6688559 -0.14064579 0
8.907402 -6.3586669 -0.14082825 0
0.78991419 -1.4381746 -0.091972388 0
0.89016473 -1.4952141 -0.091720723 0
1.0187103 -1.5683525 -0.091474928 0
1.1863369 -1.6637268 -0.090690561 0
1.4149454 -1.7937979 -0.089161433 0
1.7854042 -2.0045774 -0.090661533 0
3.0111372 -2.7019815 -0.14114632 0
4.5147996 -3.5575185 -0.14080206 0
9.0385714 -6.1314034 -0.14078893 0
0.79572916 -1.4153067 -0.090703912 0
0.89841813 -1.4703512 -0.090817086 0
1.0378481 -1.5450903 -0.092379652 0
1.1993735 -1.631673 -0.090116106 0
1.4439431 -1.7627703 -0.090374701 0
1.8103999 -1.959203 -0.09065593 0
3.0479429 -2.622566 -0.14071409 0
4.5788474 -3.4431806 -0.1408383 0
9.1566505 -5.8970304 -0.14055718 0
0.81494999 -1.3995159 -0.092780747 0
0.9026795 -1.4437293 -0.089216106 0
1.0436372 -1.5147685 -0.090924926 0
1.2292719 -1.6083237 -0.092330672 0
1.4646236 -1.7269351 -0.090587266 0
1.8441612 -1.9182125 -0.091687106 0
3.0948265 -2.5485168 -0.14123426 0
4.6346121 -3.3245306 -0.14059371 0
9.2889585 -5.6702042 -0.14085388 0
0.81330436 -1.3732996 -0.09002123 0
0.91948247 -1.4234924 -0.090387814 0
1.0556045 -1.4878404 -0.090750583 0
1.2262002 -1.568485 -0.0894861 0
1.4826611 -1.6897199 -0.090573303 0
1.8615953 -1.8688508 -0.091127865 0
3.1293027 -2.4681256 -0.14093427 0
4.6944289 -3.2079968 -0.14071581 0
9.4069214 -5.4357004 -0.1409263 0
0.82133669 -1.3520633 -0.089696325 0
0.93432409 -1.4020271 -0.091248401 0
1.0652455 -1.4599216 -0.090282969 0
1.2437555 -1.5388602 -0.089998059 0
1.4938447 -1.6494517 -0.089804389 0
1.8770833 -1.8189229 -0.090504117 0
3.1683631 -2.3899374 -0.14114402 0
4.7606368 -3.0940535 -0.14131249 0
9.5169973 -5.1973543 -0.14094877 0
0.8295204 -1.3309572 -0.089533485 0
0.93885714 -1.376044 -0.090110831 0
1.087141 -1.4371914 -0.092124723 0
1.2558475 -1.5067602 -0.089788504 0
1.5146596 -1.6134857 -0.090390168 0
1.9012126 -1.7728873 -0.090887196 0
3.1938925 -2.3059454 -0.1404784 0
4.7998724 -2.9681981 -0.14069037 0
9.6060629 -4.9501109 -0.14059469 0
0.84007144 -1.3107841 -0.090032987 0
0.94438088 -1.3507493 -0.089316972 0
1.0855864 -1.4048507 -0.089923002 0
1.2584261 -1.4710724 -0.088271789 0
1.5291023 -1.5747794 -0.090286978 0
1.9115577 -1.7213134 -0.090005495 0
3.219224 -2.2223327 -0.13996391 0
4.8470325 -2.8460114 -0.14062847 0
9.717988 -4.7122693 -0.14096935 0
0.84973317 -1.2901547 -0.090442814 0
0.95000225 -1.3256974 -0.088677861 0
1.0999583 -1.3788528 -0.090660982 0
1.2766979 -1.4415022 -0.08924339 0
1.5376607 -1.5340066 -0.089576788 0
1.9355147 -1.6750352 -0.090609156 0
3.2577302 -2.1437252 -0.14058843 0
4.8950138 -2.7240984 -0.14076069 0
9.8021688 -4.4635534 -0.14080505 0
0.86465067 -1.2711228 -0.092141367 0
0.96346492 -1.3033674 -0.089723371 0
1.1038588 -1.34918 -0.089696549 0
1.2886922 -1.4094938 -0.089389868 0
1.5596886 -1.497924 -0.090655364 0
1.9417927 -1.6226102 -0.089587234 0
3.2847724 -2.0608444 -0.14051132 0
4.9375896 -2.6001832 -0.14077848 0
9.8806839 -4.2131882 -0.14065775 0
0.86569118 -1.247511 -0.09085574 0
0.97666878 -1.2806509 -0.090821378 0
1.1201795 -1.3235055 -0.090998657 0
1.3096514 -1.3800849 -0.090969004 0
1.560966 -1.4551315 -0.089306392 0
1.9595515 -1.5741558 -0.089820765 0
3.3033869 -1.9754472 -0.13997313 0
4.9699264 -2.4731033 -0.14045119 0
9.9635429 -3.9642794 -0.14077085 0
0.87908179 -1.2275515 -0.092430688 0
0.97585505 -1.2538092 -0.089288495 0
1.1224978 -1.2935981 -0.090018101 0
1.312005 -1.3450176 -0.089936636 0
1.5704788 -1.4151499 -0.089095183 0
1.9645976 -1.5220872 -0.088941924 0
3.3284016 -1.8921316 -0.14005893 0
5.0162134 -2.3500896 -0.14095435 0
10.042746 -3.7139511 -0.14094703 0
0.87691015 -1.2033883 -0.090701215 0
0.98961771 -1.2309363 -0.090723135 0
1.1269753 -1.2645091 -0.089537032 0
1.3220161 -1.3121809 -0.090146862 0
1.5802894 -1.375308 -0.089042895 0
1.984254 -1.4740449 -0.089599036 0
3.3562272 -1.8093822 -0.14049833 0
5.0471921 -2.2226872 -0.14087006 0
10.098297 -3.4572766 -0.14070775 0
0.86817092 -1.1781998 -0.087685548 0
1.0002463 -1.2069706 -0.091657363 0
1.1278962 -1.2347775 -0.088584222 0
1.3246979 -1.2776481 -0.089421295 0
1.5914574 -1.3357581 -0.089273892 0
1.9840245 -1.4212737 -0.088469036 0
3.3794956 -1.7252587 -0.14075911 0
5.0743661 -2.0944641 -0.1407586 0
10.16147 -3.2026227 -0.14080574 0
0.88251096 -1.158146 -0.089817293 0
0.99607193 -1.179898 -0.089864559 0
1.1430153 -1.2080443 -0.090137787 0
1.3390971 -1.2456027 -0.090500943 0
1.6102849 -1.2975472 -0.090534337 0
2.5466797 -1.4769088 -0.14096637 0
3.4027388 -1.6408824 -0.14116837 0
5.1016707 -1.9663038 -0.14080767 0
10.215759 -2.9458802 -0.14084549 0
0.88931811 -1.1363182 -0.090426467 0
1.0101376 -1.1563145 -0.091692202 0
1.1444354 -1.1785415 -0.0895155 0
1.3322711 -1.2096294 -0.088668086 0
1.6191115 -1.2571031 -0.090719305 0
2.5578628 -1.4124717 -0.14093709 0
3.4021418 -1.5522046 -0.14003785 0
5.1194038 -1.836421 -0.14055786 0
10.266659 -2.6883202 -0.14095823 0
0.89465547 -1.1141245 -0.090836532 0
1.0001578 -1.1288614 -0.089053936 0
1.1571078 -1.1507846 -0.090886451 0
1.3428754 -1.1767333 -0.089444093 0
1.6373186 -1.217862 -0.092131279 0
2.5683851 -1.3479162 -0.1409992 0
3.4252863 -1.4676108 -0.14074546 0
5.1397142 -1.7070874 -0.14058445 0
10.303343 -2.4283588 -0.14088979 0
0.90056241 -1.0918832 -0.091487296 0
1.0106106 -1.1044333 -0.090428196 0
1.1429992 -1.1195312 -0.087939523 0
1.3526479 -1.1434399 -0.090217866 0
1.6213938 -1.1740882 -0.089640938 0
2.5722888 -1.2825302 -0.14059265 0
3.442313 -1.3817495 -0.14117102 0
5.1592298 -1.5775503 -0.14072695 0
10.335991 -2.1679184 -0.14088087 0
0.90089536 -1.0689787 -0.091067098 0
1.0187172 -1.0794116 -0.091472514 0
1.129787 -1.0892466 -0.085277386 0
1.1439739 -1.0905029 -0.060289178 0
1.6367155 -1.1341342 -0.090952106 0
2.588342 -1.2183989 -0.14148034 0
3.4495013 -1.2946529 -0.14105745 0
5.1755404 -1.4474906 -0.14087233 0
10.362008 -1.9067426 -0.14087082 0
0.89613539 -1.0458379 -0.089686088 0
1.0104108 -1.0530564 -0.089536898 0
1.1319813 -1.0607357 -0.085282616 0
1.1295986 -1.0605853 -0.057956565 0
1.6395966 -1.0928007 -0.090922512 0
2.5798912 -1.1521972 -0.14022636 0
3.4607911 -1.2078419 -0.14138551 0
5.1873178 -1.3169031 -0.14095926 0
10.389017 -1.6454837 -0.14103761 0
0.90192616 -1.0234101 -0.090675004 0
1.018894 -1.0278395 -0.090893187 0
1.1177189 -1.0315819 -0.082699634 0
1.1280323 -1.0319724 -0.057533864 0
1.6461358 -1.0515922 -0.091442876 0
2.5865576 -1.0872047 -0.14054181 0
3.4458535 -1.119745 -0.14003175 0
5.1902304 -1.185802 -0.14078678 0
10.404878 -1.3832732 -0.14109837 0
0.91459149 -1.0008199 -0.093245365 0
1.0248702 -1.0022113 -0.09189675 0
1.121345 -1.0034286 -0.083178706 0
1.1311549 -1.0035524 -0.057871792 0
1.127571 -1.0035071 -0.030709153 0
1.1408594 -1.0036749 -0.0054353308 0
1.1366905 -1.0036223 0.02156681 0
1.1210717 -1.0034251 0.048820503 0
1.1326431 -1.0035712 0.074656494 0
1.1316259 -1.0035584 0.10100268 0
1.1294839 -1.0035313 0.12727532 0
1.1334877 -1.0035819 0.15376318 0
1.1293025 -1.0035291 0.17992219 0
1.1400532 -1.0036647 0.20736648 0
1.1310288 -1.0035508 0.23311953 0
1.1328979 -1.0035744 0.26012346 0
1.1308264 -1.0035483 0.28674415 0
1.1298501 -1.003536 0.31367895 0
0.90228635 -0.97792006 -0.090629555 0
1.0148499 -0.9764998 -0.090009265 0
1.1355342 -0.97497702 -0.085510902 0
1.1350009 -0.97498375 -0.058412347 0
1.6411299 -0.96859771 -0.090735264 0
2.5921359 -0.9565984 -0.14090878 0
3.4577832 -0.94567609 -0.14071237 0
5.2099638 -0.92356795 -0.14155161 0
10.397153 -0.85811859 -0.14076461 0
0.90510178 -0.95505434 -0.091350518 0
1.021966 -0.95062888 -0.091472231 0
1.1266726 -0.94666374 -0.084172256 0
1.1209855 -0.94687915 -0.056542832 0
1.6311352 -0.92756051 -0.089688458 0
2.5905309 -0.89122957 -0.14091295 0
3.4560804 -0.85845244 -0.14074722 0
5.1875572 -0.79288387 -0.14066224 0
10.394875 -0.59569025 -0.14086561 0
0.90783602 -0.93200773 -0.092178158 0
1.0313108 -0.9242081 -0.093481295 0
1.1253643 -0.91826695 -0.084192939 0
1.1275558 -0.91812849 -0.057668928 0
1.6400894 -0.8857528 -0.090980224 0
2.5857203 -0.82601923 -0.14077154 0
3.4571061 -0.77097559 -0.14112738 0
5.1886845 -0.66159528 -0.14102302 0
10.373202 -0.33409998 -0.14066917 0
0.90016305 -0.90967083 -0.09091083 0
1.0128298 -0.89969444 -0.090359278 0
1.1567376 -0.88695168 -0.089724101 0
1.3491764 -0.86991155 -0.089240067 0
1.6320258 -0.84486574 -0.090401866 0
2.585427 -0.76044387 -0.14120719 0
3.4442644 -0.68439543 -0.14068991 0
5.1784039 -0.53084058 -0.14100614 0
10.357364 -0.072253376 -0.14076242 0
0.90119892 -0.88662893 -0.091623478 0
1.013782 -0.87378973 -0.091029428 0
1.1538808 -0.85781258 -0.089739539 0
1.351138 -0.83531696 -0.090004288 0
1.6245764 -0.80413347 -0.0900153 0
2.5617666 -0.69725442 -0.13960417 0
3.4345796 -0.59771705 -0.14062689 0
5.1601768 -0.4009265 -0.14077131 0
10.330606 0.18871966 -0.14075485 0
0.8936826 -0.86459613 -0.090627737 0
1.0205036 -0.84688133 -0.092923291 0
1.1566705 -0.82786113 -0.090813883 0
1.34478 -0.80158544 -0.089714371 0
1.6205407 -0.76306629 -0.090151362 0
2.5693858 -0.63052869 -0.14109352 0
3.4207456 -0.51160812 -0.14042494 0
5.1427455 -0.27107391 -0.14072695 0
10.303926 0.44985572 -0.1409035 0
0.88955492 -0.84222728 -0.090477504 0
0.99723983 -0.82440484 -0.089229874 0
1.1534909 -0.79854441 -0.091024019 0
1.3418097 -0.7673766 -0.090026818 0
1.6222596 -0.72096056 -0.091092236 0
2.5521891 -0.56705207 -0.14040029 0
3.4144528 -0.4243426 -0.14091021 0
5.1142359 -0.14301899 -0.140314 0
10.24966 0.70692235 -0.14055766 0
0.89070028 -0.81887001 -0.091589682 0
1.0042173 -0.79712647 -0.091426633 0
1.1507623 -0.76905656 -0.091434173 0
1.3373001 -0.7333262 -0.090243794 0
1.3468392 -0.73149908 -0.059184823 0
1.3432475 -0.73218703 -0.026595509 0
1.3471887 -0.73143208 0.0051463936 0
1.3469232 -0.73148298 0.037171084 0
1.3488977 -0.73110473 0.06906084 0
1.3448677 -0.73187667 0.10100946 0
0.87336826 -0.79925281 -0.088816218 0
1.0038657 -0.77082562 -0.092355065 0
1.1345986 -0.74234724 -0.089711599 0
1.2163697 -0.72453445 -0.073840432 0
1.2010317 -0.72787565 -0.042573441 0
1.205083 -0.72699308 -0.014057284 0
1.1957366 -0.72902912 0.015486458 0
1.2023675 -0.72758466 0.043728303 0
1.2000942 -0.72807986 0.072436497 0
1.2134284 -0.7251752 0.10100582 0
0.87329149 -0.77608085 -0.089909397 0
0.99689072 -0.74587077 -0.092133336 0
1.1263741 -0.71422249 -0.089435332 0
1.2022444 -0.69567829 -0.0728193 0
1.2046577 -0.69508845 -0.043849234 0
1.213938 -0.69282013 -0.015580891 0
1.195361 -0.69736075 0.015013533 0
1.2102066 -0.6937322 0.043017831 0
1.2174754 -0.69195557 0.071853593 0
1.2002302 -0.69617063 0.10100564 0
0.86956424 -0.75361568 -0.090334468 0
0.96909535 -0.72660959 -0.087969281 0
1.1196344 -0.68576348 -0.08953049 0
1.2063818 -0.66222614 -0.074556194 0
1.2080493 -0.66177368 -0.045205284 0
1.2037005 -0.66295362 -0.015351577 0
1.2059416 -0.66234553 0.013686011 0
1.2103586 -0.66114706 0.042632204 0
1.2100754 -0.66122395 0.071841806 0
1.2015485 -0.66353756 0.10100591 0
0.86222535 -0.73210859 -0.090086885 0
0.9860093 -0.69514465 -0.092657439 0
1.1161649 -0.65627801 -0.090310059 0
1.2083849 -0.62873966 -0.076116584 0
1.2212124 -0.6249091 -0.047865633 0
1.2004695 -0.63110328 -0.015876217 0
1.202741 -0.63042498 0.013289677 0
1.2087061 -0.62864369 0.042291518 0
1.2135657 -0.62719256 0.07154692 0
1.2041682 -0.6299988 0.10100625 0
0.8417083 -0.7149483 -0.087011628 0
0.97321153 -0.67203689 -0.091654412 0
1.1074207 -0.62824243 -0.09031231 0
1.2030054 -0.59705174 -0.076722987 0
1.2119906 -0.59411973 -0.047909949 0
1.2094178 -0.59495926 -0.017679622 0
1.2118708 -0.59415883 0.011924313 0
1.2051567 -0.59634972 0.042000901 0
1.2172139 -0.59241533 0.071224816 0
1.2112027 -0.5943768 0.10100674 0
0.84836155 -0.68891621 -0.090133481 0
0.95687699 -0.65045035 -0.090051673 0
1.0918056 -0.60262179 -0.089239381 0
1.2017533 -0.56364834 -0.078068934 0
1.2074637 -0.56162411 -0.048632775 0
1.2035984 -0.56299424 -0.018126717 0
1.2023084 -0.56345153 0.011865513 0
1.1988006 -0.56469494 0.041806217 0
1.209443 -0.5609225 0.071159936 0
1.210768 -0.56045282 0.10100704 0
0.85132807 -0.66348773 -0.092595331 0
0.95454043 -0.62394291 -0.091366179 0
1.0951726 -0.57006109 -0.091610186 0
1.2123324 -0.52517253 -0.081334837 0
1.2094043 -0.52629435 -0.050274242 0
1.2006909 -0.52963287 -0.018949484 0
1.207022 -0.52720714 0.010679627 0
1.2153711 -0.52400827 0.040426992 0
1.2131802 -0.52484769 0.070788205 0
1.1990099 -0.53027695 0.10100702 0
0.84327894 -0.64195395 -0.092696942 0
0.94402266 -0.60041058 -0.09116324 0
1.0813717 -0.54377246 -0.091099061 0
1.2096834 -0.490861 -0.082770906 0
1.1989695 -0.49527904 -0.050480518 0
1.206254 -0.49227515 -0.020720696 0
1.2095655 -0.49090961 0.0095766056 0
1.2012838 -0.49432468 0.040525746 0
1.2118655 -0.48996112 0.070516847 0
1.2037089 -0.49332467 0.10100754 0
0.82755059 -0.62377363 -0.091140546 0
0.93094218 -0.578053 -0.09055192 0
1.0677594 -0.51755136 -0.090734728 0
1.2078365 -0.45560816 -0.084478669 0
1.216843 -0.45162538 -0.05440617 0
1.2080361 -0.45551988 -0.022221571 0
1.2161691 -0.4519234 0.0080812071 0
1.2000628 -0.45904574 0.039932743 0
1.1985204 -0.45972779 0.070526026 0
1.2053807 -0.45669416 0.10100799 0
0.81765664 -0.60322773 -0.091044523 0
0.91721886 -0.55616236 -0.089916222 0
1.0608941 -0.48824373 -0.091712184 0
1.2279191 -0.40928718 -0.089753307 0
1.4756315 -0.29218784 -0.089664571 0
1.8592522 -0.11084142 -0.090885974 0
3.1185203 0.48444369 -0.14010049 0
4.6971941 1.2307191 -0.1408582 0
9.4044695 3.4559572 -0.14086325 0
0.81213599 -0.58048701 -0.092110924 0
0.91180778 -0.5302549 -0.091141425 0
1.0490505 -0.46108809 -0.091921203 0
1.2132921 -0.37831435 -0.089815892 0
1.4585056 -0.25473288 -0.089786567 0
1.8328387 -0.066078335 -0.09050364 0
3.0880585 0.56652123 -0.14070444 0
4.6339774 1.3456259 -0.14056061 0
9.2879353 3.6911042 -0.14082724 0
0.79771692 -0.56221253 -0.091183297 0
0.89702547 -0.50897992 -0.090519466 0
1.0269195 -0.4393526 -0.090341724 0
1.1907426 -0.35153809 -0.088739909 0
1.4346138 -0.22081521 -0.089137577 0
1.8205296 -0.013951924 -0.09172871 0
3.0440338 0.64188594 -0.14040403 0
4.5905051 1.4708445 -0.14145407 0
9.1665878 3.9237726 -0.14081936 0
0.78264254 -0.54454744 -0.090194039 0
0.88166577 -0.4882063 -0.089878954 0
1.0166111 -0.41142663 -0.091078006 0
1.1779765 -0.31961474 -0.089338772 0
1.2136625 -0.29931054 -0.062095616 0
1.2181828 -0.29673854 -0.029747 0
3.0064144 0.72070962 -0.14076643 0
4.5190663 1.5813615 -0.14103061 0
9.0395441 4.1533723 -0.14081493 0
0.76924533 -0.52612847 -0.089715756 0
0.88159633 -0.45839599 -0.092705913 0
1.001016 -0.38640204 -0.090945266 0
1.1637642 -0.28828683 -0.089840762 0
1.1457096 -0.2991713 -0.055250604 0
1.1944975 -0.26975885 -0.029112225 0
2.9705586 0.80096668 -0.14143956 0
4.4498124 1.6927574 -0.14086996 0
8.9003706 4.3758435 -0.14063734 0
0.77597183 -0.49499199 -0.094419532 0
0.86125129 -0.44060001 -0.091215901 0
0.99719465 -0.35389414 -0.093227677 0
1.1478097 -0.25783053 -0.090191253 0
1.1426861 -0.26109836 -0.057295758 0
1.1823401 -0.23580667 -0.029818242 0
2.9079525 0.86480445 -0.14007218 0
4.3854294 1.8071523 -0.1411297 0
8.7653084 4.6006775 -0.14072388 0
0.75013012 -0.48443916 -0.091055728 0
0.84916371 -0.4177008 -0.091677062 0
0.96216512 -0.34154961 -0.089525409 0
1.1218981 -0.23390624 -0.088989548 0
1.1440104 -0.21900478 -0.060123015 0
1.16794 -0.20287874 -0.030379569 0
2.8650558 0.94080096 -0.1404776 0
4.3038692 1.9104116 -0.14059034 0
8.6316719 4.826901 -0.14100972 0
0.73946029 -0.46405742 -0.091657378 0
0.83249527 -0.39788797 -0.091220193 0
0.94704372 -0.31641743 -0.089833535 0
1.1091231 -0.20114145 -0.090134822 0
1.1522775 -0.17044863 -0.064148225 0
1.1436937 -0.1765537 -0.029917648 0
2.8132889 1.010916 -0.14029258 0
4.2383122 2.0244381 -0.14110307 0
8.4758253 5.0382934 -0.14082852 0
0.72652936 -0.44517466 -0.091805212 0
0.82128358 -0.37411538 -0.092155971 0
0.93535691 -0.28856799 -0.090982236 0
1.1002952 -0.16487542 -0.092139252 0
1.1076193 -0.15938279 -0.060695965 0
1.0964909 -0.16772833 -0.026845356 0
1.0930351 -0.17032 0.0055417884 0
1.1054465 -0.16101232 0.036699567 0
1.0932621 -0.17014977 0.069226198 0
1.1023784 -0.16331318 0.1010097 0
1.1009853 -0.16435787 0.1330176 0
1.1056645 -0.16084877 0.16533293 0
1.0991732 -0.16571686 0.19701414 0
0.70280087 -0.43476006 -0.089158766 0
0.80362868 -0.35509327 -0.091706552 0
0.92057729 -0.26268902 -0.091652073 0
1.0512503 -0.15944073 -0.087143205 0
1.0927523 -0.12664887 -0.061652962 0
1.0986092 -0.12202129 -0.029604753 0
1.0952798 -0.12465188 0.00346973 0
1.0997106 -0.12115094 0.03577907 0
1.0990276 -0.12169066 0.068432614 0
1.0989077 -0.12178531 0.10101034 0
1.1041871 -0.11761388 0.13374139 0
1.0966756 -0.12354895 0.16606157 0
1.0928317 -0.12658617 0.19833279 0
0.68797433 -0.41773775 -0.088989608 0
0.78342873 -0.3383238 -0.090740465 0
0.89454228 -0.24588212 -0.09006799 0
1.0283116 -0.13459179 -0.086838566 0
1.1033578 -0.072156578 -0.066627197 0
1.1010395 -0.074085325 -0.032599185 0
1.1007248 -0.074347168 0.00095895887 0
1.1051695 -0.070649356 0.034100804 0
1.1045016 -0.07120499 0.067594409 0
1.1036562 -0.071908385 0.10101134 0
1.0934212 -0.080423445 0.13409245 0
1.1059364 -0.070011348 0.16796869 0
1.1022547 -0.073074311 0.20120317 0
0.66824865 -0.40503934 -0.087552644 0
0.76985985 -0.31607047 -0.091517754 0
0.87921345 -0.22032252 -0.090879016 0
0.99695194 -0.11723289 -0.085070081 0
1.0977925 -0.028938737 -0.069411851 0
1.1004949 -0.02657273 -0.035439882 0
1.0980979 -0.02867135 -0.0009745413 0
1.0969057 -0.029715266 0.033156168 0
1.0966792 -0.02991363 0.067109436 0
