# .PCD v0.7 - Point Cloud Data file format
VERSION 0.7
FIELDS x y z intensity
SIZE 4 4 4 4
TYPE F F F F
COUNT 1 1 1 1
WIDTH 1313
HEIGHT 1
VIEWPOINT 0 0 0 1 0 0 0
POINTS 1313
DATA ascii
0.84834909 0.47840086 0.33923978 0
0.83749872 0.45960763 0.37603593 0
0.84249234 0.46825674 0.41807094 0
0.43435705 -0.19290027 -0.091754429 0
0.48676726 -0.09659031 -0.090454988 0
0.55432838 0.027561221 -0.089293681 0
0.64665198 0.19721678 -0.088866062 0
0.77508414 0.43322602 -0.088306792 0
0.97811007 0.80631012 -0.089841165 0
1.2915496 1.382292 -0.087785028 0
1.2935896 1.3860407 -0.024925834 0
1.291759 1.3826768 0.038184021 0
0.848786 0.56866187 0.10102104 0
0.83647341 0.54603606 0.14171062 0
0.83944589 0.55149823 0.182735 0
0.84278512 0.55763453 0.22419202 0
0.84062099 0.55365771 0.26503474 0
0.84218258 0.5565272 0.30675563 0
0.8440156 0.55989569 0.34893665 0
0.83798659 0.54881662 0.38886955 0
0.84163058 0.55551285 0.43233263 0
0.4139218 -0.18261674 -0.091659479 0
0.46422023 -0.084360868 -0.090509273 0
0.53105748 0.046202812 -0.090217538 0
0.61991382 0.21978 -0.089915939 0
0.74404883 0.46227244 -0.089615546 0
0.93238574 0.8301807 -0.089818947 0
1.2482619 1.4472313 -0.090387098 0
1.2445277 1.4399366 -0.026078423 0
1.2461395 1.4430854 0.0374371 0
1.2490474 1.4487658 0.10104859 0
0.84493357 0.65934664 0.14413838 0
0.83998907 0.64968771 0.1867945 0
0.8384009 0.64658529 0.22955292 0
0.83858937 0.6469534 0.27265245 0
0.83647019 0.64281374 0.31536695 0
0.8369022 0.64365762 0.35888463 0
0.84211886 0.65384823 0.40445873 0
0.83911544 0.64798111 0.44751927 0
0.39071682 -0.17811623 -0.09032429 0
0.44247633 -0.070388526 -0.091046788 0
0.50773764 0.065440685 -0.091346733 0
0.58560336 0.22750357 -0.088745333 0
0.71065587 0.48777679 -0.090551443 0
0.8875699 0.85599035 -0.090118058 0
1.1811202 1.46696 -0.08953657 0
1.7876742 2.7293882 -0.091097213 0
4.5036998 8.3822861 -0.1407683 0
0.84952831 0.77681381 0.19230083 0
0.83713704 0.75102371 0.23606013 0
0.84202909 0.76120561 0.28235525 0
0.84556103 0.76855665 0.32901198 0
0.83732045 0.75140542 0.3724823 0
0.83833712 0.75352138 0.41886365 0
0.83443588 0.7454018 0.46357161 0
0.37465882 -0.15846285 -0.09267322 0
0.41540259 -0.067875415 -0.089325629 0
0.47616369 0.06721738 -0.089423247 0
0.5577231 0.24855211 -0.089775495 0
0.67403525 0.50715405 -0.090800248 0
0.84835947 0.89473683 -0.091854297 0
1.1188061 1.4960327 -0.08954259 0
1.6856641 2.7563529 -0.090232916 0
4.2657804 8.4928408 -0.14076652 0
1.069178 1.3856924 0.22235484 0
0.84660423 0.89083427 0.2452101 0
0.83932263 0.87464482 0.29185644 0
0.83724242 0.87001973 0.33936054 0
0.83935153 0.87470907 0.38832304 0
0.84066463 0.87762851 0.43752825 0
0.84156346 0.87962693 0.48707089 0
0.35177186 -0.15359977 -0.091681741 0
0.39305264 -0.055258062 -0.089826964 0
0.44824067 0.076214463 -0.088949807 0
0.52882773 0.26819399 -0.090688251 0
0.6340633 0.51889306 -0.090196081 0
0.79560554 0.90372938 -0.090660982 0
1.0674629 1.5513654 -0.091659449 0
1.5947046 2.8073943 -0.090724044 0
4.025826 8.5989676 -0.14080536 0
0.99890089 1.3880324 0.22114889 0
0.84717429 1.0265796 0.25393701 0
0.84280998 1.0161827 0.30411074 0
0.83801365 1.0047566 0.35384649 0
0.84354007 1.0179219 0.40702489 0
0.84392816 1.0188465 0.45903683 0
0.8454513 1.022475 0.51204783 0
0.32390577 -0.16209784 -0.087783642 0
0.3703067 -0.04324099 -0.090316661 0
0.4236348 0.093359858 -0.090043612 0
0.49328279 0.27176431 -0.08927802 0
0.59487993 0.53200716 -0.089897566 0
0.74231291 0.90965921 -0.089306585 0
1.001088 1.572516 -0.091288023 0
1.49867 2.8470802 -0.090758197 0
3.7814825 8.6945438 -0.14073241 0
0.92581034 1.3796909 0.21950948 0
0.85094833 1.1879306 0.26450059 0
0.83846933 1.1559656 0.31606019 0
0.83592737 1.1494541 0.36943844 0
0.83906543 1.1574924 0.42497772 0
0.8387934 1.1567955 0.47974312 0
0.83849609 1.156034 0.53488129 0
0.30846187 -0.13892016 -0.091240369 0
0.34889159 -0.027109828 -0.091741435 0
0.39676362 0.10528257 -0.090323813 0
0.43551001 0.21243766 -0.078615986 0
0.43301728 0.20554391 -0.047522862 0
0.43677649 0.21594015 -0.018654963 0
0.93587703 1.5962272 -0.091235451 0
1.3984187 2.8754084 -0.090350337 0
3.5342069 8.7820358 -0.14061347 0
0.86049676 1.3877594 0.21879019 0
0.85322487 1.3676486 0.27632767 0
0.83770376 1.3247242 0.33078986 0
0.83834219 1.3264899 0.38891643 0
0.84039676 1.3321717 0.44803345 0
0.84058046 1.3326797 0.5069164 0
0.84050137 1.3324611 0.56613147 0
0.28626609 -0.13335934 -0.090808682 0
0.32198387 -0.02619883 -0.090240292 0
0.36934546 0.11589542 -0.090492748 0
0.40371633 0.21901491 -0.078022875 0
0.40408605 0.22012427 -0.048023019 0
0.40466017 0.22184673 -0.018192006 0
0.86732304 1.6099286 -0.090567522 0
1.3022088 2.9146731 -0.090607278 0
3.2861447 8.8668804 -0.14058428 0
0.78923279 1.3756421 0.21716648 0
0.8484084 1.5531807 0.28848031 0
0.84108686 1.5312147 0.34911281 0
0.83691013 1.5186837 0.41009212 0
0.84084398 1.5304859 0.47439376 0
0.84236097 1.535037 0.53844219 0
0.83967751 1.5269861 0.60070425 0
0.26439333 -0.1270422 -0.090673424 0
0.29775611 -0.017835762 -0.090352617 0
0.34040806 0.12177697 -0.089966707 0
0.37864065 0.24692371 -0.080687292 0
0.37963727 0.250186 -0.050500844 0
0.38183963 0.25739506 -0.02070502 0
0.72250253 1.3724873 -0.071673431 0
0.72494274 1.380475 -0.014386816 0
0.72657371 1.3858137 0.043228615 0
0.72631699 1.3849733 0.10104127 0
0.72396189 1.3772643 0.1586457 0
0.72704655 1.3873613 0.21680503 0
0.84317493 1.7674844 0.30265352 0
0.83089417 1.7272859 0.36626926 0
0.83827186 1.7514353 0.43606862 0
0.83449221 1.7390635 0.50205898 0
0.83513147 1.7411559 0.57036501 0
0.24228652 -0.12163237 -0.090461187 0
0.27567011 -0.0015985634 -0.092123516 0
0.31419653 0.13692656 -0.091150455 0
0.3646954 0.31849983 -0.089795433 0
0.44035372 0.59053618 -0.090677328 0
0.5516119 0.99057502 -0.090845175 0
0.65752393 1.3713911 -0.070327453 0
0.66126049 1.3848262 -0.013750857 0
0.66106045 1.3841069 0.043693371 0
0.66241789 1.3889878 0.10104087 0
0.65700793 1.3695357 0.15803565 0
0.66400945 1.3947105 0.21631087 0
0.81176603 1.9259825 0.31268457 0
0.81018072 1.9202824 0.38303277 0
0.81283635 1.929831 0.45526224 0
0.81470531 1.9365509 0.52793592 0
0.81257606 1.928895 0.59895939 0
0.22100629 -0.11307833 -0.091062061 0
0.24799563 -0.005601075 -0.090061344 0
0.28594595 0.14552525 -0.091329105 0
0.33385646 0.33631495 -0.091107406 0
0.39621186 0.58462745 -0.08869002 0
0.49743557 0.9877215 -0.089294173 0
0.59430015 1.3734567 -0.069336466 0
0.59538996 1.3777966 -0.012650056 0
0.59564388 1.3788078 0.044201538 0
0.59618068 1.3809454 0.10104016 0
0.59700215 1.3842165 0.15800872 0
0.59717661 1.3849113 0.21507242 0
0.76906246 2.0693972 0.32162157 0
0.76904261 2.0693183 0.39550766 0
0.76819962 2.0659611 0.46931678 0
0.76830411 2.0663774 0.54391414 0
0.19823179 -0.11046413 -0.090482898 0
0.22379071 0.0034067368 -0.09065751 0
0.25454551 0.14042667 -0.089320056 0
0.29910478 0.33894852 -0.090337791 0
0.35579899 0.59153455 -0.088382907 0
0.44984519 1.0105321 -0.090338223 0
0.55244154 1.4676228 -0.075064652 0
0.5534929 1.4723067 -0.016479781 0
0.5518049 1.4647863 0.04249233 0
0.55050188 1.4589813 0.10104203 0
0.55148739 1.4633718 0.15955836 0
0.55015314 1.4574273 0.21785411 0
0.71666598 2.1992807 0.32961538 0
0.71286517 2.1823473 0.40456522 0
0.71334845 2.1845005 0.48131928 0
0.71557963 2.1944411 0.55971748 0
0.17615663 -0.10495254 -0.090659373 0
0.19863002 0.0084956624 -0.090615861 0
0.22523861 0.14281872 -0.088709153 0
0.26643366 0.35077599 -0.091015168 0
0.32014742 0.62192899 -0.090997539 0
0.39788717 1.0143676 -0.089686103 0
0.41816401 1.1167274 -0.049121205 0
0.41581744 1.1048815 0.0015823788 0
0.41487113 1.1001046 0.051447 0
0.41385266 1.0949631 0.10103106 0
0.41553092 1.1034353 0.15069461 0
0.41503033 1.1009083 0.20029177 0
0.41562358 1.1039031 0.25027046 0
0.41376463 1.0945187 0.29937595 0
0.41491994 1.1003511 0.35006291 0
0.40796679 1.0652506 0.39543751 0
0.29788339 0.50953764 0.35218146 0
0.27280596 0.38294402 0.36453754 0
0.15286003 -0.1062099 -0.089495577 0
0.17318313 0.011951122 -0.09038385 0
0.19563594 0.14249447 -0.087771557 0
0.23092811 0.34768739 -0.089680485 0
0.27995539 0.63273805 -0.091385208 0
0.34893593 1.0337994 -0.090638421 0
0.36803308 1.1448326 -0.050415743 0
0.88191974 4.1326327 -0.14098026 0
1.7617419 9.2480249 -0.14054675 0
0.58204842 2.3891435 0.26075789 0
0.58042407 2.3796997 0.34014913 0
0.57971925 2.3756015 0.41985914 0
0.26365399 0.53795975 0.28217599 0
0.27034342 0.57685298 0.32439241 0
0.26999378 0.57481998 0.361902 0
0.23679082 0.38177398 0.36308616 0
0.12966153 -0.10860667 -0.088217862 0
0.146942 0.0096541978 -0.089180224 0
0.16655695 0.14389125 -0.087247618 0
0.19874905 0.36420146 -0.091262348 0
0.23931605 0.64182621 -0.091688223 0
0.29643509 1.0327268 -0.089769833 0
0.39472502 1.7053847 -0.089413457 0
0.75248939 4.1537852 -0.14100643 0
1.5042025 9.2982168 -0.14075881 0
0.50634134 2.4692433 0.26389116 0
0.50551742 2.4636049 0.3451241 0
0.50623006 2.4684818 0.42734888 0
0.22056437 0.51349694 0.27855939 0
0.27587077 0.89199263 0.36827445 0
0.20081876 0.37836567 0.3613874 0
0.10973544 -0.086249024 -0.09236946 0
0.12245422 0.019354854 -0.090382211 0
0.13972035 0.16271546 -0.089731894 0
0.16386801 0.36321321 -0.090477116 0
0.19718814 0.63987011 -0.090811186 0
0.24758838 1.0583427 -0.091537766 0
0.32745335 1.7214613 -0.089906327 0
0.62099856 4.1587648 -0.14042759 0
1.2427146 9.3208685 -0.14047776 0
0.42486921 2.5303044 0.26621097 0
0.42328066 2.5171146 0.34807539 0
0.42461914 2.5282278 0.43187368 0
0.42490342 2.5305884 0.51552856 0
0.23092604 0.91999561 0.37134254 0
0.16659993 0.38589635 0.36194223 0
0.085678719 -0.0968301 -0.089585669 0
0.097141229 0.023941074 -0.090730749 0
0.11081607 0.16802159 -0.090090506 0
0.12919199 0.36163381 -0.089734741 0
0.15583365 0.64233536 -0.090580292 0
0.19508636 1.0559092 -0.090787314 0
0.25882748 1.7274978 -0.089812391 0
0.49169251 4.1810079 -0.14081283 0
0.98235309 9.3506994 -0.1405194 0
0.34215719 2.6054752 0.26928225 0
0.34019509 2.5848022 0.35216215 0
0.33962393 2.5787842 0.43571901 0
0.34015945 2.5844266 0.52072752 0
0.34041893 2.5871608 0.60605395 0
0.17315738 0.82486135 0.40057579 0
0.1308205 0.37879196 0.35988966 0
0.064378805 -0.077068478 -0.093401544 0
0.071879864 0.030851875 -0.091638349 0
0.081478551 0.16895154 -0.089847825 0
0.095248312 0.367062 -0.090104289 0
0.11474644 0.64758843 -0.090798818 0
0.14185017 1.0375395 -0.0886712 0
0.19234239 1.763989 -0.091974296 0
0.36080498 4.1877203 -0.14062509 0
0.72124684 9.3735247 -0.140551 0
0.25275078 2.633106 0.27022454 0
0.25240496 2.6281304 0.35468054 0
0.13254462 0.90365726 0.27819452 0
0.13282256 0.90765589 0.32331795 0
0.13440603 0.93043798 0.37152198 0
0.12427284 0.78464812 0.39332756 0
0.095848471 0.37569669 0.35876858 0
0.041045912 -0.08246699 -0.091974325 0
0.046357248 0.037729058 -0.09265887 0
0.051882945 0.16277602 -0.088558383 0
0.061524734 0.38097063 -0.091786973 0
0.073502392 0.65202624 -0.091043122 0
0.090969816 1.0473156 -0.089312799 0
0.12218911 1.7538111 -0.090985544 0
0.23015082 4.1969948 -0.14071101 0
0.45964611 9.3904934 -0.14059977 0
0.16295378 2.6763191 0.27199814 0
0.16268836 2.6703126 0.35727113 0
0.086821206 0.95343238 0.28259394 0
0.085936882 0.93341988 0.32601479 0
0.086144328 0.93811446 0.37221453 0
0.076693319 0.72423726 0.3829667 0
0.061622798 0.38318983 0.35981226 0
0.018198974 -0.079319209 -0.092489965 0
0.020364091 0.035062704 -0.092002459 0
0.022972813 0.1728802 -0.090068452 0
0.026726533 0.37118724 -0.090258397 0
0.032164 0.65844589 -0.091640703 0
0.03940155 1.0408018 -0.088553227 0
0.052892409 1.7535164 -0.090812154 0
0.099151835 4.1973782 -0.14053649 0
0.19772002 9.4046831 -0.14073744 0
0.071092606 2.7150238 0.27366644 0
0.070798911 2.699508 0.35911021 0
0.070919484 2.7058778 0.44615349 0
0.070771232 2.6980457 0.53221244 0
0.03259445 0.68118614 0.37566295 0
0.026861655 0.37832561 0.35868961 0
-0.0046981154 -0.089940757 -0.09020137 0
-0.0054576602 0.030484829 -0.091109462 0
-0.00631114 0.16580382 -0.088874988 0
-0.007591268 0.36876777 -0.089887924 0
-0.0093863234 0.65337318 -0.091017179 0
-0.011807957 1.0373225 -0.088198282 0
-0.016260896 1.7433345 -0.090069793 0
-0.031794623 4.2062025 -0.14090887 0
-0.064585462 9.40518 -0.14071052 0
-0.022527561 2.7369127 0.27465925 0
-0.022450376 2.7246749 0.36082998 0
-0.022441203 2.7232206 0.44771832 0
-0.022492217 2.7313087 0.53603333 0
-0.0093475161 0.64722031 0.37003475 0
-0.0076353848 0.37576237 0.35816562 0
-0.027260853 -0.094394594 -0.089345507 0
-0.031003356 0.024222288 -0.090021066 0
-0.035668381 0.17207792 -0.089997359 0
-0.04207883 0.37525395 -0.090891086 0
-0.050841872 0.65299433 -0.09106458 0
-0.063977048 1.0693071 -0.091275595 0
-0.085754506 1.7595329 -0.091294043 0
-0.11894157 2.8113806 -0.076056667 0
-0.11881974 2.8075194 0.012648897 0
-0.11894651 2.8115373 0.10107896 0
-0.118787 2.8064814 0.1894847 0
-0.11682668 2.7443502 0.27508909 0
-0.11656322 2.7359998 0.36174688 0
-0.11643317 2.7318783 0.44869298 0
-0.11653224 2.7350183 0.53667516 0
-0.050663691 0.64734691 0.37018412 0
-0.042285338 0.38179901 0.35942641 0
-0.050448496 -0.084527403 -0.091658615 0
-0.056780219 0.02687696 -0.090734981 0
-0.065007865 0.17163935 -0.090138234 0
-0.076200917 0.36857715 -0.09016531 0
-0.091859177 0.64407867 -0.090235151 0
-0.11588196 1.066751 -0.091251113 0
-0.15523818 1.7592099 -0.09148591 0
-0.2140373 2.7937596 -0.075432502 0
-0.21394104 2.7920659 0.012910249 0
-0.21344435 2.7833266 0.10107827 0
-0.21431065 2.798569 0.18939874 0
-0.21166807 2.7520738 0.27564391 0
-0.2116777 2.7522433 0.36317614 0
-0.21090645 2.7386732 0.4497166 0
-0.077705018 0.39504126 0.2631034 0
-0.076769076 0.37857381 0.29359302 0
-0.076977089 0.38223377 0.3268269 0
-0.077174544 0.38570789 0.36045241 0
-0.072605297 -0.094081253 -0.089959137 0
-0.081941903 0.019513283 -0.089679874 0
-0.093491673 0.16003457 -0.088559993 0
-0.11129838 0.37668112 -0.091643564 0
-0.13302833 0.64106029 -0.090216838 0
-0.16712226 1.0558667 -0.090569161 0
-0.22474132 1.7568934 -0.091661282 0
-0.42407945 4.1821561 -0.14059642 0
-0.85063803 9.371913 -0.1407446 0
-0.30623096 2.7483432 0.27577609 0
-0.30472523 2.7300236 0.36207655 0
-0.30517811 2.7355335 0.45003456 0
-0.30419964 2.723629 0.5365907 0
-0.11459813 0.41682771 0.29932752 0
-0.11316417 0.39938143 0.33005214 0
-0.11081117 0.37075344 0.35808083 0
-0.095437698 -0.093726128 -0.090492882 0
-0.10802767 0.023221646 -0.090839528 0
-0.12168899 0.150121 -0.087375768 0
-0.14547965 0.37111142 -0.091318168 0
-0.17436153 0.63939399 -0.090479411 0
-0.21873659 1.0515919 -0.090627141 0
-0.2916151 1.7285569 -0.090130754 0
-0.5546608 4.171977 -0.14069906 0
-1.1126491 9.3551054 -0.14093117 0
-0.39776099 2.7145414 0.27461058 0
-0.39836758 2.7201762 0.3620097 0
-0.3984915 2.7213271 0.44953707 0
-0.39774185 2.7143638 0.53654563 0
-0.14999837 0.41308561 0.299274 0
-0.14777279 0.39241245 0.32944906 0
-0.14728281 0.38786092 0.36193922 0
-0.11656126 -0.10726318 -0.088172756 0
-0.13303004 0.016324554 -0.090112828 0
-0.15287861 0.16527548 -0.090461724 0
-0.17965816 0.36623886 -0.091212653 0
-0.21485919 0.63040024 -0.090001725 0
-0.27005854 1.044636 -0.090555333 0
-0.35954595 1.7161822 -0.08983966 0
-0.68510056 4.1592622 -0.14083751 0
-1.3734012 9.3245211 -0.14095007 0
-0.4920651 2.710654 0.27495632 0
-0.48985824 2.694093 0.36096317 0
-0.24254248 0.83814579 0.27315804 0
-0.24123281 0.82831746 0.31538436 0
-0.18645097 0.41721454 0.30046323 0
-0.18512121 0.40723565 0.33260313 0
-0.18187645 0.38288572 0.36178792 0
-0.14068298 -0.098532647 -0.090750583 0
-0.15976593 0.021463547 -0.091798805 0
-0.18048193 0.15172854 -0.088914461 0
-0.21302271 0.35634926 -0.090515308 0
-0.25639385 0.62907284 -0.090550117 0
-0.32072264 1.033581 -0.090218 0
-0.42791501 1.7076209 -0.089938514 0
-0.81537503 4.144022 -0.14101234 0
-1.6336395 9.2893791 -0.14101644 0
-0.58317554 2.6839201 0.27433726 0
-0.57952583 2.6609704 0.359577 0
-0.28061259 0.78136355 0.26842415 0
-0.27879336 0.76992399 0.3092626 0
-0.27807069 0.76537973 0.35076484 0
-0.21945213 0.39677837 0.3654018 0
-0.16323198 -0.10174516 -0.090890057 0
-0.18493213 0.015545759 -0.091503732 0
-0.21026851 0.15249088 -0.089867808 0
-0.24701785 0.35112372 -0.090601362 0
-0.29599425 0.61584491 -0.08981093 0
-0.3699092 1.0153608 -0.089320071 0
-0.49675652 1.7009802 -0.090296768 0
-0.94366699 4.1165657 -0.14076497 0
-1.891845 9.24154 -0.14093782 0
-0.6694994 2.6346684 0.27275667 0
-0.66820091 2.6276503 0.35833099 0
-0.66822749 2.627794 0.44453195 0
-0.66598129 2.6156528 0.5296545 0
-0.290288 0.58500224 0.36419263 0
-0.25394914 0.38858786 0.3649826 0
-0.18517382 -0.10806236 -0.090479113 0
-0.21111479 0.014742885 -0.092313744 0
-0.23776856 0.14092246 -0.088880934 0
-0.27779543 0.33041075 -0.088586263 0
-0.3369534 0.61046618 -0.09012451 0
-0.42191306 1.0126674 -0.09001673 0
-0.56228167 1.6771762 -0.089554437 0
-0.62035477 1.952096 -0.038986657 0
-0.61998069 1.950325 0.031114759 0
-0.62028664 1.9517732 0.10105621 0
-0.75518793 2.5903995 0.27150857 0
-0.75331533 2.5815346 0.35632294 0
-0.7536509 2.5831232 0.44198942 0
-0.75315517 2.5807765 0.52763468 0
-0.28564382 0.36756518 0.36225739 0
-0.20751956 -0.11232165 -0.090635978 0
-0.2327534 -0.0061825183 -0.089360438 0
-0.26954517 0.14857164 -0.091251515 0
-0.3105545 0.32106593 -0.08831311 0
-0.37503067 0.59226686 -0.089023657 0
-0.46931836 0.98886162 -0.088817589 0
-0.52114385 1.206851 -0.056840021 0
-0.61759049 1.6125267 -0.023532493 0
-0.61859989 1.6167727 0.038689371 0
-0.6171124 1.6105158 0.10104669 0
-0.83660436 2.533747 0.26976296 0
-0.83144033 2.5120261 0.35277453 0
-0.8338657 2.5222278 0.43808043 0
-0.83418775 2.5235825 0.523184 0
-0.8324545 2.5162919 0.60756785 0
-0.23060299 -0.11399475 -0.091486149 0
-0.2587465 -0.0076201227 -0.090290286 0
-0.29769215 0.13958362 -0.090945445 0
-0.3456594 0.32088652 -0.089490302 0
-0.41655698 0.58885974 -0.089819543 0
-0.52072346 0.98258001 -0.089417569 0
-0.58119065 1.2111292 -0.05815259 0
-0.64931279 1.468612 -0.017393535 0
-0.64702106 1.4599497 0.042065106 0
-0.64712268 1.4603341 0.10104273 0
-0.91150385 2.4596212 0.26726195 0
-0.91055173 2.4560225 0.35032207 0
-0.9101578 2.4545336 0.4336834 0
-0.90992159 2.4536407 0.51740825 0
-0.91009873 2.4543102 0.60177428 0
-0.25234178 -0.12104896 -0.091279633 0
-0.2834307 -0.014491405 -0.090289153 0
-0.32388461 0.12416485 -0.089657344 0
-0.3448016 0.19585815 -0.072528325 0
-0.45520666 0.57427269 -0.08938735 0
-0.56879842 0.96360952 -0.08891394 0
-0.71271569 1.4568875 -0.077170424 0
-0.71529657 1.4657335 -0.018087586 0
-0.71298093 1.4577968 0.041702382 0
-0.71402705 1.4613824 0.10104328 0
-0.98499733 2.3901358 0.26505926 0
-0.98274165 2.3824043 0.34671265 0
-0.98170072 2.3788366 0.428662 0
-0.98293477 2.3830664 0.51174486 0
-0.98277843 2.3825305 0.59478897 0
-0.27148995 -0.13610205 -0.089408569 0
-0.30896598 -0.018750217 -0.09092728 0
-0.35190582 0.115711 -0.089674108 0
-0.3798984 0.20336655 -0.074978732 0
-0.39439389 0.24875751 -0.050923694 0
-0.3962307 0.25450924 -0.020902721 0
-0.39439958 0.24877539 0.010111475 0
-0.39636403 0.25492683 0.040164266 0
-0.39739752 0.25816301 0.070523456 0
-0.39344114 0.24577406 0.10100741 0
-0.39495602 0.25051776 0.1313051 0
-0.39772877 0.25920036 0.16206038 0
-0.3950035 0.25066641 0.19204278 0
-0.39302495 0.24447086 0.2219345 0
-0.39686945 0.25650945 0.25389126 0
-0.39916819 0.26370767 0.28589803 0
-0.39499813 0.2506496 0.31497198 0
-0.3930864 0.24466327 0.34502733 0
-0.29817626 -0.1281462 -0.092806853 0
-0.33550468 -0.020691242 -0.092161126 0
-0.38017213 0.10789028 -0.089923702 0
-0.43220869 0.25768474 -0.084545963 0
-0.4283151 0.24647644 -0.051924456 0
-0.43097156 0.25412348 -0.021894006 0
-0.43416169 0.26330665 0.0082686115 0
-0.43051162 0.25279942 0.039755505 0
-0.43303031 0.26004985 0.070219837 0
-0.42926273 0.24920431 0.10100783 0
-0.43120673 0.25480035 0.13166699 0
-0.43133685 0.25517502 0.16237774 0
-0.42999667 0.25131705 0.19286022 0
-0.4321216 0.25743392 0.22423793 0
-0.43252116 0.25858417 0.25543973 0
-0.4314234 0.25542405 0.28622717 0
-0.4310416 0.25432506 0.31741926 0
-0.43068945 0.25331143 0.34881368 0
-0.31799099 -0.14080325 -0.091708891 0
-0.3555828 -0.040804114 -0.089884348 0
-0.40566611 0.092423946 -0.088957958 0
-0.47406536 0.27437487 -0.088752322 0
-0.48278028 0.29755774 -0.05970389 0
-0.50869638 0.36649802 -0.034225974 0
-0.5146457 0.38232401 -0.0014700645 0
-0.51331955 0.37879613 0.032927874 0
-0.51339108 0.37898651 0.066983692 0
-0.51215082 0.37568715 0.10101203 0
-1.2038823 2.2157834 0.18077694 0
-1.1938826 2.1891828 0.25924766 0
-1.1604259 2.1001835 0.33190018 0
-1.1612393 2.1023474 0.40945199 0
-1.1594371 2.0975533 0.48658046 0
-1.1613264 2.1025789 0.56536579 0
-0.33724165 -0.15419766 -0.090544678 0
-0.38047913 -0.047439363 -0.090425514 0
-0.43665251 0.091259271 -0.090631776 0
-0.50942862 0.27095202 -0.090111636 0
-0.51166421 0.27647212 -0.05863582 0
-0.51075608 0.27422979 -0.026272601 0
-0.50780785 0.26695016 0.0062178541 0
-0.5132336 0.28034702 0.037199121 0
-0.51088369 0.27454475 0.069267131 0
-0.51714122 0.28999546 0.1010098 0
-1.2776128 2.1676891 0.25973374 0
-1.2023383 1.9818275 0.32525209 0
-1.2028787 1.9831617 0.40049607 0
-1.2039838 1.9858902 0.47631103 0
-1.1977806 1.9705739 0.54994017 0
-0.35369179 -0.17337802 -0.088138618 0
-0.40506786 -0.055186596 -0.090872608 0
-0.46097404 0.073426396 -0.089476399 0
-0.51156098 0.18980232 -0.079711311 0
-0.51285237 0.19277313 -0.04966912 0
-0.51195282 0.19070378 -0.019126562 0
-0.51232922 0.1915696 0.01095497 0
-0.51028889 0.18687585 0.041264866 0
-0.50999242 0.18619385 0.071169399 0
-0.5136714 0.19465736 0.10100725 0
-1.353699 2.1271532 0.25936419 0
-1.2213948 1.8227854 0.31550699 0
-1.2266774 1.8349383 0.38859066 0
-1.2296777 1.8418403 0.46194163 0
-1.2299968 1.8425746 0.53509885 0
-1.2258997 1.833149 0.60695255 0
-0.37767005 -0.17504945 -0.089905418 0
-0.42370993 -0.07604453 -0.088729836 0
-0.49116161 0.069004685 -0.090848856 0
-0.515324 0.12096396 -0.071104698 0
-0.51544344 0.12122074 -0.042166073 0
-0.51201844 0.11385551 -0.012586741 0
-0.50935596 0.10813001 0.016360553 0
-0.50958538 0.10862353 0.04460099 0
-0.51250827 0.11490896 0.072657071 0
-0.51134425 0.11240569 0.10100508 0
-1.428437 2.084537 0.25898153 0
-1.2489524 1.6985705 0.30837122 0
-1.2409277 1.681314 0.37605006 0
-1.2421279 1.6838951 0.44569403 0
-1.2391028 1.6773899 0.51444227 0
-1.2432246 1.6862535 0.58609349 0
-0.39934224 -0.18234536 -0.090502627 0
-0.45296079 -0.074262589 -0.091418542 0
-0.50711858 0.034907255 -0.086933099 0
-0.51175761 0.04425839 -0.061170373 0
-0.51404738 0.048874173 -0.034473453 0
-0.51651531 0.053849015 -0.0077195819 0
-0.50986713 0.040447745 0.020610327 0
-0.50908279 0.038866673 0.04753853 0
-0.50970417 0.040119205 0.074252807 0
-0.512685 0.04612783 0.10100339 0
-1.2466016 1.525537 0.29738671 0
-1.2412332 1.5147157 0.36203617 0
-1.2386904 1.5095897 0.42714718 0
-1.2415197 1.5152931 0.49404606 0
-1.2423068 1.5168796 0.56092614 0
-0.41981933 -0.19223955 -0.090613939 0
-0.47331956 -0.090901226 -0.090376146 0
-0.53100002 0.018355165 -0.086300023 0
-0.53399885 0.024035368 -0.060064752 0
-0.53144276 0.019193802 -0.032311905 0
-0.53387535 0.023801479 -0.0059612598 0
-0.52990401 0.016279016 0.021476107 0
-0.5295673 0.015641365 0.048066486 0
-0.53151 0.019321118 0.074452244 0
-0.53445345 0.024896536 0.10100314 0
-1.2484248 1.3772767 0.28821033 0
-1.2383287 1.3581529 0.34889525 0
-1.2371622 1.3559434 0.41107208 0
-1.2410825 1.3633692 0.47500354 0
-1.2382621 1.3580267 0.5373733 0
-1.2389617 1.3593521 0.6013605 0
-0.43560368 -0.21058759 -0.088791795 0
-0.5048275 -0.087116152 -0.09383928 0
-0.5588361 0.0092166401 -0.087167613 0
-0.55955076 0.010491285 -0.060109276 0
-0.55821717 0.0081127025 -0.032670114 0
-0.5567556 0.0055057141 -0.0054820459 0
-0.56100982 0.013093863 0.020632202 0
-0.55477166 0.0019671058 0.048064791 0
-0.55776328 0.0073030326 0.074405909 0
-0.55771941 0.0072248313 0.10100301 0
-1.2934792 1.3195672 0.16266482 0
-1.3000319 1.3312547 0.22497512 0
-1.253582 1.2484043 0.28046215 0
-1.2468262 1.2363541 0.33928174 0
-1.2418969 1.227562 0.39814985 0
-1.241594 1.2270217 0.45819873 0
-1.2407864 1.2255814 0.51844347 0
-1.2383546 1.2212439 0.57844812 0
-0.45826688 -0.21654245 -0.090104379 0
-0.51895398 -0.11442634 -0.090714641 0
-0.58772188 0.0012871955 -0.088412784 0
-0.5851649 -0.0030153657 -0.060265277 0
-0.58254194 -0.007428911 -0.03251851 0
-0.5872227 0.00044724686 -0.0064951163 0
-0.5851872 -0.0029778744 0.020760136 0
-0.58294129 -0.0067569879 0.047760792 0
-0.58634055 -0.0010371472 0.074241616 0
-0.58613276 -0.0013867881 0.10100321 0
-1.3481354 1.2808099 0.16251943 0
-1.3561796 1.2943456 0.22479376 0
-1.2529432 1.1206331 0.27269712 0
-1.2414869 1.101356 0.32811219 0
-1.2379941 1.095479 0.38454512 0
-1.2381524 1.0957451 0.44197166 0
-1.2454863 1.1080856 0.5020991 0
-1.2345035 1.0896053 0.55660439 0
-0.47582686 -0.2312232 -0.089389302 0
-0.53681785 -0.13425323 -0.089283876 0
-0.61092305 -0.016432907 -0.087917425 0
-0.6088534 -0.019723441 -0.059998769 0
-0.61048245 -0.017133381 -0.033254523 0
-0.61238092 -0.014115002 -0.0065605696 0
-0.60992849 -0.018014159 0.020754592 0
-0.60363185 -0.028025176 0.04810302 0
-0.61045074 -0.017183866 0.074269451 0
-0.60624999 -0.023862626 0.10100295 0
-1.2545438 1.006864 0.265964 0
-1.2424598 0.98765165 0.3190988 0
-1.2393469 0.98270243 0.37337637 0
-1.2378434 0.98031193 0.42810228 0
-1.2360021 0.97738451 0.4829514 0
-1.2348989 0.97563058 0.53832155 0
-0.49754015 -0.2393755 -0.090440698 0
-0.56161523 -0.14298716 -0.090438999 0
-0.63249052 -0.03636929 -0.087090932 0
-0.63459355 -0.033205714 -0.060372222 0
-0.63820392 -0.027774539 -0.033969704 0
-0.63670295 -0.030032422 -0.0065458398 0
-0.63925737 -0.02618983 0.020121025 0
-0.63979113 -0.025386956 0.047085647 0
-0.64132315 -0.023082342 0.073994793 0
-0.63947642 -0.025860395 0.10100342 0
-1.2520021 0.89556414 0.25932792 0
-1.2389503 0.87593013 0.31015816 0
-1.2351642 0.87023491 0.36206701 0
-1.2326099 0.86639231 0.41425273 0
-1.2369747 0.87295836 0.46862051 0
-1.2403656 0.87805945 0.52344316 0
-0.5186013 -0.24891666 -0.091291301 0
-0.58517128 -0.15405694 -0.091220059 0
-0.66000956 -0.047415223 -0.088143118 0
-0.66373825 -0.042101946 -0.06165028 0
-0.66081285 -0.046270516 -0.033675168 0
-0.66023409 -0.047095265 -0.0064696353 0
-0.66376251 -0.042067375 0.020071262 0
-0.66169816 -0.045008983 0.047264691 0
-0.66682231 -0.037707295 0.073941156 0
-0.66537124 -0.03977504 0.10100351 0
-1.2999318 0.86445016 0.25942191 0
-1.2531904 0.79784542 0.30488592 0
-1.2386976 0.77719384 0.35331589 0
-1.2365108 0.77407748 0.40384424 0
-1.2398335 0.77881223 0.4561035 0
-1.2428492 0.78310961 0.50893402 0
-0.53952187 -0.25901154 -0.092150815 0
-0.60899693 -0.16514167 -0.092150383 0
-0.68656111 -0.060342338 -0.088971205 0
-0.69718301 -0.045990732 -0.063955374 0
-0.68608063 -0.060991492 -0.034006212 0
-0.69421399 -0.050002303 -0.0081041958 0
-0.69218028 -0.052750077 0.019515427 0
-0.69337422 -0.051136937 0.04663381 0
-0.68938452 -0.056527462 0.073989406 0
-0.69003654 -0.055646565 0.10100356 0
-1.3479136 0.83323151 0.25961295 0
-1.2519745 0.70360512 0.29767856 0
-1.2382776 0.68509883 0.34455046 0
-1.2391477 0.68627447 0.39404592 0
-1.2409286 0.68868071 0.44418651 0
-1.2372167 0.68366545 0.49311265 0
-0.55014843 -0.28266051 -0.089514665 0
-0.63002902 -0.18024012 -0.09228272 0
-0.70998704 -0.077720493 -0.089026399 0
-0.71735948 -0.068267792 -0.06317804 0
-0.71688312 -0.068878561 -0.035450373 0
-0.72074395 -0.063928336 -0.0085674208 0
-0.71685201 -0.068918437 0.019371906 0
-0.71012056 -0.077549309 0.047141235 0
-0.71258616 -0.074387997 0.073993683 0
-0.71953356 -0.065480202 0.10100384 0
-1.3933389 0.7984516 0.25959823 0
-1.251133 0.61611968 0.29112455 0
-1.235762 0.59641153 0.3361147 0
-1.2382221 0.5995658 0.38425994 0
-1.2373114 0.59839815 0.43200704 0
-1.2420707 0.60450023 0.4817889 0
-0.58043265 -0.28141263 -0.093744718 0
-0.64521396 -0.20253941 -0.090790831 0
-0.73661578 -0.091255039 -0.090024687 0
-0.74439782 -0.081780225 -0.064070068 0
-0.75028235 -0.074615628 -0.037366319 0
-0.75182271 -0.072740167 -0.0097381454 0
-0.74733418 -0.078205138 0.018547053 0
-0.74735343 -0.078181654 0.046080962 0
-0.74906921 -0.07609269 0.073494524 0
-0.7482723 -0.077062935 0.1010041 0
-1.4284352 0.75105518 0.25854367 0
-1.2448798 0.52757126 0.28430244 0
-1.2457523 0.52863353 0.33065689 0
-1.2446903 0.52734047 0.37690002 0
-1.2428987 0.52515918 0.42317972 0
-1.2380543 0.51926106 0.46877688 0
-0.5868699 -0.30930707 -0.09009207 0
-0.66661626 -0.21706089 -0.091296978 0
-0.75886965 -0.11034736 -0.089982055 0
-0.77091438 -0.096414715 -0.064898767 0
-0.7667287 -0.10125646 -0.036223892 0
-0.77475828 -0.091968268 -0.0097452458 0
-0.76963466 -0.097894996 0.018595034 0
-0.77273327 -0.094310731 0.045893755 0
-0.76891214 -0.098730773 0.073599726 0
-0.77170944 -0.095495015 0.10100412 0
-1.4773741 0.72077864 0.2591303 0
-1.2527827 0.46098378 0.280022 0
-1.2331818 0.43831053 0.32163262 0
-1.2398404 0.44601277 0.36771634 0
-1.2394614 0.44557455 0.4128091 0
-1.2419325 0.44843283 0.45904234 0
-0.60015148 -0.32841 -0.088927038 0
-0.67842513 -0.24235538 -0.089207985 0
-0.77977151 -0.13093433 -0.089729764 0
-0.80538934 -0.10276988 -0.067445271 0
-0.80678928 -0.10123077 -0.039332841 0
-0.80381489 -0.1045008 -0.01066955 0
-0.79614317 -0.11293522 0.01815212 0
-0.80682659 -0.10118976 0.045080218 0
-0.79917097 -0.10960642 0.07332211 0
-0.80346537 -0.10488513 0.10100453 0
-1.2517208 0.38793042 0.27485085 0
-1.2467415 0.38245621 0.31779778 0
-1.2433479 0.3787252 0.36096498 0
-1.2432194 0.37858394 0.40497792 0
-1.2411736 0.37633494 0.44878325 0
-0.6238094 -0.33628872 -0.091133006 0
-0.70351309 -0.25298503 -0.090967558 0
-0.80089939 -0.15120003 -0.089663006 0
-0.83031166 -0.12045929 -0.068016745 0
-0.82769573 -0.12319341 -0.03912269 0
-0.83018082 -0.12059602 -0.011249853 0
-0.8231349 -0.12796023 0.017632933 0
-0.82490087 -0.12611446 0.045354716 0
-0.82762975 -0.12326238 0.073102891 0
-0.82650208 -0.12444088 0.10100457 0
-1.2537726 0.32212844 0.27048737 0
-1.2370884 0.30469063 0.31037816 0
-1.2431216 0.31099632 0.35398 0
-1.2445073 0.3124446 0.39717057 0
-1.2395785 0.30729321 0.43906575 0
-0.64236999 -0.34999129 -0.091817312 0
-0.72484475 -0.26803491 -0.091758363 0
-0.83167714 -0.16187391 -0.091953851 0
-0.86659878 -0.12717173 -0.070915334 0
-0.85813361 -0.13558367 -0.040580723 0
-0.8645395 -0.12921801 -0.012921726 0
-0.85251099 -0.14117095 0.016853722 0
-0.85311389 -0.14057186 0.044915173 0
-0.86514598 -0.12861541 0.072580762 0
-0.85712957 -0.13658139 0.10100494 0
-1.2780564 0.28170004 0.1429974 0
-1.2706718 0.274362 0.18453324 0
-1.2771463 0.28079572 0.22704111 0
-1.2526766 0.25647977 0.26603889 0
-1.2495927 0.25341526 0.30712241 0
-1.2404597 0.24433973 0.34702829 0
-1.2353612 0.23927322 0.38752994 0
-1.2310387 0.23497787 0.42821294 0
-0.65533841 -0.3692207 -0.090952627 0
-0.73598021 -0.2930319 -0.089988194 0
-0.8455261 -0.18953499 -0.090424828 0
-0.88598865 -0.15130678 -0.070512004 0
-0.89296776 -0.14471301 -0.042762224 0
-0.88532317 -0.15193555 -0.01283936 0
-0.88837349 -0.14905366 0.015436547 0
-0.88938272 -0.14810011 0.043946367 0
-0.88999134 -0.1475251 0.072471842 0
-0.88712007 -0.15023783 0.10100528 0
-1.2888591 0.22931758 0.14232858 0
-1.296275 0.23632398 0.18415648 0
-1.2942891 0.23444775 0.22564581 0
-1.251025 0.19357267 0.26183927 0
-1.2443819 0.18729642 0.30130437 0
-1.246745 0.18952897 0.34230018 0
-1.241991 0.18503752 0.38210732 0
-1.2418087 0.18486515 0.42309961 0
-0.67073631 -0.38601181 -0.09094172 0
-0.7580235 -0.30761692 -0.091180749 0
-0.86806142 -0.20878908 -0.09100496 0
-0.91805595 -0.16388771 -0.072628848 0
-0.92273694 -0.15968356 -0.044135842 0
-0.91214883 -0.169193 -0.013589686 0
-0.90978187 -0.17131886 0.015390368 0
-0.92158997 -0.1607137 0.043241363 0
-0.91907954 -0.16296837 0.072217666 0
-0.91226691 -0.16908696 0.10100544 0
-1.3263535 0.20281497 0.14255282 0
-1.3378059 0.21310058 0.18484692 0
-1.3192261 0.19641367 0.22512606 0
-1.2495054 0.13379565 0.25795192 0
-1.243675 0.12855914 0.29658979 0
-1.2422005 0.12723497 0.3358959 0
-1.2398887 0.1251587 0.37518251 0
-1.2486986 0.13307098 0.41744226 0
-0.68759984 -0.40156761 -0.091460399 0
-0.77927643 -0.32331803 -0.092244379 0
-0.8816129 -0.23596993 -0.089737706 0
-0.95191491 -0.17596439 -0.075090997 0
-0.94807714 -0.17924014 -0.044858415 0
-0.95226943 -0.17566183 -0.01600959 0
-0.94587535 -0.18111941 0.013943197 0
-0.95253521 -0.17543492 0.042608906 0
-0.94815516 -0.1791735 0.071957238 0
-0.96257162 -0.16686848 0.10100656 0
-1.4114588 0.21627417 0.14425199 0
-1.3997492 0.20627955 0.18680991 0
-1.3987474 0.20542458 0.22972776 0
-1.2480037 0.076758891 0.25433683 0
-1.2434217 0.072847992 0.29227579 0
-1.2435677 0.072972685 0.33101454 0
-1.2366207 0.067043096 0.36848348 0
-1.2363952 0.066850692 0.40747845 0
-0.70299482 -0.41849133 -0.091675304 0
-0.78192377 -0.35449317 -0.088872008 0
-0.89986855 -0.25885972 -0.089638181 0
-0.98299944 -0.19145444 -0.077057101 0
-0.9795081 -0.19428536 -0.046557862 0
-0.97121233 -0.20101187 -0.015855504 0
-0.97993577 -0.19393864 0.012685778 0
-0.98198819 -0.19227442 0.042056173 0
-0.98373973 -0.19085422 0.071494877 0
-0.97665238 -0.19660088 0.10100633 0
-1.2528547 0.027352963 0.25173372 0
-1.2517138 0.026427899 0.28954944 0
-1.2389579 0.016084943 0.32540065 0
-1.2436427 0.019883547 0.3644118 0
-1.2383457 0.015588675 0.40158343 0
-0.71233791 -0.44015679 -0.090378396 0
-0.80477631 -0.36899409 -0.090556152 0
-0.92076808 -0.27969912 -0.090209968 0
-0.99638993 -0.22148243 -0.075917326 0
-1.0105375 -0.21059099 -0.048222024 0
-1.014479 -0.20755669 -0.018645762 0
-1.0095834 -0.21132568 0.011813017 0
-1.0074809 -0.21294412 0.041721512 0
-1.0097351 -0.21120873 0.071314022 0
-1.0090038 -0.21177182 0.10100678 0
-1.2392452 -0.034522977 0.24715321 0
-1.2442752 -0.030650642 0.2847288 0
-1.2377714 -0.035657551 0.32075942 0
-1.2413361 -0.032913294 0.35873231 0
-1.2417582 -0.03258827 0.39646009 0
-0.73580271 -0.45114443 -0.092967652 0
-0.81561542 -0.39284852 -0.089493699 0
-0.93562615 -0.30519173 -0.089649819 0
-1.0445167 -0.22565708 -0.080976702 0
-1.0436335 -0.22630224 -0.050215025 0
-1.0377921 -0.2305688 -0.019097982 0
-1.0382644 -0.23022386 0.011001499 0
-1.0430652 -0.22671732 0.040780809 0
-1.0529107 -0.21952608 0.070626885 0
-1.0541368 -0.21863058 0.1010077 0
-1.2516708 -0.074350089 0.24584982 0
-1.2386699 -0.083846003 0.28047216 0
-1.2458233 -0.078621179 0.31804082 0
-1.2356316 -0.086065203 0.35273859 0
-1.2414277 -0.081831783 0.3908433 0
-0.74377698 -0.47362295 -0.091579489 0
-0.84259027 -0.40520421 -0.092285417 0
-0.95679408 -0.32612887 -0.090490542 0
-1.0848664 -0.23745099 -0.084637307 0
-1.0807576 -0.24029592 -0.052803043 0
-1.0863039 -0.23645559 -0.022469772 0
-1.0768343 -0.2430124 0.0093222205 0
-1.0814002 -0.23985097 0.03968076 0
-1.0740463 -0.24494287 0.070568934 0
-1.0764838 -0.24325505 0.10100781 0
-1.2453238 -0.12634948 0.20703253 0
-1.2519962 -0.12172946 0.2433096 0
-1.2425795 -0.12824968 0.27783516 0
-1.2327626 -0.13504693 0.31194603 0
-1.2415107 -0.12898961 0.34943572 0
-1.2451112 -0.12649664 0.38653111 0
-0.75181973 -0.49568009 -0.090376951 0
-0.86041057 -0.4244763 -0.093040355 0
-0.9649083 -0.35595647 -0.088856719 0
-1.1134959 -0.25852647 -0.086318754 0
-1.1135081 -0.25851843 -0.054787192 0
-1.1075058 -0.26245418 -0.022754757 0
-1.1125013 -0.25917861 0.0078859497 0
-1.108066 -0.2620869 0.039229762 0
-1.1192307 -0.25476608 0.069825314 0
-1.1152936 -0.25734767 0.1010085 0
-1.2473412 -0.17076316 0.20541285 0
-1.2291381 -0.18269899 0.2383565 0
-1.2359359 -0.17824164 0.27392384 0
-1.2416629 -0.17448643 0.30988479 0
-1.2350467 -0.17882469 0.34397516 0
-1.2418342 -0.17437419 0.38097751 0
-0.77386618 -0.50873327 -0.092836104 0
-0.86496949 -0.4522306 -0.090953045 0
-0.98970717 -0.37486783 -0.090621777 0
-1.1431905 -0.27967677 -0.088238917 0
-1.1500614 -0.27541545 -0.057327289 0
-1.1529778 -0.27360669 -0.025773665 0
-1.1506099 -0.27507529 0.0062372703 0
-1.1496688 -0.27565894 0.037936497 0
-1.1486602 -0.27628449 0.069517434 0
-1.1426674 -0.28000119 0.10100882 0
-1.2499442 -0.21346775 0.16958176 0
-1.2401139 -0.21956459 0.20315021 0
-1.2444686 -0.21686372 0.23784775 0
-1.2397879 -0.21976671 0.27169234 0
-1.2352917 -0.22255525 0.30549508 0
-1.2415769 -0.21865717 0.34135851 0
-1.2433908 -0.21753213 0.37685183 0
-0.78204924 -0.53060085 -0.091925792 0
-0.86898857 -0.47967222 -0.088932596 0
-1.0022765 -0.4015927 -0.090123184 0
-1.1727688 -0.3017191 -0.090199627 0
-1.1874404 -0.29312459 -0.060000215 0
-1.185868 -0.29404566 -0.027417963 0
-1.2007611 -0.28532138 0.0036042801 0
-1.1915257 -0.2907314 0.036629852 0
-1.191371 -0.29082212 0.068841442 0
-1.1841993 -0.29502317 0.10100961 0
-1.2544959 -0.25384381 0.16879171 0
-1.2434387 -0.26032105 0.20187706 0
-1.237076 -0.26404825 0.23498091 0
-1.2342986 -0.26567528 0.26837078 0
-1.2509689 -0.25590989 0.3049615 0
-1.2382742 -0.2633464 0.33709967 0
-1.2422923 -0.26099262 0.37244654 0
-0.78116691 -0.55724597 -0.088961668 0
-0.89066714 -0.49675921 -0.090890147 0
-1.0139719 -0.42864695 -0.089594923 0
-1.1854286 -0.33393613 -0.089506887 0
-1.4279853 -0.19995037 -0.089822777 0
-1.8036232 0.007547948 -0.091461591 0
-3.0360634 0.68833476 -0.14158641 0
-4.5337944 1.5156653 -0.14021209 0
-9.0978985 4.036828 -0.1407128 0
-1.2452155 -0.30091044 0.13415287 0
-1.2540183 -0.2960479 0.16779944 0
-1.2402395 -0.30365917 0.20018286 0
-1.2448255 -0.30112591 0.23389736 0
-1.2383034 -0.30472866 0.26651937 0
-1.2398002 -0.30390176 0.30025959 0
-1.2500683 -0.29822984 0.33594874 0
-1.2440566 -0.30155066 0.36895624 0
-0.79903537 -0.57336581 -0.090690561 0
-0.91020668 -0.51556766 -0.092460267 0
-1.0270982 -0.45479551 -0.089465939 0
-1.2036316 -0.36301538 -0.089830883 0
-1.4538298 -0.23293689 -0.090663634 0
-1.8138703 -0.045751121 -0.089954101 0
-3.0720315 0.60836929 -0.14116146 0
-4.602675 1.4041536 -0.14058577 0
-9.2278872 3.8088109 -0.1408719 0
-1.2441585 -0.34194538 0.13367927 0
-1.2478423 -0.34003022 0.16657707 0
-1.2365062 -0.34592381 0.19855544 0
-1.2479237 -0.33998784 0.23243751 0
-1.2412905 -0.34343651 0.26468873 0
-1.2391907 -0.34452823 0.29748535 0
-1.2452717 -0.34136668 0.33190274 0
-1.2351905 -0.34660789 0.36347285 0
-0.80864269 -0.59399194 -0.090540998 0
-0.91467589 -0.54222059 -0.090952538 0
-1.040187 -0.480939 -0.089453183 0
-1.2203363 -0.39297995 -0.090032093 0
-1.4619938 -0.27498922 -0.08930368 0
-1.8473836 -0.086820275 -0.09102238 0
-3.1035423 0.52650684 -0.14055297 0
-4.6677995 1.2902648 -0.14090703 0
-9.3444576 3.5736721 -0.14083174 0
-1.2618412 -0.37271497 0.10101052 0
-1.254519 -0.37629005 0.13353464 0
-1.2400438 -0.38335773 0.16534345 0
-1.2418916 -0.3824555 0.19774151 0
-1.2323694 -0.38710478 0.22915943 0
-1.2360008 -0.38533172 0.26193142 0
-1.2309992 -0.38777378 0.29372028 0
-1.2411184 -0.38283297 0.32822445 0
-1.2320049 -0.3872827 0.35948753 0
-0.82218355 -0.61279583 -0.091435008 0
-0.92576021 -0.56542182 -0.090972371 0
-1.0563561 -0.5056898 -0.090117224 0
-1.222996 -0.42947188 -0.088178106 0
-1.4876271 -0.3084347 -0.09034165 0
-1.8630786 -0.13671044 -0.090356566 0
-3.1427894 0.44860449 -0.14070596 0
-4.7272921 1.1733255 -0.14108434 0
-9.4514751 3.3340762 -0.14070041 0
-1.2496238 -0.41729292 0.10100966 0
-1.2528759 -0.41580543 0.13310635 0
-1.2423248 -0.42063126 0.16469701 0
-1.2441313 -0.41980502 0.19676627 0
-1.2369699 -0.42308047 0.22811179 0
-1.2418956 -0.4208276 0.2607806 0
-1.2409385 -0.42126533 0.29297119 0
-1.2410847 -0.42119846 0.32552347 0
-1.2338833 -0.42449227 0.35681108 0
-0.83359009 -0.63275802 -0.091936417 0
-0.94326198 -0.58590508 -0.092427023 0
-1.0778606 -0.52840322 -0.091839977 0
-1.2509712 -0.45444861 -0.090354286 0
-1.5123039 -0.34280464 -0.091354825 0
-1.8847423 -0.18369517 -0.090432249 0
-3.17243 0.36641803 -0.14027736 0
-4.7752128 1.0511429 -0.14082418 0
-9.5566101 3.0938046 -0.14067671 0
-1.2504019 -0.45469186 0.10100924 0
-1.2400031 -0.45913431 0.13242348 0
-1.2472507 -0.45603803 0.16423948 0
-1.250572 -0.45461914 0.19619323 0
-1.241964 -0.45829657 0.22720808 0
-1.2410501 -0.45868698 0.25889966 0
-1.2395619 -0.45932278 0.29063004 0
-1.2495949 -0.45503655 0.32455301 0
-1.2450718 -0.45696893 0.35626426 0
-0.83404326 -0.65721995 -0.09004306 0
-0.9444772 -0.61330223 -0.090671249 0
-1.0794485 -0.5596264 -0.090124808 0
-1.2617707 -0.48711994 -0.09000697 0
-1.5212284 -0.38393798 -0.09048631 0
-1.9063244 -0.23079184 -0.090618722 0
-3.2057493 0.28596738 -0.14028664 0
-4.8265505 0.93053275 -0.14089312 0
-1.2451843 -0.49371612 0.069789588 0
-1.2474645 -0.4928093 0.10100875 0
-1.2384586 -0.49639079 0.13205913 0
-1.2360078 -0.49736547 0.16302054 0
-1.2326586 -0.49869737 0.19385864 0
-1.2367561 -0.49706784 0.22537777 0
-1.2451562 -0.49372733 0.25778142 0
-1.2442108 -0.49410325 0.28937003 0
-1.2323976 -0.4988012 0.31919563 0
-1.2417104 -0.49509761 0.35293984 0
-0.837174 -0.68023103 -0.088914387 0
-0.95138729 -0.6381157 -0.090214439 0
-1.0845557 -0.58901078 -0.0891807 0
-1.2656173 -0.52224559 -0.088745497 0
-1.5399277 -0.42109552 -0.090973385 0
-1.9238073 -0.27954265 -0.090514503 0
-3.2492945 0.20922139 -0.14120984 0
-4.873692 0.80820662 -0.14090499 0
-1.2519113 -0.52729958 0.069922917 0
-1.2346036 -0.53368163 0.10100799 0
-1.2473302 -0.52898884 0.13198036 0
-1.224874 -0.53726935 0.16187036 0
-1.2358428 -0.5332247 0.19320232 0
-1.2442676 -0.53011811 0.22492844 0
-1.2440565 -0.53019601 0.25613552 0
-1.238019 -0.53242224 0.28662941 0
-1.2357875 -0.53324509 0.31768987 0
-1.2520298 -0.52725589 0.35258761 0
-0.85102302 -0.69932652 -0.090332977 0
-0.95761168 -0.66305053 -0.089750268 0
-1.0958081 -0.61601716 -0.08944086 0
-1.2831668 -0.55225217 -0.089661248 0
-1.5592914 -0.4582769 -0.091654621 0
-1.9479706 -0.32599512 -0.091191731 0
-3.2696803 0.12383094 -0.14055856 0
-1.2565519 -0.56131023 0.039129049 0
-1.2421385 -0.56621557 0.070439421 0
-1.2448448 -0.56529456 0.10100797 0
-1.2467638 -0.56464142 0.13169026 0
-1.2456533 -0.56501937 0.16235113 0
-1.24585 -0.56495249 0.19312055 0
-1.2456236 -0.5650295 0.22395833 0
-1.2359346 -0.56832701 0.25375053 0
-1.2391731 -0.56722486 0.28514743 0
-1.2388129 -0.56734741 0.31628534 0
-1.2457101 -0.56500006 0.34908915 0
-0.86264175 -0.71948659 -0.091351546 0
-0.97291249 -0.68503648 -0.091205485 0
-1.1169305 -0.64004326 -0.091516279 0
-1.3107594 -0.5794884 -0.092160471 0
-1.5586414 -0.50204659 -0.089995347 0
-1.9690052 -0.37384316 -0.091672786 0
-3.2895048 0.038699303 -0.1400298 0
-1.2504361 -0.59833425 0.039934494 0
-1.2508137 -0.59821624 0.070478484 0
-1.2440687 -0.6003235 0.10100763 0
-1.2414334 -0.60114682 0.13130817 0
-1.2494087 -0.59865522 0.16203116 0
-1.2405884 -0.60141081 0.19197917 0
-1.2366099 -0.60265374 0.22206773 0
-1.240064 -0.6015746 0.25300348 0
-1.233395 -0.60365808 0.28278595 0
-1.2408657 -0.60132414 0.31487316 0
-1.243697 -0.60043961 0.34665698 0
-0.8628298 -0.74317014 -0.089949273 0
-0.97494638 -0.71122491 -0.090161078 0
-1.1115897 -0.67229134 -0.089158498 0
-1.3070052 -0.61661196 -0.090161972 0
-1.5758433 -0.54001236 -0.09065216 0
-1.9772712 -0.42563418 -0.091028802 0
-1.2460955 -0.63396686 0.010318616 0
-1.2509731 -0.63257706 0.040366717 0
-1.2416595 -0.63523078 0.070928715 0
-1.2325447 -0.63782787 0.10100701 0
-1.2395422 -0.63583404 0.13103458 0
-1.2404237 -0.63558292 0.16113727 0
-1.2331595 -0.63765264 0.19075547 0
-1.2361068 -0.63681293 0.22110975 0
-1.2366995 -0.63664407 0.25145301 0
-1.2448375 -0.63432527 0.28309375 0
-1.2354761 -0.63699257 0.31234595 0
-1.2406485 -0.63551885 0.34421527 0
-0.88238728 -0.7615307 -0.092939623 0
-0.99245065 -0.73315251 -0.092261605 0
-1.1210629 -0.69999176 -0.089468949 0
-1.3094245 -0.65142548 -0.089208834 0
-1.5867603 -0.57991856 -0.090662204 0
-1.9838947 -0.47752336 -0.090357102 0
-1.2506915 -0.66656893 0.010605389 0
-1.2381877 -0.66979283 0.041394949 0
-1.2460984 -0.66775316 0.07102713 0
-1.2456254 -0.66787517 0.10100715 0
-1.2385546 -0.66969824 0.13080566 0
-1.2415279 -0.6689316 0.16077985 0
-1.2450521 -0.66802293 0.1910021 0
-1.2364094 -0.67025137 0.22031912 0
-1.2375021 -0.66996962 0.25052309 0
-1.2387465 -0.66964877 0.28096661 0
-1.2379304 -0.66985917 0.31132028 0
-1.2350326 -0.67060637 0.3414627 0
-0.86679143 -0.7887584 -0.088344805 0
-0.99561369 -0.75898856 -0.091684885 0
-1.1316111 -0.72756058 -0.090077229 0
-1.3269051 -0.68242967 -0.090560801 0
-1.5950911 -0.62045395 -0.090483151 0
-2.527195 -0.40505198 -0.14122891 0
-1.2541208 -0.69924957 0.010914991 0
-1.2400852 -0.70249307 0.041670613 0
-1.2340136 -0.70389616 0.071499631 0
-1.2471706 -0.70085567 0.10100697 0
-1.2342372 -0.70384449 0.13051893 0
-1.2412436 -0.70222539 0.16039848 0
-1.2346636 -0.70374596 0.18970248 0
-1.2429366 -0.70183414 0.22021094 0
-1.2229266 -0.70645827 0.24785423 0
-1.2452424 -0.70130128 0.28079715 0
-1.2401074 -0.70248795 0.31039417 0
-1.2497151 -0.70026767 0.34282315 0
-0.88656241 -0.80764943 -0.091596626 0
-1.0078322 -0.78283042 -0.092977814 0
-1.1296933 -0.7578904 -0.088708155 0
-1.3298926 -0.71691769 -0.089939348 0
-1.6013213 -0.66136718 -0.090176813 0
-1.2569557 -0.7318449 -0.018879017 0
-1.2635309 -0.73049927 0.010737197 0
-1.2395126 -0.7354148 0.042022914 0
-1.2385941 -0.7356028 0.071552493 0
-1.2399822 -0.73531866 0.10100656 0
-1.2365383 -0.73602355 0.13041168 0
-1.2371812 -0.73589194 0.15987942 0
-1.2289428 -0.73757803 0.18880747 0
-1.2476009 -0.73375946 0.22000194 0
-1.2343652 -0.73646826 0.24841426 0
-1.2399912 -0.73531687 0.27905774 0
-1.2467468 -0.73393422 0.31036031 0
-1.2431608 -0.73466814 0.34023681 0
-0.89217806 -0.82986593 -0.091880597 0
-1.0069119 -0.80938613 -0.091866501 0
-1.1412865 -0.78540045 -0.089728989 0
-1.3255186 -0.75251526 -0.088394366 0
-1.6181184 -0.70028663 -0.09124925 0
-1.2531826 -0.76542711 -0.017943343 0
-1.2434143 -0.76717079 0.012600871 0
-1.2404263 -0.76770413 0.042263951 0
-1.2406082 -0.76767164 0.071646772 0
-1.2441726 -0.76703542 0.10100651 0
-1.2498431 -0.76602322 0.13058472 0
-1.2372088 -0.76827842 0.15959665 0
-1.2435725 -0.76714253 0.1894237 0
-1.2441236 -0.76704419 0.21909803 0
-1.2424748 -0.76733845 0.24866652 0
-1.2301542 -0.76953769 0.27679414 0
-1.2295257 -0.76964986 0.30647454 0
-0.88967139 -0.85340458 -0.090537839 0
-1.0040252 -0.83595735 -0.09051279 0
-1.1532032 -0.81319696 -0.090915374 0
-1.3376856 -0.78505009 -0.089334778 0
-1.2447386 -0.79923123 -0.046304975 0
-1.2562819 -0.79747003 -0.017740352 0
-1.2396189 -0.80001235 0.01323759 0
-1.2360651 -0.80055451 0.042714015 0
-1.2512797 -0.79823321 0.071518004 0
-1.2465348 -0.79895717 0.10100643 0
-1.241487 -0.79972732 0.13026427 0
-1.2393036 -0.80006045 0.15945108 0
-1.2426943 -0.79954314 0.18899287 0
-1.2366557 -0.80046445 0.21790014 0
-1.2493258 -0.79853135 0.24886131 0
-1.2481365 -0.79871279 0.27861875 0
-1.23983 -0.7999801 0.30733174 0
-0.90013319 -0.8749916 -0.09210556 0
-0.99885064 -0.86246985 -0.088856541 0
-1.1519685 -0.84304762 -0.09003561 0
-1.3577454 -0.81694591 -0.091506816 0
-1.2598189 -0.8293674 -0.047563363 0
-1.258474 -0.82953799 -0.01752889 0
-1.233252 -0.83273727 0.013994971 0
-1.2526265 -0.83027971 0.042141818 0
-1.2341018 -0.83262944 0.072024234 0
-1.2318897 -0.83291006 0.10100587 0
-1.234726 -0.83255029 0.13000235 0
-1.2494161 -0.83068693 0.15972044 0
-1.2305503 -0.83307993 0.18782666 0
-1.2332531 -0.83273709 0.21716836 0
-1.2366365 -0.83230793 0.24684526 0
-1.2446299 -0.83129406 0.2774967 0
-1.2386969 -0.83204657 0.30641785 0
-0.90184057 -0.89785391 -0.091915481 0
-1.010161 -0.88688308 -0.090452261 0
-1.1583744 -0.87187183 -0.090544932 0
-1.2422425 -0.86337751 -0.074638478 0
-1.2590023 -0.86168009 -0.047040585 0
-1.2394284 -0.86366254 -0.015401533 0
-1.2383555 -0.8637712 0.013886312 0
-1.2405468 -0.86354929 0.042876124 0
-1.24059 -0.86354488 0.071955793 0
-1.2427154 -0.86332965 0.10100608 0
-1.2466096 -0.86293525 0.13019732 0
-1.2373127 -0.86387682 0.15898456 0
-1.2446204 -0.86313671 0.18856654 0
-1.258689 -0.8617118 0.21922223 0
-1.2377422 -0.86383331 0.246556 0
-1.2445276 -0.86314607 0.27697495 0
-0.89669389 -0.92120552 -0.090387814 0
-1.0216333 -0.91172904 -0.092191987 0
-1.1315256 -0.90339386 -0.08569213 0
-1.1349353 -0.90313524 -0.059122805 0
-1.2460736 -0.89470553 -0.045194853 0
-1.2407159 -0.89511192 -0.015262296 0
-1.2396446 -0.89519316 0.013990307 0
