# .PCD v0.7 - Point Cloud Data file format
VERSION 0.7
FIELDS x y z intensity
SIZE 4 4 4 4
TYPE F F F F
COUNT 1 1 1 1
WIDTH 1314
HEIGHT 1
VIEWPOINT 0 0 0 1 0 0 0
POINTS 1314
DATA ascii
-0.87131661 -1.5002762 -0.089440785 0
-1.0038749 -1.5779283 -0.090427615 0
-1.1716608 -1.6762165 -0.090019144 0
-1.4090106 -1.8152549 -0.090011872 0
-1.77447 -2.0293393 -0.091090821 0
-2.9756463 -2.7329826 -0.14019914 0
-4.4811792 -3.6149168 -0.14086121 0
-8.962121 -6.2398319 -0.14054932 0
-0.76834273 -1.4664258 -0.091454558 0
-0.86301005 -1.5251389 -0.090518765 0
-0.98415279 -1.6002721 -0.089547597 0
-1.1557921 -1.7067235 -0.09032283 0
-1.3926256 -1.8536085 -0.090686239 0
-1.7386116 -2.0681903 -0.09009663 0
-2.9460044 -2.8170202 -0.14145783 0
-4.4094577 -3.7246599 -0.14063948 0
-8.8356762 -6.4698181 -0.1407924 0
-0.75162035 -1.4827739 -0.090326257 0
-0.85623378 -1.5513697 -0.0920996 0
-0.97802728 -1.6312305 -0.091435038 0
-1.1275603 -1.7292804 -0.088682301 0
-1.3690165 -1.887605 -0.090496488 0
-1.7249343 -2.1209826 -0.091670223 0
-2.8905416 -2.8852794 -0.14075482 0
-4.3429518 -3.837635 -0.1408574 0
-8.699419 -6.694201 -0.14092681 0
-0.74870241 -1.5083722 -0.092852913 0
-0.83163339 -1.565794 -0.089775272 0
-0.95820636 -1.6534337 -0.090772845 0
-1.1106024 -1.7589535 -0.089036472 0
-1.3449998 -1.9212514 -0.090366371 0
-1.6825938 -2.1550031 -0.090167366 0
-2.8333213 -2.9517722 -0.14003527 0
-4.2655878 -3.9434807 -0.14062439 0
-8.5487766 -6.9091816 -0.1408156 0
-0.72761708 -1.5214615 -0.090812974 0
-0.8128258 -1.5836986 -0.08884304 0
-0.94172359 -1.6778466 -0.090890802 0
-1.106334 -1.7980795 -0.091734774 0
-1.3267381 -1.9590645 -0.091188587 0
-1.6591836 -2.2018852 -0.090923049 0
-2.7994559 -3.0347497 -0.14146824 0
-4.1854362 -4.047081 -0.14037903 0
-8.3967447 -7.1230555 -0.14081718 0
-0.71530265 -1.5407102 -0.091173686 0
-0.80978042 -1.613443 -0.091745622 0
-0.92050672 -1.6986843 -0.090155758 0
-1.0781816 -1.8200687 -0.090423532 0
-1.3067439 -1.996025 -0.091910832 0
-1.628203 -2.2434967 -0.090939872 0
-2.7395611 -3.0990634 -0.14081585 0
-4.1176872 -4.1599989 -0.14100972 0
-8.2383556 -7.3322506 -0.14078918 0
-0.70453537 -1.5613425 -0.092096902 0
-0.78723609 -1.6283989 -0.090160169 0
-0.89508331 -1.715845 -0.088625677 0
-1.0584506 -1.8483086 -0.090708278 0
-1.2799386 -2.0278981 -0.091762148 0
-1.5974212 -2.2853234 -0.091105901 0
-2.6880927 -3.1696754 -0.14105307 0
-4.0366893 -4.2631612 -0.14102848 0
-8.0843582 -7.5451431 -0.14104854 0
-0.68324775 -1.5733024 -0.090244152 0
-0.78022856 -1.6560793 -0.092480145 0
-0.8877328 -1.7478384 -0.091060095 0
-1.033836 -1.8725432 -0.090227224 0
-1.2457722 -2.0534389 -0.090601496 0
-1.5610236 -2.3225181 -0.090714596 0
-2.6200361 -3.2264266 -0.1399329 0
-3.9489048 -4.3606677 -0.14079 0
-7.9173527 -7.7478919 -0.14107844 0
-0.67912447 -1.6001065 -0.093338273 0
-0.75089157 -1.6645623 -0.08937519 0
-0.86509478 -1.7671312 -0.090349607 0
-1.0109694 -1.8981451 -0.090179659 0
-1.2231653 -2.0887237 -0.091330297 0
-1.5254829 -2.3602428 -0.090538345 0
-2.5818436 -3.3089876 -0.14172643 0
-3.860106 -4.4570279 -0.14063492 0
-7.7385793 -7.9403844 -0.14089948 0
-0.65266341 -1.6068367 -0.090170376 0
-0.73504001 -1.6846645 -0.08974456 0
-0.85205406 -1.7952172 -0.091900803 0
-0.99306422 -1.9284408 -0.091213651 0
-1.1932729 -2.1175942 -0.091046847 0
-1.4906191 -2.3985212 -0.090565644 0
-1.9847689 -2.8653843 -0.090010308 0
-3.7731819 -4.5550427 -0.14075018 0
-7.5542827 -8.1273546 -0.14069317 0
-0.64187771 -1.6281042 -0.09166979 0
-0.72432345 -1.7100317 -0.091619931 0
-0.83562261 -1.8206315 -0.092868008 0
-0.9702062 -1.9543693 -0.091442294 0
-1.1732918 -2.1561785 -0.092507862 0
-1.4617168 -2.442791 -0.091503702 0
-1.9426242 -2.920676 -0.090584226 0
-3.6805439 -4.6476731 -0.14065374 0
-7.3739576 -8.3178759 -0.14076464 0
-0.6272763 -1.6459194 -0.092198975 0
-0.7046625 -1.726801 -0.091280721 0
-0.80265218 -1.8292166 -0.090079717 0
-0.94048667 -1.9732767 -0.090413563 0
-1.1329273 -2.1744096 -0.090724476 0
-1.419747 -2.474184 -0.090851448 0
-1.8773513 -2.9524574 -0.088973977 0
-3.5975275 -4.7503295 -0.14135815 0
-7.1939116 -8.5091534 -0.1410071 0
-0.60682595 -1.6575127 -0.091035508 0
-0.69192713 -1.7510736 -0.092987485 0
-0.7750746 -1.8424866 -0.088582523 0
-0.91715509 -1.998691 -0.090788476 0
-1.0989217 -2.1985266 -0.090074338 0
-1.3822148 -2.5099812 -0.090904899 0
-1.8388106 -3.0119662 -0.09017811 0
-3.4955943 -4.833447 -0.14095043 0
-6.993381 -8.6789417 -0.14071316 0
-0.58775246 -1.6702986 -0.090378918 0
-0.6602748 -1.7541883 -0.089470632 0
-0.7589708 -1.8683543 -0.090007462 0
-0.8888185 -2.0185549 -0.090234883 0
-1.0734124 -2.2320828 -0.091030605 0
-1.3411913 -2.5418346 -0.090588816 0
-1.7918804 -3.0631666 -0.090679415 0
-3.4006522 -4.9241037 -0.14117557 0
-6.7963696 -8.8520803 -0.14068587 0
-0.56993413 -1.6843898 -0.090228729 0
-0.64709318 -1.7783332 -0.091348492 0
-0.7398265 -1.8912388 -0.090856098 0
-0.86597055 -2.0448227 -0.090988733 0
-1.0394624 -2.2560542 -0.090616085 0
-1.2971941 -2.5698502 -0.089942075 0
-1.7436011 -3.1133635 -0.091187991 0
-3.2934937 -5.0004025 -0.14067706 0
-6.5974026 -9.0230074 -0.14074385 0
-0.54409188 -1.6881588 -0.087421335 0
-0.63035554 -1.7987633 -0.092382722 0
-0.71176654 -1.9031459 -0.089501955 0
-0.83830905 -2.0653946 -0.09081655 0
-1.0060544 -2.2804723 -0.09040416 0
-1.2652551 -2.6128113 -0.091209881 0
-1.6911706 -3.1589067 -0.091383211 0
-3.1974127 -5.0901618 -0.14114429 0
-6.3945122 -9.1893806 -0.14081602 0
-0.53714532 -1.7163621 -0.091301657 0
-0.60839075 -1.812624 -0.091958456 0
-0.69579196 -1.9307145 -0.091521375 0
-0.81454813 -2.0911696 -0.091680549 0
-0.97244525 -2.3045092 -0.090264507 0
-1.2213246 -2.6407776 -0.09080752 0
-1.6281149 -3.1904047 -0.090469487 0
-3.087121 -5.1617122 -0.14069004 0
-6.1837893 -9.3457146 -0.14074603 0
-0.51592147 -1.7258494 -0.090299673 0
-0.58232963 -1.8204786 -0.090288304 0
-0.67215973 -1.948483 -0.091619395 0
-0.78060681 -2.1030159 -0.090241946 0
-0.94289279 -2.3342676 -0.091066457 0
-1.1836517 -2.67734 -0.091520004 0
-1.5749965 -3.2349918 -0.090826847 0
-2.9828782 -5.2411699 -0.1408533 0
-5.9683576 -9.4953661 -0.14063992 0
-0.50006485 -1.7430071 -0.091410078 0
-0.5663231 -1.8426796 -0.092040755 0
-0.64888209 -1.9668733 -0.091957219 0
-0.75047201 -2.1196954 -0.089788653 0
-0.9093973 -2.3587673 -0.091222696 0
-1.138748 -2.7037804 -0.091193683 0
-1.5182202 -3.2746217 -0.090875678 0
-2.8732781 -5.3130393 -0.14073801 0
-5.7608056 -9.6567564 -0.14101641 0
-0.48122397 -1.7559423 -0.091544054 0
-0.5435791 -1.8550813 -0.091675811 0
-0.62512457 -1.9847308 -0.092301317 0
-0.72321284 -2.140682 -0.09018492 0
-0.87212098 -2.3774321 -0.090688534 0
-1.0868977 -2.7189071 -0.089750953 0
-1.4602691 -3.3125327 -0.090901084 0
-2.7590561 -5.3774819 -0.14036947 0
-5.5359969 -9.7925587 -0.14082925 0
-0.461137 -1.7668717 -0.091298528 0
-0.51913148 -1.864457 -0.090780072 0
-0.58816797 -1.9806224 -0.088556282 0
-0.69582379 -2.1617713 -0.090705417 0
-0.83079106 -2.3888764 -0.089309581 0
-1.0416352 -2.7436569 -0.089517765 0
-1.3967941 -3.3412712 -0.090300076 0
-2.654948 -5.4583249 -0.14105192 0
-5.3166499 -9.9370823 -0.14103544 0
-0.43984637 -1.7755646 -0.090635918 0
-0.49801481 -1.879317 -0.09121538 0
-0.57400769 -2.0148623 -0.092266388 0
-0.6638056 -2.1750307 -0.090069301 0
-0.79872984 -2.4156892 -0.090149961 0
-1.0020226 -2.7782936 -0.090468995 0
-1.3393565 -3.3799813 -0.090636037 0
-2.5409667 -5.5232396 -0.14101593 0
-5.0878005 -10.065914 -0.14096913 0
-0.42335922 -1.7930503 -0.092225619 0
-0.47643295 -1.8935808 -0.091632195 0
-0.54464155 -2.0227792 -0.091102235 0
-0.6334849 -2.1910632 -0.090011574 0
-0.76319975 -2.4367645 -0.090328671 0
-0.96018058 -2.8098788 -0.091191821 0
-1.2759157 -3.4079337 -0.090232514 0
-1.9271545 -4.6414881 -0.091296472 0
-4.8549008 -10.187125 -0.14085621 0
-0.39794025 -1.7934133 -0.089832045 0
-0.45018479 -1.8987263 -0.090242006 0
-0.51664001 -2.032685 -0.090454318 0
-0.60158134 -2.2039073 -0.089575268 0
-0.72374833 -2.4501681 -0.089622013 0
-0.91439337 -2.8344653 -0.091287173 0
-1.2191119 -3.4487088 -0.09096045 0
-1.8354453 -4.6910963 -0.09140677 0
-4.6206713 -10.305479 -0.14082411 0
-0.37882805 -1.8060255 -0.090489186 0
-0.42430696 -1.9038241 -0.088996507 0
-0.49106342 -2.0473783 -0.090810575 0
-0.56995428 -2.2170265 -0.089312218 0
-0.68504745 -2.4645247 -0.089175545 0
-0.86437148 -2.8501461 -0.09058436 0
-1.1557245 -3.4766767 -0.090803705 0
-1.7355641 -4.7235732 -0.090755768 0
-4.3840528 -10.418926 -0.1408191 0
-0.36150986 -1.8231922 -0.092307247 0
-0.40828609 -1.9308016 -0.092393138 0
-0.4637934 -2.058497 -0.090638734 0
-0.53472269 -2.2216709 -0.087876402 0
-0.65222812 -2.4919939 -0.090530179 0
-0.82009119 -2.8781652 -0.091274209 0
-1.0902483 -3.499666 -0.090391792 0
-1.6425989 -4.7703562 -0.090966813 0
-4.14605 -10.529581 -0.14089563 0
-0.33712578 -1.8241009 -0.090479054 0
-0.38013095 -1.9302857 -0.090250812 0
-0.43371999 -2.0626032 -0.089347862 0
-0.50825983 -2.2466509 -0.089674078 0
-0.61302996 -2.5053406 -0.090195291 0
-0.76864284 -2.8895671 -0.090396769 0
-1.0235888 -3.5190585 -0.089838125 0
-1.5421244 -4.7993836 -0.090402357 0
-3.9060936 -10.6363 -0.14102413 0
-0.31387377 -1.8268291 -0.089221768 0
-0.35501105 -1.9362596 -0.089578293 0
-0.40921795 -2.080457 -0.090616904 0
-0.47603443 -2.2581975 -0.089538731 0
-0.57698518 -2.5267396 -0.090993114 0
-0.71791244 -2.9016247 -0.089723103 0
-0.96726298 -3.5649297 -0.091393508 0
-1.4498279 -4.8486152 -0.09097486 0
-3.6575856 -10.721538 -0.14076902 0
-0.29716945 -1.8475403 -0.092154674 0
-0.33359346 -1.9523917 -0.091064133 0
-0.37764794 -2.0792086 -0.088659473 0
-0.44057491 -2.2603526 -0.088128917 0
-0.53705788 -2.5380921 -0.090654053 0
-0.67251271 -2.9280179 -0.090598948 0
-0.89907509 -3.580209 -0.090777002 0
-1.3509109 -4.8808813 -0.090821542 0
-3.411181 -10.811653 -0.14079128 0
-0.27226889 -1.8449218 -0.089952819 0
-0.30846432 -1.9582636 -0.090616666 0
-0.35353661 -2.0994022 -0.090555139 0
-0.41321748 -2.2862861 -0.090370931 0
-0.49797741 -2.551702 -0.090718813 0
-0.62298703 -2.9431555 -0.090477653 0
-0.8277089 -3.5842185 -0.089465208 0
-1.2507535 -4.9089341 -0.090586118 0
-3.1618299 -10.89325 -0.14075789 0
-0.24786019 -1.8421751 -0.087878413 0
-0.28788239 -1.9793516 -0.093282886 0
-0.32497054 -2.1064715 -0.090294577 0
-0.38120866 -2.2992282 -0.09079615 0
-0.4594807 -2.5675066 -0.091170855 0
-0.57534313 -2.9646263 -0.091095053 0
-0.76680613 -3.620868 -0.090671696 0
-1.1524576 -4.9426928 -0.090752162 0
-2.9122865 -10.974524 -0.14086996 0
-0.22996083 -1.8621628 -0.090952463 0
-0.25975433 -1.974774 -0.091032468 0
-0.29486895 -2.1074975 -0.089131318 0
-0.34369016 -2.292028 -0.088408284 0
-0.41864148 -2.5753231 -0.090772055 0
-0.52229041 -2.9670873 -0.089989401 0
-0.69819856 -3.6319714 -0.090134345 0
-1.053115 -4.9734569 -0.090892814 0
-2.6596158 -11.045583 -0.14088759 0
-0.20751056 -1.8662252 -0.090627722 0
-0.23497096 -1.9817297 -0.091166265 0
-0.26754284 -2.1187341 -0.089828722 0
-0.3109428 -2.3012838 -0.088549025 0
-0.37713426 -2.5796998 -0.090086587 0
-0.47259781 -2.9812403 -0.090141021 0
-0.63419443 -3.6609514 -0.091009609 0
-0.94940937 -4.9868145 -0.090320028 0
-2.4041364 -11.105716 -0.14079688 0
-0.18715841 -1.8799174 -0.092520215 0
-0.20803076 -1.9787277 -0.089503162 0
-0.23720095 -2.1168201 -0.088429563 0
-0.27912566 -2.3152926 -0.089490794 0
-0.33809972 -2.5944777 -0.090772755 0
-0.42501432 -3.0059335 -0.09141735 0
-0.56475949 -3.667491 -0.090392567 0
-0.84518331 -4.9950247 -0.089630269 0
-2.1473632 -11.159578 -0.14071134 0
-0.16220921 -1.8713114 -0.089695044 0
-0.18221632 -1.9794513 -0.088691987 0
-0.20853505 -2.121706 -0.088301785 0
-0.24624835 -2.3255494 -0.09000694 0
-0.29826027 -2.6066775 -0.091266684 0
-0.36879447 -2.9879203 -0.088748135 0
-0.49714732 -3.6816771 -0.090446942 0
-0.94467908 -6.1006203 -0.14102396 0
-1.891261 -11.216968 -0.1408632 0
-0.1396807 -1.8737496 -0.089394085 0
-0.16069026 -2.0058606 -0.092907317 0
-0.18002459 -2.1274374 -0.088435881 0
-0.21340097 -2.3373127 -0.090853773 0
-0.25696883 -2.6112731 -0.090977989 0
-0.31847975 -2.9980621 -0.088885017 0
-0.42883992 -3.6920216 -0.090350218 0
-0.81298113 -6.107553 -0.14030273 0
-1.6323289 -11.259722 -0.1408224 0
-0.11840283 -1.8851413 -0.091136284 0
-0.13267156 -1.9922192 -0.089601643 0
-0.1512273 -2.1314681 -0.088407062 0
-0.17812189 -2.3332949 -0.089578159 0
-0.21427216 -2.6045797 -0.089482315 0
-0.26978758 -3.0211875 -0.090363868 0
-0.36230543 -3.7154751 -0.091300167 0
-0.68490779 -6.1364002 -0.14076957 0
-1.3731577 -11.301278 -0.14090721 0
-0.095903866 -1.8891889 -0.091418646 0
-0.10799757 -2.0015268 -0.090786569 0
-0.12338433 -2.1444535 -0.089978911 0
-0.14367278 -2.3329122 -0.088945828 0
-0.17399201 -2.6145461 -0.090075932 0
-0.2175104 -3.0187867 -0.089557864 0
-0.29276976 -3.7178674 -0.090884902 0
-0.55422109 -6.1464772 -0.14050783 0
-1.1117166 -11.325028 -0.14072862 0
-0.072187297 -1.8794179 -0.088874482 0
-0.083030023 -2.0113368 -0.092181809 0
-0.093962453 -2.144347 -0.089504533 0
-0.11126459 -2.3548548 -0.091585614 0
-0.13317597 -2.6214411 -0.090427481 0
-0.16565907 -3.0166495 -0.08890193 0
-0.22419785 -3.7288661 -0.091197468 0
-0.42409664 -6.1609492 -0.14060619 0
-0.8507784 -11.352206 -0.14078444 0
-0.050628006 -1.8972157 -0.092331059 0
-0.0568958 -2.0074952 -0.091118626 0
-0.064968668 -2.1495345 -0.090024717 0
-0.075878195 -2.3414836 -0.089366041 0
-0.080731541 -2.4268765 -0.067315973 0
-0.081292868 -2.436753 -0.034354109 0
-0.081018142 -2.4319193 -4.5595461e-05 0
-0.081561625 -2.4414816 0.033255126 0
-0.081201091 -2.4351382 0.067299582 0
-0.081307463 -2.4370098 0.10101179 0
-0.027451558 -1.8902344 -0.090630941 0
-0.031086806 -2.0054517 -0.090519466 0
-0.035641477 -2.1498098 -0.089857139 0
-0.04060911 -2.3072565 -0.084341444 0
-0.04082213 -2.3140082 -0.053930555 0
-0.040812138 -2.3136914 -0.02271097 0
-0.040912841 -2.3168831 0.0081130955 0
-0.040712871 -2.3105452 0.039429318 0
-0.040757585 -2.3119624 0.070202425 0
-0.040752064 -2.3117874 0.10100817 0
-0.0047043068 -1.8896255 -0.090410031 0
-0.0054552043 -2.0086801 -0.091036119 0
-0.0063080951 -2.1439056 -0.08879564 0
-0.0067185964 -2.2089906 -0.070442893 0
-0.0066741584 -2.2019448 -0.040759135 0
-0.0066570351 -2.19923 -0.011967851 0
-0.0067390278 -2.21223 0.01547383 0
-0.006694288 -2.2051365 0.044366069 0
-0.0067710774 -2.2173114 0.07241784 0
-0.0067209741 -2.2093675 0.10100523 0
0.018071912 -1.892553 -0.091062866 0
0.02017731 -2.0037799 -0.090143569 0
0.022969117 -2.1512697 -0.090036355 0
0.023919582 -2.2014823 -0.069414817 0
0.024022451 -2.2069166 -0.04136287 0
0.023969702 -2.2041299 -0.01244328 0
0.023828408 -2.1966655 0.016548516 0
0.023901856 -2.2005455 0.044570819 0
0.023853114 -2.1979706 0.07286305 0
0.023797611 -2.1950386 0.10100482 0
0.040796977 -1.8904843 -0.090775706 0
0.045926109 -2.006557 -0.090819381 0
0.052045401 -2.1450372 -0.089163207 0
0.054431207 -2.1990283 -0.069205321 0
0.05458663 -2.2025454 -0.040964875 0
0.054750256 -2.2062483 -0.012731535 0
0.054430902 -2.1990213 0.016316408 0
0.054217376 -2.1941891 0.044822104 0
0.054707851 -2.2052886 0.072670348 0
0.054613609 -2.203156 0.10100508 0
0.063539609 -1.8894424 -0.090828933 0
0.07163842 -2.0059628 -0.090982489 0
0.081161372 -2.1429729 -0.089096017 0
0.084587 -2.1922586 -0.068495952 0
0.085064515 -2.1991289 -0.040768329 0
0.086179979 -2.2151773 -0.013730196 0
0.085584402 -2.2066085 0.015663194 0
0.085446857 -2.2046297 0.044254281 0
0.085602246 -2.2068653 0.072592981 0
0.085047491 -2.198884 0.10100501 0
0.086876884 -1.8943787 -0.092281125 0
0.097934 -2.0108786 -0.092311077 0
0.11133839 -2.1521096 -0.090999059 0
0.11535432 -2.1944222 -0.069153257 0
0.11568189 -2.1978736 -0.040915255 0
0.11601782 -2.2014129 -0.012677802 0
0.11553266 -2.1963012 0.016209887 0
0.11590032 -2.200175 0.044344842 0
0.11572135 -2.1982894 0.072734356 0
0.1159466 -2.2006626 0.10100514 0
0.10980745 -1.8929336 -0.092497475 0
0.12173416 -1.991961 -0.089247994 0
0.14005159 -2.1440504 -0.090187155 0
0.14649168 -2.1975224 -0.070054866 0
0.14688398 -2.2007797 -0.04164334 0
0.14749223 -2.2058301 -0.013402244 0
0.14777301 -2.2081614 0.015144186 0
0.14789832 -2.2092018 0.043767523 0
0.14657231 -2.1981919 0.07265982 0
0.1466907 -2.1991749 0.10100519 0
0.13169251 -1.8838773 -0.091203682 0
0.14727835 -1.9905407 -0.089618392 0
0.16911903 -2.1400096 -0.09015993 0
0.17861433 -2.2049921 -0.071691848 0
0.17753977 -2.197638 -0.041752655 0
0.17839094 -2.2034631 -0.01356422 0
0.1773005 -2.1960006 0.01571426 0
0.17768037 -2.1986003 0.044073626 0
0.17682196 -2.1927257 0.072692901 0
0.17871626 -2.2056894 0.10100549 0
0.1541039 -1.8796068 -0.091055416 0
0.1737318 -1.9937258 -0.090993516 0
0.19959508 -2.144098 -0.09161029 0
0.2097284 -2.2030144 -0.072104178 0
0.20961261 -2.2023411 -0.042884324 0
0.20863679 -2.1966677 -0.013381196 0
0.20803961 -2.1931956 0.015570397 0
0.20949391 -2.2016511 0.043700717 0
0.20857528 -2.19631 0.072494626 0
0.20662612 -2.1849773 0.10100503 0
0.17665137 -1.8761297 -0.091200583 0
0.19885685 -1.9882255 -0.090835728 0
0.22535902 -2.1220112 -0.088810988 0
0.24109186 -2.2014325 -0.072687469 0
0.24053915 -2.1986423 -0.043116827 0
0.24013469 -2.1966004 -0.013909942 0
0.24089894 -2.2004585 0.014653133 0
0.24221946 -2.2071247 0.043172933 0
0.24131136 -2.2025404 0.072213694 0
0.23955293 -2.1936636 0.10100545 0
0.20034799 -1.8775487 -0.092536829 0
0.22345944 -1.9805156 -0.090372629 0
0.25592628 -2.1251631 -0.090356223 0
0.27389857 -2.2052336 -0.074163146 0
0.2721273 -2.1973424 -0.043731246 0
0.27239257 -2.1985242 -0.014707981 0
0.27324048 -2.2023017 0.014059709 0
0.27113235 -2.1929095 0.043542258 0
0.27128366 -2.1935835 0.072273426 0
0.27134553 -2.1938593 0.10100564 0
0.22311246 -1.8738936 -0.092900224 0
0.24965659 -1.9795979 -0.091345839 0
0.28430733 -2.1175845 -0.09022335 0
0.30286616 -2.1914897 -0.073225565 0
0.30293065 -2.1917465 -0.043927703 0
0.3046279 -2.1985054 -0.01540227 0
0.30559483 -2.2023559 0.013532819 0
0.30718115 -2.208673 0.042440034 0
0.30615076 -2.2045696 0.071837381 0
0.30551815 -2.2020504 0.10100609 0
0.24061397 -1.8509386 -0.089134358 0
0.27280745 -1.966693 -0.090111233 0
0.31144038 -2.1056013 -0.089459904 0
0.33801398 -2.201149 -0.075801454 0
0.3378666 -2.2006192 -0.045974676 0
0.34003523 -2.2084167 -0.01714207 0
0.34010133 -2.2086544 0.012490058 0
0.34028935 -2.2093303 0.042016182 0
0.33524576 -2.1911957 0.071964972 0
0.33625147 -2.1948118 0.10100612 0
0.26240689 -1.8450403 -0.08922825 0
0.29683065 -1.9577197 -0.089756019 0
0.33912259 -2.096154 -0.089243613 0
0.37368426 -2.2092848 -0.07830327 0
0.37256175 -2.2056103 -0.047670517 0
0.3724345 -2.2051938 -0.01770035 0
0.37287125 -2.2066236 0.011984663 0
0.3729659 -2.2069333 0.041697215 0
0.36992753 -2.1969876 0.071609817 0
0.37174764 -2.2029455 0.10100663 0
0.28759304 -1.8492064 -0.091700681 0
0.32369775 -1.9575279 -0.091261186 0
0.36832649 -2.091423 -0.089963146 0
0.42939651 -2.2746453 -0.089436077 0
0.51840943 -2.541702 -0.090277873 0
0.64983952 -2.9360189 -0.090565495 0
0.86895275 -3.5934026 -0.090927832 0
1.3027562 -4.8948998 -0.090687864 0
3.2916496 -10.861981 -0.14098905 0
0.30579269 -1.8322828 -0.089571856 0
0.34659582 -1.9451258 -0.090469815 0
0.39843991 -2.0885031 -0.091134019 0
0.46205688 -2.2644389 -0.089587368 0
0.56055629 -2.536844 -0.091358058 0
0.6926915 -2.9022703 -0.088902257 0
0.92802536 -3.5530977 -0.089621253 0
1.4028022 -4.866116 -0.090950482 0
3.5398293 -10.77617 -0.1409979 0
0.33034694 -1.8329861 -0.091548525 0
0.37171128 -1.9389416 -0.091044135 0
0.4264681 -2.0792019 -0.091324069 0
0.49527365 -2.2554486 -0.090047367 0
0.59670025 -2.5152545 -0.09048257 0
0.74530047 -2.8958967 -0.090073399 0
0.99971932 -3.5475948 -0.091024913 0
1.4992375 -4.8271189 -0.090830855 0
3.7821434 -10.674821 -0.14077465 0
0.34978113 -1.8202425 -0.090588458 0
0.39154953 -1.9197459 -0.089095511 0
0.45596236 -2.0731943 -0.092228614 0
0.52537817 -2.2385609 -0.089435749 0
0.63378149 -2.4968064 -0.09011098 0
0.79865289 -2.8895736 -0.091395877 0
1.0646024 -3.5231352 -0.091142751 0
1.6003995 -4.7995453 -0.09140902 0
4.027113 -10.580618 -0.14088267 0
0.37628534 -1.8237381 -0.093516074 0
0.4192262 -1.9192106 -0.091081344 0
0.48163778 -2.0579729 -0.091616549 0
0.55564976 -2.222527 -0.089065142 0
0.66982555 -2.4763792 -0.089600809 0
0.84182346 -2.8587897 -0.090367012 0
1.1217201 -3.4810963 -0.090039216 0
1.6917775 -4.7485299 -0.090926759 0
4.2693868 -10.479443 -0.14097092 0
0.38705945 -1.7928563 -0.088529177 0
0.4417986 -1.9067856 -0.090752028 0
0.50967121 -2.0480497 -0.092080511 0
0.59112781 -2.2175863 -0.090538047 0
0.70761162 -2.4600255 -0.089729898 0
0.89204758 -2.8438942 -0.091083117 0
1.1920857 -3.4683673 -0.091306709 0
1.78567 -4.7038016 -0.090881772 0
4.5024114 -10.358189 -0.14069913 0
0.41597351 -1.799976 -0.092616566 0
0.46915561 -1.9038649 -0.092549272 0
0.53520823 -2.0328958 -0.091714598 0
0.6162408 -2.1911895 -0.088783152 0
0.74285758 -2.43853 -0.089309998 0
0.93845028 -2.8206122 -0.091061197 0
1.2502737 -3.4297462 -0.090695761 0
1.8825547 -4.6648798 -0.091263063 0
4.737062 -10.241039 -0.14068368 0
0.43338314 -1.7838948 -0.091321327 0
0.48669189 -1.8818558 -0.090425275 0
0.55768013 -2.0123053 -0.090446137 0
0.64900845 -2.1801317 -0.089558892 0
0.77880532 -2.4186487 -0.089216657 0
0.97909528 -2.7867053 -0.090033554 0
1.3086522 -3.3923049 -0.090286396 0
1.9658985 -4.6000724 -0.090406381 0
4.9745717 -10.128864 -0.14095545 0
0.45284358 -1.7719514 -0.091129817 0
0.51387358 -1.8776582 -0.092239507 0
0.58865845 -2.007189 -0.092202686 0
0.67856681 -2.1629148 -0.089479811 0
0.82021505 -2.4082561 -0.09052407 0
1.0309715 -2.7732964 -0.091309913 0
1.369192 -3.3591101 -0.090331949 0
2.6037025 -5.4973407 -0.14136747 0
5.2065034 -10.005515 -0.14109099 0
0.47566998 -1.7655718 -0.092443012 0
0.52669942 -1.8490213 -0.088836633 0
0.60791016 -1.9818268 -0.090235703 0
0.71326476 -2.1541152 -0.090908088 0
0.84509248 -2.3696957 -0.088135131 0
1.0698966 -2.7373223 -0.090279482 0
1.4270335 -3.3213556 -0.090128832 0
2.7072392 -5.4149013 -0.14053066 0
5.4263806 -9.8615685 -0.14082566 0
0.48847556 -1.7430966 -0.089848049 0
0.5546065 -1.8453522 -0.091050364 0
0.6309315 -1.9633706 -0.089682452 0
0.74250752 -2.1358962 -0.090928741 0
0.88459003 -2.3555927 -0.089197733 0
1.1156876 -2.7129297 -0.090627842 0
1.492622 -3.2957687 -0.091056012 0
2.8166931 -5.3431282 -0.14041519 0
5.6502371 -9.7245255 -0.1408996 0
0.51559299 -1.7426386 -0.092958264 0
0.57485402 -1.8293903 -0.090657867 0
0.6624788 -1.9576634 -0.091771834 0
0.76900029 -2.1135993 -0.090380348 0
0.92223853 -2.3379235 -0.089913957 0
1.1563523 -2.6806407 -0.090219192 0
1.5551982 -3.264508 -0.091657899 0
2.9326959 -5.2810154 -0.14099686 0
5.8700724 -9.5810175 -0.14095053 0
0.52611333 -1.7178664 -0.089932434 0
0.59607953 -1.814937 -0.09072607 0
0.68583721 -1.9394661 -0.091529004 0
0.80643761 -2.1067863 -0.092619054 0
0.95054781 -2.3067236 -0.088829659 0
1.2059789 -2.6611068 -0.091387711 0
1.6062216 -3.2164004 -0.090953954 0
3.0386541 -5.2037463 -0.14088595 0
6.0741377 -9.4151535 -0.14051932 0
0.54358101 -1.7034006 -0.089669727 0
0.61909348 -1.8027803 -0.091464393 0
0.71075284 -1.9234104 -0.091844089 0
0.82118201 -2.0687428 -0.089554079 0
0.99965322 -2.3036232 -0.091952898 0
1.2450364 -2.6265645 -0.090964921 0
1.6621941 -3.1755731 -0.090987645 0
3.1411774 -5.1220179 -0.14066708 0
6.2931719 -9.2702618 -0.14084119 0
0.57053816 -1.7008669 -0.092769273 0
0.63324106 -1.7792037 -0.08960145 0
0.73258996 -1.9033235 -0.091448091 0
0.84982032 -2.0497832 -0.089928277 0
1.0200371 -2.2624404 -0.08962252 0
1.2830157 -2.5909882 -0.090526573 0
1.7129728 -3.1281474 -0.09055642 0
3.2486827 -5.0467591 -0.14098239 0
6.503612 -9.1132479 -0.14097165 0
0.57815897 -1.6742231 -0.089420654 0
0.66099799 -1.7725261 -0.09194795 0
0.75577366 -1.8849941 -0.091538571 0
0.88603753 -2.0395749 -0.092050306 0
1.0583481 -2.2440515 -0.090803705 0
1.3277694 -2.5637672 -0.091214545 0
1.7640461 -3.0814857 -0.090301789 0
3.3412147 -4.9530725 -0.14034605 0
6.6937714 -8.931469 -0.14051175 0
0.59676611 -1.6611443 -0.089904241 0
0.68191582 -1.7571644 -0.092335783 0
0.77656925 -1.8639015 -0.09115126 0
0.90278178 -2.0062265 -0.090043671 0
1.0892501 -2.2164998 -0.090729691 0
1.3646947 -2.5271082 -0.090880014 0
1.8204395 -3.0410342 -0.090740822 0
3.4476168 -4.8759408 -0.14086919 0
6.9025798 -8.7719717 -0.14088146 0
0.62104023 -1.6539506 -0.092245109 0
0.68897843 -1.7267746 -0.088996269 0
0.78825819 -1.833194 -0.088710286 0
0.93271112 -1.9880353 -0.090982743 0
1.1173619 -2.1859653 -0.090300448 0
1.4028916 -2.492029 -0.090856828 0
1.8676504 -2.990211 -0.090333216 0
3.5422442 -4.7852335 -0.14070952 0
7.0966139 -8.5952168 -0.14087693 0
0.62830412 -1.6286075 -0.089419998 0
0.71709454 -1.7190943 -0.091612317 0
0.81990075 -1.8238647 -0.091197841 0
0.95786345 -1.9644631 -0.091032825 0
1.1458344 -2.1560254 -0.090072624 0
1.439312 -2.4551098 -0.090717055 0
1.9088608 -2.9336295 -0.089466758 0
3.6362824 -4.6940541 -0.140669 0
7.2922316 -8.4198513 -0.14107516 0
0.64705765 -1.6153109 -0.090255432 0
0.72874773 -1.694464 -0.089899071 0
0.84006411 -1.8023233 -0.091052987 0
0.98564488 -1.943383 -0.091714121 0
1.1757854 -2.1276183 -0.090215437 0
1.4737538 -2.416333 -0.090446152 0
1.9643451 -2.8916883 -0.090151481 0
3.7386875 -4.6109266 -0.14132293 0
7.4596105 -8.2162914 -0.14049953 0
0.66093415 -1.5972325 -0.0897604 0
0.75377011 -1.6827508 -0.091809951 0
0.86180931 -1.782274 -0.09138789 0
1.0080281 -1.9169675 -0.091451205 0
1.2040991 -2.0975835 -0.090210132 0
1.5157325 -2.3846531 -0.091263689 0
2.5404625 -3.3286111 -0.14040868 0
3.8173189 -4.5048223 -0.14059146 0
7.6517148 -8.0369806 -0.14088313 0
0.67386889 -1.5784663 -0.089140527 0
0.77302903 -1.6652892 -0.092311136 0
0.87950331 -1.7585161 -0.090942331 0
1.0298399 -1.8901479 -0.091213264 0
1.2268841 -2.0626762 -0.089465238 0
1.5339973 -2.3315787 -0.089221679 0
2.6071446 -3.2712064 -0.14119545 0
3.9124436 -4.4141021 -0.14106417 0
7.8234935 -7.8385439 -0.1407717 0
0.68548769 -1.5587782 -0.088302039 0
0.78618383 -1.6425531 -0.091415517 0
0.9062081 -1.742408 -0.092562072 0
1.0484002 -1.8607057 -0.090510972 0
1.2480358 -2.026794 -0.08862289 0
1.5567069 -2.2835951 -0.087926187 0
2.6567929 -3.1988194 -0.14055005 0
3.9921088 -4.3097448 -0.14073104 0
7.9931245 -7.6384182 -0.14075077 0
0.7024582 -1.5435538 -0.089065932 0
0.8006956 -1.6211739 -0.091002457 0
0.92047048 -1.7158113 -0.091629691 0
1.0688559 -1.8330545 -0.090296499 0
1.2754568 -1.9962956 -0.088867284 0
1.6024994 -2.2547007 -0.089547761 0
2.7127104 -3.1319089 -0.14064045 0
4.075912 -4.2090116 -0.14080791 0
8.1576414 -7.4340963 -0.14072995 0
0.72331768 -1.5310016 -0.090951882 0
0.81357753 -1.5986904 -0.090341739 0
0.92997873 -1.6859834 -0.089877389 0
1.0958099 -1.8103456 -0.091351368 0
1.3129722 -1.9732028 -0.090695344 0
1.6328555 -2.2130938 -0.089423917 0
2.7683842 -3.0646644 -0.14085688 0
4.1532741 -4.1032386 -0.14065793 0
8.3219671 -7.2294784 -0.1408553 0
0.7373485 -1.5130253 -0.091106541 0
0.83140516 -1.5799214 -0.090968229 0
0.9426856 -1.6590676 -0.08895459 0
1.1103704 -1.7783304 -0.090349935 0
1.3336366 -1.9371245 -0.090158544 0
1.6683177 -2.1751604 -0.090008534 0
2.8209012 -2.9949148 -0.14094561 0
4.2359376 -4.0013337 -0.14096741 0
8.4684668 -7.0116439 -0.14061856 0
0.75296646 -1.4960569 -0.091782756 0
0.85008442 -1.5615044 -0.09188617 0
0.96968764 -1.6421045 -0.09101627 0
1.1339469 -1.7527982 -0.09103144 0
1.3428789 -1.8935966 -0.088150479 0
1.6904746 -2.1278398 -0.08919441 0
2.8671386 -2.9207892 -0.14065319 0
4.3049827 -3.8897467 -0.14065285 0
8.627984 -6.803 -0.14090632 0
0.76102817 -1.4740615 -0.090651982 0
0.86685407 -1.5415581 -0.092467569 0
0.98528618 -1.6170952 -0.090906315 0
1.1458174 -1.7194835 -0.08985915 0
1.3605517 -1.8564429 -0.087496661 0
1.7369227 -2.0964956 -0.091215901 0
2.9200132 -2.8510814 -0.14107221 0
4.3909726 -3.7892723 -0.14143577 0
8.7683535 -6.5812044 -0.14080787 0
0.77561933 -1.4562988 -0.091297783 0
0.86813051 -1.5120707 -0.089744352 0
1.0060248 -1.5952023 -0.09190651 0
1.1709249 -1.6946148 -0.091015808 0
1.4033788 -1.8347533 -0.090414517 0
1.7545141 -2.0464404 -0.09014868 0
2.9622514 -2.7745433 -0.14076144 0
4.4414868 -3.6663227 -0.14041735 0
8.9175062 -6.364758 -0.14110255 0
0.78363913 -1.4346043 -0.090437777 0
0.89034903 -1.4953189 -0.091760658 0
1.0272715 -1.5732236 -0.093093805 0
1.1929058 -1.6674643 -0.091752701 0
1.4246916 -1.7993432 -0.090471976 0
1.7891557 -2.006712 -0.091064416 0
3.0074732 -2.6998966 -0.14085159 0
4.5149775 -3.5576196 -0.14081158 0
9.0350552 -6.1294031 -0.14069487 0
0.80120355 -1.4182411 -0.0920242 0
0.89625669 -1.4691926 -0.09035518 0
1.0323786 -1.5421584 -0.091359697 0
1.2010895 -1.6325929 -0.090389721 0
1.4408158 -1.761094 -0.089960001 0
1.8105222 -1.9592686 -0.090668879 0
3.0482526 -2.6227319 -0.14073867 0
4.5850606 -3.4465108 -0.14116649 0
9.1718616 -5.9051838 -0.14095846 0
0.80397171 -1.393983 -0.090167589 0
0.91131645 -1.4480821 -0.091037787 0
1.0437833 -1.5148422 -0.090951823 0
1.2169331 -1.6021053 -0.090388887 0
1.4559715 -1.7225746 -0.089454912 0
1.8352278 -1.9137105 -0.090753369 0
3.104692 -2.5534887 -0.14200661 0
4.6361017 -3.3252811 -0.14067136 0
9.2862234 -5.6688261 -0.14078268 0
0.82008153 -1.3765033 -0.091614656 0
0.92074621 -1.4240898 -0.090651102 0
1.0632335 -1.4914469 -0.092137463 0
1.2261838 -1.5684772 -0.089483552 0
1.4892776 -1.6928477 -0.09142866 0
1.8598495 -1.8680255 -0.090947635 0
3.1281042 -2.4675589 -0.14084159 0
4.6983976 -3.209873 -0.14092018 0
9.4013624 -5.4330726 -0.14078335 0
0.82636553 -1.354287 -0.090865113 0
0.93306249 -1.4014693 -0.090988584 0
1.0558827 -1.4557813 -0.088600434 0
1.2404995 -1.5374204 -0.089497752 0
1.5035049 -1.6537235 -0.091038845 0
1.8814495 -1.8208537 -0.090949722 0
3.1626105 -2.3873935 -0.14070429 0
4.7498636 -3.0892897 -0.14076412 0
9.5133505 -5.1957417 -0.14085604 0
0.83656377 -1.3338616 -0.091152944 0
0.94660473 -1.3792388 -0.091689296 0
1.0779011 -1.4333811 -0.090482093 0
1.2531075 -1.5056304 -0.089372002 0
1.527004 -1.6185762 -0.091950752 0
1.9027351 -1.7735151 -0.091040917 0
3.1995416 -2.308275 -0.14090559 0
4.8003736 -2.9684048 -0.14071561 0
9.6098576 -4.9516754 -0.14069013 0
0.83628035 -1.3093315 -0.089170016 0
0.94832194 -1.3522592 -0.090111889 0
1.0824944 -1.403666 -0.089378782 0
1.2649539 -1.4735736 -0.089254208 0
1.5251051 -1.5732479 -0.089786701 0
1.927336 -1.7273587 -0.091582648 0
3.2274151 -2.225471 -0.14057714 0
4.8459573 -2.8455994 -0.14057484 0
9.7077246 -4.7083368 -0.1407138 0
0.84803563 -1.2895529 -0.090059988 0
0.97156894 -1.3333422 -0.092987619 0
1.0915725 -1.3758802 -0.089198731 0
1.2808084 -1.4429593 -0.089856289 0
1.5508931 -1.5386971 -0.09121757 0
1.9377817 -1.6758388 -0.090833642 0
3.2601359 -2.144578 -0.14076686 0
4.8970346 -2.7248149 -0.14086051 0
9.7994795 -4.4626002 -0.14073873 0
0.86059439 -1.2697991 -0.091234423 0
0.97686666 -1.3077406 -0.092378579 0
1.1001587 -1.3479725 -0.089056857 0
1.2877809 -1.4091965 -0.089255132 0
1.5579385 -1.497353 -0.090440206 0
1.9520122 -1.625945 -0.090590619 0
3.2877524 -2.0618169 -0.14073047 0
4.9394617 -2.6007943 -0.14087015 0
9.8823872 -4.2137442 -0.1406994 0
0.86316448 -1.2467566 -0.090295218 0
0.97562397 -1.2803388 -0.090615995 0
1.1089596 -1.320155 -0.089074172 0
1.3060718 -1.3790159 -0.090444006 0
1.5638765 -1.4560007 -0.089661397 0
1.9516672 -1.5718014 -0.089052744 0
3.3138368 -1.9785677 -0.14073557 0
4.9825616 -2.4768765 -0.14106509 0
9.9728251 -3.9670513 -0.1409961 0
0.87837082 -1.2273586 -0.092274092 0
0.98039037 -1.2550398 -0.09017361 0
1.1160316 -1.2918437 -0.088916965 0
1.3117949 -1.3449606 -0.089906029 0
1.559675 -1.4122185 -0.087786846 0
1.9757144 -1.5251036 -0.090017088 0
3.326771 -1.8916891 -0.13994081 0
5.0183067 -2.3506577 -0.14105533 0
10.034871 -3.7118146 -0.14075734 0
0.87306935 -1.2024496 -0.089860789 0
0.99184823 -1.2314814 -0.091155626 0
1.1326007 -1.265884 -0.090488784 0
1.3186619 -1.3113611 -0.089661606 0
1.5851353 -1.3764925 -0.089625932 0
1.9709296 -1.4707881 -0.088318713 0
3.3615203 -1.8106759 -0.14087926 0
5.0379953 -2.2204392 -0.1404293 0
10.107183 -3.4594483 -0.14092042 0
0.887923 -1.1825025 -0.091982536 0
0.98192924 -1.2029805 -0.088126428 0
1.1411775 -1.2376707 -0.090818219 0
1.3200701 -1.2766401 -0.088755704 0
1.6091087 -1.3396032 -0.091385238 0
1.979995 -1.420396 -0.088084094 0
3.3865848 -1.7268029 -0.14126632 0
5.0785475 -2.0953748 -0.14095785 0
10.160109 -3.2023261 -0.14077334 0
0.89089876 -1.1597527 -0.091632642 0
1.0062627 -1.18185 -0.091818877 0
1.1434828 -1.2081338 -0.090216033 0
1.3408041 -1.2459296 -0.090745188 0
1.6103766 -1.2975649 -0.090545245 0
2.5524874 -1.4780211 -0.14151829 0
3.3913462 -1.6387001 -0.14035743 0
5.0984712 -1.965691 -0.14065601 0
10.216217 -2.9459679 -0.14085631 0
0.88572329 -1.1357232 -0.089651965 0
1.0041815 -1.1553288 -0.090555124 0
1.1506715 -1.1795737 -0.090554334 0
1.3444582 -1.2116464 -0.090404101 0
1.6072627 -1.255142 -0.08931566 0
2.55632 -1.4122163 -0.1407911 0
3.4129167 -1.5539879 -0.14080136 0
5.1206579 -1.8366286 -0.14061703 0
10.258762 -2.6870134 -0.14077215 0
0.90162235 -1.1150976 -0.092331804 0
1.0097771 -1.130205 -0.090883322 0
1.1566795 -1.1507248 -0.090815373 0
1.3543315 -1.1783334 -0.091069706 0
1.6299577 -1.2168337 -0.091262631 0
2.5630045 -1.3471646 -0.14049211 0
3.4273701 -1.4679018 -0.14089254 0
5.1543512 -1.709132 -0.14127249 0
10.301042 -2.4280374 -0.14083576 0
0.89514124 -1.091265 -0.090327494 0
1.0135282 -1.104766 -0.090981312 0
1.1550018 -1.1208999 -0.089924954 0
1.3501487 -1.143155 -0.089864366 0
1.6312903 -1.1752169 -0.090805061 0
2.5772235 -1.283093 -0.14105625 0
3.4337115 -1.3807687 -0.14056581 0
5.1723161 -1.5790426 -0.14134012 0
10.33239 -2.1675079 -0.1407966 0
0.90534008 -1.0693723 -0.092015572 0
1.0119805 -1.0788151 -0.090198703 0
1.1252593 -1.0888457 -0.084530346 0
1.128225 -1.0891083 -0.058067251 0
1.6297041 -1.1335133 -0.090129457 0
2.5844171 -1.2180514 -0.14111255 0
3.455529 -1.2951868 -0.14148049 0
5.181818 -1.4480464 -0.1411657 0
10.357418 -1.9063361 -0.14076367 0
0.90410525 -1.0463413 -0.091383554 0
1.0072873 -1.0528591 -0.088947408 0
1.1297221 -1.060593 -0.084910579 0
1.128535 -1.060518 -0.057806809 0
1.6384828 -1.0927304 -0.090792082 0
2.5932529 -1.1530412 -0.14147604 0
3.4472303 -1.2069852 -0.14043558 0
5.1850338 -1.3167588 -0.14085273 0
10.377623 -1.6447639 -0.14077216 0
0.90286332 -1.0234456 -0.090874352 0
1.0227911 -1.0279871 -0.091627769 0
1.1352203 -1.0322447 -0.085578077 0
1.1390892 -1.0323912 -0.059088845 0
1.6394753 -1.05134 -0.090663888 0
2.5908353 -1.0873667 -0.14094138 0
3.4573219 -1.1201793 -0.14083408 0
5.2025223 -1.1862675 -0.14135943 0
10.403191 -1.3832093 -0.14105912 0
0.90326053 -1.000677 -0.090836652 0
1.0151347 -1.0020885 -0.090062924 0
1.1266488 -1.0034956 -0.084050454 0
1.1400522 -1.0036646 -0.059122268 0
1.1235902 -1.003457 -0.030243879 0
1.1428996 -1.0037006 -0.00562579 0
1.1317599 -1.0035601 0.021911526 0
1.1396859 -1.0036601 0.047953855 0
1.1331946 -1.0035782 0.074643679 0
1.1315382 -1.0035572 0.10100268 0
1.1296751 -1.0035337 0.12727977 0
1.1323225 -1.0035671 0.15370886 0
1.1356891 -1.0036097 0.18036908 0
1.1335745 -1.003583 0.20676135 0
1.1320782 -1.003564 0.23324223 0
1.1315283 -1.0035571 0.25993091 0
1.1367779 -1.0036234 0.28772274 0
1.1377023 -1.003635 0.31515849 0
0.90446413 -0.97789258 -0.091092505 0
1.0193139 -0.97644347 -0.090850152 0
1.1407512 -0.97491121 -0.086368404 0
1.1343107 -0.97499245 -0.058315326 0
1.6450394 -0.96854836 -0.091192223 0
2.592452 -0.95659441 -0.14093828 0
3.4569614 -0.94568646 -0.14065492 0
5.1954207 -0.92375141 -0.14087451 0
10.408391 -0.85797679 -0.14102592 0
0.9081527 -0.95493883 -0.091999479 0
1.0193731 -0.95072705 -0.090983503 0
1.1325878 -0.94643974 -0.085145123 0
1.1300102 -0.94653738 -0.057812024 0
1.6266066 -0.92773199 -0.089158811 0
2.5852859 -0.89142817 -0.14042303 0
3.4517269 -0.85861731 -0.14044265 0
5.1826057 -0.79307139 -0.14043157 0
10.380744 -0.59622532 -0.14053684 0
0.90665096 -0.93208259 -0.091925748 0
1.0100788 -0.92554927 -0.089474238 0
1.1314328 -0.91788357 -0.085192285 0
1.1358092 -0.91760713 -0.058831099 0
1.6372662 -0.88593113 -0.090649612 0
2.5914433 -0.82565773 -0.14130679 0
3.4561553 -0.77103561 -0.14106077 0
5.1908226 -0.66146022 -0.14112274 0
10.378303 -0.33377782 -0.14078799 0
0.88403928 -0.9110986 -0.087470122 0
1.0239375 -0.89871085 -0.092459612 0
1.1597621 -0.88668382 -0.090223141 0
1.3484403 -0.86997676 -0.089136221 0
1.6426855 -0.8439219 -0.091652565 0
2.5786057 -0.7610479 -0.14056799 0
3.4402425 -0.68475151 -0.14040765 0
5.1808977 -0.53061974 -0.14112271 0
10.358006 -0.072196513 -0.14077741 0
0.90062743 -0.88669407 -0.091501214 0
1.0211881 -0.87294507 -0.092433415 0
1.1532141 -0.85788858 -0.08962924 0
1.3531302 -0.83508974 -0.090286084 0
1.6322041 -0.8032636 -0.090912543 0
2.574281 -0.69582725 -0.14077982 0
3.4390066 -0.5972122 -0.14093837 0
5.161376 -0.40078971 -0.14082751 0
10.318071 0.1872901 -0.14046152 0
0.89313769 -0.86467218 -0.090510778 0
1.008305 -0.84858531 -0.090603344 0
1.1534743 -0.82830757 -0.090283491 0
1.3433453 -0.80178583 -0.089510776 0
1.6226777 -0.76276785 -0.090403534 0
2.5629141 -0.63143271 -0.14048357 0
3.4303102 -0.51027215 -0.14110008 0
5.1436305 -0.27095029 -0.14076854 0
10.317682 0.45177713 -0.14122643 0
0.89341438 -0.84158856 -0.091309033 0
1.0030707 -0.82343978 -0.090343066 0
1.1497539 -0.79916292 -0.090401493 0
1.3375468 -0.76808214 -0.089419596 0
1.6184654 -0.72158855 -0.090642773 0
2.5605786 -0.56566352 -0.14119403 0
3.4121485 -0.42472401 -0.14074692 0
5.127573 -0.14081165 -0.14094335 0
10.24949 0.7068941 -0.14055362 0
0.89026737 -0.81895298 -0.091495983 0
1.0025514 -0.79744554 -0.091107152 0
1.133669 -0.77233064 -0.088573806 0
1.3408824 -0.73264003 -0.090756394 0
1.3549359 -0.72994816 -0.060148317 0
1.3438565 -0.73207039 -0.026653385 0
1.3457562 -0.7317065 0.0052483622 0
1.3508347 -0.73073369 0.036985677 0
1.3522929 -0.73045439 0.068980463 0
1.3454955 -0.73175645 0.10100948 0
0.87371516 -0.79917723 -0.088891678 0
0.99982452 -0.77170599 -0.091576062 0
1.1273319 -0.74393016 -0.088489302 0
1.2124498 -0.72538835 -0.073276617 0
1.2079871 -0.7263605 -0.043405417 0
1.214213 -0.72500426 -0.014929464 0
1.2054421 -0.72691488 0.014792049 0
1.2004604 -0.7280001 0.043819167 0
1.2044324 -0.72713488 0.072333269 0
1.2097654 -0.72597313 0.10100572 0
0.8789748 -0.77469176 -0.091153018 0
0.98809683 -0.74802017 -0.090428241 0
1.1331096 -0.71257621 -0.090574883 0
1.2117389 -0.69335765 -0.074192874 0
1.2063419 -0.69467682 -0.04405186 0
1.1995573 -0.69633508 -0.014199076 0
1.2108541 -0.69357395 0.013898538 0
1.2127333 -0.69311464 0.042896736 0
1.2118679 -0.69332612 0.071987815 0
1.205803 -0.69480848 0.10100581 0
0.86647505 -0.75445384 -0.089654081 0
0.97983289 -0.72369617 -0.090064831 0
1.124702 -0.68438852 -0.090393461 0
1.20477 -0.66266346 -0.074321486 0
1.2048385 -0.66264486 -0.044816468 0
1.2060002 -0.66232967 -0.015573984 0
1.2015846 -0.66352779 0.014001625 0
1.2078857 -0.66181803 0.042751487 0
1.200142 -0.66391915 0.072081111 0
1.1972311 -0.66470903 0.10100579 0
0.86193633 -0.73219484 -0.09002278 0
0.96351445 -0.70186198 -0.088235639 0
1.1092416 -0.65834546 -0.089122541 0
1.2096943 -0.62834865 -0.07630863 0
1.2087952 -0.62861711 -0.046351064 0
1.2104419 -0.62812537 -0.016847661 0
1.2000908 -0.63121641 0.013483034 0
1.2122667 -0.62758046 0.042118523 0
1.2033352 -0.63024753 0.071795166 0
1.2107085 -0.62804574 0.10100644 0
0.84915847 -0.71251726 -0.088677429 0
0.97637963 -0.67100304 -0.092282094 0
1.1051358 -0.62898803 -0.08991731 0
1.1938797 -0.60002959 -0.075373955 0
1.2097045 -0.59486568 -0.047628898 0
1.1945736 -0.59980315 -0.016222155 0
1.2100092 -0.59476626 0.012061203 0
1.2195553 -0.59165126 0.041295797 0
1.2066984 -0.59584665 0.071481995 0
1.2057198 -0.59616596 0.10100657 0
0.841286 -0.69142425 -0.088537805 0
0.96347308 -0.64811224 -0.0913698 0
1.103596 -0.59844244 -0.09129528 0
1.2077031 -0.56153923 -0.07895609 0
1.2035658 -0.56300581 -0.048149426 0
1.217136 -0.55819553 -0.019467367 0
1.2027419 -0.56329787 0.011833364 0
1.2106073 -0.5605098 0.041223049 0
1.2118371 -0.56007385 0.071100883 0
1.2067122 -0.56189048 0.10100692 0
0.84520131 -0.66583514 -0.091200687 0
0.95273668 -0.62463403 -0.091002353 0
1.0916986 -0.57139212 -0.090998761 0
1.2029254 -0.52877671 -0.079919137 0
1.2020192 -0.5291239 -0.049349923 0
1.2141623 -0.5244714 -0.02029605 0
1.2034265 -0.52858472 0.010948801 0
1.2075107 -0.52701992 0.04081887 0
1.2104127 -0.52590805 0.070857108 0
1.2069838 -0.5272218 0.10100727 0
0.8396697 -0.64344227 -0.091867082 0
0.94359589 -0.60058659 -0.091076292 0
1.0867883 -0.54153877 -0.092062019 0
1.2179574 -0.48744908 -0.084028669 0
1.2058293 -0.49245033 -0.051347736 0
1.2043104 -0.49307659 -0.020524455 0
1.2123924 -0.48974386 0.0093628261 0
1.1944157 -0.49715689 0.040871609 0
1.2086899 -0.49127069 0.07059671 0
1.2047297 -0.49290374 0.10100757 0
0.83291572 -0.62140107 -0.092387505 0
0.92585069 -0.5803045 -0.089503355 0
1.064103 -0.5191682 -0.090077676 0
1.1989802 -0.45952442 -0.083117805 0
1.2029129 -0.4577854 -0.052626032 0
1.2131706 -0.45324931 -0.0227456 0
1.2011238 -0.45857653 0.0092312638 0
1.208259 -0.4554213 0.039515525 0
1.2124451 -0.45357016 0.070172027 0
1.2032111 -0.45765349 0.10100792 0
0.82123065 -0.60153818 -0.091884829 0
0.92440927 -0.55276322 -0.09141425 0
1.0560994 -0.49051034 -0.090840556 0
1.2246217 -0.41084597 -0.089240722 0
1.4713457 -0.2942138 -0.089110531 0
1.85878 -0.11106464 -0.090837218 0
3.1210318 0.48563102 -0.1402947 0
4.6962433 1.2302697 -0.14080924 0
9.4017973 3.4546936 -0.14079453 0
0.80499375 -0.58408654 -0.090410851 0
0.9165827 -0.52784848 -0.09214855 0
1.0360875 -0.46762106 -0.089535467 0
1.2184842 -0.3756977 -0.090632983 0
1.4633036 -0.25231484 -0.090414517 0
1.8363397 -0.064313918 -0.090869583 0
3.0816669 0.56330007 -0.14020407 0
4.6490445 1.3532193 -0.1413461 0
9.289753 3.6920202 -0.14087456 0
0.79425097 -0.56407034 -0.090347417 0
0.89637768 -0.50932711 -0.090381034 0
1.0266142 -0.43951622 -0.090284802 0
1.1949497 -0.34928295 -0.08941073 0
1.4478719 -0.21370843 -0.090895675 0
1.8174927 -0.015579786 -0.091407098 0
3.0496235 0.64488226 -0.14084741 0
4.5842128 1.4674716 -0.1411217 0
9.1589298 3.919668 -0.14061733 0
0.78948307 -0.54065537 -0.091866963 0
0.88999271 -0.4834685 -0.09168344 0
1.0132109 -0.41336128 -0.09043505 0
1.1913272 -0.3120186 -0.091497444 0
1.2115963 -0.30048612 -0.061817784 0
1.2187361 -0.29642382 -0.029806396 0
3.0028353 0.71867329 -0.14047855 0
4.5169048 1.5801318 -0.14091484 0
9.0379982 4.152493 -0.14077359 0
0.76966971 -0.52587265 -0.089821078 0
0.8662554 -0.46764448 -0.089331962 0
1.0086542 -0.38179722 -0.092411108 0
1.1690588 -0.28509495 -0.090709575 0
1.1502182 -0.29645321 -0.055865902 0
1.1969069 -0.26830629 -0.029374829 0
2.9582319 0.79353541 -0.14043333 0
4.4500413 1.6928954 -0.1408824 0
8.9092054 4.3811698 -0.1408772 0
0.75919831 -0.50569028 -0.090190656 0
0.8616274 -0.44036016 -0.091299929 0
0.98752624 -0.36006072 -0.091342978 0
1.1534302 -0.25424573 -0.091128103 0
1.1404396 -0.26253119 -0.056984339 0
1.1828696 -0.23546907 -0.029876849 0
2.9215875 0.87350076 -0.14120276 0
4.3875918 1.8085313 -0.14124909 0
8.7623892 4.5988164 -0.1406434 0
0.75109923 -0.48378608 -0.091304131 0
0.85171449 -0.41598186 -0.092256404 0
0.96876413 -0.33710256 -0.090833254 0
1.1215965 -0.23410949 -0.088938452 0
1.1480666 -0.21627137 -0.060694668 0
1.1652069 -0.20472059 -0.03007195 0
2.8599689 0.93737298 -0.14004877 0
4.3041692 1.9106138 -0.14060718 0
8.6268015 4.8236189 -0.14087316 0
0.73798752 -0.46510491 -0.091273226 0
0.83027148 -0.39946958 -0.090706207 0
0.94523305 -0.31770524 -0.089468352 0
1.105378 -0.20380506 -0.089488961 0
1.1423053 -0.17754117 -0.062718026 0
1.1425922 -0.17733714 -0.02979148 0
2.8147368 1.0119457 -0.14041679 0
4.2393661 2.0251875 -0.14116327 0
8.4699011 5.0340796 -0.14065948 0
0.72713786 -0.44471833 -0.091966875 0
0.81691861 -0.37738881 -0.091128327 0
0.9259817 -0.29559878 -0.089056276 0
1.0869154 -0.17490938 -0.089788921 0
1.1071709 -0.15971902 -0.060630474 0
1.1023216 -0.16335574 -0.027525639 0
1.1081409 -0.15899161 0.0042217765 0
1.1040069 -0.16209188 0.036783341 0
1.1035035 -0.16246948 0.068928562 0
1.0959278 -0.16815063 0.10100947 0
1.0961601 -0.16797647 0.13287702 0
1.10102 -0.16433182 0.16506232 0
1.0960108 -0.16808835 0.19673757 0
0.7125079 -0.42709026 -0.091788448 0
0.79782796 -0.35967657 -0.090314083 0
0.91441065 -0.26756147 -0.090360381 0
1.0573944 -0.15458617 -0.088243656 0
1.0959995 -0.12408325 -0.062136624 0
1.0993092 -0.12146816 -0.029688021 0
1.1019865 -0.11935267 0.0028721711 0
1.0937005 -0.1258997 0.03613567 0
1.0969249 -0.12335202 0.068494923 0
1.095921 -0.12414518 0.10101023 0
1.104337 -0.11749551 0.13374585 0
1.0961794 -0.12394109 0.16603208 0
1.1020918 -0.11926952 0.19915852 0
0.69589996 -0.41114399 -0.091181107 0
0.77490896 -0.34541187 -0.088653035 0
0.89777666 -0.24319121 -0.090759493 0
1.0327213 -0.13092312 -0.087644704 0
1.1015327 -0.073675007 -0.066349737 0
1.0966506 -0.077736706 -0.032066289 0
1.0961655 -0.078140289 0.0013735762 0
1.1048864 -0.070884854 0.034117941 0
1.1046741 -0.071061522 0.067589194 0
1.1031715 -0.07231167 0.10101133 0
1.0954777 -0.078712493 0.1341548 0
1.102934 -0.07250914 0.16778664 0
1.1003194 -0.074684471 0.20102702 0
0.68067425 -0.3941597 -0.091063224 0
0.76223391 -0.32274762 -0.089608617 0
0.8803317 -0.21934339 -0.09112329 0
0.9998588 -0.11468771 -0.08561305 0
1.0969925 -0.02963927 -0.069287576 0
1.1030213 -0.024360564 -0.035753313 0
1.1032015 -0.02420279 -0.0014487708 0
1.1011094 -0.02603462 0.032896053 0
1.1007831 -0.026320245 0.066982612 0
1.0946951 -0.031650867 0.10101189 0
1.1039195 -0.02357408 0.13513885 0
1.0958939 -0.03060123 0.16880529 0
1.109499 -0.018688824 0.20405927 0
1.0991125 -0.027783062 0.23729324 0
1.0986308 -0.028204825 0.37585154 0
0.66309398 -0.37936267 -0.09038461 0
0.7466647 -0.30237928 -0.089990355 0
0.85506105 -0.20252702 -0.089879952 0
0.96315992 -0.10294876 -0.082878076 0
1.0642176 -0.0098567866 -0.067982502 0
1.116215 0.038041983 -0.040561933 0
1.0915879 0.015356097 -0.0026927346 0
1.1011837 0.024195585 0.03133082 0
1.0994705 0.022617374 0.066244975 0
1.1029575 0.025829587 0.10101317 0
1.1003262 0.023405585 0.13580826 0
1.0992485 0.02241293 0.17057294 0
1.0992047 0.022372399 0.20544317 0
1.0946062 0.018136416 0.23984605 0
1.0353485 -0.036450353 0.36594212 0
0.64734215 -0.3629981 -0.090339653 0
0.7319749 -0.28099373 -0.090745457 0
0.84109044 -0.17526689 -0.091287859 0
0.83881646 -0.1774703 -0.062982105 0
0.84053451 -0.1758056 -0.035657544 0
0.83686054 -0.17936549 -0.0076694023 0
0.84222078 -0.17417172 0.019080298 0
0.8404721 -0.17586604 0.046550836 0
0.83613712 -0.18006644 0.073932379 0
0.83867961 -0.17760292 0.1010037 0
0.84023237 -0.17609832 0.12820776 0
0.84194309 -0.17444077 0.15555231 0
0.84282339 -0.17358777 0.18298641 0
1.1049262 0.080375105 0.24453911 0
1.0112079 -0.010432627 0.29873908 0
1.0053871 -0.016072717 0.33090949 0
0.98845875 -0.032475319 0.36003426 0
0.62910724 -0.34915873 -0.089663722 0
0.72414607 -0.25230411 -0.093508638 0
0.81152469 -0.16325614 -0.089232333 0
0.84677982 -0.12732747 -0.068743505 0
0.83788157 -0.13639566 -0.038684476 0
0.83944404 -0.13480338 -0.010772577 0
0.83728284 -0.13700584 0.017493607 0
0.84071261 -0.13351056 0.045152884 0
0.84117579 -0.13303855 0.073078491 0
0.84072816 -0.1334947 0.10100462 0
0.84409159 -0.13006702 0.12902787 0
0.83870405 -0.1355575 0.15672284 0
0.84177387 -0.13242903 0.18496434 0
0.84084481 -0.13337585 0.21296911 0
1.0958437 0.1264948 0.28376192 0
0.94097328 -0.031334367 0.28966269 0
0.93676525 -0.035622802 0.32064027 0
0.95270598 -0.019377556 0.35699525 0
0.60725981 -0.33940563 -0.087951057 0
0.70014918 -0.23983607 -0.09208066 0
0.80431843 -0.12817547 -0.0925797 0
0.84371811 -0.085942358 -0.072648712 0
0.84154981 -0.088266581 -0.043045525 0
0.84513366 -0.084425062 -0.01453766 0
0.83740556 -0.092708856 0.01524994 0
0.84107155 -0.0887793 0.043636546 0
0.83984607 -0.090092868 0.072378345 0
0.83858156 -0.091448337 0.10100545 0
0.83864671 -0.09137848 0.12959172 0
0.83876574 -0.091250926 0.15821716 0
0.84676284 -0.082678646 0.18772097 0
0.84233063 -0.087429613 0.21616596 0
1.1011424 0.1899946 0.2895557 0
0.92895174 0.0054208371 0.29222822 0
