# .PCD v0.7 - Point Cloud Data file format
VERSION 0.7
FIELDS x y z intensity
SIZE 4 4 4 4
TYPE F F F F
COUNT 1 1 1 1
WIDTH 1318
HEIGHT 1
VIEWPOINT 0 0 0 1 0 0 0
POINTS 1318
DATA ascii
1.0220134 -0.95062709 -0.091481157 0
1.1300709 -0.94653505 -0.084731169 0
1.1368299 -0.94627911 -0.058771092 0
1.6382496 -0.9272911 -0.090520538 0
2.5879734 -0.89132637 -0.14067407 0
3.4598963 -0.8583079 -0.14101419 0
5.1859879 -0.7929433 -0.14058913 0
10.388061 -0.59594828 -0.14070708 0
0.90698636 -0.93206143 -0.091997184 0
1.0266156 -0.9245047 -0.092595197 0
1.1269902 -0.91816425 -0.084460683 0
1.1329374 -0.91778857 -0.058426727 0
1.635197 -0.88606185 -0.090407304 0
2.5830853 -0.82618564 -0.1405251 0
3.4552708 -0.77109152 -0.14099881 0
5.1937776 -0.6612736 -0.14126059 0
10.379161 -0.33372357 -0.140808 0
0.90225101 -0.909486 -0.091356389 0
1.0139707 -0.89959341 -0.090575017 0
1.1602857 -0.88663751 -0.090309508 0
1.342454 -0.87050682 -0.088291638 0
1.6376139 -0.84437096 -0.091057502 0
2.5787218 -0.76103759 -0.14057888 0
3.4363358 -0.68509746 -0.14013346 0
5.1668687 -0.53186202 -0.14046703 0
10.357108 -0.072276145 -0.14075641 0
0.90872914 -0.88577014 -0.093234487 0
1.0063279 -0.87463981 -0.089616321 0
1.1529396 -0.85791993 -0.089583822 0
1.3564153 -0.83471513 -0.090750746 0
1.6206521 -0.80458105 -0.089553677 0
2.5758104 -0.69565284 -0.14092349 0
3.4474287 -0.59625173 -0.14153098 0
5.1629872 -0.40060601 -0.140903 0
10.326869 0.18829349 -0.14066741 0
0.89582568 -0.86429673 -0.091087691 0
1.0147277 -0.84768814 -0.091824837 0
1.1551579 -0.82807243 -0.090562873 0
1.3539474 -0.80030489 -0.091015212 0
1.6302 -0.76171708 -0.091291241 0
2.5719435 -0.63017142 -0.14133458 0
3.4158027 -0.51229858 -0.14007601 0
5.1434097 -0.27098116 -0.14075817 0
10.287868 0.44761243 -0.14052649 0
0.88984853 -0.8421787 -0.090540759 0
1.0104034 -0.82222617 -0.09174297 0
1.1493036 -0.79923743 -0.090326451 0
1.3439052 -0.76702976 -0.090325318 0
1.6193304 -0.72144538 -0.090745233 0
2.555866 -0.5664435 -0.14074817 0
3.4199741 -0.4234288 -0.14130144 0
5.1193504 -0.14217255 -0.14055534 0
10.264179 0.70932525 -0.14089981 0
0.8953222 -0.8179847 -0.092589982 0
1.0075985 -0.79647881 -0.092075072 0
1.138783 -0.7713511 -0.089429565 0
1.3367273 -0.73343593 -0.090161838 0
1.3554289 -0.72985369 -0.060206983 0
1.344799 -0.73188978 -0.026742971 0
1.3408769 -0.7326411 0.005595671 0
1.3504851 -0.73080069 0.037002247 0
1.3420385 -0.7324186 0.06922321 0
1.3277904 -0.73514771 0.10100897 0
0.8867017 -0.79634827 -0.091716863 0
0.98939538 -0.77397782 -0.089565657 0
1.1264564 -0.7441209 -0.088342033 0
1.1988031 -0.72836113 -0.071313806 0
1.2101272 -0.72589427 -0.043661404 0
1.2104343 -0.7258274 -0.014568483 0
1.1970798 -0.72873652 0.015390353 0
1.2080957 -0.72633684 0.043455377 0
1.2127632 -0.7253201 0.072135031 0
1.2048945 -0.72703415 0.10100558 0
0.8745352 -0.77577686 -0.090181537 0
0.99167806 -0.74714488 -0.091122635 0
1.1211758 -0.71549308 -0.08855582 0
1.213255 -0.69298708 -0.074412204 0
1.2048426 -0.69504327 -0.043871481 0
1.2111769 -0.69349504 -0.015315576 0
1.1955414 -0.69731665 0.015000554 0
1.200009 -0.69622469 0.043506548 0
1.2065945 -0.69461507 0.072114028 0
1.2110111 -0.69353557 0.10100596 0
0.8704384 -0.75337845 -0.090526991 0
0.98301029 -0.72283405 -0.090684928 0
1.1270424 -0.68375349 -0.090792023 0
1.2033026 -0.66306162 -0.074107818 0
1.2024192 -0.66330129 -0.044523496 0
1.193525 -0.66571456 -0.01436743 0
1.2106091 -0.66107911 0.013347911 0
1.2020204 -0.66340953 0.043034419 0
1.2169087 -0.65936983 0.071677186 0
1.2152882 -0.65980953 0.10100631 0
0.86129493 -0.73238641 -0.089880489 0
0.96584773 -0.7011652 -0.088694282 0
1.1084961 -0.65856808 -0.088994674 0
1.2072629 -0.62907469 -0.075952016 0
1.2139173 -0.62708759 -0.046975825 0
1.2071967 -0.62909442 -0.016531533 0
1.2105179 -0.62810272 0.012722278 0
1.2090969 -0.62852699 0.04227253 0
1.2029819 -0.63035303 0.071803734 0
1.2025909 -0.6304698 0.10100619 0
0.85448408 -0.71077943 -0.089868195 0
0.97446579 -0.67162758 -0.091902904 0
1.1038097 -0.62942076 -0.08968804 0
1.2102412 -0.59469062 -0.077792622 0
1.2106962 -0.59454209 -0.047750819 0
1.2092927 -0.59500009 -0.017667336 0
1.2121474 -0.59406859 0.011903973 0
1.208393 -0.5952937 0.04184242 0
1.2018198 -0.59743863 0.071601309 0
1.2072916 -0.59565306 0.10100662 0
0.85295379 -0.68728834 -0.091169141 0
0.95961303 -0.64948052 -0.090598427 0
1.1022514 -0.59891903 -0.091060825 0
1.2034727 -0.56303877 -0.078325339 0
1.2098209 -0.56078857 -0.048925046 0
1.1970704 -0.56530827 -0.01748023 0
1.2051169 -0.56245601 0.01165721 0
1.204576 -0.56264776 0.041520953 0
1.2061765 -0.56208038 0.071240515 0
1.2057374 -0.56223601 0.10100689 0
0.836043 -0.66934407 -0.089115985 0
0.95461893 -0.62391287 -0.091382004 0
1.0860963 -0.57353866 -0.090012722 0
1.2094669 -0.52627039 -0.080903612 0
1.2051959 -0.52790678 -0.049747515 0
1.1988257 -0.53034747 -0.018763056 0
1.2014899 -0.52932668 0.011093775 0
1.201776 -0.52921706 0.041104767 0
1.2112451 -0.52558911 0.07083638 0
1.2108169 -0.5257532 0.10100739 0
0.82666785 -0.64880383 -0.088877611 0
0.94219249 -0.60116529 -0.090790369 0
1.0754963 -0.54619527 -0.090054564 0
1.2058084 -0.49245891 -0.082181849 0
1.2026806 -0.49374869 -0.050949682 0
1.2133987 -0.48932892 -0.021442046 0
1.2071109 -0.49192181 0.0097622219 0
1.2056671 -0.49251714 0.040305015 0
1.2026864 -0.49374631 0.070747696 0
1.2000712 -0.49482474 0.10100742 0
0.82657969 -0.62420297 -0.090914898 0
0.93479449 -0.5763495 -0.091345273 0
1.0604553 -0.52078128 -0.089422159 0
1.2129092 -0.45336494 -0.085258164 0
1.2042166 -0.4572089 -0.052792627 0
1.2145663 -0.4526321 -0.02288804 0
1.212723 -0.45344731 0.0083446298 0
1.2104516 -0.45445177 0.039403919 0
1.21471 -0.45256862 0.070114449 0
1.2127507 -0.45343503 0.10100822 0
0.82175475 -0.6012904 -0.092008062 0
0.91138041 -0.55892229 -0.088699855 0
1.0661088 -0.48577866 -0.092660151 0
1.2273418 -0.40956011 -0.089663558 0
1.4771483 -0.2914708 -0.089860655 0
1.8686131 -0.10641631 -0.091852434 0
3.1279318 0.48889282 -0.14082827 0
4.6950865 1.229723 -0.14074968 0
9.3964624 3.4521716 -0.14065734 0
0.80689329 -0.58312923 -0.090863012 0
0.90183264 -0.53528214 -0.089037485 0
1.0476874 -0.46177503 -0.091670342 0
1.2129445 -0.37848958 -0.08976119 0
1.4577699 -0.25510368 -0.089690275 0
1.8276929 -0.068671733 -0.089965783 0
3.0928299 0.56892592 -0.14107797 0
4.6335835 1.3454273 -0.14054008 0
9.277257 3.6857231 -0.14054924 0
0.80045736 -0.56074351 -0.091844223 0
0.89217108 -0.51158202 -0.089482062 0
1.0222385 -0.44186172 -0.089468844 0
1.1963905 -0.34851059 -0.089640476 0
1.4379109 -0.21904787 -0.089574806 0
1.816879 -0.015908744 -0.091342099 0
3.050703 0.64546102 -0.14093304 0
4.5781565 1.4642253 -0.14080179 0
9.1555872 3.9178755 -0.14052914 0
0.78367096 -0.54396224 -0.090445556 0
0.8898474 -0.48355117 -0.091651939 0
1.0177275 -0.41079143 -0.091289096 0
1.1748174 -0.32141218 -0.08882799 0
1.2117072 -0.300423 -0.0618327 0
1.2246125 -0.2930803 -0.030437475 0
3.00668 0.72086066 -0.1407878 0
4.5061874 1.5740337 -0.14034078 0
9.0271816 4.1463385 -0.14048424 0
0.7733233 -0.52366996 -0.090727918 0
0.86922044 -0.46585694 -0.089984067 0
0.99890161 -0.38767669 -0.090539522 0
1.1578759 -0.29183671 -0.088874497 0
1.148483 -0.29749933 -0.055629093 0
1.1958532 -0.26894143 -0.029259985 0
2.9666407 0.79860467 -0.14111973 0
4.4522214 1.6942096 -0.1410009 0
8.8959904 4.3732028 -0.14051843 0
0.76062638 -0.50477946 -0.090550698 0
0.86269218 -0.43968102 -0.091537796 0
0.99150938 -0.35752025 -0.092119418 0
1.1452708 -0.25944981 -0.08976806 0
1.1441483 -0.26016578 -0.057498444 0
1.1894432 -0.23127624 -0.030604621 0
2.9174378 0.8708542 -0.14085868 0
4.3737893 1.7997282 -0.14048696 0
8.7670355 4.6017795 -0.14077152 0
0.75034249 -0.48429605 -0.091110162 0
0.84742236 -0.41887429 -0.091281541 0
0.98010445 -0.32946035 -0.093080752 0
1.122952 -0.23319605 -0.089168154 0
1.1511679 -0.21418145 -0.061131734 0
1.1643113 -0.20532414 -0.029971143 0
2.8681855 0.94291013 -0.14074145 0
4.3029428 1.9097872 -0.14053832 0
8.6331463 4.8278947 -0.14105105 0
0.73998541 -0.46368393 -0.091794349 0
0.82646996 -0.40217337 -0.08982756 0
0.95622009 -0.3098909 -0.09168423 0
1.1136116 -0.19794908 -0.090908878 0
1.149389 -0.17250302 -0.063733958 0
1.1427572 -0.17721978 -0.02981039 0
2.8284757 1.0217173 -0.14159541 0
4.2329798 2.0206456 -0.14079843 0
8.4750996 5.0377769 -0.14080781 0
0.7257337 -0.44577137 -0.091593809 0
0.81901759 -0.37581465 -0.091622494 0
0.93422294 -0.28941843 -0.090749286 0
1.0748051 -0.18399122 -0.087661602 0
1.099354 -0.1655812 -0.059488524 0
1.113969 -0.15462098 -0.028884551 0
1.0969143 -0.16741088 0.0052028093 0
1.0947473 -0.16903594 0.037322167 0
1.0920477 -0.17106047 0.069261491 0
1.091705 -0.17131749 0.10100932 0
1.1002932 -0.16487691 0.13299744 0
1.0971769 -0.16721389 0.16483842 0
1.0994909 -0.16547862 0.19704191 0
0.71190172 -0.42756924 -0.091624238 0
0.7976045 -0.35985318 -0.090260439 0
0.9179042 -0.26480111 -0.091092162 0
1.0579301 -0.15416285 -0.088339604 0
1.1015214 -0.11972025 -0.062959142 0
1.0995624 -0.12126806 -0.029718151 0
1.0961717 -0.12394711 0.0033902547 0
1.0975422 -0.12286434 0.035907734 0
1.1029299 -0.11860731 0.068316981 0
1.0993394 -0.12144431 0.10101036 0
1.1057197 -0.11640301 0.13378692 0
1.0930777 -0.12639192 0.16584781 0
1.0953923 -0.12456295 0.19856112 0
0.69383854 -0.41285899 -0.090611108 0
0.79107487 -0.33196256 -0.092613868 0
0.90404743 -0.2379742 -0.092100136 0
1.0276654 -0.13512942 -0.086720429 0
1.099264 -0.075562447 -0.06600482 0
1.0930709 -0.080714971 -0.031631637 0
1.100405 -0.074613243 0.00098804594 0
1.1004103 -0.074608773 0.034389008 0
1.0947411 -0.079325348 0.067889616 0
1.105885 -0.070054024 0.10101143 0
1.1029236 -0.072517842 0.13438055 0
1.0990494 -0.075740963 0.1675511 0
1.0966805 -0.07771185 0.20069583 0
0.68066144 -0.39417091 -0.091059603 0
0.77269161 -0.31359103 -0.092226677 0
0.88567078 -0.21466854 -0.092289604 0
0.99673879 -0.11741945 -0.085030265 0
1.1007369 -0.026360776 -0.069869228 0
1.1020057 -0.025249746 -0.035627324 0
1.0938069 -0.032428529 -0.00057582348 0
1.1022059 -0.025074568 0.032828208 0
1.0870448 -0.038349297 0.067407176 0
1.100346 -0.026703026 0.10101211 0
1.0920864 -0.033934917 0.13477227 0
1.0973781 -0.02930161 0.16889726 0
1.0943465 -0.031956043 0.20265014 0
1.0962268 -0.030309703 0.23693502 0
1.084887 -0.040238585 0.37240979 0
0.6727317 -0.37048468 -0.093169935 0
0.74605733 -0.30293873 -0.089834832 0
0.84775609 -0.2092562 -0.08824762 0
0.97027177 -0.096397489 -0.084236957 0
1.0560163 -0.017411675 -0.066679277 0
1.0988951 0.02208725 -0.038363907 0
1.1045402 0.027287517 -0.0039238539 0
1.0978359 0.021111641 0.03154273 0
1.09305 0.016702924 0.066447943 0
1.1085542 0.03098515 0.10101338 0
1.0967317 0.020094428 0.13569434 0
1.1006522 0.023705993 0.1706619 0
1.1159312 0.037780557 0.20703435 0
1.0983962 0.021627698 0.24032733 0
1.0421188 -0.03021368 0.36767644 0
0.64207429 -0.3681024 -0.08878047 0
0.73185104 -0.28111377 -0.090712972 0
0.84023637 -0.1760945 -0.0910924 0
0.83706111 -0.17917112 -0.062638618 0
0.83996779 -0.17635474 -0.03556532 0
0.83727479 -0.17896411 -0.0077232402 0
0.8413896 -0.17497703 0.019161211 0
0.8387481 -0.17753658 0.046662595 0
0.83643228 -0.17978045 0.073922828 0
0.84179354 -0.17458567 0.10100382 0
0.84239143 -0.17400631 0.12827782 0
0.84716922 -0.16937694 0.15589151 0
0.8421219 -0.1742675 0.18291807 0
1.1014636 0.07701984 0.24408878 0
1.006274 -0.015213337 0.29777318 0
1.0160859 -0.0057062176 0.33335873 0
1.0028845 -0.018497612 0.36381879 0
0.6397019 -0.33836165 -0.092879124 0
0.71536458 -0.26125339 -0.091147088 0
0.81689233 -0.15778592 -0.090491898 0
0.84619838 -0.12791994 -0.068626843 0
0.84606487 -0.12805608 -0.040050019 0
0.83678019 -0.13751814 -0.010417564 0
0.84051436 -0.13371262 0.017171057 0
0.84845197 -0.12562332 0.044638444 0
0.83603942 -0.13827303 0.073249005 0
0.84122145 -0.132992 0.10100465 0
0.83558869 -0.13873234 0.1287449 0
0.83916306 -0.13508973 0.15675339 0
0.84167653 -0.13252822 0.18495461 0
0.84066564 -0.13355842 0.21294522 0
1.1003571 0.13109437 0.28451544 0
0.94894135 -0.023214068 0.29126218 0
0.94380528 -0.02844825 0.32229286 0
0.95737821 -0.014616039 0.35825214 0
0.62210327 -0.3234947 -0.092576347 0
0.69100606 -0.24963674 -0.08955612 0
0.79542255 -0.13771108 -0.090436406 0
0.83500773 -0.095279187 -0.070854224 0
0.82984352 -0.10081479 -0.041039888 0
0.83604574 -0.094166547 -0.013294144 0
0.83018732 -0.10044619 0.015989685 0
0.83459836 -0.095717937 0.044078317 0
0.83465743 -0.095654696 0.072555192 0
0.84089696 -0.088966399 0.10100555 0
0.83702403 -0.093117803 0.12953629 0
0.84389299 -0.085754901 0.1585675 0
0.83643776 -0.093746275 0.18666194 0
0.84044749 -0.089448184 0.21590813 0
1.1059059 0.19510069 0.29037222 0
0.92591631 0.002167139 0.29160261 0
0.92895919 0.0054288837 0.32463002 0
0.93506354 0.011972222 0.35896522 0
0.59729117 -0.31684837 -0.090072446 0
0.67580384 -0.22831258 -0.090600722 0
0.77422661 -0.11732498 -0.090570964 0
0.85399246 -0.027376022 -0.079709478 0
0.84016192 -0.042972174 -0.046852741 0
0.8362149 -0.047423091 -0.01653262 0
0.83606201 -0.047595527 0.012979874 0
0.83747768 -0.045999136 0.042275704 0
0.84627587 -0.036077764 0.07134863 0
0.83376193 -0.050189223 0.10100623 0
0.84011745 -0.043022361 0.13044861 0
0.84036303 -0.042745437 0.15993993 0
0.84646851 -0.035860505 0.19013053 0
0.8432861 -0.039449241 0.21954131 0
1.0964991 0.24608949 0.29404297 0
1.1026801 0.25305954 0.33442208 0
0.59132922 -0.2887328 -0.093765013 0
0.65908879 -0.2083241 -0.091389932 0
0.73205173 -0.12174085 -0.085488372 0
0.85298604 0.021768842 -0.084842198 0
0.84139884 0.0080186464 -0.051455993 0
0.84503365 0.012331996 -0.021290762 0
0.83623993 0.0018967126 0.010354066 0
0.83364487 -0.001182821 0.040813915 0
0.83518332 0.00064286927 0.070871383 0
0.83936769 0.0056083533 0.10100754 0
0.83783948 0.0037948822 0.13123944 0
0.84125793 0.0078514554 0.16175151 0
0.83536607 0.00085971097 0.19156621 0
0.84055573 0.0070181224 0.22265796 0
0.83532327 0.00080892781 0.25236979 0
1.1010319 0.31611863 0.34097794 0
0.56139535 -0.28914014 -0.089659311 0
0.62936318 -0.20422575 -0.088432617 0
0.7272802 -0.081894845 -0.090051599 0
0.84527642 0.065521628 -0.088906385 0
0.85053575 0.072092324 -0.057921086 0
0.83538723 0.053166781 -0.02366486 0
0.83618492 0.05416337 0.007532673 0
0.84106618 0.060261641 0.038383942 0
0.84479827 0.06492427 0.069574445 0
0.84387463 0.063770324 0.10100891 0
0.83617705 0.054153595 0.13212194 0
0.84241611 0.061948214 0.16373448 0
0.83859271 0.057171497 0.19475441 0
0.84258211 0.062155519 0.22675791 0
0.83270121 0.049811039 0.25660336 0
1.1018838 0.38610938 0.34865865 0
1.0946143 0.3770273 0.38870561 0
0.54133403 -0.27814129 -0.088880263 0
0.61256534 -0.184396 -0.089432023 0
0.70393145 -0.064151794 -0.089991026 0
0.72709781 -0.033663239 -0.067699455 0
0.73263729 -0.026372936 -0.040371154 0
0.7285099 -0.031804886 -0.011274634 0
0.73170233 -0.027603354 0.016532967 0
0.72907031 -0.031067338 0.044943675 0
0.72552669 -0.035730984 0.073125571 0
0.73051989 -0.029159572 0.10100482 0
0.72627991 -0.03473964 0.12891266 0
0.72577602 -0.035402801 0.15681218 0
0.72604513 -0.03504863 0.18482289 0
0.73093224 -0.028616872 0.21365865 0
0.73330957 -0.025488164 0.24251188 0
0.72358221 -0.03829005 0.26889315 0
0.72663647 -0.034270372 0.29817006 0
0.72338122 -0.038554575 0.32594296 0
0.52616948 -0.26064035 -0.089952849 0
0.59785068 -0.16119042 -0.091296591 0
0.67888653 -0.048761871 -0.089575328 0
0.72782969 0.019141588 -0.073725991 0
0.9532398 0.3318738 -0.08936774 0
0.85159189 0.19084826 -0.034815971 0
0.84189379 0.17739323 0.00042953552 0
0.84056979 0.17555633 0.034122821 0
0.84245199 0.17816761 0.067510366 0
0.83369112 0.16601291 0.10101105 0
0.8438161 0.18006018 0.13456702 0
0.84340203 0.17948571 0.16812591 0
0.83884728 0.17316654 0.20122924 0
0.83674681 0.17025223 0.23446934 0
0.83926463 0.17374542 0.26861024 0
0.83862954 0.17286447 0.30238044 0
1.0953289 0.52900726 0.40867832 0
0.51285124 -0.23995981 -0.091925062 0
0.57065499 -0.15534136 -0.089255743 0
0.66109216 -0.022951093 -0.091367818 0
0.76583976 0.13038805 -0.089592926 0
0.92302525 0.36049059 -0.090076961 0
1.1521536 0.69590968 -0.089524411 0
0.84872729 0.25172642 -0.0040989127 0
0.84334874 0.24385276 0.031445708 0
0.84588742 0.24756911 0.06614355 0
0.83917969 0.23774984 0.10101282 0
0.84062392 0.2398639 0.13566533 0
0.83390701 0.23003116 0.16980033 0
0.84548038 0.24697331 0.20572318 0
0.84901488 0.25214747 0.24138902 0
0.83860713 0.23691157 0.27461243 0
0.83743256 0.23519209 0.30945712 0
1.1065406 0.6291371 0.42321357 0
1.0995783 0.61894506 0.4679282 0
0.49666566 -0.22282413 -0.093053825 0
0.55514538 -0.13239923 -0.091237284 0
0.63181818 -0.013843086 -0.089950807 0
0.73677093 0.14844123 -0.089444198 0
0.89054096 0.38620988 -0.090478472 0
1.1079077 0.72231525 -0.089290611 0
1.477957 1.2945082 -0.089168124 0
0.85403699 0.32976511 0.027839141 0
0.84342754 0.31336012 0.064901233 0
0.83971643 0.30762175 0.10101449 0
0.83395475 0.29871276 0.13672161 0
0.83790302 0.30481783 0.17280671 0
0.83836085 0.30552581 0.20885935 0
0.84732443 0.3193858 0.24653183 0
0.84341276 0.31333736 0.28236631 0
0.83476537 0.29996625 0.31683406 0
0.84015733 0.30830362 0.35503483 0
1.1029129 0.71459216 0.48328465 0
0.4718352 -0.21928403 -0.090880536 0
0.52902728 -0.12575665 -0.089677088 0
0.608383 0.0040153596 -0.09038467 0
0.70360708 0.15973714 -0.088306464 0
0.8545835 0.40663198 -0.090261377 0
1.0667725 0.75362879 -0.08972051 0
1.4295378 1.3468659 -0.090464406 0
0.85129267 0.40125039 0.025089869 0
0.85112286 0.40097263 0.063081518 0
0.83763695 0.37891892 0.10101618 0
0.84133166 0.38496092 0.13851494 0
0.83954197 0.38203421 0.17589429 0
0.84080547 0.38410047 0.21360445 0
0.84387624 0.38912216 0.25187412 0
0.83931488 0.38166276 0.2888746 0
0.84218687 0.38635948 0.32767209 0
0.83874595 0.38073245 0.36499202 0
1.1033628 0.81346565 0.49910003 0
0.44887832 -0.21350136 -0.089444079 0
0.50757635 -0.11183354 -0.089867331 0
0.58298659 0.018780623 -0.090338357 0
0.67833096 0.18392161 -0.089413516 0
0.81633371 0.42294887 -0.089616828 0
1.0272534 0.78827149 -0.090615787 0
1.362455 1.3688564 -0.089389987 0
1.3698361 1.3816409 -0.026483184 0
0.85024869 0.48169115 0.06147844 0
0.83878189 0.46183017 0.10101824 0
0.83884674 0.46194246 0.14002788 0
0.83633441 0.45759097 0.17884569 0
0.8437565 0.47044638 0.21890379 0
0.84071553 0.46517923 0.25783035 0
0.84246123 0.46820298 0.29776224 0
0.843485 0.4699761 0.33787209 0
0.83755946 0.45971277 0.37605593 0
0.84088111 0.46546605 0.41746378 0
0.43369415 -0.19411841 -0.091459639 0
0.48796651 -0.094386607 -0.090927534 0
0.55691803 0.032319937 -0.090184085 0
0.65085953 0.20494857 -0.090103142 0
0.78491658 0.45129421 -0.090710916 0
0.98439234 0.81785458 -0.091067947 0
1.2939652 1.3867311 -0.088138334 0
1.2876835 1.3751876 -0.024350604 0
1.2911168 1.3814969 0.038215254 0
0.85502726 0.58013088 0.10102141 0
0.83817613 0.54916507 0.14179365 0
0.83623606 0.54559988 0.18242198 0
0.83834916 0.54948288 0.22354271 0
0.83626878 0.54566008 0.26418436 0
0.83918583 0.55102044 0.30602255 0
0.84062392 0.55366307 0.34793904 0
0.83759409 0.54809552 0.38873458 0
0.84189129 0.55599207 0.43243539 0
0.41202053 -0.18633077 -0.090772592 0
0.46633598 -0.080227882 -0.091383807 0
0.5294686 0.043099079 -0.089644469 0
0.62174088 0.22334912 -0.090479426 0
0.75022262 0.47433272 -0.091199003 0
0.94058919 0.84620577 -0.091499336 0
1.2389022 1.4289474 -0.088951148 0
1.2410111 1.4330673 -0.025719156 0
1.2397218 1.4305487 0.03776456 0
1.2458241 1.4424691 0.10104839 0
0.84321308 0.65598577 0.14405037 0
0.84287494 0.65532511 0.18708971 0
0.83997798 0.64966613 0.22979508 0
0.83548856 0.64089614 0.27201688 0
0.83882022 0.64740437 0.31596997 0
0.83764976 0.64511794 0.35911527 0
0.8415916 0.65281814 0.40426847 0
0.8442111 0.65793532 0.44962618 0
0.39482865 -0.16955826 -0.092342474 0
0.43693125 -0.081929594 -0.088635124 0
0.5017994 0.053081308 -0.089093171 0
0.58981997 0.23627952 -0.090113647 0
0.70856452 0.4834241 -0.089987047 0
0.89187026 0.8649407 -0.09104491 0
1.1855172 1.4761117 -0.090246387 0
1.7865963 2.727145 -0.090981342 0
4.5026174 8.3800335 -0.14071019 0
0.84464604 0.76665229 0.19177535 0
0.83998966 0.75696093 0.23652099 0
0.8407529 0.75854939 0.28208002 0
0.84083283 0.75871581 0.32773536 0
0.83666098 0.75003296 0.3722682 0
0.83535141 0.74730736 0.41773018 0
0.83943075 0.75579768 0.46574461 0
0.37331134 -0.16145876 -0.091974951 0
0.42024443 -0.057110336 -0.091548897 0
0.47625309 0.067416221 -0.089459069 0
0.55599141 0.24470189 -0.089182205 0
0.67466611 0.50855666 -0.090980001 0
0.84497076 0.88720256 -0.091083191 0
1.1248678 1.5095098 -0.090575688 0
1.6878653 2.7612472 -0.090482749 0
4.2630873 8.4868526 -0.14061385 0
1.0647334 1.3758104 0.22184977 0
0.85188311 0.90257114 0.24611051 0
0.83717 0.86985892 0.29136631 0
0.83955663 0.87516516 0.34002024 0
0.83731353 0.87017792 0.38762453 0
0.84198374 0.88056141 0.43805698 0
0.83797371 0.87164575 0.48542204 0
0.3484028 -0.16162571 -0.089831509 0
0.39750686 -0.044646885 -0.091994531 0
0.45148641 0.083946615 -0.09032803 0
0.52535838 0.25992909 -0.089428566 0
0.63369608 0.51801819 -0.090085171 0
0.7967183 0.90638012 -0.090929337 0
1.0651109 1.5457621 -0.091234617 0
1.5962641 2.8111093 -0.090911619 0
4.0270085 8.6017847 -0.14087638 0
0.99653524 1.3823969 0.220864 0
0.8557601 1.0470333 0.25548905 0
0.83967906 1.008724 0.30335525 0
0.84124964 1.0124655 0.35482413 0
0.8419013 1.0140181 0.40642962 0
0.83998179 1.0094452 0.45736051 0
0.83768308 1.0039691 0.50826639 0
0.32855812 -0.15018073 -0.090502955 0
0.36934304 -0.045709398 -0.089817561 0
0.42414898 0.094676882 -0.090275981 0
0.49932358 0.28723791 -0.091612436 0
0.59967941 0.54430109 -0.09144 0
0.74589652 0.91883868 -0.090226375 0
1.0043565 1.580888 -0.09191633 0
1.4968002 2.8422909 -0.09051884 0
3.7823691 8.6968145 -0.14078909 0
0.92826319 1.3859739 0.21982385 0
0.84687042 1.177485 0.26371601 0
0.84290516 1.1673279 0.31719941 0
0.84130609 1.1632318 0.3711679 0
0.84033108 1.1607344 0.42546701 0
0.84327781 1.1682823 0.48177049 0
0.84010583 1.1601574 0.53571528 0
0.30887327 -0.13778248 -0.091497533 0
0.34544998 -0.036627796 -0.08983513 0
0.39699355 0.10591844 -0.090434946 0
0.43388209 0.2079356 -0.077943198 0
0.43494481 0.21087459 -0.048185352 0
0.4386315 0.22107032 -0.019164151 0
0.93433887 1.5919733 -0.090919234 0
1.3997949 2.8792148 -0.090538763 0
3.5349841 8.7841854 -0.14066662 0
0.86123824 1.3898101 0.21889183 0
0.84906334 1.3561397 0.27547139 0
0.83954108 1.3298054 0.33129451 0
0.83928663 1.3291018 0.38924116 0
0.83934075 1.3292513 0.44759685 0
0.83878785 1.3277223 0.50604969 0
0.83855402 1.3270757 0.56505251 0
0.28420824 -0.13953337 -0.089425333 0
0.32182765 -0.026667502 -0.090147249 0
0.36942488 0.11613372 -0.090534039 0
0.4053171 0.22381762 -0.078734331 0
0.40273678 0.21607617 -0.047524307 0
0.40394443 0.21969941 -0.01798073 0
0.86557299 1.6046779 -0.090180613 0
1.3035841 2.9187992 -0.090809755 0
3.2849946 8.86343 -0.1404997 0
0.79197985 1.3838837 0.21757142 0
0.8531093 1.5672843 0.28952047 0
0.83948052 1.5263953 0.34863836 0
0.84029138 1.5288281 0.41134247 0
0.83805871 1.5221295 0.47315538 0
0.83859581 1.523741 0.5364846 0
0.84054732 1.5295959 0.60122252 0
0.26261055 -0.13287774 -0.089376427 0
0.30042744 -0.009091761 -0.0920747 0
0.33984587 0.11993673 -0.089650474 0
0.38149476 0.25626615 -0.082060121 0
0.37930629 0.24910262 -0.050368447 0
0.3798314 0.2508215 -0.020063451 0
0.72246468 1.3723636 -0.071664385 0
0.72579813 1.3832748 -0.014523102 0
0.72669291 1.3862038 0.043219127 0
0.72778714 1.3897855 0.10104141 0
0.72271812 1.373193 0.15854648 0
0.72712111 1.3876054 0.21681692 0
0.84533238 1.7745466 0.30317017 0
0.83395839 1.7373161 0.3672488 0
0.8366251 1.7460451 0.43540958 0
0.83599949 1.7439971 0.50278425 0
0.83477938 1.7400033 0.57016689 0
0.24398421 -0.1155282 -0.091807939 0
0.27183285 -0.015395846 -0.089426167 0
0.31037459 0.12318447 -0.08880619 0
0.36778927 0.32962421 -0.091418125 0
0.44131196 0.59398156 -0.091095276 0
0.55350822 0.99739331 -0.091505758 0
0.66101307 1.3839366 -0.071237795 0
0.66148883 1.3856473 -0.013790531 0
0.6636951 1.3935802 0.04346475 0
0.66132766 1.3850677 0.10104075 0
0.6599254 1.3800259 0.15828943 0
0.65965575 1.3790562 0.21555349 0
0.81247097 1.9285171 0.31286862 0
0.8140071 1.9340405 0.38436654 0
0.81224263 1.9276962 0.45500314 0
0.81195921 1.926677 0.52649504 0
0.81254983 1.9288006 0.59894335 0
0.22357388 -0.10285363 -0.093302928 0
0.24934909 -0.00021132488 -0.091108032 0
0.28419784 0.1385639 -0.09014947 0
0.33089611 0.32452622 -0.089399241 0
0.39685085 0.58717197 -0.088996641 0
0.4998371 0.99728495 -0.090214543 0
0.59657496 1.3825157 -0.069989435 0
0.59739143 1.385767 -0.013032621 0
0.59630144 1.3814263 0.044138767 0
0.59736574 1.3856647 0.1010403 0
0.59379083 1.3714285 0.1577014 0
0.59586686 1.3796957 0.21482177 0
0.7683779 2.0666711 0.32142493 0
0.76468086 2.0519488 0.39383504 0
0.76904154 2.0693138 0.46972096 0
0.76972222 2.0720243 0.54473275 0
0.1978844 -0.11201182 -0.090145744 0
0.22353822 0.0022818779 -0.09044037 0
0.25635293 0.14847913 -0.090676405 0
0.29574707 0.32398918 -0.088183187 0
0.35527387 0.58919507 -0.088102676 0
0.44771031 1.0010208 -0.089428328 0
0.55087507 1.4606438 -0.074564628 0
0.55247688 1.4677801 -0.016263811 0
0.55492884 1.4787042 0.042160679 0
0.55217838 1.4664505 0.10104225 0
0.55112618 1.4617624 0.15951993 0
0.55126125 1.4623642 0.21808997 0
0.71272928 2.181742 0.3283577 0
0.7139942 2.1873775 0.4050467 0
0.71197206 2.1783683 0.48058441 0
0.71387559 2.1868491 0.55862355 0
0.17523377 -0.10961124 -0.089649864 0
0.19951941 0.012985382 -0.091477938 0
0.22506104 0.14192238 -0.088558964 0
0.26523653 0.34473279 -0.090149395 0
0.32163143 0.62942034 -0.091890104 0
0.39788136 1.0143383 -0.089683302 0
0.41383281 1.0948629 -0.047562961 0
0.41402796 1.0958481 0.0020111001 0
0.41457126 1.0985909 0.051482879 0
0.41629028 1.1072686 0.10103142 0
0.41629046 1.1072695 0.15078571 0
0.41390011 1.0952027 0.20002066 0
0.41493437 1.1004238 0.25002229 0
0.41505769 1.1010463 0.29999745 0
0.41528854 1.1022115 0.3502847 0
0.40746355 1.0627103 0.39507338 0
0.29485199 0.49423471 0.34961662 0
0.27007845 0.36917523 0.36189297 0
0.15206015 -0.1108605 -0.088492535 0
0.17207724 0.0055213305 -0.089155011 0
0.19644946 0.14722434 -0.088560335 0
0.23421979 0.36682561 -0.092409573 0
0.27840719 0.62373668 -0.090317734 0
0.34781712 1.0272944 -0.090022348 0
0.36942989 1.1529536 -0.050991822 0
0.87963724 4.1193614 -0.14035337 0
1.7631414 9.2561626 -0.14073873 0
0.58221436 2.3901088 0.26080355 0
0.58113605 2.3838391 0.34044302 0
0.58273584 2.3931403 0.42152128 0
0.26293629 0.53378695 0.28168088 0
0.27350202 0.59521741 0.32701221 0
0.27287376 0.5915646 0.3646954 0
0.23608825 0.37768903 0.36230525 0
0.13211074 -0.091845185 -0.091818549 0
0.14832853 0.0191429 -0.090986423 0
0.16899265 0.16056016 -0.090016268 0
0.19999723 0.3727434 -0.092475541 0
0.23736182 0.62845224 -0.090108566 0
0.29767656 1.0412228 -0.090571277 0
0.39427954 1.7023361 -0.08919806 0
0.75261486 4.1546435 -0.14104682 0
1.5028155 9.2887239 -0.14053577 0
0.50614399 2.4678926 0.26382753 0
0.50429398 2.4552321 0.34453207 0
0.5055936 2.4641263 0.42693776 0
0.22082326 0.51526874 0.27876878 0
0.27530128 0.88809508 0.36772066 0
0.20203683 0.38670161 0.36297464 0
0.10778919 -0.10240868 -0.088909708 0
0.12390648 0.031412993 -0.092669792 0
0.13827589 0.15072206 -0.087746523 0
0.16378598 0.36253217 -0.090380706 0
0.19769987 0.64411896 -0.091311343 0
0.24669357 1.0509131 -0.090839274 0
0.32781789 1.724488 -0.090119459 0
0.6219424 4.1666017 -0.14079505 0
1.2443368 9.3343372 -0.14079319 0
0.42495832 2.5310442 0.26624569 0
0.42551637 2.5356777 0.34938359 0
0.42371485 2.5207198 0.43116736 0
0.42289165 2.5138848 0.51356125 0
0.22973143 0.91007668 0.36993796 0
0.16711034 0.39013425 0.36274648 0
0.086816572 -0.08484146 -0.092145465 0
0.096196815 0.013990555 -0.088848136 0
0.11097092 0.16965333 -0.090359889 0
0.12998946 0.37003604 -0.090920858 0
0.15521298 0.63579589 -0.089812569 0
0.19501865 1.0551958 -0.090720423 0
0.25926548 1.7321126 -0.090136461 0
0.49131483 4.1770282 -0.14062673 0
0.98316854 9.3592911 -0.14072005 0
0.34171692 2.6008365 0.26906505 0
0.34002885 2.5830507 0.35203907 0
0.33910972 2.5733666 0.43521073 0
0.3404049 2.5870128 0.52103126 0
0.33909339 2.5731945 0.60408157 0
0.1734293 0.82772642 0.40104893 0
0.13174018 0.388482 0.36172357 0
0.063160419 -0.094597846 -0.089666478 0
0.071413293 0.024139199 -0.090370961 0
0.080725454 0.15811661 -0.088062771 0
0.09543258 0.36971322 -0.090477772 0
0.11500605 0.65132374 -0.09123642 0
0.1431846 1.0567384 -0.090467565 0
0.19044702 1.7367194 -0.090063311 0
0.36120138 4.1934237 -0.14089124 0
0.72188908 9.3827658 -0.14076638 0
0.25289804 2.6352246 0.27032351 0
0.25251716 2.6297448 0.35479376 0
0.13247508 0.90265661 0.27810085 0
0.13348058 0.91712326 0.32442763 0
0.13399526 0.92452818 0.37068909 0
0.12467602 0.79044896 0.39428359 0
0.096353896 0.38296857 0.36014196 0
0.040774308 -0.088613361 -0.090666555 0
0.045497276 0.018267784 -0.088989742 0
0.052003905 0.16551343 -0.089008711 0
0.061017245 0.36948612 -0.090171419 0
0.073718652 0.65692025 -0.091615655 0
0.090571173 1.0382943 -0.088469915 0
0.12181822 1.7454178 -0.0903982 0
0.23041725 4.2030239 -0.14099197 0
0.46007237 9.4001408 -0.14082427 0
0.16303216 2.6780927 0.2720809 0
0.16271067 2.6708174 0.35730648 0
0.086670525 0.9500224 0.28227514 0
0.086309493 0.94185203 0.32700175 0
0.086175427 0.93881816 0.37231353 0
0.076743565 0.72537428 0.3831538 0
0.061639797 0.38357452 0.3598848 0
0.018018272 -0.088865548 -0.090460397 0
0.020248182 0.028939281 -0.0908489 0
0.02300523 0.17459276 -0.090349965 0
0.026791023 0.37459412 -0.090737276 0
0.032046385 0.65223235 -0.090914376 0
0.039248724 1.032728 -0.087799482 0
0.052906897 1.754282 -0.090865679 0
0.099093735 4.1943088 -0.14039358 0
0.19779025 9.4083929 -0.14082372 0
0.071226127 2.7220774 0.27399528 0
0.070885547 2.7040849 0.35943049 0
0.070626758 2.6904132 0.44470888 0
0.070807241 2.6999481 0.53243494 0
0.032729559 0.6883238 0.37683666 0
0.026802946 0.37522402 0.35810512 0
-0.004657093 -0.096444935 -0.088818811 0
-0.00544141 0.027908359 -0.090624176 0
-0.0062981644 0.16374651 -0.088536866 0
-0.0076019401 0.37045982 -0.090125717 0
-0.0092617609 0.63362378 -0.088708945 0
-0.011856284 1.0449846 -0.088913508 0
-0.016316051 1.7520795 -0.090681158 0
-0.031772017 4.2026186 -0.14074202 0
-0.064584978 9.4051027 -0.14070873 0
-0.022545878 2.7398167 0.27479461 0
-0.022457713 2.7258384 0.36091137 0
-0.022438014 2.7227149 0.44767112 0
-0.022470167 2.7278128 0.53562456 0
-0.0093512228 0.64780802 0.37013137 0
-0.0076200366 0.37332895 0.35770711 0
-0.027396593 -0.090092391 -0.090260454 0
-0.042158641 0.37778357 -0.091246761 0
-0.063929446 1.0677984 -0.09113472 0
-0.085220024 1.7425928 -0.090109162 0
-0.11901642 2.8137531 -0.076167174 0
-0.11891873 2.810657 0.012575911 0
-0.11909339 2.8161924 0.10107909 0
-0.11879381 2.8066974 0.18948974 0
-0.11656577 2.7360811 0.27470344 0
-0.11599202 2.7178957 0.36047956 0
-0.11647534 2.7332146 0.44881788 0
-0.11645506 2.7325718 0.53638893 0
-0.050804887 0.65182215 0.37092027 0
-0.042178202 0.37840346 0.35878634 0
-0.056934964 0.0295997 -0.01830305 0
-0.15461682 1.7482772 -0.090720393 0
-0.21401344 2.7933397 -0.075412922 0
-0.21379635 2.78952 0.012969526 0
-0.21405075 2.7939961 0.10107858 0
-0.2150851 2.8121953 0.18971685 0
-0.2113568 2.7465973 0.27538824 0
-0.21082409 2.7372241 0.36212361 0
-0.21111432 2.7423306 0.45005873 0
-0.078077078 0.40158764 0.26387009 0
-0.076595984 0.37552825 0.29316413 0
-0.076951206 0.38177827 0.32675189 0
-0.077075571 0.38396648 0.36012378 0
-0.073117115 -0.087854117 -0.091287248 0
-0.22383034 1.74581 -0.090883829 0
-0.42439759 4.1860271 -0.14077725 0
-0.85046399 9.3697958 -0.1406952 0
-0.30599397 2.7454598 0.27564123 0
-0.30365121 2.7169564 0.36115921 0
-0.30441073 2.726197 0.44915962 0
-0.30391428 2.7201571 0.53618336 0
-0.1137682 0.40673044 0.29790312 0
-0.11413085 0.4111425 0.33199227 0
-0.11193637 0.38444319 0.36066884 0
-0.095932797 -0.089127153 -0.091476105 0
-0.55461371 4.1715398 -0.14067858 0
-1.1117371 9.3466349 -0.14073308 0
-0.39819244 2.7185493 0.27479845 0
-0.3989346 2.7254431 0.36238033 0
-0.39858299 2.7221773 0.44961694 0
-0.39865649 2.7228599 0.53754479 0
-0.14838542 0.39810303 0.29715538 0
-0.14862067 0.40028825 0.33075139 0
-0.1462533 0.37829784 0.36012703 0
-0.11835557 -0.093798012 -0.091060244 0
-0.13338274 0.018971357 -0.090615757 0
-0.11791453 -0.097107857 0.059067909 0
-1.371935 9.3135185 -0.140692 0
-0.49063787 2.6999435 0.27445266 0
-0.48974133 2.6932156 0.36090124 0
-0.2411029 0.82734257 0.27214015 0
-0.24139436 0.8295297 0.31552735 0
-0.1855312 0.41031232 0.29948425 0
-0.18566431 0.41131118 0.3332791 0
-0.18348527 0.394959 0.36408272 0
-0.14018896 -0.101639 -0.090081997 0
-0.1606231 0.026853595 -0.092826776 0
-0.14122204 -0.095142871 0.079919778 0
-0.58083004 2.6691713 0.27364114 0
-0.58017683 2.6650639 0.35986701 0
-0.2785649 0.76848739 0.26720643 0
-0.27916244 0.77224487 0.30953738 0
-0.27610561 0.75302297 0.34900573 0
-0.21637575 0.37743369 0.36171126 0
-0.16276892 -0.10424808 -0.090349011 0
-0.66881382 2.6309628 0.27258101 0
-0.66655964 2.6187789 0.35769975 0
-0.66760874 2.6244495 0.44421425 0
-0.66728067 2.6226761 0.53048968 0
-0.28909191 0.57853729 0.36311167 0
-0.25279614 0.38235584 0.36378852 0
-0.20727955 -0.0034132863 -0.040637169 0
-0.75535464 2.5911889 0.27154616 0
-0.75414604 2.5854671 0.35660416 0
-0.75311381 2.5805807 0.44174671 0
-0.75127739 2.571887 0.52657229 0
-0.28625265 0.37044731 0.3628124 0
-0.22884467 -0.022623446 -0.015156357 0
-0.20744897 -0.11261848 0.10099612 0
-0.83713311 2.5359712 0.26986951 0
-0.83280408 2.5177622 0.35318705 0
-0.83438092 2.524395 0.43828848 0
-0.83310616 2.519033 0.52263725 0
-0.83235133 2.5158579 0.60750514 0
-0.24706468 -0.051774111 -0.03531662 0
-0.91604888 2.4768004 0.26809025 0
-0.90925801 2.4511325 0.34996817 0
-0.90985638 2.4533942 0.43357334 0
-0.9124338 2.4631362 0.51855683 0
-0.91215658 2.4620886 0.60290545 0
-0.25296417 -0.11891571 -0.091751985 0
-0.27076054 -0.057918515 -0.035376985 0
-0.9858461 2.3930449 0.26520053 0
-0.98185563 2.3793676 0.34649134 0
-0.98217469 2.3804612 0.42882004 0
-0.98420304 2.3874133 0.51227432 0
-0.97855002 2.3680377 0.59266645 0
-0.27467763 -0.12612018 -0.091635905 0
-0.29241803 -0.070568174 -0.080681719 0
-0.39573264 0.25294963 0.16175453 0
-0.39911062 0.26352742 0.1929874 0
-0.39751515 0.25853136 0.22331306 0
-0.39905357 0.26334885 0.25473076 0
-0.39406613 0.24773112 0.2835401 0
-0.3964358 0.25515154 0.31574896 0
-0.39617974 0.25434974 0.34694314 0
-0.29673168 -0.13230464 -0.09187112 0
-0.33380136 -0.025594439 -0.091183461 0
-0.37920183 0.10509709 -0.089437731 0
-0.31564641 -0.077856034 0.033517223 0
-0.43102762 0.25428489 0.13165426 0
-0.42951441 0.24992886 0.16211888 0
-0.43025014 0.25204673 0.19291426 0
-0.4331443 0.26037791 0.22452901 0
-0.43118802 0.25474659 0.25496468 0
-0.43169233 0.25619832 0.28634238 0
-0.4278523 0.24514416 0.31582135 0
-0.42616174 0.24027768 0.34621403 0
-0.31717318 -0.1429787 -0.091214873 0
-0.35401952 -0.04496273 -0.089047559 0
-0.406937 0.095804721 -0.089551546 0
-0.4736087 0.27316013 -0.088569932 0
-0.48561302 0.3050932 -0.060644764 0
-0.51024741 0.37062386 -0.034637395 0
-0.51134211 0.3735359 -0.00081372051 0
-0.50872689 0.3665792 0.033535492 0
-0.51208282 0.37550631 0.067070141 0
-0.51190066 0.37502185 0.10101201 0
-1.1989423 2.2026422 0.18044972 0
-1.1939732 2.1894238 0.25925964 0
-1.1616579 2.1034608 0.33214515 0
-1.1626008 2.105969 0.40981337 0
-1.1579218 2.0935223 0.48607692 0
-1.1609026 2.1014519 0.56519651 0
-0.33575526 -0.15786782 -0.089702986 0
-0.37990531 -0.048856106 -0.090137608 0
-0.43696392 0.09202829 -0.090768136 0
-0.50959045 0.27135161 -0.090172224 0
-0.5088228 0.2694563 -0.057751168 0
-0.50828999 0.2681407 -0.025659388 0
-0.51081747 0.27438131 0.0056573618 0
-0.51283491 0.27936259 0.03724857 0
-0.50920081 0.27038959 0.069371358 0
-0.51095867 0.27473 0.10100933 0
-1.2709291 2.1511862 0.2589038 0
-1.2006776 1.9777269 0.32494256 0
-1.2006383 1.9776299 0.39993864 0
-1.1987845 1.9730525 0.47469145 0
-1.1983485 1.971976 0.55015284 0
-0.35952675 -0.15995458 -0.091249846 0
-0.4047074 -0.056015875 -0.090702303 0
-0.46354538 0.079341799 -0.090536483 0
-0.5126372 0.19227818 -0.080090724 0
-0.51285756 0.19278517 -0.04967064 0
-0.51435852 0.19623819 -0.019689841 0
-0.50771523 0.18095508 0.011764104 0
-0.51617736 0.20042232 0.040577207 0
-0.51112431 0.18879774 0.071103379 0
-0.50966471 0.18543997 0.10100696 0
-1.3534375 2.1265516 0.25933361 0
-1.2258953 1.8331387 0.31629688 0
-1.2280242 1.8380365 0.38890621 0
-1.2237912 1.8282986 0.46021503 0
-1.2299535 1.8424749 0.53508359 0
-1.2255877 1.8324313 0.60682386 0
-0.37659872 -0.17735323 -0.089365371 0
-0.428985 -0.064700931 -0.091086127 0
-0.4881151 0.062453423 -0.089661412 0
-0.50961351 0.10868397 -0.069201462 0
-0.5163278 0.12312236 -0.042411182 0
-0.50861245 0.10653117 -0.011832787 0
-0.50860417 0.10651341 0.016485194 0
-0.51447064 0.11912873 0.044061627 0
-0.51337123 0.11676458 0.072609492 0
-0.50957638 0.1086041 0.10100497 0
-1.4312849 2.0906613 0.25929633 0
-1.2486035 1.6978202 0.30831331 0
-1.2419292 1.6834679 0.3762719 0
-1.2425755 1.6848576 0.44581816 0
-1.2408611 1.6811707 0.51502848 0
-1.2432363 1.6862786 0.58609802 0
-0.39974225 -0.18153903 -0.090693958 0
-0.44997728 -0.080276638 -0.090154059 0
-0.50910681 0.038915072 -0.087668382 0
-0.51106614 0.042864714 -0.060951728 0
-0.51430207 0.049387489 -0.034540433 0
-0.51434463 0.049473319 -0.007263666 0
-0.50895661 0.03861228 0.020753557 0
-0.51108825 0.042909179 0.047328446 0
-0.50908476 0.038870607 0.074285217 0
-0.50979316 0.040298615 0.10100321 0
-1.2465614 1.525456 0.29738036 0
-1.2431823 1.5186443 0.3624458 0
-1.2383684 1.5089407 0.42706248 0
-1.2326833 1.4974806 0.49125057 0
-1.2369466 1.5060747 0.55894309 0
-0.42094955 -0.19009873 -0.091128521 0
-0.47501898 -0.087682277 -0.091061749 0
-0.53278059 0.021727834 -0.08692684 0
-0.53012466 0.016696963 -0.058898557 0
-0.53376639 0.023595009 -0.032893587 0
-0.53556371 0.026999507 -0.0062988233 0
-0.53341711 0.022933517 0.020950051 0
-0.53255391 0.021298442 0.047768675 0
-0.53569043 0.027239475 0.074244052 0
-0.53148389 0.019271646 0.10100295 0
-1.2497023 1.3796966 0.28840181 0
-1.2385941 1.3586557 0.34894833 0
-1.239676 1.3607049 0.41170168 0
-1.2405822 1.3624215 0.47485289 0
-1.2380606 1.3576453 0.53730237 0
-1.243029 1.3670561 0.60300189 0
-0.44292372 -0.19753113 -0.091973521 0
-0.49633259 -0.10226813 -0.090567462 0
-0.56317174 0.016949926 -0.088624693 0
-0.55920625 0.0098768212 -0.060010273 0
-0.558245 0.0081622936 -0.03267676 0
-0.55934674 0.010127459 -0.0059766006 0
-0.55845869 0.0085434653 0.0209969 0
-0.56191635 0.014710698 0.047384638 0
-0.55961621 0.010607991 0.074317813 0
-0.55707735 0.0060796472 0.10100298 0
-1.2967552 1.3254104 0.16282095 0
-1.2936922 1.319947 0.22437085 0
-1.2532278 1.2477727 0.28041148 0
-1.2428054 1.2291822 0.33851382 0
-1.2379588 1.2205379 0.39720821 0
-1.2446097 1.2324007 0.45906574 0
-1.237865 1.2203705 0.5174613 0
-1.2449615 1.2330282 0.58099353 0
-0.46328673 -0.20809576 -0.092192955 0
-0.51393205 -0.1228765 -0.088863187 0
-0.58056682 -0.010752346 -0.086111017 0
-0.5878799 0.0015530322 -0.061012108 0
-0.5850178 -0.0032629038 -0.033084903 0
-0.58615589 -0.0013478663 -0.0063002016 0
-0.58435965 -0.0043704179 0.020873377 0
-0.58823282 0.0021468734 0.047278598 0
-0.58531684 -0.0027596618 0.074288204 0
-0.58649623 -0.00077524444 0.10100322 0
-1.3600185 1.3008053 0.16306156 0
-1.354089 1.290828 0.22460301 0
-1.2505341 1.1165795 0.27236721 0
-1.2388928 1.0969911 0.32763794 0
-1.2387367 1.0967283 0.38471508 0
-1.2377287 1.0950322 0.44185507 0
-1.2370209 1.0938411 0.49937475 0
-1.2418041 1.1018898 0.55929679 0
-0.48042506 -0.22391251 -0.091225095 0
-0.54273301 -0.12484869 -0.091376491 0
-0.61041176 -0.017245796 -0.087759592 0
-0.60613298 -0.024048652 -0.059280697 0
-0.61054021 -0.01704159 -0.033267204 0
-0.60834903 -0.020525303 -0.0058537107 0
-0.61387688 -0.011736598 0.020236144 0
-0.61135894 -0.015739825 0.047427356 0
-0.61127239 -0.015877511 0.074233577 0
-0.60618383 -0.023967829 0.10100295 0
-1.2472427 0.99525601 0.26500455 0
-1.2404428 0.98444468 0.31874496 0
-1.2428074 0.9882043 0.37413639 0
-1.2428224 0.98822814 0.42941707 0
-1.2384208 0.98122996 0.48369828 0
-1.2383808 0.98116642 0.5395537 0
-0.49509707 -0.24305066 -0.08950264 0
-0.56359047 -0.14001581 -0.091111042 0
-0.63906765 -0.026475277 -0.089043535 0
-0.63679969 -0.029886927 -0.060932267 0
-0.64279574 -0.020867076 -0.034939099 0
-0.63838613 -0.027500477 -0.006829625 0
-0.64207619 -0.021949496 0.019765066 0
-0.63963628 -0.025619891 0.04709867 0
-0.63884693 -0.026807215 0.074098788 0
-0.6348322 -0.032846656 0.10100318 0
-1.2472826 0.88846475 0.25873145 0
-1.2390721 0.87611359 0.31017873 0
-1.240562 0.87835473 0.3632071 0
-1.237269 0.87340122 0.41543597 0
-1.2368305 0.87274152 0.46857768 0
-1.2403849 0.87808841 0.52344972 0
-0.51469111 -0.2544885 -0.089844398 0
-0.58015311 -0.16120765 -0.089574657 0
-0.66317689 -0.04290184 -0.089049317 0
-0.66274661 -0.043515053 -0.061407659 0
-0.66345602 -0.042504098 -0.034212936 0
-0.66793454 -0.036122467 -0.0077208858 0
-0.67025989 -0.032808866 0.019280517 0
-0.66492891 -0.0404053 0.047002856 0
-0.66493934 -0.040390458 0.074017368 0
-0.66419458 -0.041451719 0.10100345 0
-1.2947176 0.85702008 0.25878683 0
-1.2506118 0.79417092 0.30446666 0
-1.2365819 0.77417892 0.35288522 0
-1.242164 0.78213328 0.40522787 0
-1.239084 0.77774435 0.45588899 0
-1.2473522 0.78952628 0.51041096 0
-0.53622282 -0.26346895 -0.090972058 0
-0.60524911 -0.17020544 -0.090963788 0
-0.69063962 -0.05483171 -0.090097956 0
-0.69075388 -0.054677334 -0.062436614 0
-0.69623935 -0.047265735 -0.036001969 0
-0.68813956 -0.058209624 -0.0071511101 0
-0.69096279 -0.054395046 0.019658493 0
-0.6919629 -0.053043809 0.046744257 0
-0.68867487 -0.057486381 0.074017137 0
-0.69935238 -0.043059673 0.101004 0
-1.3471199 0.83215898 0.25951961 0
-1.2470767 0.69698757 0.29690963 0
-1.2405188 0.68812698 0.34499097 0
-1.2357191 0.68164188 0.39323562 0
-1.2352461 0.6810028 0.44261602 0
-1.2364336 0.68260735 0.49286464 0
-0.55483079 -0.27665684 -0.091133036 0
-0.62552023 -0.18602112 -0.090901859 0
-0.71386892 -0.072743267 -0.090063788 0
-0.72195035 -0.062381472 -0.064227127 0
-0.71850789 -0.066795319 -0.03575914 0
-0.71743912 -0.06816569 -0.0080658328 0
-0.72677255 -0.056198623 0.018244194 0
-0.7149688 -0.071333021 0.046774227 0
-0.71399194 -0.072585553 0.073940538 0
-0.71896631 -0.066207558 0.10100382 0
-1.3922747 0.79708713 0.25947717 0
-1.2533842 0.61900622 0.29146647 0
-1.2434933 0.60632437 0.33758467 0
-1.2437233 0.60661918 0.38551754 0
-1.2436721 0.60655373 0.43370751 0
-1.2373422 0.59843773 0.48034033 0
-0.57337022 -0.29001132 -0.091379486 0
-0.64085197 -0.20785025 -0.089496382 0
-0.73382413 -0.094653994 -0.089301802 0
-0.74187779 -0.084848434 -0.063512079 0
-0.74648803 -0.079235345 -0.036667634 0
-0.74913305 -0.076014906 -0.0093425941 0
-0.74570608 -0.080187351 0.018726381 0
-0.74404877 -0.082205206 0.046323359 0
-0.74853635 -0.076741487 0.073514037 0
-0.74669576 -0.078982383 0.10100403 0
-1.423533 0.74508661 0.25800326 0
-1.2439166 0.5263986 0.2841607 0
-1.2363772 0.51721913 0.32892969 0
-1.2437481 0.52619332 0.37669131 0
-1.2416841 0.52368039 0.42286509 0
-1.2348096 0.51531059 0.4678137 0
-0.58058113 -0.31658158 -0.088048063 0
-0.66758442 -0.21594098 -0.091575809 0
-0.76411951 -0.1042746 -0.091301359 0
-0.7787028 -0.087405473 -0.066572405 0
-0.76230264 -0.10637626 -0.035432938 0
-0.77235866 -0.094743997 -0.0094027501 0
-0.77094442 -0.096379966 0.01845503 0
-0.77241862 -0.094674617 0.045916151 0
-0.77677482 -0.08963564 0.073320195 0
-0.76889151 -0.098754674 0.101004 0
-1.4735323 0.71633464 0.2587193 0
-1.2495396 0.45723239 0.27955884 0
-1.2377181 0.44355789 0.32244369 0
-1.242654 0.44926742 0.36832118 0
-1.2418933 0.44838753 0.41342047 0
-1.2445147 0.45141986 0.45978627 0
-0.60368115 -0.3245295 -0.090042062 0
-0.68275321 -0.23759696 -0.090419523 0
-0.78430557 -0.12594953 -0.090837218 0
-0.79731894 -0.11164251 -0.065759711 0
-0.79670817 -0.11231408 -0.03758182 0
-0.80210203 -0.10638395 -0.010431951 0
-0.80230492 -0.10616097 0.017511936 0
-0.80260575 -0.10583016 0.045372244 0
-0.80386752 -0.10444298 0.073159821 0
-0.80447721 -0.10377267 0.10100457 0
-1.2494262 0.38540784 0.27453235 0
-1.2422776 0.37754861 0.31702206 0
-1.2347444 0.36926654 0.35916734 0
-1.239554 0.37455431 0.40408233 0
-1.2393793 0.37436214 0.44828084 0
-0.62704915 -0.3329027 -0.092129134 0
-0.70447677 -0.25197777 -0.091230117 0
-0.79896981 -0.15321681 -0.089204274 0
-0.81865412 -0.13264337 -0.065646954 0
-0.82002866 -0.13120672 -0.037826512 0
-0.83052444 -0.12023684 -0.011296256 0
-0.82637167 -0.12457719 0.017305614 0
-0.83220589 -0.11847952 0.044862784 0
-0.82715023 -0.12376353 0.073119022 0
-0.82811779 -0.12275222 0.10100464 0
-1.2465605 0.31459048 0.26951301 0
-1.239244 0.30694357 0.31074274 0
-1.2368544 0.30444613 0.35270545 0
-1.2382768 0.30593279 0.39568883 0
-1.2387685 0.30644658 0.43884498 0
-0.64177585 -0.35058174 -0.091639273 0
-0.71673781 -0.27609089 -0.089605696 0
-0.8178755 -0.17558882 -0.088756017 0
-0.86612499 -0.12764254 -0.070821457 0
-0.86096972 -0.13276544 -0.041048009 0
-0.85711008 -0.13660076 -0.011944091 0
-0.85920215 -0.13452187 0.016194263 0
-0.85380632 -0.13988379 0.044869728 0
-0.86092448 -0.13281032 0.072719134 0
-0.86853319 -0.12524948 0.10100539 0
-1.2691394 0.2728391 0.1427044 0
-1.2759786 0.27963534 0.18488196 0
-1.2738419 0.2775121 0.22671518 0
-1.2457576 0.24960425 0.26512787 0
-1.2456037 0.24945131 0.30646485 0
-1.240719 0.24459735 0.34707966 0
-1.2356926 0.23960248 0.38760674 0
-1.2385086 0.2424008 0.43019706 0
-0.65469092 -0.36983243 -0.090763278 0
-0.73674953 -0.29230508 -0.090187542 0
-0.83990538 -0.19484535 -0.089153968 0
-0.88604242 -0.151256 -0.070522405 0
-0.88525903 -0.15199617 -0.04152276 0
-0.8874312 -0.14994392 -0.013110062 0
-0.88578874 -0.15149567 0.015685135 0
-0.88457936 -0.15263823 0.044254001 0
-0.88600576 -0.15129063 0.072599322 0
-0.88604254 -0.15125588 0.10100523 0
-1.2969815 0.23699132 0.14258902 0
-1.2969261 0.2369391 0.18419823 0
-1.2936767 0.23386922 0.22558686 0
-1.256633 0.19887105 0.26255986 0
-1.2537137 0.1961129 0.30280554 0
-1.2361829 0.17955008 0.34025729 0
-1.2369342 0.18025985 0.38096353 0
-1.2307634 0.17442992 0.42023671 0
-0.6628406 -0.39310315 -0.088685848 0
-0.75421876 -0.31103411 -0.090217508 0
-0.86211109 -0.21413317 -0.089690499 0
-0.92055857 -0.16164002 -0.073101588 0
-0.91779715 -0.16412011 -0.04335985 0
-0.92281407 -0.15961429 -0.014927736 0
-0.91952777 -0.1625658 0.014474588 0
-0.91819745 -0.16376057 0.043453649 0
-0.91990322 -0.16222861 0.072191924 0
-0.91873074 -0.16328165 0.10100569 0
-1.3265108 0.20295623 0.14255776 0
-1.3319917 0.20787862 0.18448265 0
-1.3329149 0.20870796 0.2264134 0
-1.2427772 0.12775293 0.25710729 0
-1.2469922 0.13153854 0.29711115 0
-1.2321758 0.11823156 0.33400151 0
-1.2380471 0.12350467 0.37477553 0
-1.2349737 0.12074426 0.41396651 0
-0.68377191 -0.4048349 -0.09039063 0
-0.77837384 -0.32408842 -0.092020877 0
-0.88449311 -0.23351154 -0.090360068 0
-0.94675165 -0.18037149 -0.074136995 0
-0.94464093 -0.18217304 -0.044330422 0
-0.94360095 -0.18306068 -0.014945826 0
-0.95482051 -0.17348436 0.013121026 0
-0.94486284 -0.18198362 0.043078508 0
-0.95225185 -0.17567685 0.071832009 0
-0.94313532 -0.18345818 0.10100583 0
-1.4009392 0.20729533 0.14392963 0
-1.4046056 0.21042469 0.18710753 0
-1.4061843 0.21177223 0.23041186 0
-1.2452437 0.074403077 0.25399792 0
-1.2458059 0.074883014 0.29264233 0
-1.2430106 0.072497159 0.33091161 0
-1.2359263 0.066450387 0.36833337 0
-1.2473693 0.076217443 0.41019681 0
-0.70479167 -0.41703436 -0.092167027 0
-0.79029965 -0.3477017 -0.090903051 0
-0.90376997 -0.25569633 -0.090463676 0
-0.97997689 -0.19390526 -0.076510243 0
-0.97663248 -0.19661704 -0.046125192 0
-0.9719494 -0.20041421 -0.015944077 0
-0.97380704 -0.198908 0.013237381 0
-0.98019695 -0.19372687 0.042163536 0
-0.97878182 -0.19487426 0.071643278 0
