# .PCD v0.7 - Point Cloud Data file format
VERSION 0.7
FIELDS x y z intensity
SIZE 4 4 4 4
TYPE F F F F
COUNT 1 1 1 1
WIDTH 1330
HEIGHT 1
VIEWPOINT 0 0 0 1 0 0 0
POINTS 1330
DATA ascii
1.3154618 -3.4048183 -0.091282345 0
1.9678353 -4.6036315 -0.090595014 0
4.9743977 -10.128545 -0.14094698 0
0.45522732 -1.7760801 -0.092143185 0
0.51108444 -1.8728273 -0.091188826 0
0.57918572 -1.990782 -0.089088999 0
0.68035936 -2.1660194 -0.089983635 0
0.81180167 -2.3936837 -0.088557474 0
1.0297329 -2.7711511 -0.091078691 0
1.3749514 -3.3690856 -0.091137223 0
2.5940096 -5.4805522 -0.14046496 0
5.1992278 -9.9929132 -0.14075267 0
0.47764477 -1.7688012 -0.09324763 0
0.53138745 -1.8566877 -0.090529196 0
0.61270583 -1.9896693 -0.091746502 0
0.71172106 -2.1515908 -0.090492226 0
0.85122818 -2.3797295 -0.089509688 0
1.0700818 -2.7376254 -0.090312622 0
1.4323295 -3.3300164 -0.090838529 0
2.7100713 -5.4195328 -0.14078338 0
5.4263654 -9.8615427 -0.14082496 0
0.4865866 -1.7401757 -0.089108668 0
0.55019408 -1.8385295 -0.089519985 0
0.63582295 -1.970934 -0.091162823 0
0.74129957 -2.1340284 -0.090616144 0
0.88750762 -2.3601041 -0.089825638 0
1.1138971 -2.7101612 -0.090320088 0
1.4917026 -3.294347 -0.090937637 0
2.8221142 -5.3515105 -0.14087993 0
5.6500378 -9.7242174 -0.14089108 0
0.5089857 -1.7329662 -0.090468369 0
0.57048082 -1.8229884 -0.089197598 0
0.65797967 -1.9510772 -0.090460934 0
0.77252412 -2.118758 -0.09125831 0
0.92157197 -2.3369479 -0.089775838 0
1.1575527 -2.6823981 -0.09041784 0
1.5526389 -3.2607615 -0.091340698 0
2.9324265 -5.2806211 -0.14097461 0
5.8668995 -9.5763721 -0.14081974 0
0.53518516 -1.7304525 -0.0932303 0
0.5990814 -1.8191018 -0.091693036 0
0.68192893 -1.9340439 -0.090430476 0
0.79925364 -2.0968192 -0.090892412 0
0.95992577 -2.3197346 -0.090704121 0
1.2039896 -2.6583469 -0.091070153 0
1.6056339 -3.2155852 -0.090883695 0
3.030098 -5.1918759 -0.14020474 0
6.0836425 -9.4283409 -0.14089727 0
0.54156947 -1.7007532 -0.088962965 0
0.61822283 -1.8016344 -0.091193341 0
0.70184773 -1.9116906 -0.08942496 0
0.82802302 -2.0777459 -0.091143169 0
0.99168408 -2.2931354 -0.090413429 0
1.2469172 -2.6290398 -0.091255091 0
1.6610452 -3.1740611 -0.090854876 0
3.136183 -5.1154447 -0.14028277 0
6.2960238 -9.2740145 -0.14095078 0
0.56419462 -1.6929418 -0.090611495 0
0.64269501 -1.7910149 -0.092450984 0
0.73059338 -1.9008291 -0.090922974 0
0.8542223 -2.0552826 -0.090918235 0
1.0326803 -2.2782359 -0.09198714 0
1.2804308 -2.5877585 -0.090140469 0
1.7123955 -3.1274264 -0.090491854 0
3.2460403 -5.043458 -0.14078553 0
6.4973459 -9.1054192 -0.14073849 0
0.57435596 -1.6697103 -0.0881662 0
0.65142846 -1.7611703 -0.089150883 0
0.75487453 -1.8839271 -0.091309242 0
0.87674761 -2.0285509 -0.090024285 0
1.0532198 -2.2379658 -0.08987359 0
1.3173914 -2.5514519 -0.089711301 0
1.7716186 -3.090472 -0.091123335 0
3.3509245 -4.9645948 -0.14104752 0
6.70787 -8.9481993 -0.14102045 0
0.60581416 -1.6713474 -0.092802964 0
0.67686462 -1.7514683 -0.090901859 0
0.77534646 -1.8625226 -0.090848364 0
0.90337294 -2.0068932 -0.090168886 0
1.0811642 -2.2073817 -0.089305378 0
1.3719212 -2.5352571 -0.091896661 0
1.821394 -3.0421107 -0.09084139 0
3.4510152 -4.8797731 -0.14110763 0
6.9018445 -8.771142 -0.1408557 0
0.61454242 -1.6469854 -0.090220369 0
0.69235003 -1.7303885 -0.089927204 0
0.79787004 -1.8434972 -0.09102609 0
0.93360037 -1.9889885 -0.091165923 0
1.1122905 -2.1805291 -0.089431562 0
1.4029303 -2.4920702 -0.090862103 0
1.8639613 -2.9862566 -0.089955144 0
3.5436606 -4.7867517 -0.1408062 0
7.0912499 -8.589467 -0.1406941 0
0.63375688 -1.6341645 -0.091074847 0
0.71098715 -1.7128702 -0.089969881 0
0.81511366 -1.8189861 -0.090074517 0
0.95313507 -1.9596444 -0.090084068 0
1.14442 -2.1545839 -0.08983659 0
1.435663 -2.4513912 -0.090230741 0
1.9079275 -2.9326782 -0.089373596 0
3.6390743 -4.6968994 -0.14085458 0
7.2861509 -8.4136543 -0.14087331 0
0.64945787 -1.6176366 -0.090965845 0
0.73064983 -1.6963071 -0.090397932 0
0.84288025 -1.805052 -0.091697462 0
0.9807862 -1.9386752 -0.090763353 0
1.1729977 -2.1249173 -0.089761786 0
1.4763622 -2.4188604 -0.090785168 0
1.963114 -2.8904955 -0.090031661 0
3.734482 -4.6068516 -0.14105029 0
7.4719667 -8.2282648 -0.14089957 0
0.66195017 -1.5981684 -0.090054043 0
0.75364685 -1.6826372 -0.09177839 0
0.86131531 -1.781819 -0.091277502 0
1.0096502 -1.9184617 -0.091761135 0
1.2031233 -2.0966847 -0.090055071 0
1.5049657 -2.3747349 -0.089897282 0
2.5452435 -3.3330154 -0.14086312 0
3.8193595 -4.5067019 -0.14072064 0
7.6511374 -8.0364485 -0.14086488 0
0.67708313 -1.5812807 -0.090048634 0
0.77450633 -1.6665826 -0.092680983 0
0.88186651 -1.7605852 -0.091458566 0
1.0250179 -1.8859258 -0.090312548 0
1.2179265 -2.0548329 -0.088073738 0
1.5298219 -2.3279228 -0.08870367 0
2.6059008 -3.2701175 -0.14107989 0
3.9103451 -4.4122643 -0.14093432 0
7.8198485 -7.8353529 -0.14065906 0
0.6920644 -1.5642498 -0.090120547 0
0.78773016 -1.6438395 -0.091794379 0
0.9072507 -1.7432754 -0.092784964 0
1.0465372 -1.8591558 -0.090170406 0
1.2553016 -2.0328388 -0.089727528 0
1.569064 -2.2938757 -0.089426585 0
2.6614542 -3.2026975 -0.14097396 0
3.9949729 -4.3121276 -0.14090449 0
7.9928694 -7.638206 -0.14074306 0
0.71103644 -1.5503318 -0.091389827 0
0.80169106 -1.6219604 -0.091241412 0
0.91188061 -1.7090242 -0.089830436 0
1.0759175 -1.8386341 -0.091561295 0
1.2742292 -1.9953256 -0.088684432 0
1.6076509 -2.2587712 -0.090160586 0
2.7098513 -3.1296496 -0.1403857 0
4.0805488 -4.2126751 -0.14108303 0
8.1603184 -7.4362111 -0.14080927 0
0.72401965 -1.531528 -0.0911384 0
0.82117701 -1.6043894 -0.092130877 0
0.93434978 -1.6892614 -0.090775348 0
1.0901301 -1.8060862 -0.09035363 0
1.3144969 -1.9743462 -0.090918072 0
1.6308277 -2.2115731 -0.089187331 0
2.7603769 -3.0586593 -0.14015718 0
4.1643276 -4.1115279 -0.14130114 0
8.316843 -7.225636 -0.14070639 0
0.74067742 -1.5153929 -0.091974862 0
0.82711577 -1.5768707 -0.089976825 0
0.95478654 -1.6676742 -0.091395117 0
1.1197263 -1.7849847 -0.091963403 0
1.3298348 -1.9344205 -0.089613281 0
1.6835015 -2.1859596 -0.091747694 0
2.8233981 -2.9966908 -0.14115982 0
4.2409368 -4.0048895 -0.14125301 0
8.476428 -7.0173059 -0.1408457 0
0.74820662 -1.4928493 -0.090562679 0
0.84416664 -1.5575163 -0.090542085 0
0.95853847 -1.6345911 -0.088806666 0
1.133518 -1.7525091 -0.090958752 0
1.3505359 -1.8987566 -0.089229606 0
1.6999972 -2.1342571 -0.090266265 0
2.8728604 -2.9246452 -0.14113557 0
4.3069577 -3.8910775 -0.14076371 0
8.6313286 -6.805254 -0.14100009 0
0.75580335 -1.4707291 -0.089334734 0
0.858446 -1.5361955 -0.090589203 0
0.98954201 -1.6198097 -0.091735922 0
1.1497208 -1.7219731 -0.09050981 0
1.3711221 -1.8631848 -0.088961966 0
1.7396921 -2.0982621 -0.091522492 0
2.9217908 -2.8522153 -0.14121963 0
4.3807402 -3.7827461 -0.14087076 0
8.7658329 -6.5795965 -0.14073835 0
0.76932567 -1.4525046 -0.089735694 0
0.86829048 -1.5121671 -0.089779533 0
1.0050057 -1.5945879 -0.091710933 0
1.1726673 -1.6956652 -0.091301717 0
1.4081625 -1.8376371 -0.091067322 0
1.7663928 -2.0536017 -0.091443352 0
2.9589419 -2.772548 -0.14049128 0
4.4467406 -3.6694901 -0.14070295 0
8.9012165 -6.3549376 -0.1406603 0
0.78987032 -1.4381497 -0.091961659 0
0.88299924 -1.4911371 -0.090167932 0
1.0261016 -1.5725578 -0.092872567 0
1.185289 -1.6631305 -0.090521134 0
1.420802 -1.7971301 -0.089948945 0
1.7925082 -2.0086193 -0.091424443 0
3.0083268 -2.7003825 -0.14092025 0
4.5189514 -3.559881 -0.14102446 0
9.0439358 -6.1344557 -0.14093243 0
0.78567243 -1.4099159 -0.088278495 0
0.90247369 -1.4725252 -0.091683768 0
1.0224892 -1.5368574 -0.089515604 0
1.205866 -1.6351532 -0.091151349 0
1.4413882 -1.7614008 -0.090035908 0
1.8084649 -1.9581658 -0.09045101 0
3.0467882 -2.6219473 -0.14062253 0
4.5775118 -3.4424644 -0.14076774 0
9.1650829 -5.9015508 -0.14077966 0
0.80397666 -1.3939855 -0.090168752 0
0.91412973 -1.4495 -0.091631167 0
1.0430174 -1.5144562 -0.090810858 0
1.2289739 -1.6081735 -0.092283778 0
1.4544839 -1.7218249 -0.089260213 0
1.8396211 -1.9159244 -0.091212563 0
3.0891488 -2.5456555 -0.14078979 0
4.6437902 -3.3291562 -0.14107218 0
9.2913551 -5.6714125 -0.1409163 0
0.82264102 -1.3777132 -0.09221644 0
0.91995895 -1.4237176 -0.09048707 0
1.052336 -1.4862953 -0.090156399 0
1.2220399 -1.5665183 -0.088839389 0
1.4802738 -1.6885915 -0.0902647 0
1.8516896 -1.8641683 -0.090105169 0
3.1279833 -2.4675019 -0.14083225 0
4.6856666 -3.2038546 -0.1402646 0
9.4041224 -5.4343772 -0.14085431 0
0.82293725 -1.352771 -0.090068333 0
0.93265134 -1.4012874 -0.090903915 0
1.0735685 -1.4636022 -0.091778643 0
1.2425458 -1.5383253 -0.089812197 0
1.5093541 -1.6563101 -0.091786332 0
1.8754958 -1.818221 -0.090342097 0
3.1651738 -2.3885269 -0.14090021 0
4.7438021 -3.0866091 -0.14045556 0
9.5143986 -5.1962051 -0.1408827 0
0.83737212 -1.334195 -0.091338806 0
0.9384467 -1.3758748 -0.090027221 0
1.0783931 -1.433584 -0.090569548 0
1.2626257 -1.5095553 -0.090818904 0
1.5176607 -1.6147233 -0.090769567 0
1.8990597 -1.7719995 -0.090669818 0
3.1851976 -2.3023601 -0.1398209 0
4.8119016 -2.9731584 -0.14129612 0
9.6183891 -4.9551935 -0.14090468 0
0.85982162 -1.3183511 -0.094528697 0
0.94997859 -1.3528939 -0.090446047 0
1.0707906 -1.3991818 -0.087318905 0
1.2695216 -1.4753236 -0.089941613 0
1.5252355 -1.5732979 -0.089803033 0
1.9145246 -1.7224501 -0.090302043 0
3.2323859 -2.2273757 -0.14094928 0
4.8554387 -2.8492322 -0.14104755 0
9.7157812 -4.7114239 -0.14091441 0
0.85791218 -1.2930539 -0.092287354 0
0.95337319 -1.3268923 -0.089351498 0
1.0950856 -1.3771255 -0.089811318 0
1.2847384 -1.4443524 -0.090442248 0
1.5374348 -1.5339265 -0.089548759 0
1.9429229 -1.6776612 -0.091342799 0
3.2657771 -2.1465776 -0.14118528 0
4.8929524 -2.7233679 -0.14065889 0
9.8082638 -4.465714 -0.1409554 0
0.85825562 -1.2690359 -0.090711497 0
0.97089845 -1.305793 -0.091196142 0
1.1110582 -1.3515292 -0.090941168 0
1.2954745 -1.411707 -0.090392463 0
1.5705884 -1.5014807 -0.091995366 0
1.9562091 -1.6273144 -0.091002695 0
3.2890866 -2.0622523 -0.14082856 0
4.9411302 -2.6013386 -0.14095186 0
9.8905334 -4.2164025 -0.14089864 0
0.86665249 -1.2477981 -0.091068991 0
0.98779017 -1.2839718 -0.093007497 0
1.1146947 -1.3218676 -0.090057887 0
1.3017029 -1.3777113 -0.089803241 0
1.5529443 -1.4527361 -0.088327952 0
1.9585865 -1.5738676 -0.089726768 0
3.3164651 -1.9793526 -0.14092733 0
4.9772706 -2.4752965 -0.14080802 0
9.9597197 -3.9631376 -0.14067808 0
0.8803727 -1.2279017 -0.092715003 0
0.97578084 -1.2537891 -0.089274026 0
1.1200875 -1.2929441 -0.089607649 0
1.3171518 -1.3464141 -0.090686075 0
1.5680562 -1.4144926 -0.088801794 0
1.9598347 -1.5207949 -0.088481285 0
3.3485601 -1.8976012 -0.14151916 0
5.0084071 -2.3479717 -0.14057779 0
10.037371 -3.7124927 -0.14081754 0
0.87965417 -1.204059 -0.091301672 0
0.99476159 -1.2321935 -0.091720514 0
1.132802 -1.2659333 -0.090522848 0
1.3253794 -1.3130029 -0.09063343 0
1.5764012 -1.3743577 -0.088575102 0
1.9675009 -1.4699501 -0.087989263 0
3.3454256 -1.8067421 -0.13972096 0
5.0423288 -2.2214985 -0.140637 0
10.102629 -3.4583352 -0.14081141 0
0.87840408 -1.1804289 -0.089911737 0
0.99870217 -1.2066343 -0.091359712 0
1.1405995 -1.2375447 -0.090720989 0
1.3326784 -1.2793865 -0.090569161 0
1.6152828 -1.3409482 -0.092123739 0
1.997285 -1.4241624 -0.089735799 0
3.3859255 -1.7266594 -0.14121917 0
5.0722189 -2.0939963 -0.14065631 0
10.158959 -3.2020755 -0.14074598 0
0.88751292 -1.1591041 -0.090899847 0
0.99314666 -1.1793377 -0.089303561 0
1.1397383 -1.2074165 -0.089589424 0
1.3396909 -1.2457165 -0.090585895 0
1.6089027 -1.2972826 -0.090369858 0
2.5475607 -1.4770775 -0.14105009 0
3.3996024 -1.6402816 -0.14094512 0
5.1002808 -1.9660375 -0.1407418 0
10.214661 -2.9456699 -0.14081949 0
0.89069235 -1.1365457 -0.090722568 0
0.99793875 -1.1542956 -0.089363314 0
1.1408187 -1.177943 -0.088913001 0
1.344244 -1.211611 -0.090373583 0
1.6211697 -1.2574437 -0.090963133 0
2.5583889 -1.4125588 -0.14098687 0
3.4155679 -1.5544267 -0.14098923 0
5.1389961 -1.8396636 -0.14148238 0
10.262673 -2.6876607 -0.14086433 0
0.89504778 -1.1141793 -0.090920739 0
1.0137143 -1.1307549 -0.091632091 0
1.1536031 -1.150295 -0.090304844 0
1.3549596 -1.1784211 -0.09115883 0
1.624325 -1.2160469 -0.090597935 0
2.5552287 -1.3460785 -0.13975926 0
3.4237676 -1.4673986 -0.14063823 0
5.1488848 -1.7083684 -0.14101554 0
10.302307 -2.4282141 -0.14086545 0
0.89864963 -1.091665 -0.09107808 0
0.99822438 -1.1030208 -0.088080131 0
1.1499617 -1.1203252 -0.089091249 0
1.3589323 -1.1441566 -0.091106765 0
1.6295511 -1.1750185 -0.090600468 0
2.5736544 -1.282686 -0.14072095 0
3.4303427 -1.3803844 -0.14032876 0
5.1640449 -1.5780994 -0.14095256 0
10.332634 -2.1675355 -0.14080232 0
0.89640361 -1.068581 -0.090108596 0
1.0158231 -1.0791553 -0.090925284 0
1.1341076 -1.0896292 -0.085990272 0
1.1300513 -1.08927 -0.058324907 0
1.6265901 -1.1332376 -0.089764081 0
2.5870311 -1.2182828 -0.14135751 0
3.4404538 -1.2938519 -0.14042246 0
5.1676655 -1.4467932 -0.14050427 0
10.364438 -1.9069577 -0.14092755 0
0.8880676 -1.0453283 -0.087967761 0
1.0193262 -1.0536195 -0.091219477 0
1.1333925 -1.0608249 -0.085515 0
1.1378909 -1.0611091 -0.05912425 0
1.6357288 -1.0925565 -0.090469562 0
2.5907269 -1.1528817 -0.14123978 0
3.4481957 -1.2070463 -0.14050321 0
5.188591 -1.3169835 -0.14101866 0
10.384958 -1.6452273 -0.14094305 0
0.90180695 -1.0234056 -0.090649642 0
1.022501 -1.0279762 -0.091573082 0
1.1277022 -1.0319599 -0.084341608 0
1.1387936 -1.03238 -0.059047271 0
1.6364481 -1.0512254 -0.090309851 0
2.5834241 -1.0870861 -0.14024913 0
3.4497595 -1.119893 -0.14030501 0
5.1881952 -1.185725 -0.14069197 0
10.384198 -1.3824902 -0.14061724 0
0.90333307 -1.0006778 -0.090852059 0
1.0161505 -1.0021013 -0.090254255 0
1.1335295 -1.0035824 -0.085181393 0
1.1342132 -1.0035909 -0.058301631 0
1.1259526 -1.0034868 -0.030519998 0
1.1331627 -1.0035777 -0.0047168713 0
1.1343213 -1.0035924 0.021732444 0
1.1323557 -1.0035676 0.04829514 0
1.1320778 -1.003564 0.074669644 0
1.128998 -1.0035251 0.1010026 0
1.1257132 -1.0034838 0.12718742 0
1.1310682 -1.0035514 0.15365039 0
1.1170709 -1.0033747 0.17906633 0
1.1386578 -1.0036471 0.20723616 0
1.1281023 -1.0035139 0.2327773 0
1.1391053 -1.0036527 0.26099625 0
1.1390573 -1.0036521 0.2880975 0
1.1315768 -1.0035577 0.31400427 0
0.89223123 -0.97804689 -0.088492043 0
1.0155083 -0.97649145 -0.090133287 0
1.1275297 -0.97507805 -0.084195249 0
1.1303397 -0.97504258 -0.057757217 0
1.6465257 -0.96852958 -0.091365956 0
2.5819125 -0.95672739 -0.13995445 0
3.450664 -0.94576591 -0.14021464 0
5.1883168 -0.92384106 -0.14054376 0
10.389069 -0.85822064 -0.14057663 0
0.90914583 -0.95490122 -0.092210732 0
1.0067955 -0.95120335 -0.088612802 0
1.1497391 -0.94579029 -0.087965988 0
1.1121956 -0.94721198 -0.055306647 0
1.6398972 -0.92722869 -0.09071324 0
2.5841806 -0.89147002 -0.14031979 0
3.4437327 -0.85892004 -0.13988338 0
5.1856198 -0.79295725 -0.14057198 0
10.402179 -0.59541363 -0.14103556 0
0.9070636 -0.93205655 -0.09201365 0
1.0087836 -0.92563111 -0.0892298 0
1.1360468 -0.91759217 -0.085952125 0
1.1304265 -0.91794717 -0.058073152 0
1.6344057 -0.88611186 -0.090314634 0
2.5853436 -0.82604301 -0.14073631 0
3.4612021 -0.77071685 -0.1414143 0
5.1819448 -0.66202104 -0.14070864 0
10.382792 -0.33349416 -0.1408926 0
0.89033586 -0.91054106 -0.088813759 0
1.0168947 -0.89933449 -0.09112791 0
1.1550143 -0.88710427 -0.089439772 0
1.3558782 -0.86931813 -0.090185605 0
1.647673 -0.84348023 -0.092237748 0
2.5834181 -0.76062173 -0.14101894 0
3.4479325 -0.68407059 -0.14094734 0
5.1894822 -0.5298596 -0.14152393 0
10.365737 -0.071511954 -0.14095786 0
0.88806194 -0.88812709 -0.088812955 0
1.017917 -0.87331814 -0.091813304 0
1.1600802 -0.85710555 -0.090765007 0
1.3481964 -0.83565241 -0.089588217 0
1.6225199 -0.80436802 -0.089773394 0
2.5755734 -0.69567984 -0.14090124 0
3.4447048 -0.59656233 -0.14133932 0
5.1526675 -0.40178284 -0.14041947 0
10.339585 0.18974367 -0.14096498 0
0.90461254 -0.86306936 -0.092973568 0
1.0041002 -0.84917259 -0.089803703 0
1.1495601 -0.82885432 -0.089633949 0
1.3466697 -0.80132145 -0.089982502 0
1.6194783 -0.76321471 -0.090025984 0
2.5703042 -0.63040042 -0.14118007 0
3.4323146 -0.50999212 -0.14124157 0
5.1505461 -0.26998433 -0.14109363 0
10.295746 0.44871309 -0.14071146 0
0.87936121 -0.84391439 -0.088281222 0
1.0029417 -0.82346117 -0.090318434 0
1.1437181 -0.80016184 -0.089396007 0
1.3465782 -0.76658738 -0.090706073 0
1.6114792 -0.72274482 -0.089815147 0
2.5522385 -0.56704384 -0.14040497 0
3.418802 -0.42362276 -0.14121839 0
5.1193819 -0.1421673 -0.14055683 0
10.25297 0.70747 -0.14063562 0
0.88839209 -0.81931216 -0.091090135 0
1.0060993 -0.79676598 -0.091787554 0
1.1492306 -0.76934993 -0.091177873 0
1.3367368 -0.73343408 -0.090163209 0
1.3468927 -0.73148876 -0.059191186 0
1.3479228 -0.73129147 -0.027039846 0
1.349785 -0.7309348 0.0049615894 0
1.3367698 -0.73342776 0.037652362 0
1.3550944 -0.72991776 0.068914138 0
1.3450085 -0.73184973 0.10100947 0
0.88655627 -0.79637998 -0.091685213 0
0.99985474 -0.77169937 -0.091581888 0
1.1313369 -0.74305773 -0.089162968 0
1.2079684 -0.72636455 -0.072632067 0
1.2069193 -0.72659308 -0.043277685 0
1.203739 -0.72728586 -0.013928896 0
1.1910208 -0.73005635 0.015823865 0
1.2014426 -0.72778612 0.043772373 0
1.2132649 -0.72521079 0.072123088 0
1.1972902 -0.72869068 0.10100535 0
0.88748389 -0.77261198 -0.093014963 0
0.99812323 -0.74556953 -0.092372321 0
1.1251357 -0.71452522 -0.089225791 0
1.2145523 -0.69266999 -0.074599899 0
1.2065703 -0.69462097 -0.044079352 0
1.2093045 -0.69395268 -0.015135651 0
1.2106901 -0.69361401 0.013910333 0
1.2102469 -0.69372237 0.043015897 0
1.2077456 -0.69433373 0.072086483 0
1.1935956 -0.69779223 0.10100545 0
0.85648441 -0.75716466 -0.087453671 0
0.98688817 -0.72178185 -0.091441728 0
1.1361121 -0.68129253 -0.092336543 0
1.198475 -0.66437149 -0.073404841 0
1.2043159 -0.66278666 -0.044753168 0
1.2083689 -0.66168696 -0.015803074 0
1.2109103 -0.66099739 0.013326088 0
1.2064466 -0.6622085 0.042820908 0
1.2023498 -0.66332012 0.072027929 0
1.2125257 -0.66055906 0.10100623 0
0.86456013 -0.73141134 -0.090604834 0
0.97866148 -0.69733882 -0.091213085 0
1.1130252 -0.65721565 -0.089771517 0
1.1962446 -0.63236493 -0.074336 0
1.2097739 -0.62832487 -0.046470452 0
1.2045524 -0.62988406 -0.016273936 0
1.2073736 -0.62904161 0.012951681 0
1.2040715 -0.63002765 0.042516693 0
1.2108005 -0.62801826 0.07161402 0
1.2011172 -0.63090992 0.10100616 0
0.85898191 -0.70931166 -0.090873875 0
0.97302788 -0.67209679 -0.091618039 0
1.1052955 -0.62893593 -0.089944907 0
1.210891 -0.59447855 -0.077888675 0
1.2025435 -0.59720248 -0.046748523 0
1.2066656 -0.59585738 -0.01740939 0
1.2124054 -0.59398437 0.011884997 0
1.2055153 -0.59623271 0.04198334 0
1.2111049 -0.59440875 0.071374223 0
1.2095226 -0.59492505 0.10100669 0
0.83873594 -0.69232821 -0.087962709 0
0.95986885 -0.64938986 -0.090649538 0
1.0989151 -0.60010171 -0.090479068 0
1.2107161 -0.56047124 -0.07940533 0
1.1986206 -0.56475878 -0.047536228 0
1.2062774 -0.56204462 -0.01839201 0
1.2025826 -0.56335431 0.011845173 0
1.2107353 -0.56046438 0.04121672 0
1.2132938 -0.5595575 0.071064949 0
1.2029072 -0.56323928 0.10100681 0
0.84398329 -0.66630179 -0.090923421 0
0.95438719 -0.62400162 -0.091335274 0
1.0953313 -0.57000035 -0.091638111 0
1.2049348 -0.52800685 -0.080221526 0
1.2070248 -0.52720606 -0.049976412 0
1.2136016 -0.52468622 -0.02024 0
1.2089581 -0.5264653 0.010534668 0
1.2064922 -0.52741015 0.040869646 0
1.2105793 -0.52584422 0.070852958 0
1.2011865 -0.52944297 0.10100709 0
0.83557451 -0.64513099 -0.090925492 0
0.93459588 -0.60429788 -0.08924266 0
1.0823833 -0.54335529 -0.091278903 0
1.210225 -0.49063766 -0.082853235 0
1.2063067 -0.49225342 -0.051408101 0
1.2117234 -0.49001974 -0.021272903 0
1.2181859 -0.48735484 0.0089247245 0
1.2027925 -0.49370259 0.040449776 0
1.2060783 -0.4923476 0.070662394 0
1.207559 -0.49173701 0.10100766 0
0.82413399 -0.62528443 -0.090346463 0
0.93219769 -0.57749778 -0.090810485 0
1.0663439 -0.51817727 -0.090480365 0
1.2230496 -0.44888076 -0.086816348 0
1.2040399 -0.45728698 -0.052770052 0
1.2022485 -0.45807919 -0.021630896 0
1.2108784 -0.454263 0.008485632 0
1.1950794 -0.46124944 0.040186413 0
1.1919352 -0.46263984 0.070693433 0
1.2070956 -0.45593575 0.10100804 0
0.816266 -0.60388511 -0.090717562 0
0.92534226 -0.55232221 -0.091608621 0
1.0463481 -0.49512002 -0.089067854 0
1.2331997 -0.40679094 -0.090574153 0
1.4662646 -0.29661575 -0.088453673 0
1.8731563 -0.10426864 -0.092321478 0
3.1298332 0.48979166 -0.1409753 0
4.6925077 1.2285039 -0.14061688 0
9.4025888 3.4550679 -0.1408149 0
0.79922575 -0.58699352 -0.089037888 0
0.9178049 -0.52723253 -0.09240634 0
1.050024 -0.46059743 -0.092100389 0
1.2134802 -0.37821957 -0.089845501 0
1.4628311 -0.25255296 -0.090352677 0
1.8393233 -0.062810272 -0.091181435 0
3.0780993 0.56150204 -0.13992476 0
4.6349134 1.3460975 -0.14060941 0
9.2804966 3.6873553 -0.14063358 0
0.79934841 -0.56133795 -0.091576792 0
0.90339094 -0.50556785 -0.091879793 0
1.0222169 -0.44187328 -0.089464821 0
1.1971349 -0.3481116 -0.089759164 0
1.4401194 -0.21786407 -0.089867644 0
1.8151748 -0.016822245 -0.091161616 0
3.0539227 0.64718682 -0.14118841 0
4.5791769 1.4647722 -0.14085568 0
9.1647234 3.9227731 -0.14077015 0
0.78628325 -0.54247594 -0.091084413 0
0.90042388 -0.47753349 -0.093943916 0
1.0166514 -0.41140369 -0.09108562 0
1.1802808 -0.31830361 -0.089711361 0
1.2150939 -0.2984961 -0.062288094 0
1.2188487 -0.29635975 -0.029818496 0
3.0067575 0.72090489 -0.14079402 0
4.5191083 1.5813854 -0.14103286 0
9.0422411 4.1549072 -0.14088708 0
0.76885509 -0.52636373 -0.089618884 0
0.88006413 -0.45931968 -0.092368938 0
1.0073165 -0.38260373 -0.092154376 0
1.1747386 -0.28167072 -0.091641642 0
1.139111 -0.30314937 -0.054350112 0
1.2031409 -0.26454797 -0.030054277 0
2.9576159 0.79316396 -0.14038302 0
4.4454508 1.6901276 -0.14063284 0
8.8978148 4.3743029 -0.14056796 0
0.7584272 -0.50618207 -0.089996241 0
0.84993911 -0.44781503 -0.088688768 0
0.9866991 -0.36058828 -0.091181733 0
1.1521109 -0.25508717 -0.090908207 0
1.1444031 -0.2600033 -0.05753376 0
1.1803504 -0.23707578 -0.029597959 0
2.906389 0.86380702 -0.13994251 0
4.3703847 1.7975564 -0.14029893 0
8.7605572 4.5976477 -0.14059287 0
0.74344021 -0.48894748 -0.089340948 0
0.84039891 -0.42360738 -0.089686327 0
0.96989036 -0.33634356 -0.091056459 0
1.1240406 -0.23246244 -0.08935263 0
1.1385126 -0.22270975 -0.059348185 0
1.1716348 -0.20038888 -0.030795446 0
2.8583508 0.93628258 -0.13991237 0
4.307271 1.9127042 -0.14078133 0
8.625371 4.8226542 -0.14083305 0
0.73016644 -0.47066751 -0.089233153 0
0.82793045 -0.40113458 -0.090165131 0
0.95229977 -0.31267914 -0.090893574 0
1.1020038 -0.20620486 -0.088907085 0
1.1452677 -0.1754342 -0.063142888 0
1.1384566 -0.18027851 -0.029317787 0
2.8169565 1.0135245 -0.14060721 0
4.2313652 2.0194972 -0.1407062 0
8.4697609 5.0339799 -0.14065549 0
0.7279076 -0.44414106 -0.092171393 0
0.8164919 -0.37770882 -0.091027863 0
0.93918878 -0.28569439 -0.091769435 0
1.0786153 -0.1811339 -0.088330902 0
1.0948008 -0.16899583 -0.058823351 0
1.0971689 -0.16721985 -0.026924467 0
1.1002645 -0.16489831 0.0049100388 0
1.1110835 -0.15678486 0.03637154 0
1.0971353 -0.16724512 0.069113635 0
1.0979359 -0.16664472 0.10100954 0
1.1070377 -0.15981898 0.13319393 0
1.0973164 -0.16710928 0.16484654 0
1.0970627 -0.16729954 0.19682957 0
0.7133643 -0.42641363 -0.092020445 0
0.79816329 -0.35941163 -0.090394579 0
0.90941817 -0.27150616 -0.089314647 0
1.0624681 -0.15057734 -0.089152373 0
1.1026183 -0.11885354 -0.063122518 0
1.094733 -0.12508389 -0.029143652 0
1.0988355 -0.12184247 0.0031529313 0
1.1047429 -0.11717477 0.035480488 0
1.0971277 -0.1231918 0.068488911 0
1.0957619 -0.12427095 0.10101023 0
1.1064926 -0.1157923 0.13380988 0
1.1121124 -0.11135194 0.1669786 0
1.0977722 -0.12268254 0.19877334 0
0.68584657 -0.41950801 -0.088401265 0
0.78428471 -0.33761165 -0.090950198 0
0.90619779 -0.23618522 -0.092559867 0
1.0307288 -0.13258085 -0.087280445 0
1.1008524 -0.074241012 -0.066246293 0
1.0990295 -0.075757593 -0.032355133 0
1.102216 -0.073106498 0.00082334341 0
1.1040013 -0.071621269 0.034171548 0
1.1039182 -0.071690351 0.067612052 0
1.0996306 -0.07525751 0.10101119 0
1.1068732 -0.069231957 0.13450029 0
1.088641 -0.084400326 0.16692001 0
1.096405 -0.077940971 0.20067076 0
0.67526543 -0.39889559 -0.08953508 0
0.76504171 -0.32028911 -0.09031155 0
0.87654781 -0.22265646 -0.090296708 0
0.99585253 -0.1181955 -0.084864713 0
1.1058663 -0.021869566 -0.070666037 0
1.1037986 -0.023679938 -0.035849754 0
1.1077522 -0.02021822 -0.0018716359 0
1.0980332 -0.028728034 0.0330864 0
1.0977498 -0.028976168 0.067076355 0
1.0977634 -0.028964307 0.10101201 0
1.098678 -0.028163459 0.13497648 0
1.0930763 -0.033068206 0.16863073 0
1.0916128 -0.034349646 0.20239592 0
1.1034659 -0.023971226 0.23783368 0
1.0922067 -0.033829596 0.37424281 0
0.65908813 -0.3830528 -0.089226894 0
0.7530027 -0.29654083 -0.091613449 0
0.85194969 -0.20539311 -0.089184709 0
0.96418542 -0.10200414 -0.083074026 0
1.0620508 -0.011852767 -0.067638196 0
1.1026975 0.025589976 -0.038846467 0
1.1029327 0.025806699 -0.0037710497 0
1.0989811 0.022166643 0.031470235 0
1.1003728 0.02344862 0.066216454 0
1.1000637 0.023163829 0.10101306 0
1.1048043 0.027530704 0.13595016 0
1.0965567 0.019933257 0.17040233 0
1.0950103 0.018508706 0.20504418 0
1.1030445 0.025909696 0.24091761 0
1.0353812 -0.036420252 0.3659505 0
0.65399444 -0.35655245 -0.092308573 0
0.7387749 -0.27440497 -0.092528857 0
0.85020012 -0.16644016 -0.093372576 0
0.83447289 -0.18167898 -0.062132139 0
0.83777893 -0.17847559 -0.035209108 0
0.8340295 -0.18210861 -0.0073014405 0
0.84441197 -0.17204854 0.018866995 0
0.8338989 -0.18223515 0.046976939 0
0.84439862 -0.17206147 0.073664919 0
0.83612651 -0.18007669 0.10100359 0
0.83357799 -0.18254605 0.1279918 0
0.8397842 -0.1765326 0.1554122 0
0.84211093 -0.17427811 0.182917 0
1.0938858 0.069677383 0.2431033 0
1.0095783 -0.012011673 0.29842007 0
1.0111464 -0.010492291 0.33222795 0
0.98328942 -0.037484135 0.35867807 0
0.63725954 -0.34085062 -0.092137896 0
0.70811003 -0.26864657 -0.089196153 0
0.82199699 -0.15258375 -0.091689743 0
0.84782445 -0.12626287 -0.068953104 0
0.83844805 -0.13581839 -0.038778994 0
0.84288973 -0.1312919 -0.011231771 0
0.83313781 -0.14123008 0.017907353 0
0.8366515 -0.13764921 0.045422822 0
0.84622645 -0.12789133 0.072910823 0
0.83936244 -0.13488653 0.10100457 0
0.83907151 -0.13518301 0.1288608 0
0.84453362 -0.12961653 0.15711081 0
0.8330493 -0.14132032 0.18409277 0
0.82731193 -0.1471673 0.21116447 0
1.1022174 0.13299039 0.28482604 0
0.94509172 -0.027137246 0.29048941 0
0.94860631 -0.023555543 0.32341987 0
0.96275914 -0.0091322921 0.35969964 0
0.61235166 -0.33394763 -0.089537703 0
0.69453245 -0.24585673 -0.090529822 0
0.80643076 -0.12591121 -0.093088619 0
0.83885401 -0.091156214 -0.071646623 0
0.84365553 -0.086009473 -0.043406297 0
0.83898664 -0.091014117 -0.013696557 0
0.83983356 -0.090106279 0.015001113 0
0.8370176 -0.093124717 0.043913212 0
0.84455597 -0.085044235 0.072217815 0
0.83906138 -0.090933949 0.10100547 0
0.83700079 -0.093142778 0.12953548 0
0.84723836 -0.082168967 0.1587961 0
0.84264022 -0.087097734 0.18729812 0
0.84189296 -0.087898761 0.21610603 0
1.1074945 0.19680348 0.29064453 0
0.92633814 0.0026192998 0.29168957 0
0.93658119 0.013598952 0.32646704 0
0.92665505 0.0029589867 0.35664281 0
0.59290099 -0.32179895 -0.08866597 0
0.67285234 -0.23164085 -0.089762844 0
0.77060246 -0.12141177 -0.089673229 0
0.84298599 -0.039787617 -0.077378176 0
0.83367109 -0.050291624 -0.04570939 0
0.83590996 -0.04776695 -0.01648972 0
0.84159362 -0.041357722 0.01239703 0
0.84477925 -0.03776541 0.041763376 0
0.83518499 -0.048584487 0.071737282 0
0.83985764 -0.043315317 0.10100649 0
0.83961284 -0.043591406 0.13043089 0
0.83825022 -0.045127954 0.1597915 0
0.83679509 -0.046768811 0.18911044 0
0.84981233 -0.032089796 0.22046001 0
1.1038169 0.25434139 0.29533261 0
1.0967919 0.24641958 0.33317435 0
0.58769482 -0.29304561 -0.09256617 0
0.66113603 -0.20589474 -0.091988303 0
0.72617358 -0.12871632 -0.083989166 0
0.8467682 0.014390383 -0.083486177 0
0.83877343 0.0049031707 -0.050979827 0
0.83441991 -0.00026306169 -0.019753372 0
0.83757156 0.0034768914 0.0102096 0
0.8403489 0.0067726704 0.040329583 0
0.83662909 0.0023584699 0.070819221 0
0.83994055 0.0062881443 0.10100757 0
0.83156043 -0.0036562944 0.13101234 0
0.84061819 0.0070922705 0.16170523 0
0.83961082 0.0058968398 0.19202711 0
0.83802432 0.0040141675 0.22229107 0
0.84479034 0.012043271 0.25408769 0
1.1043111 0.32000998 0.34169337 0
0.55791217 -0.29349181 -0.08847449 0
0.6347397 -0.19750872 -0.090053163 0
0.72853601 -0.080325872 -0.090381883 0
0.85014325 0.071602017 -0.090000905 0
0.8461858 0.066657811 -0.057107527 0
0.84367585 0.063522011 -0.02490293 0
0.8345679 0.05214313 0.0077135656 0
0.83636105 0.054383431 0.038734466 0
0.83901143 0.057694588 0.069789752 0
0.84659898 0.067173988 0.10100903 0
0.83538932 0.053169403 0.13209255 0
0.84242386 0.06195787 0.16373506 0
0.83286822 0.050019655 0.19411346 0
0.83815974 0.056630526 0.22609696 0
0.84326774 0.063012153 0.25858057 0
1.1016697 0.38584188 0.34861049 0
1.1003649 0.38421193 0.39021865 0
0.54696232 -0.27073404 -0.090857707 0
0.61375934 -0.18282458 -0.089803748 0
0.70911294 -0.057332601 -0.091398589 0
0.72974795 -0.030175533 -0.068315037 0
0.72637677 -0.034612205 -0.03916176 0
0.72863072 -0.031645801 -0.011293275 0
0.72923911 -0.030845191 0.016817601 0
0.7302379 -0.02953067 0.044853829 0
0.73215532 -0.027007248 0.072870828 0
0.72675663 -0.034112301 0.10100465 0
0.73616135 -0.021734979 0.12929334 0
0.73307902 -0.025791612 0.15737483 0
0.72812724 -0.032308426 0.18506368 0
0.73132527 -0.028099623 0.21371931 0
0.73025692 -0.029505637 0.24192189 0
0.73393399 -0.024666395 0.27129874 0
0.72648954 -0.034463789 0.29813012 0
0.72558355 -0.035656121 0.3266288 0
0.52930444 -0.25629094 -0.091092505 0
0.59751958 -0.16164979 -0.091189928 0
0.67397368 -0.0555779 -0.088194437 0
0.73193312 0.024834547 -0.074712224 0
0.95059574 0.32820538 -0.08883924 0
0.85567009 0.19650629 -0.035466988 0
0.84427315 0.18069425 0.00014505745 0
0.83611244 0.16937223 0.034477714 0
0.83916259 0.17360392 0.067641161 0
0.83525109 0.16817716 0.10101113 0
0.84336883 0.17943969 0.13454919 0
0.8397361 0.17439952 0.16783367 0
0.84492463 0.18159822 0.20195645 0
0.84152842 0.17688635 0.23523311 0
0.84044337 0.17538086 0.26884595 0
0.84391981 0.18020406 0.30365247 0
1.1105117 0.55007154 0.41294736 0
0.51021081 -0.24382511 -0.090930037 0
0.57599968 -0.14751735 -0.09104041 0
0.6582731 -0.027077939 -0.090546422 0
0.7631532 0.12645522 -0.088923581 0
0.92058951 0.35692492 -0.089572273 0
1.1521341 0.69588095 -0.089521162 0
0.84692943 0.24909452 -0.0038760805 0
0.83842289 0.23664191 0.031852257 0
0.84480715 0.2459878 0.066188082 0
0.84174162 0.24150005 0.10101295 0
0.84167361 0.24140063 0.1357087 0
0.83807743 0.23613611 0.17014495 0
0.83866084 0.23699012 0.20487729 0
0.84035748 0.23947385 0.23995553 0
0.83963728 0.23841968 0.27482596 0
0.84453523 0.24558976 0.31122747 0
1.1002909 0.61998826 0.42139196 0
1.0981988 0.61692554 0.4674674 0
0.49310908 -0.22832355 -0.091661699 0
0.54358059 -0.1502814 -0.087226175 0
0.63021785 -0.016317572 -0.089466475 0
0.73795891 0.15027824 -0.089751638 0
0.88706028 0.38082781 -0.089729361 0
1.1064632 0.72008175 -0.089042328 0
1.4848593 1.3051808 -0.09005668 0
0.84809893 0.32058337 0.028348202 0
0.83836979 0.30553952 0.065117776 0
0.84595639 0.31727043 0.10101482 0
0.84184724 0.31091657 0.13706036 0
0.83636165 0.30243447 0.1726744 0
0.83687651 0.30323055 0.20866811 0
0.83575606 0.30149809 0.24454223 0
0.84462839 0.31521693 0.28262806 0
0.84096336 0.30954996 0.31843871 0
0.8418659 0.31094554 0.35555211 0
1.0974582 0.70615786 0.4813922 0
0.47006053 -0.22218618 -0.090157457 0
0.53875321 -0.10985163 -0.093188517 0
0.60120213 -0.0077277091 -0.088122435 0
0.71193618 0.17335787 -0.090550177 0
0.85656089 0.40986553 -0.090704359 0
1.064155 0.74934834 -0.089252196 0
1.4251323 1.3396616 -0.089874066 0
0.85269189 0.40353861 0.024965012 0
0.85145235 0.40151158 0.063066833 0
0.83912444 0.38135138 0.10101626 0
0.83979684 0.38245097 0.13844636 0
0.83935475 0.38172808 0.17587756 0
0.84145093 0.38515595 0.21369101 0
0.83723068 0.37825456 0.25068438 0
0.841214 0.38476852 0.28930026 0
0.8386004 0.38049439 0.32670555 0
0.84364974 0.38875178 0.36653745 0
1.0967928 0.80272156 0.49672723 0
0.45547882 -0.20206895 -0.092250116 0
0.51112711 -0.10568342 -0.091204904 0
0.58618701 0.024323855 -0.091390334 0
0.67542082 0.17888096 -0.088595562 0
0.81842202 0.4265658 -0.09010496 0
1.0251364 0.78460485 -0.090220593 0
1.3677731 1.3780677 -0.090133555 0
1.3723707 1.3860312 -0.026719173 0
0.84933269 0.4801046 0.061521035 0
0.83782899 0.4601796 0.10101818 0
0.83702761 0.45879164 0.13994309 0
0.83471262 0.45478192 0.1786945 0
0.84260201 0.46844664 0.21874222 0
0.84174788 0.46696737 0.2580232 0
0.83959186 0.46323302 0.29709119 0
0.83942175 0.46293834 0.33672956 0
0.84223485 0.46781078 0.37759328 0
0.83349538 0.45267358 0.41468069 0
0.42831415 -0.20400479 -0.089067154 0
0.48799154 -0.094340533 -0.090937398 0
0.55169374 0.022719774 -0.088387795 0
0.65242791 0.2078307 -0.090564243 0
0.77836043 0.43924657 -0.089107879 0
0.97925341 0.80841106 -0.090064429 0
1.2960773 1.3906121 -0.088447236 0
1.2915149 1.3822284 -0.024723774 0
1.2944343 1.3875933 0.038053881 0
0.85533071 0.58068854 0.10102142 0
0.84135383 0.55500442 0.1419486 0
0.83949739 0.55159289 0.18274002 0
0.83580136 0.54480106 0.22316976 0
0.83895898 0.55060357 0.26471001 0
0.84205168 0.55628675 0.30672362 0
0.84648681 0.56443685 0.34966353 0
0.84348392 0.55891865 0.39076042 0
0.83934158 0.55130655 0.43143037 0
0.41293773 -0.18453905 -0.091200434 0
0.46565631 -0.081555516 -0.091102876 0
0.53327358 0.050531898 -0.091016836 0
0.61693722 0.21396533 -0.088997923 0
0.74720013 0.46842852 -0.0904238 0
0.94202429 0.84900922 -0.091793291 0
1.2465541 1.4438953 -0.090125106 0
1.2457244 1.4422746 -0.026200702 0
1.2513897 1.4533415 0.037169214 0
1.2460285 1.4428685 0.1010484 0
0.84716266 0.663701 0.14425239 0
0.83921963 0.64818472 0.18671581 0
0.84090006 0.65146738 0.22993666 0
0.84401852 0.6575591 0.27376524 0
0.83848959 0.6467585 0.31588516 0
0.83790207 0.64561087 0.35919312 0
0.83574325 0.64139372 0.40215838 0
0.83764458 0.64510781 0.4469111 0
0.39267537 -0.17403993 -0.091285594 0
0.4422451 -0.070869774 -0.09094622 0
0.50573832 0.06127945 -0.090587981 0
0.59094226 0.23861542 -0.090477832 0
0.71282667 0.49229494 -0.091137283 0
0.89008856 0.86123246 -0.090660907 0
1.1779672 1.4603977 -0.089027606 0
1.7834885 2.7206764 -0.090647258 0
4.5031052 8.3810492 -0.1407364 0
0.84947854 0.77671021 0.19229548 0
0.83747286 0.75172263 0.23611438 0
0.84217656 0.76151258 0.28238705 0
0.83956426 0.75607556 0.32739282 0
0.84316528 0.76357037 0.37437975 0
0.84178048 0.76068813 0.42017087 0
0.84119958 0.75947922 0.46651417 0
0.3678886 -0.17351535 -0.08916489 0
0.41994557 -0.057774808 -0.091411658 0
0.47528368 0.065260917 -0.089070655 0
0.56013858 0.25392249 -0.090603046 0
0.67235363 0.50341517 -0.090321116 0
0.84655118 0.89071649 -0.091442816 0
1.1209449 1.5007877 -0.089907087 0
1.692663 2.771914 -0.091027252 0
4.2595515 8.4789925 -0.14041345 0
1.0705357 1.388711 0.22250912 0
0.8514418 0.90158981 0.24603523 0
0.83986408 0.87584859 0.29197973 0
0.83773619 0.87111765 0.33950129 0
0.84168386 0.87989467 0.38912246 0
0.83769727 0.87103111 0.4363389 0
0.83638972 0.86812395 0.48469448 0
0.34977597 -0.15835449 -0.090585642 0
0.39412224 -0.052709963 -0.090347476 0
0.45488799 0.092050105 -0.091772415 0
0.52784878 0.26586202 -0.090332814 0
0.63891286 0.53044599 -0.091660433 0
0.79528469 0.90296501 -0.090583615 0
1.0621743 1.5387664 -0.09070421 0
1.5989386 2.8174806 -0.091233306 0
4.0239806 8.5945721 -0.14069451 0
0.99467212 1.3779583 0.22063963 0
0.85204506 1.038183 0.25481749 0
0.84336495 1.0175049 0.30424467 0
0.84300447 1.0166459 0.35535425 0
0.83927387 1.0077587 0.40547523 0
0.83896631 1.0070261 0.45692915 0
0.83703762 1.0024314 0.50795215 0
0.32863656 -0.1499798 -0.090548806 0
0.37576243 -0.029266085 -0.093142323 0
0.42385116 0.093914062 -0.090141393 0
0.49519649 0.27666631 -0.090017565 0
0.597058 0.53758639 -0.090597548 0
0.74738348 0.92264754 -0.090608038 0
0.99855596 1.56603 -0.090801276 0
1.5002162 2.8510411 -0.090956144 0
3.779629 8.6897955 -0.1406139 0
0.92935795 1.3887782 0.21996419 0
0.85136175 1.1889896 0.26458013 0
0.84536201 1.1736212 0.31783038 0
0.84065914 1.1615746 0.37095988 0
0.83896923 1.1572459 0.42494053 0
0.84269112 1.1667798 0.48150527 0
0.83968645 1.1590831 0.53549802 0
0.30888754 -0.13774303 -0.091506444 0
0.34424263 -0.039966729 -0.08916638 0
0.39644015 0.10438803 -0.09016747 0
0.43370816 0.20745459 -0.077871315 0
0.43655786 0.21533552 -0.048739765 0
0.43728146 0.21733668 -0.018793581 0
0.9345504 1.5925584 -0.09096273 0
1.401858 2.8849201 -0.090821199 0
3.5366468 8.788784 -0.1407803 0
0.8604818 1.387718 0.21878813 0
0.84712595 1.3507817 0.27507278 0
0.84369755 1.3413002 0.33243611 0
0.84241825 1.3377624 0.39031804 0
0.84179807 1.3360472 0.44861281 0
0.84400445 1.342149 0.50857186 0
0.84007353 1.3312778 0.56589437 0
0.28145239 -0.14780137 -0.08757282 0
0.32212672 -0.025770213 -0.090325393 0
0.36864549 0.11379543 -0.090128936 0
0.40144989 0.21221521 -0.077015586 0
0.40363941 0.21878424 -0.047857929 0
0.40468439 0.22191945 -0.018199151 0
0.87100166 1.620965 -0.091380827 0
1.3070946 2.9293315 -0.091326602 0
3.2865729 8.868166 -0.14061576 0
0.7927478 1.3861878 0.21768461 0
0.85051191 1.5594916 0.28894573 0
0.84222001 1.5346143 0.34944752 0
0.83697104 1.5188665 0.41011465 0
0.84015441 1.5284171 0.47408718 0
0.84101784 1.5310075 0.53774393 0
0.83999127 1.5279276 0.60089117 0
0.26601654 -0.12172899 -0.091854341 0
0.29955393 -0.011950996 -0.091511585 0
0.33994547 0.12026277 -0.089706503 0
0.3823846 0.25917879 -0.082488127 0
0.38397506 0.26438478 -0.052236024 0
0.37986034 0.25091615 -0.020072697 0
0.7249167 1.3803897 -0.072251089 0
0.72811675 1.3908644 -0.014892554 0
0.72515905 1.3811829 0.04334119 0
0.72321498 1.3748195 0.10104097 0
0.72416067 1.3779151 0.15866156 0
0.72584599 1.3834314 0.21661349 0
0.8420164 1.7636924 0.30237609 0
0.83580446 1.7433589 0.36783895 0
0.83624482 1.7448001 0.43525738 0
0.83409423 1.7377605 0.50186747 0
0.83634204 1.7451184 0.57104617 0
0.24373296 -0.11643156 -0.091608636 0
0.27436423 -0.0062940386 -0.09120556 0
0.31302452 0.13271251 -0.090431593 0
0.36407572 0.31627169 -0.089470409 0
0.44241601 0.59795135 -0.091576852 0
0.55190104 0.99161452 -0.090945892 0
0.66103166 1.3840036 -0.071242653 0
0.66296005 1.3909371 -0.014046153 0
0.66207606 1.3877587 0.043605238 0
0.66203171 1.3875992 0.10104083 0
0.65933537 1.3779044 0.15823811 0
0.65987682 1.3798511 0.21559195 0
0.81149709 1.9250154 0.31261435 0
0.81359005 1.9325409 0.38422114 0
0.81122535 1.9240384 0.45455921 0
0.81183016 1.926213 0.52642733 0
0.80931211 1.9171591 0.59695667 0
0.22115825 -0.11247316 -0.091194697 0
0.25074461 0.0053459737 -0.092187248 0
0.284659 0.1404002 -0.090460651 0
0.33248165 0.33084026 -0.090314128 0
0.39649001 0.58573502 -0.08882349 0
0.49945799 0.99577528 -0.090069242 0
0.597 1.3842082 -0.070111431 0
0.59593463 1.3799655 -0.012754163 0
0.59562856 1.3787467 0.044203002 0
0.59697527 1.3841097 0.10104026 0
0.59665543 1.3828361 0.15797554 0
0.59684378 1.3835859 0.21500874 0
0.77225715 2.082119 0.32253933 0
0.77068228 2.0758474 0.39613643 0
0.76871884 2.0680289 0.46956605 0
0.7673589 2.0626132 0.54336852 0
0.19883054 -0.10779652 -0.091064043 0
0.22288619 -0.00062301417 -0.089879625 0
0.25673866 0.15019777 -0.090965889 0
0.29855412 0.33649519 -0.089984439 0
0.35622442 0.59342986 -0.088609926 0
0.44925669 1.0079103 -0.090087406 0
0.55246103 1.4677095 -0.07507088 0
0.55450583 1.4768198 -0.016695103 0
0.55417562 1.4753482 0.042240649 0
0.55456185 1.4770694 0.10104256 0
0.55388319 1.4740455 0.15981333 0
0.54984051 1.4560344 0.21778758 0
0.71375144 2.186296 0.32868427 0
0.71222478 2.1794944 0.40429214 0
0.71407765 2.1877491 0.48170862 0
0.71671569 2.1995022 0.56044674 0
0.1751117 -0.11022744 -0.089516349 0
0.19950709 0.012923274 -0.091466002 0
0.22523011 0.1427758 -0.088701956 0
0.26509687 0.34402767 -0.09004838 0
0.31893873 0.61582726 -0.090270557 0
0.39717552 1.0107751 -0.089344256 0
0.41367671 1.094075 -0.047506813 0
0.41393545 1.095381 0.0020332655 0
0.41431424 1.0972931 0.051513635 0
0.41687545 1.1102226 0.1010315 0
0.41454652 1.0984659 0.15057653 0
0.41397876 1.0955999 0.20003952 0
0.41638395 1.1077414 0.25054422 0
0.41722533 1.1119888 0.30103931 0
0.41604427 1.1060266 0.35073948 0
0.40698898 1.0603144 0.39473003 0
0.29482064 0.4940764 0.34959009 0
0.27116981 0.3746846 0.36295116 0
0.15377577 -0.10088572 -0.09064392 0
0.17317514 0.011904631 -0.090374969 0
0.1956012 0.14229241 -0.087737866 0
0.23173374 0.35237148 -0.09034843 0
0.27932313 0.62906212 -0.090949275 0
0.3469345 1.0221627 -0.089536302 0
0.36908516 1.1509495 -0.05084965 0
0.88173503 4.1315584 -0.14092952 0
1.7634275 9.2578249 -0.14077796 0
0.58208543 2.3893592 0.26076809 0
0.58047634 2.3800035 0.34017071 0
0.57935727 2.373497 0.41965967 0
0.2630578 0.53449351 0.28176472 0
0.27122581 0.58198327 0.32512429 0
0.27197343 0.58633 0.36382213 0
0.23661172 0.38073257 0.36288708 0
0.13121726 -0.097959906 -0.090504996 0
0.14870343 0.021708641 -0.091474809 0
0.16775662 0.15210119 -0.088611268 0
0.19907901 0.3664594 -0.091583036 0
0.23777176 0.63125759 -0.090439938 0
0.29579416 1.0283406 -0.089356057 0
0.39610434 1.7148242 -0.090080388 0
0.75073737 4.1417947 -0.1404423 0
1.5049832 9.3035593 -0.14088435 0
0.50722957 2.4753222 0.26417753 0
0.50558513 2.4640682 0.34515685 0
0.50476265 2.4584394 0.42640099 0
0.22193736 0.52289325 0.27966976 0
0.27466303 0.88372713 0.36710006 0
0.20130284 0.38167849 0.3620182 0
0.10919881 -0.09070465 -0.091415517 0
0.12186699 0.014479194 -0.089457236 0
0.13763982 0.14544073 -0.086872257 0
0.16281003 0.35442892 -0.089233689 0
0.19797444 0.64639872 -0.091579713 0
0.24671079 1.0510561 -0.09085273 0
0.32609606 1.7101917 -0.089112796 0
0.62187785 4.1660657 -0.14076993 0
1.24491 9.3390961 -0.14090464 0
0.42576966 2.5377808 0.26656196 0
0.42417005 2.5244992 0.34859583 0
0.4242765 2.525383 0.43160605 0
0.42517668 2.5328572 0.51579577 0
0.22901386 0.90411872 0.36909425 0
0.16696909 0.38896158 0.36252394 0
0.086003676 -0.093406349 -0.09031672 0
0.096949212 0.021917973 -0.090347983 0
0.11149293 0.17515329 -0.091267861 0
0.13012901 0.37150636 -0.091128431 0
0.15623111 0.64652294 -0.091071911 0
0.19490042 1.0539501 -0.090603627 0
0.25890851 1.7283516 -0.089872338 0
0.49180084 4.1821494 -0.14086621 0
0.98346287 9.3623924 -0.14079249 0
0.34153411 2.5989103 0.26897487 0
0.3397826 2.5804563 0.35185671 0
0.33965257 2.5790861 0.4357473 0
0.34037745 2.5867236 0.52099735 0
0.34052092 2.5882351 0.60620564 0
0.17406747 0.8344503 0.40215936 0
0.130794 0.37851301 0.35983685 0
0.063463673 -0.090234786 -0.090596132 0
0.071655892 0.027629528 -0.091029949 0
0.081356019 0.16718867 -0.089557387 0
0.096307486 0.38230076 -0.092251025 0
0.11559203 0.65975422 -0.092224099 0
0.14262444 1.0486789 -0.089713491 0
0.19047819 1.7371678 -0.090094738 0
0.36108342 4.1917262 -0.14081204 0
0.72238374 9.3898821 -0.14093223 0
0.25362918 2.6457438 0.27081501 0
0.25282168 2.6341259 0.35510105 0
0.13260421 0.90451461 0.27827477 0
0.13422047 0.92776829 0.32567537 0
0.13392304 0.92348903 0.37054265 0
0.12584358 0.80724722 0.39705205 0
0.096112788 0.37949958 0.35948682 0
0.04066842 -0.091009587 -0.090156712 0
0.045677144 0.022338185 -0.089757167 0
0.051665582 0.15785721 -0.087749161 0
0.061027557 0.36971954 -0.090204261 0
0.073750503 0.65764099 -0.09169998 0
0.090550594 1.0378284 -0.088426419 0
0.12199631 1.7494481 -0.090680219 0
0.23000681 4.1937356 -0.14055914 0
0.46000284 9.3985672 -0.14078766 0
0.16310135 2.6796587 0.27215397 0
0.16243933 2.6646769 0.35687643 0
0.086473271 0.94555849 0.28185782 0
0.08586242 0.93173486 0.32581758 0
0.086509958 0.94638866 0.37337893 0
0.076881506 0.7284959 0.38366753 0
0.061472747 0.37979427 0.35917187 0
0.018020811 -0.088731438 -0.090488918 0
0.020189829 0.025856648 -0.090268157 0
0.023014059 0.17505911 -0.090426631 0
0.026806835 0.37542954 -0.090854697 0
0.032110143 0.65560061 -0.091308109 0
0.039412934 1.0414031 -0.08860936 0
0.052944675 1.7562778 -0.091005228 0
0.099178188 4.19877 -0.14060131 0
0.19787395 9.4128151 -0.14092655 0
0.070944302 2.7071886 0.27330118 0
0.070791528 2.6991177 0.35908288 0
0.071103454 2.7155964 0.44706136 0
0.070609696 2.6895118 0.53121436 0
0.032713257 0.68746263 0.37669504 0
0.026879897 0.3792893 0.35887119 0
-0.0047054412 -0.0887793 -0.090448268 0
-0.0054172617 0.024079714 -0.089903019 0
-0.0063135312 0.16618291 -0.088937305 0
-0.0076092072 0.37161198 -0.090287633 0
-0.0094655128 0.66592866 -0.092484601 0
-0.011849086 1.0438435 -0.088806964 0
-0.016321108 1.7528813 -0.090737216 0
-0.031786069 4.2048464 -0.14084573 0
-0.064583547 9.4048758 -0.14070345 0
-0.022475807 2.7287068 0.27427676 0
-0.022426369 2.7208686 0.36056367 0
-0.022452125 2.7249525 0.44788009 0
-0.022488194 2.7306709 0.53595877 0
-0.0093935709 0.65452236 0.37123531 0
-0.0076465905 0.37753907 0.35850036 0
-0.027606305 -0.083445638 -0.091674007 0
-0.030857079 0.019586001 -0.089147396 0
-0.035179336 0.15657786 -0.087448634 0
-0.042301074 0.3822979 -0.091881506 0
-0.05073756 0.64968818 -0.090677984 0
-0.063930199 1.0678222 -0.09113694 0
-0.085243337 1.7433317 -0.090160854 0
-0.11902369 2.8139834 -0.076177903 0
-0.11906541 2.8153059 0.012467766 0
-0.11899536 2.8130858 0.101079 0
-0.1189806 2.8126178 0.1896278 0
-0.1166553 2.7389183 0.27483577 0
-0.11678367 2.7429874 0.36223602 0
-0.11640757 2.7310669 0.44861716 0
-0.11645448 2.7325537 0.53638685 0
-0.050368167 0.6379804 0.36864343 0
-0.041990712 0.37246111 0.35766616 0
-0.049775809 -0.096363097 -0.089138739 0
-0.05612272 0.015308533 -0.088552527 0
-0.065602288 0.18209806 -0.091859899 0
-0.076310545 0.37050608 -0.090436824 0
-0.092426792 0.65406567 -0.091404237 0
-0.1157802 1.0649605 -0.091083713 0
-0.15491062 1.7534466 -0.091082372 0
-0.2143493 2.7992489 -0.075688474 0
-0.21431157 2.7985852 0.012758421 0
-0.21409029 2.7946916 0.1010786 0
-0.21380374 2.7896502 0.18919052 0
-0.21150465 2.7491984 0.27550969 0
-0.21059515 2.733196 0.36184132 0
-0.21049696 2.7314684 0.44904259 0
-0.077213153 0.38638726 0.26208982 0
-0.076635651 0.37622622 0.29326242 0
-0.07744173 0.3904089 0.32817313 0
-0.07678014 0.37876847 0.35914284 0
-0.072741188 -0.092427939 -0.090311758 0
-0.082519196 0.026536975 -0.091007255 0
-0.093378298 0.15865508 -0.088332526 0
-0.11102956 0.37341049 -0.091182373 0
-0.13300923 0.64082783 -0.090189584 0
-0.16782629 1.0644324 -0.09137141 0
-0.22336818 1.7401872 -0.09048941 0
-0.42418545 4.1834455 -0.14065666 0
-0.85048741 9.3700809 -0.14070186 0
-0.30665278 2.7534752 0.27601609 0
-0.3045899 2.7283769 0.36196098 0
-0.3048788 2.7318919 0.44969329 0
-0.30475092 2.7303362 0.53737766 0
-0.1140642 0.41033176 0.29841116 0
-0.1130816 0.39837685 0.32988641 0
-0.11209832 0.38641372 0.36104137 0
-0.095306225 -0.094947308 -0.090231799 0
-0.10876294 0.030051623 -0.092133395 0
-0.12336463 0.16568604 -0.089948662 0
-0.14607647 0.37665537 -0.09210179 0
-0.17381613 0.63432783 -0.089883886 0
-0.21808004 1.0454934 -0.090054624 0
-0.29088891 1.7218115 -0.08965645 0
-0.55476874 4.1729798 -0.14074601 0
-1.1115905 9.345273 -0.14070123 0
-0.39869833 2.7232482 0.27501875 0
-0.39959046 2.7315354 0.36280903 0
-0.39869308 2.7231996 0.44971296 0
-0.3973965 2.7111559 0.53616834 0
-0.14749861 0.38986543 0.29599056 0
-0.14875172 0.40150562 0.3309527 0
-0.14611368 0.37700096 0.35988125 0
-0.11704786 -0.1036115 -0.088955827 0
-0.13301806 0.01623467 -0.090095736 0
-0.15398841 0.1736038 -0.091842599 0
-0.17987366 0.36785606 -0.091441937 0
-0.21538149 0.63431984 -0.090463869 0
-0.2702398 1.0459964 -0.090683438 0
-0.21988116 0.66808695 -0.015920235 0
-0.68358356 4.1478782 -0.14030284 0
-1.3736354 9.3262787 -0.1409913 0
-0.491308 2.7049723 0.27468914 0
-0.49000123 2.6951661 0.36103889 0
-0.24182992 0.8327983 0.27265421 0
-0.2411758 0.82788974 0.3153339 0
-0.18507838 0.40691414 0.29900226 0
-0.18518835 0.40773943 0.33268669 0
-0.18176122 0.38202098 0.36162353 0
-0.1404417 -0.10004976 -0.090424038 0
-0.15913339 0.017486129 -0.091040216 0
-0.18024144 0.15021625 -0.088662796 0
-0.21229725 0.35178748 -0.089866154 0
