# .PCD v0.7 - Point Cloud Data file format
VERSION 0.7
FIELDS x y z intensity
SIZE 4 4 4 4
TYPE F F F F
COUNT 1 1 1 1
WIDTH 1329
HEIGHT 1
VIEWPOINT 0 0 0 1 0 0 0
POINTS 1329
DATA ascii
-0.0066996696 -2.2059896 -0.07002116 0
-0.0066959141 -2.2053943 -0.041162271 0
-0.0067086872 -2.2074194 -0.012732266 0
-0.0067042769 -2.2067201 0.015859017 0
-0.0067055924 -2.2069287 0.04428263 0
-0.0066827228 -2.2033029 0.07274355 0
-0.0066956664 -2.2053549 0.10100511 0
0.017919734 -1.8845134 -0.089353658 0
0.020209664 -2.0054891 -0.090465553 0
0.023050275 -2.1555572 -0.090741135 0
0.023821613 -2.1963065 -0.068687327 0
0.023746425 -2.1923344 -0.039658282 0
0.024032813 -2.2074642 -0.012754543 0
0.023882367 -2.1995161 0.016349191 0
0.023855163 -2.1980789 0.044685673 0
0.023829758 -2.1967368 0.072891742 0
0.023604022 -2.1848114 0.10100453 0
0.041244809 -1.9006188 -0.092932008 0
0.046320543 -2.0154831 -0.092502259 0
0.052540671 -2.1562452 -0.091007032 0
0.054783206 -2.2069941 -0.070325889 0
0.054778107 -2.2068787 -0.041471798 0
0.054638393 -2.2037168 -0.012495017 0
0.054220252 -2.1942542 0.016649993 0
0.054306313 -2.1962018 0.044728313 0
0.054607239 -2.2030118 0.072723344 0
0.055190563 -2.2162125 0.10100546 0
0.063213214 -1.8847464 -0.08982832 0
0.070757955 -1.9932954 -0.088590793 0
0.081347339 -2.1456485 -0.089536823 0
0.084302284 -2.1881623 -0.067918889 0
0.085345067 -2.2031653 -0.041241203 0
0.086487629 -2.2196038 -0.014144344 0
0.085556589 -2.2062085 0.01569123 0
0.084939867 -2.1973355 0.044594683 0
0.08479663 -2.1952748 0.072863117 0
0.08498811 -2.1980295 0.10100499 0
0.086735241 -1.8928863 -0.091962494 0
0.097447515 -2.0057528 -0.091341294 0
0.11121833 -2.1508448 -0.09079022 0
0.11649383 -2.2064283 -0.070848085 0
0.11495467 -2.1902115 -0.040015746 0
0.1173017 -2.2149403 -0.013946114 0
0.11605298 -2.2017834 0.015824908 0
0.11547717 -2.1957166 0.044553328 0
0.11521176 -2.1929202 0.072859749 0
0.11633483 -2.2047529 0.10100525 0
0.10884269 -1.8849232 -0.090782471 0
0.12204664 -1.9945556 -0.089740209 0
0.14073664 -2.1497383 -0.091128744 0
0.14598694 -2.1933315 -0.069461666 0
0.14720456 -2.2034414 -0.041956682 0
0.14644003 -2.1970935 -0.012580892 0
0.14696236 -2.2014306 0.015618132 0
0.14598137 -2.1932855 0.044513855 0
0.14697814 -2.2015615 0.072580911 0
0.14692546 -2.2011242 0.10100524 0
0.13056144 -1.8761367 -0.089540847 0
0.14672287 -1.9867392 -0.088894762 0
0.16801156 -2.1324308 -0.08890108 0
0.17964788 -2.212065 -0.07269641 0
0.17765434 -2.1984222 -0.041845266 0
0.17641555 -2.1899443 -0.012288971 0
0.17765383 -2.1984186 0.015543418 0
0.17974526 -2.2127316 0.043408763 0
0.17703272 -2.1941681 0.072659008 0
0.17730896 -2.1960585 0.10100521 0
0.15576974 -1.8892922 -0.09314438 0
0.17466274 -1.9991384 -0.092027955 0
0.19802895 -2.1349924 -0.090091802 0
0.2097498 -2.2031388 -0.072121911 0
0.20959233 -2.2022233 -0.042870346 0
0.2080491 -2.1932507 -0.01305758 0
0.2091943 -2.199909 0.01509417 0
0.20876265 -2.1973994 0.043901559 0
0.20979674 -2.2034118 0.072327085 0
0.20874463 -2.1972947 0.10100539 0
0.17444348 -1.8649842 -0.088785402 0
0.20064069 -1.9972305 -0.092564799 0
0.22674495 -2.1290076 -0.089983188 0
0.24120983 -2.2020278 -0.072772779 0
0.23973127 -2.1945639 -0.042630915 0
0.24076314 -2.1997731 -0.014211817 0
0.24203335 -2.2061851 0.014245013 0
0.24022432 -2.197053 0.043650933 0
0.24019189 -2.1968892 0.072347641 0
0.24017079 -2.1967828 0.10100554 0
0.1978904 -1.8665996 -0.090151571 0
0.22232032 -1.9754406 -0.089392953 0
0.25567189 -2.1240296 -0.090165339 0
0.27197659 -2.1966708 -0.072929837 0
0.27380151 -2.2048013 -0.04462469 0
0.27574274 -2.21345 -0.01613581 0
0.27331159 -2.2026186 0.014037015 0
0.27243453 -2.1987112 0.043265447 0
0.27308622 -2.2016144 0.072082058 0
0.27446243 -2.2077458 0.10100605 0
0.22228771 -1.8706093 -0.092180423 0
0.25003177 -1.981092 -0.091635965 0
0.28114668 -2.1049981 -0.088090532 0
0.30704999 -2.2081506 -0.075639687 0
0.30267182 -2.1907158 -0.043803502 0
0.30416727 -2.196671 -0.015225751 0
0.30494171 -2.199755 0.013720283 0
0.3046374 -2.1985431 0.042926271 0
0.3039951 -2.1959853 0.072043166 0
0.30509177 -2.2003524 0.10100605 0
0.24286146 -1.8590195 -0.090917267 0
0.27470222 -1.973506 -0.091443159 0
0.31475988 -2.1175368 -0.091495998 0
0.33611616 -2.1943252 -0.074806087 0
0.33851647 -2.202956 -0.04625814 0
0.33821657 -2.2018776 -0.01650854 0
0.33728832 -2.19854 0.013223985 0
0.33939347 -2.206109 0.04217184 0
0.33674678 -2.1965928 0.071834728 0
0.33986425 -2.2078018 0.1010065 0
0.26513559 -1.8539721 -0.091213427 0
0.29989335 -1.9677448 -0.091730408 0
0.33847207 -2.0940247 -0.088877685 0
0.37214199 -2.2042363 -0.077561431 0
0.36843377 -2.1920981 -0.04601926 0
0.37152594 -2.20222 -0.017410105 0
0.36918172 -2.1945465 0.012867475 0
0.3709605 -2.2003689 0.042016756 0
0.36895081 -2.1937907 0.071687542 0
0.36898369 -2.1938982 0.10100636 0
0.28855234 -1.8520845 -0.092345543 0
0.32113683 -1.9498446 -0.089735754 0
0.36953872 -2.0950599 -0.090593211 0
0.43198371 -2.2824075 -0.09058594 0
0.52032036 -2.5474353 -0.090984173 0
0.65031058 -2.9374321 -0.090704553 0
0.86340338 -3.5767534 -0.08970093 0
1.3049141 -4.9013743 -0.091005586 0
3.2902081 -10.857656 -0.14088306 0
0.3109906 -1.8466579 -0.092821069 0
0.34604275 -1.9435962 -0.090163477 0
0.396597 -2.0834064 -0.090243287 0
0.46447712 -2.2711322 -0.090587623 0
0.55660981 -2.5259297 -0.090001635 0
0.69851822 -2.9183843 -0.090501659 0
0.93358219 -3.5684655 -0.090763666 0
1.4006577 -4.8601856 -0.090656884 0
3.5403838 -10.777703 -0.14103581 0
0.33012119 -1.8324078 -0.091416575 0
0.37054569 -1.9359559 -0.090440445 0
0.42699397 -2.080549 -0.091561727 0
0.49501181 -2.2547779 -0.089946188 0
0.59492135 -2.5106978 -0.089910872 0
0.74845612 -2.9039798 -0.090883337 0
0.99724841 -3.5412655 -0.090549909 0
1.4962674 -4.8195109 -0.090450637 0
3.7867606 -10.686648 -0.14106986 0
0.35021082 -1.8212662 -0.090824448 0
0.39557695 -1.9293402 -0.091055386 0
0.45284984 -2.0657794 -0.09090697 0
0.5273816 -2.2433336 -0.090163179 0
0.63224906 -2.4931557 -0.089648239 0
0.79788393 -2.8877418 -0.091210432 0
1.0643437 -3.5225194 -0.091096051 0
1.5955926 -4.7880945 -0.090830855 0
4.0235715 -10.572182 -0.14066994 0
0.36935779 -1.8083359 -0.08992622 0
0.41668963 -1.9135709 -0.089916609 0
0.48127234 -2.0571604 -0.091470115 0
0.55684292 -2.2251799 -0.089473926 0
0.67261857 -2.482589 -0.090396605 0
0.84531742 -2.8665578 -0.091162063 0
1.1237676 -3.4856484 -0.090388171 0
1.6959071 -4.7577119 -0.09139546 0
4.2689118 -10.478387 -0.140944 0
0.38986206 -1.7986895 -0.089904763 0
0.44219035 -1.9076009 -0.090922393 0
0.50313425 -2.0344441 -0.089599736 0
0.58545518 -2.2057798 -0.088697262 0
0.70563912 -2.4559202 -0.089197583 0
0.88955384 -2.8387041 -0.090545647 0
1.1905798 -3.4652331 -0.091063596 0
1.7843455 -4.701045 -0.090739392 0
4.5032148 -10.359862 -0.14074229 0
0.41163957 -1.7915097 -0.090594865 0
0.46434605 -1.8944696 -0.090561293 0
0.53238875 -2.0273881 -0.090697698 0
0.61597478 -2.19067 -0.088701107 0
0.74140269 -2.435688 -0.088936843 0
0.93787116 -2.8194809 -0.090942569 0
1.2500706 -3.4293492 -0.090664588 0
1.8778963 -4.6557803 -0.090787135 0
4.7414918 -10.249694 -0.14090973 0
0.43172681 -1.7808511 -0.090584762 0
0.48988727 -1.8877277 -0.091684408 0
0.5560692 -2.0093448 -0.089892231 0
0.64645177 -2.1754334 -0.088807188 0
0.77928776 -2.4195352 -0.089334615 0
0.98959708 -2.8060036 -0.092084311 0
1.3124738 -3.3993275 -0.090845339 0
1.9744902 -4.6158605 -0.091243185 0
4.9683228 -10.117382 -0.14065149 0
0.44957936 -1.7662976 -0.089742102 0
0.51715899 -1.8833487 -0.093477108 0
0.58312255 -1.9976007 -0.09038303 0
0.67689407 -2.1600175 -0.08900965 0
0.81909257 -2.406312 -0.09026169 0
1.0306271 -2.7726998 -0.091245614 0
1.3687466 -3.3583388 -0.090269677 0
2.6012526 -5.4930973 -0.14113936 0
5.2059937 -10.004632 -0.14106727 0
0.47250694 -1.7603992 -0.09115424 0
0.53179157 -1.8573484 -0.090675078 0
0.60381025 -1.9751221 -0.088944085 0
0.7104426 -2.1495001 -0.090147845 0
0.85409206 -2.384413 -0.090151288 0
1.0653877 -2.729949 -0.089472763 0
1.4270079 -3.3213136 -0.090125404 0
2.7113698 -5.4216561 -0.14089927 0
5.4277034 -9.8637304 -0.14088459 0
0.49534801 -1.7537231 -0.092538066 0
0.54774928 -1.8347492 -0.088672034 0
0.637995 -1.9742926 -0.091820188 0
0.73493457 -2.1241865 -0.08896897 0
0.89239478 -2.367661 -0.090877436 0
1.1132113 -2.7091007 -0.090202205 0
1.4913111 -3.2937417 -0.090887241 0
2.8178649 -5.3449402 -0.14051564 0
5.6461563 -9.7182159 -0.14072488 0
0.50871342 -1.7325677 -0.090365775 0
0.57570779 -1.8306401 -0.090942957 0
0.65755504 -1.9504557 -0.090337209 0
0.76405662 -2.1063623 -0.089148663 0
0.91750163 -2.3309894 -0.088932477 0
1.1635092 -2.6911178 -0.091403507 0
1.5480654 -3.2540665 -0.090773873 0
2.9244425 -5.2689338 -0.14031568 0
5.8623052 -9.5696468 -0.14063036 0
0.5298785 -1.7230902 -0.09130118 0
0.59589785 -1.814685 -0.090667538 0
0.6811074 -1.932904 -0.090199552 0
0.79580259 -2.0920312 -0.090062968 0
0.95052856 -2.3066969 -0.088825814 0
1.2075837 -2.6633332 -0.091643892 0
1.6127826 -3.2255032 -0.091738395 0
3.0363314 -5.2005243 -0.14070103 0
6.0863976 -9.4321632 -0.14100683 0
0.5509851 -1.7131449 -0.092271067 0
0.61561775 -1.798206 -0.090382315 0
0.710347 -1.9228762 -0.091733821 0
0.82815909 -2.0779252 -0.091174789 0
0.99070692 -2.2918494 -0.090224676 0
1.2487382 -2.6314363 -0.091536038 0
1.6617503 -3.174989 -0.090936355 0
3.1418691 -5.1229281 -0.14072031 0
6.2896166 -9.265583 -0.14070454 0
0.56362331 -1.692228 -0.090417154 0
0.64321554 -1.7916652 -0.092607863 0
0.72812456 -1.8977448 -0.090273671 0
0.85214466 -2.0526872 -0.090450995 0
1.0223671 -2.2653513 -0.090058289 0
1.2765898 -2.5829599 -0.089566745 0
1.7109839 -3.1256626 -0.090333931 0
3.2512493 -5.0499659 -0.1411736 0
6.5063229 -9.1166344 -0.14107251 0
0.58722341 -1.6849797 -0.092410661 0
0.66010845 -1.7714705 -0.091687955 0
0.75470942 -1.8837312 -0.091267131 0
0.8815828 -2.0342886 -0.091078781 0
1.0546894 -2.2397099 -0.090140142 0
1.3232467 -2.5584002 -0.09055943 0
1.7660642 -3.0838807 -0.090520732 0
3.3515108 -4.965291 -0.1410899 0
6.701755 -8.9409428 -0.14079981 0
0.6038686 -1.6691535 -0.092179663 0
0.67368394 -1.7478815 -0.089998923 0
0.77495116 -1.8620769 -0.090750448 0
0.90632838 -2.010226 -0.090794884 0
1.0812685 -2.2074993 -0.089323737 0
1.3646291 -2.5270343 -0.090870805 0
1.8284565 -3.0500748 -0.091585539 0
3.4543104 -4.8834887 -0.14133884 0
6.9023438 -8.7717047 -0.14087319 0
0.62611628 -1.6593916 -0.093826823 0
0.70241261 -1.7411748 -0.092705615 0
0.7979452 -1.8435776 -0.091044195 0
0.92555982 -1.9803697 -0.08950945 0
1.1138197 -2.1821682 -0.089693569 0
1.396868 -2.4855721 -0.0900326 0
1.8585531 -2.9804592 -0.08940088 0
3.5446253 -4.787786 -0.14087203 0
7.0979924 -8.596694 -0.1409239 0
0.6329754 -1.633368 -0.09083768 0
0.71650535 -1.7184939 -0.091453873 0
0.80923039 -1.8129904 -0.088693954 0
0.95639223 -1.9629639 -0.090737633 0
1.1397949 -2.1498704 -0.089064799 0
1.4324273 -2.4480937 -0.089799516 0
1.9139042 -2.9387693 -0.089970179 0
3.6341734 -4.6919045 -0.14052881 0
7.2774787 -8.4048166 -0.14058542 0
0.64375281 -1.6121087 -0.08927729 0
0.72387004 -1.6897378 -0.088619836 0
0.83539766 -1.7978019 -0.08998508 0
0.98149711 -1.939364 -0.090902455 0
1.1715661 -2.1235301 -0.089528807 0
1.4770384 -2.4195156 -0.09087304 0
1.9574378 -2.8849955 -0.089479096 0
3.7290704 -4.6016083 -0.14069951 0
7.466095 -8.2225752 -0.14070947 0
0.66599101 -1.6018907 -0.091221862 0
0.74821329 -1.677632 -0.090386935 0
0.86586821 -1.786013 -0.092294879 0
1.0037742 -1.9130487 -0.090638377 0
1.2004683 -2.094239 -0.089633189 0
1.5065163 -2.3761635 -0.090094082 0
2.5436385 -3.331537 -0.14071055 0
3.8236609 -4.5106645 -0.14099288 0
7.6494346 -8.0348797 -0.14081104 0
0.68350178 -1.5869007 -0.091862075 0
0.76344091 -1.656894 -0.089910783 0
0.88363516 -1.7621338 -0.091844924 0
1.035942 -1.8954908 -0.092353083 0
1.2247096 -2.0607722 -0.089127444 0
1.537802 -2.3349099 -0.089693703 0
2.6067591 -3.270869 -0.14115964 0
3.9098227 -4.4118071 -0.140902 0
7.8285809 -7.8429985 -0.14092892 0
0.68824863 -1.5610752 -0.08906547 0
0.78117257 -1.6383839 -0.090187676 0
0.90081835 -1.737924 -0.09140978 0
1.0505401 -1.862486 -0.090902172 0
1.2460539 -2.0251451 -0.088321589 0
1.5617801 -2.2878158 -0.088542171 0
2.6524346 -3.1951935 -0.14015372 0
3.993072 -4.3105464 -0.14078937 0
7.9983959 -7.6428037 -0.14091019 0
0.71161997 -1.5507928 -0.091547914 0
0.79867607 -1.6195782 -0.090517677 0
0.91842717 -1.7141968 -0.0912017 0
1.0786637 -1.840804 -0.092053168 0
1.2775575 -1.9979554 -0.089180194 0
1.6059542 -2.2574306 -0.08995875 0
2.7105703 -3.1302178 -0.14044976 0
4.0790024 -4.211453 -0.14099127 0
8.1642494 -7.4393172 -0.14092575 0
0.7175824 -1.5267004 -0.089428045 0
0.81731421 -1.6014926 -0.091221459 0
0.93134719 -1.6870097 -0.090158515 0
1.0899308 -1.8059367 -0.090318613 0
1.3225529 -1.9803877 -0.092094965 0
1.6342771 -2.21416 -0.089589767 0
2.7706749 -3.0663822 -0.14105704 0
4.1541953 -4.1039295 -0.14071153 0
8.3132753 -7.2229605 -0.14060271 0
0.73350972 -1.510295 -0.090105228 0
0.83386987 -1.5816745 -0.091537915 0
0.9503057 -1.6644872 -0.090491407 0
1.1232285 -1.7874756 -0.092567377 0
1.3224453 -1.9291648 -0.088553481 0
1.6787094 -2.1825511 -0.091198795 0
2.8126304 -2.9890323 -0.14023608 0
4.2363186 -4.001605 -0.14098918 0
8.4744692 -7.015913 -0.14078982 0
0.75076103 -1.4945707 -0.091217451 0
0.85559863 -1.5652204 -0.093138613 0
0.97183585 -1.6435522 -0.091442026 0
1.1289916 -1.7494588 -0.09019167 0
1.332812 -1.8868126 -0.086731695 0
1.6967999 -2.1321025 -0.089906372 0
2.8792286 -2.9289365 -0.1416724 0
4.3055897 -3.8901558 -0.14068691 0
8.6164389 -6.7952199 -0.14058262 0
0.76681858 -1.4777547 -0.092111848 0
0.85767972 -1.5357068 -0.090418018 0
0.9915449 -1.6210872 -0.092126347 0
1.150939 -1.7227501 -0.090712868 0
1.3657169 -1.8597374 -0.088212691 0
1.735634 -2.0956738 -0.091073222 0
2.9171839 -2.8492768 -0.14083761 0
4.3780923 -3.7810571 -0.14072454 0
8.7650633 -6.5791054 -0.14071713 0
0.76822782 -1.4518428 -0.089463212 0
0.86201584 -1.5083843 -0.088399552 0
1.0005134 -1.5918797 -0.090848826 0
1.1733763 -1.6960927 -0.091418095 0
1.3968825 -1.8308368 -0.089527957 0
1.759645 -2.0495336 -0.090707906 0
2.9743385 -2.7818301 -0.14174812 0
4.4500017 -3.6714559 -0.14088023 0
8.9112883 -6.3610096 -0.14093374 0
0.78167778 -1.4334884 -0.089958109 0
0.88255346 -1.4908835 -0.090071328 0
1.0034547 -1.5596725 -0.088590227 0
1.1819179 -1.6612124 -0.08997605 0
1.4160157 -1.7944069 -0.089305364 0
1.7903179 -2.0073731 -0.091189228 0
3.0091312 -2.70084 -0.14098495 0
4.5184579 -3.5595999 -0.14099801 0
9.0385437 -6.1313877 -0.14078818 0
0.79346007 -1.4140904 -0.090156667 0
0.90010512 -1.4712555 -0.091177605 0
1.032228 -1.5420777 -0.091331623 0
1.2076079 -1.6360869 -0.091429107 0
1.4568578 -1.769693 -0.092087246 0
1.8070925 -1.9574301 -0.090305664 0
3.0456736 -2.6213496 -0.1405341 0
4.5774488 -3.4424307 -0.14076442 0
9.1706409 -5.90453 -0.14092627 0
0.80900115 -1.3965178 -0.091364734 0
0.91716677 -1.4510305 -0.092271738 0
1.0496515 -1.5177995 -0.092031814 0
1.2213386 -1.6043255 -0.091082193 0
1.4587948 -1.7239976 -0.089824416 0
1.8375187 -1.9148649 -0.090992816 0
3.0944729 -2.5483387 -0.14120659 0
4.64884 -3.3317008 -0.14133543 0
9.2972136 -5.6743646 -0.14106882 0
0.80822676 -1.3708993 -0.088827409 0
0.92281812 -1.4250692 -0.091082744 0
1.0512238 -1.4857695 -0.08995422 0
1.2261659 -1.5684687 -0.089480765 0
1.4820012 -1.6894079 -0.090487994 0
1.8548597 -1.8656669 -0.090432473 0
3.1224241 -2.4648738 -0.14040236 0
4.7004948 -3.2108643 -0.14102817 0
9.4088898 -5.4366307 -0.14097692 0
0.8149159 -1.349224 -0.088204019 0
0.92529649 -1.3980352 -0.089389212 0
1.0671062 -1.4607445 -0.090617351 0
1.2418261 -1.538007 -0.089701571 0
1.5005453 -1.6524147 -0.090660639 0
1.889535 -1.8244292 -0.091774933 0
3.1629126 -2.387527 -0.14072739 0
4.7555294 -3.0917952 -0.14105253 0
9.5125122 -5.1953712 -0.14083473 0
0.84000057 -1.3352789 -0.091943152 0
0.94183075 -1.3772702 -0.090716667 0
1.0749118 -1.4321485 -0.089950658 0
1.2543695 -1.5061507 -0.089563839 0
1.5144721 -1.6134084 -0.09036646 0
1.9023286 -1.7733475 -0.090999879 0
3.1933827 -2.3057353 -0.14043987 0
4.802999 -2.9694874 -0.14084783 0
9.6122675 -4.9526691 -0.14075072 0
0.84739393 -1.3135896 -0.091699786 0
0.94988573 -1.3528583 -0.090427317 0
1.0902138 -1.4066236 -0.090737395 0
1.265523 -1.4737916 -0.089339845 0
1.5158927 -1.5697184 -0.088633709 0
1.9154538 -1.7228061 -0.090394922 0
3.2349744 -2.2283673 -0.14114305 0
4.851603 -2.8477626 -0.14085633 0
9.7041674 -4.706974 -0.14062525 0
0.85287398 -1.291268 -0.091151126 0
0.96312594 -1.3303494 -0.09130042 0
1.0970145 -1.3778093 -0.090147667 0
1.2724531 -1.4399976 -0.088610478 0
1.5531704 -1.5395044 -0.091499962 0
1.9295416 -1.6729178 -0.090017624 0
3.2678442 -2.1473105 -0.14133859 0
4.9022708 -2.726671 -0.14111915 0
9.8042116 -4.4642777 -0.14085546 0
0.85690719 -1.2685959 -0.090409987 0
0.97540992 -1.3072652 -0.092089973 0
1.1072654 -1.3502916 -0.090285458 0
1.286644 -1.4088255 -0.089087076 0
1.5522135 -1.4954848 -0.089736395 0
1.949945 -1.6252705 -0.090387665 0
3.2901857 -2.0626109 -0.1409094 0
4.9355373 -2.5995135 -0.14067797 0
9.8787031 -4.2125421 -0.14060931 0
0.86350292 -1.2468576 -0.090370305 0
0.96279585 -1.2765081 -0.088094376 0
1.1121527 -1.3211086 -0.089621864 0
1.3043334 -1.3784969 -0.090189047 0
1.5548505 -1.4533054 -0.088560469 0
1.9695094 -1.5771294 -0.090790801 0
3.322906 -1.9812759 -0.14139725 0
4.9705625 -2.4732933 -0.1404821 0
9.9582272 -3.962692 -0.14064188 0
0.87630439 -1.2267978 -0.091818981 0
0.98337293 -1.255849 -0.090755709 0
1.1153958 -1.2916712 -0.088808678 0
1.3174495 -1.3464948 -0.090729423 0
1.5716174 -1.4154588 -0.089233048 0
1.9661596 -1.522511 -0.089092992 0
3.3332248 -1.8934402 -0.14040832 0
5.009037 -2.3481426 -0.14060819 0
10.022756 -3.7085271 -0.14046544 0
0.88042706 -1.204248 -0.091470785 0
0.99481148 -1.2322057 -0.09173017 0
1.1296118 -1.2651535 -0.089983113 0
1.3184141 -1.3113005 -0.089625739 0
1.577032 -1.3745118 -0.088650979 0
1.9791354 -1.4727938 -0.089107193 0
3.3504357 -1.8079666 -0.14008152 0
5.0619254 -2.2262883 -0.14157616 0
10.098792 -3.4573975 -0.14071959 0
0.87971473 -1.1807144 -0.090196855 0
0.99040473 -1.2048267 -0.089760236 0
1.1359259 -1.2365266 -0.089934848 0
1.3267275 -1.2780902 -0.089713238 0
1.6037011 -1.3384253 -0.090738423 0
1.9952906 -1.4237279 -0.089545272 0
3.3845413 -1.7263579 -0.14112012 0
5.0735006 -2.0942755 -0.14071737 0
10.173244 -3.2051871 -0.14108588 0
0.88546503 -1.1587119 -0.090456627 0
1.0110648 -1.1827698 -0.092739813 0
1.1432998 -1.2080988 -0.090185411 0
1.346455 -1.247012 -0.091553785 0
1.6188294 -1.299184 -0.091551118 0
2.5423284 -1.4760753 -0.14055282 0
3.3898988 -1.638423 -0.14025441 0
5.1040621 -1.9667618 -0.14092101 0
10.217295 -2.9461744 -0.14088182 0
0.88312399 -1.135293 -0.089091934 0
1.0092647 -1.15617 -0.091525577 0
1.1517056 -1.1797448 -0.090726607 0
1.3376093 -1.2105129 -0.089428492 0
1.6075829 -1.255195 -0.089353584 0
2.5593851 -1.4127237 -0.14108111 0
3.4147196 -1.5542862 -0.14092912 0
5.1257091 -1.8374646 -0.14085539 0
10.257899 -2.6868706 -0.14075182 0
0.89769965 -1.1145498 -0.091489889 0
1.0148534 -1.1309141 -0.091848724 0
1.1544549 -1.1504141 -0.090446226 0
1.3403913 -1.1763862 -0.089091606 0
1.6219079 -1.2157093 -0.090312697 0
2.5572419 -1.3463597 -0.13994901 0
3.4208777 -1.466995 -0.14043425 0
5.144166 -1.7077092 -0.14079373 0
10.291257 -2.4266706 -0.14060606 0
0.90274906 -1.0921326 -0.091955103 0
1.011891 -1.1045793 -0.090670921 0
1.1517756 -1.120532 -0.089391284 0
1.3469976 -1.1427956 -0.089418657 0
1.6365019 -1.1758112 -0.09141811 0
2.5762203 -1.2829787 -0.14096202 0
3.443676 -1.381905 -0.14126693 0
5.148695 -1.5763488 -0.14023331 0
10.346786 -2.1691496 -0.1411335 0
0.89642304 -1.0685827 -0.090112738 0
1.0091616 -1.0785655 -0.089665674 0
1.1379082 -1.0899657 -0.086617343 0
1.1301184 -1.089276 -0.058334384 0
1.6441199 -1.1347898 -0.091820844 0
2.5766537 -1.217364 -0.14038509 0
3.4531722 -1.294978 -0.1413151 0
5.1699147 -1.4469924 -0.14060938 0
10.351204 -1.9057859 -0.14061864 0
0.90572941 -1.0464439 -0.091729484 0
1.0126172 -1.0531957 -0.089953311 0
1.1334155 -1.0608263 -0.085518785 0
1.1345457 -1.0608977 -0.058653194 0
1.6411984 -1.0929019 -0.091110088 0
2.5830946 -1.1523997 -0.14052597 0
3.4533958 -1.2073748 -0.14086747 0
5.1747112 -1.3161067 -0.1403712 0
10.375674 -1.6446409 -0.14072677 0
0.89510065 -1.0231516 -0.089223124 0
1.0149406 -1.0276898 -0.090148039 0
1.1250749 -1.0318605 -0.083909474 0
1.1451602 -1.032621 -0.059942637 0
1.6392272 -1.0513307 -0.09063486 0
2.5981047 -1.087642 -0.14162041 0
3.4489546 -1.1198624 -0.14024872 0
5.1935539 -1.1859279 -0.14094162 0
10.38886 -1.3826667 -0.14072567 0
0.8985588 -1.0006176 -0.089837156 0
1.0122875 -1.0020525 -0.089526601 0
1.1298051 -1.0035354 -0.084569223 0
1.1234362 -1.003455 -0.056786958 0
1.1292623 -1.0035285 -0.030906847 0
1.1279664 -1.0035121 -0.0042318162 0
1.1340611 -1.003589 0.021750638 0
1.1189836 -1.0033988 0.048917718 0
1.1266516 -1.0034956 0.074795812 0
1.1286473 -1.0035207 0.1010026 0
1.1329328 -1.0035748 0.12735571 0
1.1353498 -1.0036054 0.15384997 0
1.1272409 -1.003503 0.17977795 0
1.1208116 -1.0034219 0.20556921 0
1.1389444 -1.0036507 0.23404518 0
1.1326338 -1.003571 0.26008633 0
1.1305279 -1.0035444 0.28669506 0
1.1382359 -1.0036417 0.31525904 0
0.88635993 -0.97812098 -0.087243937 0
1.0257429 -0.97636235 -0.092061155 0
1.1314211 -0.97502893 -0.084834866 0
1.1288364 -0.97506154 -0.057545949 0
1.6333833 -0.96869546 -0.089829825 0
2.6005406 -0.9564923 -0.14169334 0
3.4447074 -0.94584107 -0.13979818 0
5.1890712 -0.92383152 -0.1405789 0
10.404949 -0.85802025 -0.1409459 0
0.91067225 -0.9548434 -0.092535429 0
1.0138069 -0.95093781 -0.089934357 0
1.1359036 -0.94631422 -0.085690461 0
1.1253095 -0.94671541 -0.057150919 0
1.6433321 -0.92709863 -0.091114976 0
2.5900505 -0.89124775 -0.14086808 0
3.4552119 -0.85848528 -0.14068647 0
5.1823497 -0.79308105 -0.14041963 0
10.388183 -0.59594363 -0.14070992 0
0.90605563 -0.9321202 -0.091798954 0
1.029581 -0.92431736 -0.093154825 0
1.1272743 -0.91814631 -0.084507458 0
1.1180675 -0.91872787 -0.056332815 0
1.6405363 -0.88572454 -0.091032557 0
2.6030467 -0.82492477 -0.14239202 0
3.4512167 -0.77134758 -0.14071482 0
5.1825881 -0.66198039 -0.14073862 0
10.376621 -0.33388397 -0.14074883 0
0.89581639 -0.91005576 -0.089983277 0
1.0182246 -0.89921671 -0.091379367 0
1.1534784 -0.88724023 -0.089186348 0
1.3567576 -0.86924028 -0.090309672 0
1.6385019 -0.84429234 -0.091161691 0
2.5874064 -0.76026857 -0.14139268 0
3.4465697 -0.68419129 -0.14085171 0
5.1721067 -0.53139818 -0.14071183 0
10.351827 -0.072743744 -0.14063317 0
0.89590293 -0.88723284 -0.090490453 0
1.011717 -0.87402523 -0.090637945 0
1.1616035 -0.85693187 -0.091016971 0
1.3521463 -0.83520198 -0.090146907 0
1.6232727 -0.80428219 -0.089861937 0
2.5757468 -0.69566005 -0.14091752 0
3.4250715 -0.59880137 -0.13995788 0
5.1640363 -0.40048632 -0.14095217 0
10.326882 0.18829504 -0.14066772 0
0.88736254 -0.86547893 -0.089271285 0
1.0109448 -0.84821653 -0.091105394 0
1.1551105 -0.82807904 -0.090555005 0
1.3453616 -0.80150419 -0.089796893 0
1.619056 -0.76327372 -0.089976154 0
2.563153 -0.63139927 -0.1405061 0
3.4325821 -0.50995481 -0.14126045 0
5.1465774 -0.27053866 -0.14090706 0
10.305166 0.45002893 -0.1409326 0
0.89270335 -0.84170622 -0.091155849 0
1.0152832 -0.82141858 -0.092674591 0
1.1497277 -0.79916722 -0.090397127 0
1.3434905 -0.76709843 -0.090266235 0
1.6241958 -0.72064012 -0.09132161 0
2.5522037 -0.56704962 -0.14040168 0
3.4177282 -0.4238005 -0.14114229 0
5.1256967 -0.14112225 -0.14085479 0
10.257491 0.70821828 -0.1407422 0
0.8844347 -0.82007015 -0.090233646 0
1.0038573 -0.79719543 -0.091357581 0
1.1397238 -0.77117091 -0.089586996 0
1.3315475 -0.73442811 -0.089420669 0
1.3469936 -0.73146945 -0.059203196 0
1.3566144 -0.72962666 -0.027865862 0
1.3551638 -0.72990453 0.0045787264 0
1.3375133 -0.73328537 0.037617128 0
1.3485252 -0.73117608 0.069069654 0
1.3500615 -0.73088181 0.10100961 0
0.88047451 -0.79770482 -0.090362154 0
0.98275518 -0.7754243 -0.088285647 0
1.1308463 -0.7431646 -0.089080445 0
1.20348 -0.72734231 -0.071986489 0
1.1988914 -0.72834188 -0.042317439 0
1.2151238 -0.72480589 -0.01501645 0
1.2141896 -0.72500932 0.014166163 0
1.1855882 -0.7312398 0.044527773 0
1.2039087 -0.72724891 0.072345726 0
1.203778 -0.7272774 0.10100554 0
0.88285428 -0.77374351 -0.092001922 0
0.9968816 -0.74587303 -0.092131563 0
1.1280079 -0.71382314 -0.089711748 0
1.2120215 -0.69328856 -0.074233763 0
1.2095556 -0.69389129 -0.04443853 0
1.193773 -0.6977489 -0.01364327 0
1.2116648 -0.69337577 0.013840185 0
1.2076279 -0.69436246 0.043141413 0
1.2065079 -0.69463623 0.072116099 0
1.2089529 -0.69403863 0.1010059 0
0.8769272 -0.75161785 -0.091956146 0
0.98272002 -0.72291279 -0.090628274 0
1.1306652 -0.68277049 -0.091408961 0
1.2174499 -0.65922296 -0.076167889 0
1.2124896 -0.66056889 -0.045743007 0
1.2135299 -0.66028661 -0.016302226 0
1.2091506 -0.66147482 0.01345356 0
1.2074302 -0.66194165 0.042773459 0
1.2012541 -0.66361743 0.072054319 0
1.2034729 -0.66301543 0.10100596 0
0.86630619 -0.73088998 -0.090992175 0
0.97834331 -0.69743383 -0.09115053 0
1.1159087 -0.65635455 -0.090266116 0
1.1978661 -0.6318807 -0.074573822 0
1.2078714 -0.62889296 -0.046238411 0
1.2124054 -0.62753904 -0.017038925 0
1.200348 -0.63113958 0.013464266 0
1.202404 -0.63052559 0.042597711 0
1.2060753 -0.62942934 0.071728677 0
1.2064178 -0.62932706 0.10100631 0
0.85661519 -0.71008402 -0.09034469 0
0.96474421 -0.67479986 -0.089976825 0
1.1013876 -0.63021111 -0.089269318 0
1.2057006 -0.59617221 -0.077121399 0
1.216616 -0.59261036 -0.048478592 0
1.2060235 -0.59606689 -0.017346343 0
1.2098551 -0.59481657 0.012072543 0
1.2060531 -0.59605718 0.041956998 0
1.2157224 -0.59290195 0.071261287 0
1.2129157 -0.59381783 0.10100679 0
0.84064245 -0.69165242 -0.088392667 0
0.96001107 -0.64933944 -0.090677969 0
1.0997187 -0.5998168 -0.090619184 0
1.2004838 -0.5640983 -0.07787966 0
1.2140213 -0.55929959 -0.049445901 0
1.218366 -0.55775952 -0.019589162 0
1.2140414 -0.5592925 0.010995263 0
1.2069694 -0.56179935 0.041402735 0
1.2101213 -0.56068206 0.07114321 0
1.2064108 -0.56199735 0.10100691 0
0.84555876 -0.66569817 -0.091282062 0
0.9517644 -0.62500656 -0.090806253 0
1.0878597 -0.57286298 -0.090323098 0
1.2088664 -0.52650052 -0.080813222 0
1.2039942 -0.52836722 -0.049597103 0
1.2053003 -0.52786678 -0.019410236 0
1.2150108 -0.52414632 0.010081546 0
1.2040418 -0.52834898 0.040991809 0
1.2038767 -0.52841222 0.071019843 0
1.211183 -0.52561295 0.10100739 0
0.83606118 -0.6449303 -0.0910374 0
0.94232166 -0.60111201 -0.090816684 0
1.0754219 -0.54622591 -0.090041347 0
1.2067215 -0.49208236 -0.082320653 0
1.2134342 -0.48931429 -0.052309159 0
1.2054563 -0.49260414 -0.020640133 0
1.1940908 -0.49729082 0.010746794 0
1.2131509 -0.48943114 0.039928153 0
1.2025898 -0.49378616 0.070750125 0
1.2122836 -0.48978874 0.1010078 0
0.81901813 -0.62754673 -0.089157455 0
0.92962092 -0.5786373 -0.09027981 0
1.0678864 -0.51749521 -0.090757556 0
1.2086138 -0.45526442 -0.084598102 0
1.2044172 -0.45712015 -0.052818272 0
1.1965531 -0.46059772 -0.021049624 0
1.2066144 -0.45614859 0.0088115726 0
1.215237 -0.45233557 0.039160322 0
1.2061223 -0.45636621 0.070332766 0
1.2046508 -0.45701686 0.10100797 0
0.82210058 -0.60112691 -0.092089362 0
0.92073935 -0.55449808 -0.090649672 0
1.0556699 -0.49071336 -0.090762489 0
1.2269906 -0.40972611 -0.08960896 0
1.4782331 -0.29095802 -0.090000875 0
1.8526223 -0.11397555 -0.090201475 0
3.1266072 0.4882665 -0.14072582 0
4.6883588 1.2265427 -0.14040326 0
9.4063244 3.4568336 -0.14091095 0
0.80284119 -0.5851714 -0.089898489 0
0.91438222 -0.52895749 -0.091684423 0
1.0443816 -0.4634411 -0.091061927 0
1.2134641 -0.37822774 -0.089842953 0
1.4604247 -0.25376573 -0.090037726 0
1.8394675 -0.062737614 -0.091196515 0
3.0893621 0.56717819 -0.14080648 0
4.6452794 1.3513217 -0.1411498 0
9.2947016 3.6945145 -0.14100343 0
0.79154402 -0.56552136 -0.089694567 0
0.90858424 -0.50278401 -0.092989631 0
1.0209156 -0.44257084 -0.089222156 0
1.1926013 -0.35054174 -0.089036278 0
1.4399515 -0.21795401 -0.089845397 0
1.8057096 -0.021895852 -0.090159215 0
3.0492032 0.64465696 -0.14081407 0
4.5739326 1.461961 -0.14057869 0
9.1637688 3.9222615 -0.14074497 0
0.78805554 -0.54146755 -0.091517843 0
0.88508338 -0.48626176 -0.090619557 0
1.0118816 -0.41411754 -0.090183698 0
1.1859484 -0.315079 -0.090627752 0
1.2141422 -0.29903755 -0.062160123 0
1.217351 -0.29721186 -0.029657653 0
3.0038428 0.71924645 -0.1405596 0
4.5159874 1.5796096 -0.14086568 0
9.0425825 4.1551013 -0.14089623 0
0.77578998 -0.52218294 -0.091340147 0
0.8765412 -0.46144351 -0.091594137 0
0.9990778 -0.38757053 -0.090573318 0
1.1654943 -0.28724381 -0.090124659 0
1.1431141 -0.30073604 -0.054896403 0
1.2053474 -0.26321778 -0.030294767 0
2.9621475 0.79589587 -0.14075294 0
4.4522729 1.6942406 -0.1410037 0
8.8931971 4.3715191 -0.14044259 0
0.75636679 -0.50749624 -0.089476787 0
0.85280901 -0.44598451 -0.089329906 0
0.97904915 -0.36546746 -0.089690499 0
1.1468329 -0.25845352 -0.090028442 0
1.1397426 -0.26297578 -0.05688772 0
1.1824191 -0.23575637 -0.029826974 0
2.9164548 0.87022716 -0.14077717 0
4.3905139 1.8103952 -0.14141044 0
8.7732391 4.6057363 -0.1409426 0
0.75402278 -0.4818159 -0.092053495 0
0.84381467 -0.42130551 -0.090462141 0
0.9766221 -0.33180711 -0.092390604 0
1.1304139 -0.2281675 -0.090432696 0
1.1430022 -0.21968433 -0.059980903 0
1.1688269 -0.20228103 -0.030479407 0
2.8650043 0.94076639 -0.14047328 0
4.3035278 1.9101815 -0.14057118 0
8.6286087 4.8248367 -0.14092384 0
0.73727822 -0.4656094 -0.091088213 0
0.83151686 -0.39858386 -0.090994053 0
0.95344263 -0.31186631 -0.091124065 0
1.0940115 -0.21188924 -0.087528758 0
1.152267 -0.17045614 -0.064146705 0
1.1376556 -0.18084815 -0.029226055 0
2.8292325 1.0222557 -0.14166035 0
4.2384548 2.0245397 -0.14111124 0
8.4696693 5.033915 -0.14065288 0
0.72113216 -0.44922218 -0.090371199 0
0.81698942 -0.3773357 -0.091145001 0
0.93519467 -0.28868964 -0.090948917 0
1.0870806 -0.17478547 -0.089817949 0
1.1054553 -0.16100565 -0.060379837 0
1.0954964 -0.16847417 -0.026729321 0
1.0992532 -0.16565683 0.004998425 0
1.104285 -0.16188332 0.036767159 0
1.0964533 -0.16775653 0.069133453 0
1.1001985 -0.1649479 0.10100962 0
1.1011405 -0.16424146 0.13302211 0
1.0972044 -0.16719326 0.16484001 0
1.1063389 -0.16034302 0.19764082 0
0.71014738 -0.42895541 -0.091148965 0
0.80041373 -0.35763356 -0.090934791 0
0.92182696 -0.26170161 -0.091913827 0
1.0627009 -0.1503934 -0.089194082 0
1.1039203 -0.11782476 -0.063316472 0
1.0979836 -0.12251547 -0.029530337 0
1.1059147 -0.11624894 0.0025221801 0
1.1048607 -0.11708179 0.035473499 0
1.0950691 -0.12481841 0.068549916 0
1.1022081 -0.11917761 0.10101046 0
1.1011705 -0.11999741 0.13365178 0
1.101932 -0.11939576 0.16637382 0
1.0991251 -0.12161359 0.19889398 0
0.69938087 -0.40824804 -0.092143588 0
0.77398586 -0.34617987 -0.088426851 0
0.89481556 -0.24565473 -0.090126432 0
1.0217748 -0.14003018 -0.085643552 0
1.0968494 -0.077571303 -0.065637715 0
1.1000812 -0.074882537 -0.032482836 0
1.1003207 -0.074683338 0.00099570514 0
1.0930024 -0.080771834 0.03483763 0
1.0955746 -0.078631848 0.067864403 0
1.1040707 -0.071563512 0.10101137 0
1.1044143 -0.071277589 0.13442574 0
1.1044967 -0.071209043 0.1678814 0
1.1071656 -0.06898877 0.20165013 0
0.68733186 -0.38833043 -0.092944182 0
0.7721436 -0.31407085 -0.092089482 0
0.88001919 -0.21961704 -0.091055028 0
0.99543774 -0.11855868 -0.084787227 0
1.0994531 -0.027484801 -0.06966982 0
1.1048861 -0.022727873 -0.035984669 0
1.1037526 -0.023720231 -0.001499986 0
1.1051275 -0.022516456 0.03264742 0
1.1097246 -0.018491235 0.066706292 0
1.0946634 -0.031678583 0.10101189 0
1.1001645 -0.026861873 0.13502252 0
1.1021035 -0.025164213 0.16919 0
1.098483 -0.028334226 0.20303482 0
1.0906773 -0.035168793 0.23624609 0
1.086151 -0.039131906 0.37272629 0
0.65914094 -0.38300416 -0.089242168 0
0.74474502 -0.30414763 -0.089498766 0
0.85627705 -0.20140687 -0.090151675 0
0.96386153 -0.10230246 -0.083012141 0
1.0535201 -0.019711044 -0.066282637 0
1.0937371 0.017335925 -0.037709329 0
1.0967817 0.020140562 -0.0031864101 0
1.0969363 0.020283017 0.031599659 0
1.0965242 0.019903336 0.066338114 0
1.0993536 0.022509608 0.10101303 0
1.1025569 0.025460515 0.13587895 0
1.0964072 0.019795451 0.17039286 0
1.0950148 0.018512879 0.2050446 0
1.1003062 0.023387108 0.24056986 0
1.0365785 -0.035317328 0.36625719 0
0.64989626 -0.36052337 -0.091095604 0
0.73443538 -0.27860966 -0.091390751 0
0.83728963 -0.17894968 -0.090418048 0
0.8377977 -0.17845741 -0.062782757 0
0.84154367 -0.17482778 -0.035821784 0
0.84065765 -0.17568627 -0.0081629064 0
0.8358646 -0.18033043 0.019699031 0
0.84004313 -0.17628172 0.046578642 0
0.8300662 -0.18594882 0.074128926 0
0.83993441 -0.17638704 0.10100374 0
0.84544706 -0.17104557 0.12837699 0
0.83917654 -0.17712143 0.15537275 0
0.8447994 -0.17167315 0.18317892 0
1.0885737 0.064530402 0.24241246 0
1.0110401 -0.010595348 0.29870623 0
1.0060375 -0.015442517 0.33105838 0
0.97781456 -0.042788949 0.35724178 0
0.63544452 -0.34270033 -0.091587044 0
0.71415299 -0.2624881 -0.090821259 0
0.82068771 -0.15391806 -0.091382511 0
0.83470196 -0.13963607 -0.066320039 0
0.83946377 -0.13478324 -0.038948495 0
0.84035474 -0.13387522 -0.010893947 0
0.84455431 -0.12959549 0.016767802 0
0.83659744 -0.13770434 0.045426417 0
0.83900237 -0.13525346 0.073150642 0
0.83792448 -0.13635191 0.10100451 0
0.84576863 -0.12835792 0.12908368 0
0.83662546 -0.13767579 0.15658452 0
0.84063077 -0.13359401 0.18485014 0
0.83741927 -0.13686678 0.21251231 0
1.1002306 0.1309655 0.28449431 0
0.94813323 -0.024037626 0.29109997 0
0.94542819 -0.02679434 0.32267383 0
0.94979948 -0.022339549 0.35621339 0
0.61247808 -0.33381203 -0.089577101 0
0.69128722 -0.24933538 -0.089633755 0
0.79918802 -0.13367483 -0.091343634 0
0.84095311 -0.088906258 -0.07207907 0
0.84515977 -0.084397048 -0.043664027 0
0.84478951 -0.084793895 -0.01449058 0
0.84251684 -0.087230057 0.014726119 0
0.84129512 -0.088539571 0.043621287 0
0.83909839 -0.090894312 0.072403826 0
0.83583409 -0.094393402 0.10100534 0
0.84289402 -0.086825758 0.12973684 0
0.83802319 -0.092046887 0.15816642 0
0.83342153 -0.096979409 0.18635258 0
0.84227657 -0.087487608 0.21615855 0
1.1052307 0.19437686 0.29025647 0
0.93417132 0.011015806 0.293304 0
0.93552524 0.01246706 0.32621253 0
0.92821014 0.0046258899 0.35707232 0
0.6000455 -0.31374243 -0.090954863 0
0.67347342 -0.23094049 -0.089939155 0
0.78085983 -0.10984495 -0.09221407 0
0.85290068 -0.028607216 -0.079478227 0
0.84036535 -0.042742815 -0.046888579 0
0.84466058 -0.037899282 -0.017720772 0
0.84355617 -0.039144661 0.01219024 0
0.84030902 -0.042806294 0.042077038 0
0.84158629 -0.041366007 0.07151296 0
0.84123069 -0.041766968 0.10100655 0
0.8425625 -0.040265169 0.1305345 0
0.84065521 -0.042415943 0.15996046 0
0.8396104 -0.043594148 0.18940732 0
0.83218777 -0.051964369 0.21797903 0
1.099763 0.24977008 0.29461819 0
1.0990709 0.24898961 0.33365729 0
0.58273035 -0.29893687 -0.090928577 0
0.65317327 -0.21534398 -0.089660861 0
0.72747517 -0.12717178 -0.084321119 0
0.8504855 0.018801603 -0.084296875 0
0.84105462 0.0076101753 -0.051393557 0
0.83751804 0.0034134125 -0.020202121 0
0.84293431 0.0098407604 0.0096277986 0
0.83241475 -0.0026425386 0.040902786 0
0.83316064 -0.0017574098 0.070944361 0
0.84639609 0.013948712 0.10100785 0
0.84163159 0.0082948543 0.13137659 0
0.83312738 -0.0017969277 0.16116339 0
0.83912331 0.0053183171 0.19197416 0
0.82915509 -0.0065107611 0.22100557 0
0.84071302 0.0072048041 0.25334781 0
1.1068562 0.32303026 0.34224868 0
0.562648 -0.28757516 -0.09008541 0
0.64199436 -0.18844518 -0.092239805 0
0.72755569 -0.081550688 -0.090124048 0
0.8472451 0.067981273 -0.089349128 0
0.84782642 0.068707496 -0.057414372 0
0.83113551 0.047854934 -0.02302978 0
0.84300959 0.062689573 0.0067691747 0
0.83843428 0.05697361 0.038580012 0
0.84239495 0.061921749 0.069663867 0
0.84045732 0.059500966 0.10100875 0
0.84145635 0.060749087 0.13231884 0
0.84138554 0.060660634 0.16365761 0
0.84181327 0.06119493 0.19511499 0
0.84188056 0.061279092 0.22665307 0
0.84286815 0.062512904 0.25850579 0
1.103582 0.38823107 0.34904075 0
1.0928818 0.37486294 0.38824981 0
0.5542953 -0.26108339 -0.093434073 0
0.61823022 -0.17694059 -0.09119565 0
0.70631295 -0.061017539 -0.09063796 0
0.72397381 -0.037774649 -0.066973783 0
0.72527915 -0.036056723 -0.038949732 0
0.72758055 -0.033027913 -0.011131255 0
0.72310221 -0.03892174 0.017526733 0
0.72982526 -0.030073728 0.044885579 0
0.73025793 -0.029504266 0.072943747 0
0.72577095 -0.035409477 0.1010046 0
0.72879404 -0.031430926 0.12900952 0
0.72374302 -0.038078394 0.15665555 0
0.72897875 -0.031187799 0.18516216 0
0.7342307 -0.024275865 0.21416785 0
0.72470486 -0.03681257 0.24084882 0
0.72576463 -0.035417821 0.2694003 0
0.73385626 -0.024768677 0.30013204 0
0.73460764 -0.023779776 0.3294391 0
0.52157146 -0.2670196 -0.088281341 0
0.59387833 -0.16670159 -0.090017028 0
0.67226917 -0.057942774 -0.08771532 0
0.72960538 0.021605048 -0.07415276 0
0.95331711 0.33198109 -0.089383192 0
0.84898102 0.18722597 -0.0343992 0
0.83426571 0.16681007 0.0013415536 0
0.84030956 0.17519525 0.034143541 0
0.84436327 0.1808193 0.067434363 0
0.84236401 0.17804554 0.10101148 0
0.84209996 0.17767921 0.13449861 0
0.84463847 0.18120113 0.16822447 0
0.83814949 0.17219833 0.20114574 0
0.84421408 0.18061236 0.2356621 0
0.83880526 0.17310813 0.26851836 0
0.84241867 0.17812136 0.3032915 0
1.1003888 0.53602713 0.41010103 0
0.51152384 -0.24190298 -0.09142483 0
0.57030708 -0.15585062 -0.089139573 0
0.66036421 -0.024016824 -0.0911557 0
0.7657131 0.13020268 -0.089561366 0
0.92484272 0.3631511 -0.090453528 0
1.1523808 0.69624227 -0.089562006 0
0.85489869 0.26076069 -0.0048637968 0
0.84277165 0.24300793 0.03149334 0
0.84726208 0.24958149 0.066086888 0
0.84425461 0.24517897 0.10101308 0
0.84238708 0.24244502 0.13573818 0
0.84175873 0.2415252 0.17044915 0
0.83216226 0.22747698 0.20407121 0
0.84115791 0.24064568 0.24008806 0
0.84560049 0.24714914 0.27606213 0
0.8392542 0.2378588 0.30991116 0
1.1056026 0.62776393 0.42294016 0
1.0921962 0.6081385 0.46546239 0
0.49716511 -0.22205183 -0.093249328 0
0.55231589 -0.13677439 -0.090255894 0
0.63029337 -0.016200867 -0.089489318 0
0.73738974 0.14939812 -0.08960434 0
0.88524216 0.3780165 -0.089338072 0
1.1125782 0.72953707 -0.090093382 0
1.4834012 1.3029263 -0.08986897 0
0.85096806 0.32501987 0.028102236 0
0.83879483 0.30619672 0.065099582 0
0.84054905 0.30890933 0.10101453 0
0.84633213 0.31785145 0.13725285 0
0.83924818 0.30689779 0.17292216 0
0.84470767 0.3153396 0.20967709 0
0.84307683 0.31281796 0.2458013 0
0.84119672 0.3099108 0.28188914 0
0.84248674 0.31190541 0.31883308 0
0.83940458 0.30713966 0.35480693 0
1.1036428 0.71572083 0.48353791 0
0.46755049 -0.22629085 -0.089134745 0
0.53546757 -0.11522475 -0.092002265 0
0.60708797 0.001897547 -0.089976676 0
0.7092939 0.16903701 -0.089838393 0
0.85465813 0.40675393 -0.090278096 0
1.0657636 0.75197881 -0.089539997 0
1.4216372 1.333946 -0.089405693 0
0.84561753 0.39196971 0.025596308 0
0.85285729 0.40380898 0.063004218 0
0.83992124 0.38265446 0.10101631 0
0.84185702 0.38582006 0.13853841 0
0.84010983 0.38296285 0.17594503 0
0.83527517 0.37505665 0.21286274 0
0.84230757 0.38655689 0.25159329 0
0.83933049 0.38168839 0.28887808 0
0.83338273 0.37196186 0.32529941 0
0.8384037 0.38017276 0.36488417 0
1.097886 0.8045091 0.49712202 0
0.44944116 -0.21252647 -0.089683361 0
0.50995064 -0.10772118 -0.090761714 0
0.5830918 0.018962774 -0.090372927 0
0.68647456 0.19802657 -0.091702424 0
0.81884068 0.42729095 -0.090202816 0
1.0261077 0.78628713 -0.09040191 0
1.3639654 1.3714726 -0.089601167 0
1.3765075 1.3931961 -0.027104354 0
0.85241443 0.48544231 0.06137773 0
0.84063148 0.46503368 0.10101834 0
0.83732665 0.45930961 0.13995703 0
0.8415128 0.46656016 0.17932844 0
0.84140927 0.46638075 0.21857533 0
0.83684963 0.45848337 0.25710824 0
0.84035432 0.46455362 0.29726949 0
0.83415604 0.45381787 0.33524892 0
0.8406105 0.46499732 0.37705916 0
0.83414412 0.45379725 0.41492516 0
0.43244916 -0.19640628 -0.090905987 0
0.48767585 -0.094920665 -0.090813003 0
0.55618209 0.030967627 -0.089931063 0
0.64648104 0.19690254 -0.088815801 0
0.78101879 0.44413152 -0.089757867 0
0.98101103 0.81164104 -0.090407647 0
1.2965164 1.3914192 -0.08851146 0
1.2952466 1.3890858 -0.025087213 0
1.2910465 1.3813677 0.038218673 0
0.85082924 0.5724166 0.10102116 0
0.83677417 0.54658872 0.14172529 0
0.83833092 0.5494495 0.18262626 0
0.83780348 0.54848021 0.22346283 0
0.83767307 0.54824048 0.26445872 0
0.84166038 0.5555678 0.3066279 0
0.83909529 0.55085415 0.34748942 0
0.83938068 0.55137843 0.38934907 0
0.84059912 0.55361754 0.43192607 0
0.41069877 -0.18891272 -0.090156026 0
0.46334398 -0.086072594 -0.090147085 0
0.53183967 0.047730837 -0.090499662 0
0.62315345 0.22610846 -0.090915062 0
0.74903738 0.47201744 -0.090895019 0
0.93641376 0.83804923 -0.090644039 0
1.2423499 1.4356823 -0.08948008 0
1.2454478 1.4417341 -0.026172435 0
1.2505102 1.4516232 0.037214089 0
1.2430366 1.4370239 0.10104822 0
0.84939069 0.66805345 0.14436635 0
0.84281319 0.65520459 0.18708339 0
0.8451283 0.65972692 0.23058587 0
0.84226358 0.65413088 0.27340555 0
0.84078836 0.65124911 0.31647503 0
0.84063756 0.65095454 0.36003712 0
0.84455264 0.65860254 0.40533686 0
0.84029257 0.65028065 0.44800597 0
0.39218298 -0.17506471 -0.091043927 0
0.44108537 -0.073283583 -0.09044183 0
0.50357997 0.056787286 -0.089768894 0
0.59517348 0.24742201 -0.091850899 0
0.7073952 0.48099032 -0.089671485 0
0.88931292 0.85961801 -0.090493731 0
1.1846519 1.4743104 -0.090106688 0
1.7841524 2.7220583 -0.090718634 0
4.5075059 8.3902082 -0.14097264 0
0.84893584 0.7755807 0.19223706 0
0.84405911 0.76543075 0.23717844 0
0.83802032 0.75286216 0.28149071 0
0.83984262 0.75665492 0.32746798 0
0.8412475 0.75957888 0.37375718 0
0.84008092 0.75715083 0.41952565 0
0.83854479 0.75395364 0.46535918 0
0.37039724 -0.16793779 -0.090464868 0
0.42336282 -0.050177064 -0.092980795 0
0.48020488 0.076202422 -0.091042422 0
0.55345857 0.23907056 -0.088314421 0
0.67260474 0.50397354 -0.090392672 0
0.84323871 0.88335162 -0.090689056 0
1.1172911 1.4926641 -0.089284383 0
1.6882036 2.7619994 -0.090521149 0
4.2666726 8.4948244 -0.14081708 0
1.0686928 1.3846135 0.2222997 0
0.85242403 0.90377373 0.24620278 0
0.84189159 0.88035661 0.29244137 0
0.83932918 0.87465936 0.33995539 0
0.83561718 0.86640626 0.38704312 0
0.84519488 0.88770086 0.43934405 0
0.84057856 0.87743717 0.48661849 0
0.35216379 -0.15266612 -0.091896974 0
0.3921845 -0.057326224 -0.089404501 0
0.45382401 0.089515477 -0.091320626 0
0.5310111 0.27339545 -0.091481023 0
0.63587075 0.5231989 -0.090741836 0
0.79427451 0.90055853 -0.090339996 0
1.0639992 1.5431137 -0.091033809 0
1.5997487 2.8194106 -0.091330744 0
4.0251288 8.5973072 -0.14076348 0
0.99731469 1.3842537 0.22095788 0
0.84747285 1.0272908 0.25399098 0
0.84269243 1.0159028 0.30408239 0
0.83789998 1.0044857 0.35381216 0
0.83997518 1.0094295 0.40572998 0
0.8381201 1.0050101 0.4565697 0
0.84111077 1.0121348 0.5099349 0
0.33017644 -0.14603534 -0.091448881 0
0.37104818 -0.041341688 -0.090700693 0
0.42374671 0.093646437 -0.090094186 0
0.49396601 0.27351442 -0.089542054 0
0.59871078 0.54181999 -0.091128714 0
0.7485376 0.92560381 -0.090904258 0
1.000162 1.5701439 -0.091110013 0
1.4985801 2.8468504 -0.090746708 0
3.7818387 8.6954565 -0.14075518 0
0.92864716 1.3869574 0.21987309 0
0.8530246 1.193249 0.26490006 0
0.84040678 1.1609282 0.31655777 0
0.83952427 1.1586678 0.37059501 0
0.84071136 1.1617084 0.42561406 0
0.83876818 1.1567309 0.47973171 0
0.84179604 1.1644869 0.53659099 0
0.31054777 -0.13315156 -0.092544265 0
0.3481335 -0.029206362 -0.091321535 0
0.39515656 0.10083821 -0.08954709 0
0.43297493 0.20542684 -0.077568285 0
0.43403086 0.20834699 -0.047871221 0
0.43801957 0.21937802 -0.018996192 0
0.93108004 1.5829608 -0.090249263 0
1.3997883 2.8791962 -0.090537839 0
3.5339191 8.7812405 -0.1405938 0
0.85597217 1.3752465 0.21816997 0
0.85005593 1.3588848 0.27567562 0
0.84196246 1.3365018 0.33195955 0
0.84151495 1.3352642 0.39000741 0
0.84077626 1.3332214 0.44819036 0
0.83815908 1.3259833 0.50574565 0
0.83760738 1.3244576 0.56452793 0
0.28628603 -0.13329956 -0.090822078 0
0.32280874 -0.023724046 -0.090731643 0
0.3687132 0.11399856 -0.090164132 0
0.40666959 0.22787538 -0.079335414 0
0.40563631 0.22477534 -0.048596013 0
0.40139347 0.21204594 -0.017227715 0
0.86711103 1.6092923 -0.090520643 0
1.3003008 2.9089489 -0.090326391 0
3.2845654 8.8621426 -0.14046815 0
0.78822821 1.372628 0.2170184 0
0.84824264 1.5526834 0.28844362 0
0.8407678 1.5302572 0.34901857 0
0.84274787 1.5361979 0.41225088 0
0.83758408 1.5207055 0.47294435 0
0.83994651 1.5277932 0.53718686 0
0.83955783 1.5266273 0.60063291 0
0.26438415 -0.12707219 -0.090666749 0
0.29861954 -0.015009489 -0.090909235 0
0.33734092 0.11173728 -0.088241406 0
0.38066745 0.25355807 -0.081662185 0
0.38416347 0.26500157 -0.052311394 0
0.37859663 0.24677971 -0.01966898 0
0.7271474 1.3876913 -0.072784834 0
0.72489613 1.3803225 -0.01437938 0
0.72381246 1.3767753 0.043448351 0
0.72793913 1.3902829 0.10104143 0
0.72647727 1.3854978 0.15884636 0
0.72600132 1.38394 0.21663827 0
0.84272563 1.7660139 0.30254593 0
0.83503109 1.7408273 0.36759171 0
0.83601683 1.7440541 0.43516615 0
0.8326987 1.7331927 0.50119597 0
0.83456308 1.7392955 0.57004517 0
0.23975281 -0.13074252 -0.088451199 0
0.2747885 -0.0047685173 -0.091503792 0
0.31239733 0.13045731 -0.090046875 0
0.36475036 0.31869748 -0.089824252 0
0.43989483 0.5888862 -0.090477161 0
0.55490184 1.0024041 -0.091991223 0
0.65871745 1.3756826 -0.070638858 0
0.6591025 1.3770669 -0.013375921 0
0.65996444 1.3801663 0.04378847 0
0.66260719 1.3896685 0.10104089 0
0.65914536 1.3772211 0.15822157 0
0.65966952 1.3791058 0.21555589 0
0.81535256 1.9388783 0.31362107 0
0.81265992 1.9291966 0.38389695 0
0.81107956 1.9235144 0.45449558 0
0.81123108 1.9240589 0.52611297 0
0.8117699 1.9259965 0.59846479 0
0.22102745 -0.11299405 -0.091080539 0
0.24813767 -0.0050354269 -0.090171196 0
0.28380051 0.13698164 -0.089881353 0
0.33332556 0.33420089 -0.090801068 0
0.39547122 0.58167797 -0.088334613 0
0.49817741 0.99067575 -0.089578472 0
0.59797692 1.3880985 -0.070391841 0
0.59748876 1.3861544 -0.013051225 0
0.59488708 1.3757942 0.044273783 0
0.59740007 1.3858013 0.1010403 0
0.59366596 1.3709314 0.15768947 0
0.59707344 1.3845005 0.21505268 0
0.76855278 2.0673676 0.32147515 0
0.77001196 2.0731783 0.39587939 0
0.76899278 2.0691197 0.46969756 0
0.7682547 2.0661805 0.54388559 0
0.200914 -0.098514289 -0.093086191 0
0.22592188 0.012901697 -0.092490397 0
0.25506824 0.14275554 -0.089712314 0
0.29759887 0.33223942 -0.08937148 0
0.35541439 0.58982104 -0.088177659 0
0.44639242 0.99514931 -0.088866644 0
0.55196279 1.4654899 -0.074911825 0
0.55091351 1.460815 -0.01593147 0
0.55151922 1.4635136 0.042522658 0
0.55345142 1.4721222 0.10104241 0
0.55198222 1.4655764 0.15961102 0
0.54998928 1.4566975 0.21781924 0
0.71293664 2.1826656 0.32842395 0
0.71305954 2.1832132 0.40464813 0
0.71200889 2.1785324 0.48060405 0
0.71418101 2.1882095 0.55881959 0
0.17482053 -0.11169729 -0.089197837 0
0.19726276 0.001593623 -0.089290582 0
0.22719568 0.15269819 -0.090364419 0
0.2637434 0.33719519 -0.089069523 0
0.31916881 0.61698884 -0.090408944 0
0.40058181 1.0279706 -0.090980463 0
0.4143306 1.0973759 -0.047742058 0
0.4141643 1.0965364 0.0019784367 0
0.41866696 1.1192663 0.050992824 0
0.4169521 1.1106095 0.10103151 0
0.41365147 1.0939474 0.15046918 0
0.41644862 1.108068 0.20063199 0
0.41316581 1.0914958 0.24938551 0
0.41599217 1.1057637 0.3004466 0
0.41588798 1.1052377 0.35064542 0
0.40798849 1.0653601 0.39545318 0
0.29464242 0.49317685 0.34943932 0
0.27092737 0.37346068 0.36271608 0
0.15449099 -0.096727282 -0.091540821 0
0.17541964 0.024954353 -0.092868991 0
0.19729595 0.15214601 -0.089381091 0
0.23227844 0.3555384 -0.090800025 0
0.27819112 0.62248033 -0.090168752 0
0.34610096 1.0173163 -0.089077301 0
0.36822519 1.1459494 -0.050494973 0
0.88204741 4.1333747 -0.14101532 0
1.7627851 9.2540903 -0.14068985 0
0.58256304 2.3921359 0.26089942 0
0.57971388 2.3755705 0.339856 0
0.57912433 2.3721426 0.41953135 0
0.26235104 0.53038424 0.28127715 0
0.27220023 0.58764869 0.32593247 0
