# .PCD v0.7 - Point Cloud Data file format
VERSION 0.7
FIELDS x y z intensity
SIZE 4 4 4 4
TYPE F F F F
COUNT 1 1 1 1
WIDTH 1312
HEIGHT 1
VIEWPOINT 0 0 0 1 0 0 0
POINTS 1312
DATA ascii
-3.8668041 -4.4630437 -0.14105406 0
-7.7391429 -7.9408903 -0.14091709 0
-0.6570546 -1.6109854 -0.091454484 0
-0.73775554 -1.6872301 -0.090448223 0
-0.84351683 -1.7871513 -0.089970522 0
-1.0004623 -1.9354304 -0.092643969 0
-1.1912402 -2.1156738 -0.09072002 0
-1.4961604 -2.4037564 -0.091277204 0
-1.9817297 -2.8625133 -0.089718021 0
-3.7765367 -4.5582123 -0.14096504 0
-7.5525436 -8.1257114 -0.14063755 0
-0.63890207 -1.6251472 -0.09077809 0
-0.72197658 -1.7076997 -0.090996765 0
-0.82135826 -1.8064568 -0.089562975 0
-0.97755849 -1.9616754 -0.092898943 0
-1.1570002 -2.1399894 -0.089823566 0
-1.4514596 -2.4325981 -0.090153985 0
-1.9351456 -2.9132445 -0.089847155 0
-3.6875024 -4.6545882 -0.14111045 0
-7.3836493 -8.3275061 -0.14108232 0
-0.62522179 -1.6437721 -0.09156727 0
-0.69985104 -1.7217722 -0.089969821 0
-0.80158383 -1.8281 -0.089825727 0
-0.9441281 -1.9770827 -0.091153823 0
-1.128206 -2.1694748 -0.089926295 0
-1.4254206 -2.480114 -0.091617487 0
-1.8776226 -2.9527409 -0.08900141 0
-3.5911005 -4.7436123 -0.14092535 0
-7.1823893 -8.4971113 -0.14061958 0
-0.60287386 -1.6531677 -0.089787029 0
-0.68745077 -1.7461522 -0.091734461 0
-0.78343785 -1.8516812 -0.090625279 0
-0.91335428 -1.9945123 -0.089994647 0
-1.1075385 -2.2079999 -0.091571026 0
-1.3778671 -2.5052013 -0.090301804 0
-1.8448147 -3.0185673 -0.090801932 0
-3.496383 -4.8343143 -0.14100501 0
-6.9967332 -8.6826267 -0.140829 0
-0.58896971 -1.6717066 -0.090774544 0
-0.66794002 -1.7630551 -0.091678225 0
-0.76006514 -1.8696202 -0.090282477 0
-0.88839281 -2.0180626 -0.090143405 0
-1.0792059 -2.2387843 -0.092065938 0
-1.339682 -2.5400887 -0.090373404 0
-1.7959942 -3.0679252 -0.091119163 0
-3.3941345 -4.9165645 -0.14071162 0
-6.8002181 -8.8565321 -0.14082269 0
-0.56556791 -1.6790739 -0.088766478 0
-0.64350832 -1.7739686 -0.090284668 0
-0.73502845 -1.885397 -0.089613654 0
-0.85957283 -2.0370333 -0.089572154 0
-1.0426637 -2.2599518 -0.091205575 0
-1.3013765 -2.5749424 -0.090557151 0
-1.7448518 -3.1148863 -0.091325767 0
-3.296262 -5.0037732 -0.14088012 0
-6.5995016 -9.0255632 -0.14082076 0
-0.54981589 -1.6954979 -0.089399718 0
-0.6190353 -1.7842488 -0.088915758 0
-0.71432388 -1.9064248 -0.090185381 0
-0.83931208 -2.0666807 -0.091045775 0
-1.0024474 -2.2758474 -0.089718677 0
-1.2666684 -2.6146233 -0.091424383 0
-1.6840644 -3.1497951 -0.090575404 0
-3.1914554 -5.0825233 -0.14069331 0
-6.3987956 -9.1948729 -0.14097795 0
-0.53460979 -1.7129363 -0.090395726 0
-0.60853583 -1.81282 -0.092004381 0
-0.6882363 -1.9205058 -0.089434005 0
-0.80768299 -2.0818939 -0.090058796 0
-0.97798359 -2.3119922 -0.09135256 0
-1.2276249 -2.6492903 -0.091796048 0
-1.6304927 -3.1936173 -0.090748914 0
-3.0889785 -5.1642218 -0.14083542 0
-6.191669 -9.3563614 -0.14105399 0
-0.51278543 -1.7213806 -0.089139216 0
-0.579629 -1.8166302 -0.089402787 0
-0.6684342 -1.9431744 -0.090553485 0
-0.78715783 -2.1123509 -0.091844641 0
-0.94545096 -2.3379128 -0.09158694 0
-1.1774616 -2.6685193 -0.09051419 0
-1.5772197 -3.2381597 -0.091097422 0
-2.984514 -5.2435012 -0.14098589 0
-5.9743738 -9.5039387 -0.14088342 0
-0.49729556 -1.7388412 -0.090346776 0
-0.56215304 -1.8364066 -0.090621971 0
-0.64077675 -1.9546804 -0.08955092 0
-0.75606734 -2.1281123 -0.091209061 0
-0.90512139 -2.352335 -0.090319984 0
-1.1342597 -2.6970286 -0.090436928 0
-1.520153 -3.2775292 -0.091119759 0
-2.8802431 -5.3235168 -0.14132372 0
-5.7555637 -9.6488705 -0.14079626 0
-0.47944149 -1.7531085 -0.09083242 0
-0.54537457 -1.8579359 -0.092311002 0
-0.62297034 -1.9813058 -0.091636322 0
-0.71987432 -2.1353741 -0.089303695 0
-0.87330115 -2.3793085 -0.090947606 0
-1.0923088 -2.7275102 -0.090699621 0
-1.4595518 -3.3113923 -0.090806909 0
-2.771574 -5.3973846 -0.14146407 0
-5.532135 -9.786418 -0.14066061 0
-0.4597896 -1.7646044 -0.090737917 0
-0.51482028 -1.8572028 -0.08919064 0
-0.5933497 -1.9893417 -0.09022326 0
-0.69207025 -2.1554554 -0.089672901 0
-0.83964682 -2.4037776 -0.091335468 0
-1.0411264 -2.7428007 -0.089424811 0
-1.4000248 -3.3467071 -0.090742148 0
-2.6492953 -5.448813 -0.1405368 0
-5.31252 -9.9301338 -0.1408475 0
-0.43814227 -1.7725251 -0.089895226 0
-0.49667385 -1.8769252 -0.09069889 0
-0.56601417 -2.0006046 -0.089579977 0
-0.66374034 -2.1749144 -0.090050556 0
-0.78956264 -2.399338 -0.087959103 0
-1.0091339 -2.7909777 -0.091826312 0
-1.3388613 -3.3790979 -0.090565242 0
-2.5402751 -5.522006 -0.1409501 0
-5.0854568 -10.061734 -0.1408577 0
-0.42432523 -1.79488 -0.092665441 0
-0.47351071 -1.8880455 -0.09045326 0
-0.53371102 -2.002075 -0.087254383 0
-0.63122332 -2.1867793 -0.089330815 0
-0.76250082 -2.4354408 -0.090153702 0
-0.96462101 -2.81829 -0.092079602 0
-1.2811439 -3.4178369 -0.091015391 0
-1.9207423 -4.6293421 -0.090657048 0
-4.8575964 -10.19223 -0.14099044 0
-0.40072304 -1.7990228 -0.091163076 0
-0.45664391 -1.9117465 -0.092979543 0
-0.51380348 -2.0269673 -0.089405321 0
-0.59657514 -2.1938159 -0.087992169 0
-0.72373927 -2.45015 -0.089619644 0
-0.91380638 -2.833282 -0.091163896 0
-1.2204192 -3.451344 -0.091166101 0
-1.8281026 -4.6762953 -0.090637572 0
-4.6239495 -10.312087 -0.14099562 0
-0.37983555 -1.808192 -0.090997048 0
-0.42868391 -1.9132364 -0.090951644 0
-0.48806244 -2.0409248 -0.089640893 0
-0.56948745 -2.2160225 -0.089156635 0
-0.68857259 -2.472105 -0.090152614 0
-0.86456937 -2.8505716 -0.090628169 0
-1.1587363 -3.4831533 -0.091303043 0
-1.7356087 -4.7236691 -0.090760686 0
-4.3821621 -10.414861 -0.14071487 0
-0.35995364 -1.8196121 -0.091477461 0
-0.40321052 -1.9191252 -0.089995079 0
-0.46059322 -2.0511348 -0.089319386 0
-0.54360378 -2.2421019 -0.091007225 0
-0.65272987 -2.4931481 -0.090677284 0
-0.81548655 -2.8675723 -0.090196095 0
-1.0921595 -3.5040627 -0.090726964 0
-1.6417232 -4.7683415 -0.090864547 0
-4.1420808 -10.520451 -0.14066415 0
-0.34013289 -1.8315258 -0.092181839 0
-0.38091144 -1.9322128 -0.09064243 0
-0.43727982 -2.071393 -0.090906434 0
-0.50636834 -2.2419806 -0.088965945 0
-0.61666298 -2.5143108 -0.091326408 0
-0.76858914 -2.8894343 -0.090383403 0
-1.0283815 -3.5308921 -0.090730675 0
-1.5454873 -4.8076868 -0.090819426 0
-3.9051223 -10.633902 -0.14096397 0
-0.31870005 -1.8396677 -0.09213721 0
-0.35818738 -1.9447091 -0.091278501 0
-0.40554577 -2.0706885 -0.088901751 0
-0.47913003 -2.2664323 -0.09077505 0
-0.57779616 -2.528897 -0.091262497 0
-0.71893209 -2.9043369 -0.089993574 0
-0.96687329 -3.5638931 -0.091316082 0
-1.4496119 -4.8480406 -0.090946279 0
-3.6593075 -10.726118 -0.1408828 0
-0.29791206 -1.849678 -0.092635714 0
-0.33005244 -1.9421984 -0.089031659 0
-0.38187438 -2.0913751 -0.090776257 0
-0.44048578 -2.2600961 -0.08809074 0
-0.53391248 -2.5290377 -0.089533798 0
-0.67371267 -2.9314721 -0.090940259 0
-0.89750576 -3.5756915 -0.09044268 0
-1.3509834 -4.8810897 -0.090831824 0
-3.4155354 -10.824188 -0.14109981 0
-0.27122301 -1.8416468 -0.089222051 0
-0.30653927 -1.9522356 -0.089424796 0
-0.34957787 -2.0870061 -0.088416435 0
-0.40870437 -2.2721539 -0.088286035 0
-0.49715143 -2.5491157 -0.090401493 0
-0.62510425 -2.9497852 -0.091127269 0
-0.83138794 -3.5957389 -0.09031067 0
-1.2514007 -4.9109607 -0.090685152 0
-3.1648567 -10.902728 -0.14098921 0
-0.25045419 -1.851066 -0.089847066 0
-0.28262645 -1.9613367 -0.089748316 0
-0.3213318 -2.0939999 -0.08815936 0
-0.38086653 -2.2980556 -0.090624489 0
-0.4587124 -2.5648732 -0.090850241 0
-0.57544571 -2.9649777 -0.091129221 0
-0.76985013 -3.6313014 -0.091431491 0
-1.1521657 -4.9416919 -0.090703629 0
-2.9134719 -10.978587 -0.14096837 0
-0.23064639 -1.864754 -0.091522209 0
-0.26089334 -1.979079 -0.091871239 0
-0.29581809 -2.1110849 -0.089741223 0
-0.34661552 -2.3030851 -0.090015642 0
-0.41946009 -2.5784173 -0.091146119 0
-0.52584928 -2.9805388 -0.091288187 0
-0.70155752 -3.6446671 -0.091052435 0
-1.0516909 -4.9680743 -0.090633593 0
-2.6599069 -11.046682 -0.14091402 0
-0.20850322 -1.8704007 -0.091539972 0
-0.23451534 -1.9798133 -0.090795241 0
-0.26635841 -2.1137521 -0.088987105 0
-0.31236446 -2.3072636 -0.089412816 0
-0.37684596 -2.5784869 -0.089940913 0
-0.47470376 -2.9900985 -0.090990894 0
-0.63209736 -3.6521304 -0.090375759 0
-0.95000935 -4.9893379 -0.090440772 0
-2.4039814 -11.105063 -0.1407813 0
-0.18419841 -1.8659047 -0.089475922 0
-0.20865254 -1.9816712 -0.090069793 0
-0.23811556 -2.12115 -0.089156874 0
-0.28009647 -2.3198886 -0.090150915 0
-0.33912793 -2.599345 -0.091354184 0
-0.42474094 -3.0046394 -0.091293879 0
-0.56575346 -3.6721966 -0.090728797 0
-0.84461862 -4.9923515 -0.089503072 0
-2.1464272 -11.155148 -0.14060603 0
-0.16329646 -1.8771881 -0.090965398 0
-0.18386009 -1.9883361 -0.090393834 0
-0.20996447 -2.1294322 -0.089593135 0
-0.24697143 -2.3294575 -0.09056551 0
-0.29653436 -2.5973489 -0.090157919 0
-0.37311161 -3.0112548 -0.090963148 0
-0.49651849 -3.6782784 -0.090205304 0
-0.94480133 -6.1012807 -0.14105524 0
-1.8939518 -11.231511 -0.14120708 0
-0.13959913 -1.8732368 -0.089283697 0
-0.15890665 -1.994645 -0.0907683 0
-0.18126109 -2.1352127 -0.089729823 0
-0.21210894 -2.3291881 -0.089697666 0
-0.25872588 -2.6223216 -0.092285506 0
-0.32023421 -3.0090945 -0.089927725 0
-0.42910641 -3.6936975 -0.090468831 0
-0.81365275 -6.1117764 -0.14050183 0
-1.6328079 -11.262734 -0.14089331 0
-0.11697458 -1.8744233 -0.088837899 0
-0.13328883 -1.9968513 -0.09048184 0
-0.15460274 -2.1567986 -0.092606969 0
-0.17792305 -2.3318026 -0.089366592 0
-0.21644811 -2.6209087 -0.091407634 0
-0.26773602 -3.0057917 -0.088914119 0
-0.36100569 -3.7057214 -0.090612255 0
-0.68652159 -6.1485105 -0.14133835 0
-1.3735524 -11.30424 -0.1409767 0
-0.095789433 -1.8881259 -0.091191404 0
-0.10855542 -2.0067086 -0.091768213 0
-0.12429375 -2.1529012 -0.091375314 0
-0.14334433 -2.3298614 -0.088514589 0
-0.17400809 -2.6146955 -0.090093486 0
-0.21797438 -3.0230966 -0.089962475 0
-0.29387224 -3.7281084 -0.091604985 0
-0.55563563 -6.1596165 -0.14112307 0
-1.1115011 -11.323028 -0.1406818 0
-0.07229615 -1.8807422 -0.089156948 0
-0.082063533 -1.9995779 -0.089959539 0
-0.094659485 -2.1528273 -0.090903006 0
-0.1101296 -2.3410459 -0.089638419 0
-0.13390981 -2.6303694 -0.091474481 0
-0.16698837 -3.0328224 -0.090416618 0
-0.22375296 -3.7234533 -0.090817787 0
-0.42335781 -6.1519604 -0.14018631 0
-0.85090804 -11.353784 -0.14082123 0
-0.05019087 -1.8895245 -0.090693556 0
-0.056704063 -2.0041218 -0.090482198 0
-0.065081827 -2.1515255 -0.090352453 0
-0.076111883 -2.3455954 -0.089944802 0
-0.081166461 -2.4345288 -0.068211772 0
-0.081057057 -2.4326038 -0.033966217 0
-0.081269547 -2.4363427 -0.00035532354 0
-0.080984868 -2.4313338 0.033728313 0
-0.080590852 -2.4244013 0.067549624 0
-0.080855377 -2.4290555 0.10101157 0
-0.027576655 -1.8941993 -0.091474153 0
-0.031093363 -2.0056596 -0.090558641 0
-0.035621576 -2.1491792 -0.089753427 0
-0.040927578 -2.3173501 -0.085760646 0
-0.040654313 -2.3086894 -0.05330861 0
-0.041029833 -2.3205912 -0.023355333 0
-0.040805791 -2.3134902 0.0083504114 0
-0.040593956 -2.3067763 0.039604872 0
-0.04067342 -2.3092949 0.070264481 0
-0.040824369 -2.314079 0.10100824 0
-0.0047420245 -1.8956057 -0.091681205 0
-0.0055191061 -2.0188117 -0.092944451 0
-0.0063491524 -2.1504154 -0.089865543 0
-0.0066946363 -2.2051916 -0.069909014 0
-0.0067173894 -2.2087991 -0.041560221 0
-0.0067357956 -2.2117174 -0.013133457 0
-0.0067553581 -2.214819 0.015292818 0
-0.0066734306 -2.2018294 0.044520024 0
-0.0067803687 -2.2187846 0.07238359 0
-0.0067715985 -2.2173939 0.10100546 0
0.017962601 -1.886778 -0.089835115 0
0.020004772 -1.9946649 -0.088426419 0
0.022980141 -2.1518519 -0.09013208 0
0.023705568 -2.1901758 -0.067825608 0
0.023733107 -2.1916308 -0.039576042 0
0.023940556 -2.2025902 -0.012299536 0
0.023773795 -2.1937804 0.016750241 0
0.023847207 -2.1976585 0.044705246 0
0.02380511 -2.1954346 0.072922029 0
0.02388628 -2.1997228 0.10100496 0
0.040234692 -1.8777597 -0.088068299 0
0.045913551 -2.0062728 -0.090765812 0
0.052022673 -2.1445229 -0.089078583 0
0.054662149 -2.2042544 -0.069940515 0
0.054191042 -2.1935933 -0.039917577 0
0.054642607 -2.2038121 -0.01250392 0
0.054829314 -2.2080374 0.015685478 0
0.054719646 -2.2055557 0.044292428 0
0.054301802 -2.1960998 0.072884202 0
0.054762729 -2.2065306 0.10100518 0
0.064578764 -1.9043931 -0.094014533 0
0.071289837 -2.0009477 -0.090035595 0
0.081189953 -2.1433842 -0.089163758 0
0.085151747 -2.2003839 -0.069640584 0
0.0863389 -2.217464 -0.042916376 0
0.085532948 -2.2058685 -0.012859194 0
0.084734298 -2.1943779 0.016520293 0
0.085359983 -2.2033799 0.044312611 0
0.085411146 -2.2041159 0.072657064 0
0.085285716 -2.2023113 0.10100511 0
0.086032756 -1.8854847 -0.090382136 0
0.098098643 -2.0126133 -0.092639275 0
0.11019638 -2.1400774 -0.089012615 0
0.11581171 -2.1992414 -0.069833554 0
0.11557729 -2.1967714 -0.040785868 0
0.11598265 -2.2010424 -0.01264306 0
0.1168443 -2.2101209 0.015239412 0
0.1155849 -2.1968517 0.04450025 0
0.11632262 -2.2046244 0.072586395 0
0.1154599 -2.1955347 0.10100499 0
0.10905126 -1.886655 -0.091153242 0
0.12226874 -1.9963996 -0.090090074 0
0.13878468 -2.1335311 -0.08844582 0
0.14763989 -2.207056 -0.07140436 0
0.14637098 -2.1965203 -0.041141946 0
0.14633572 -2.1962276 -0.01249945 0
0.1470419 -2.2020907 0.015571633 0
0.14584139 -2.1921229 0.04456836 0
0.14721404 -2.2035201 0.072535045 0
0.14710103 -2.2025819 0.10100529 0
0.13237393 -1.8885406 -0.092205457 0
0.14684147 -1.9875507 -0.089049242 0
0.17038545 -2.1486766 -0.091599472 0
0.17794327 -2.2003994 -0.07103958 0
0.17775972 -2.1991434 -0.041930456 0
0.17875099 -2.2059271 -0.01379667 0
0.17847726 -2.2040539 0.015145281 0
0.17669092 -2.1918287 0.044392217 0
0.17801833 -2.2009132 0.072500519 0
0.17717668 -2.1951532 0.10100519 0
0.15381859 -1.8779479 -0.090697624 0
0.17390628 -1.9947404 -0.091187395 0
0.19792581 -2.1343927 -0.089991786 0
0.20943427 -2.2013042 -0.071860321 0
0.2090598 -2.1991272 -0.042503182 0
0.20960039 -2.2022703 -0.013911812 0
0.20959644 -2.2022471 0.014928313 0
0.21012282 -2.2053075 0.043527987 0
0.20904545 -2.1990438 0.072430134 0
0.20941395 -2.2011862 0.1010055 0
0.17783415 -1.8821005 -0.092494406 0
0.19638921 -1.9757686 -0.088443868 0
0.22504489 -2.1204255 -0.088545315 0
0.24317406 -2.2119436 -0.074193351 0
0.24011186 -2.196485 -0.042859826 0
0.24012552 -2.1965542 -0.013905531 0
0.24164104 -2.2042048 0.014386149 0
0.23966981 -2.1942537 0.04378378 0
0.23962434 -2.1940241 0.072415546 0
0.24247712 -2.2084253 0.10100587 0
0.20175198 -1.8838038 -0.093899511 0
0.22611541 -1.9923487 -0.092656828 0
0.2539618 -2.1164107 -0.088882007 0
0.27192628 -2.1964467 -0.072897561 0
0.27094355 -2.1920683 -0.043099526 0
0.27172142 -2.195534 -0.014421945 0
0.27269027 -2.1998506 0.014235342 0
0.27490163 -2.2097025 0.042741012 0
0.27330595 -2.2025936 0.07205873 0
0.27250674 -2.1990328 0.10100579 0
0.22020485 -1.8623148 -0.090362601 0
0.2482035 -1.9738114 -0.090222098 0
0.28438592 -2.1178975 -0.090276383 0
0.30415136 -2.1966076 -0.073967136 0
0.30670688 -2.2067842 -0.045739774 0
0.30331376 -2.1932721 -0.014898641 0
0.30146572 -2.1859128 0.014718028 0
0.30492419 -2.1996851 0.042871449 0
0.3062146 -2.204824 0.071831286 0
0.30394083 -2.1957693 0.10100591 0
0.24073145 -1.8513609 -0.089227535 0
0.27326691 -1.9683452 -0.090434201 0
0.31081912 -2.1033676 -0.089078866 0
0.33800352 -2.2011113 -0.075795971 0
0.33895445 -2.2045305 -0.046449173 0
0.33616945 -2.1945169 -0.015795423 0
0.33784494 -2.2005413 0.013078766 0
0.33863857 -2.2033949 0.042302996 0
0.33561701 -2.1925306 0.071932755 0
0.33882758 -2.2040744 0.1010064 0
0.26376793 -1.8494954 -0.090218432 0
0.29634479 -1.9561292 -0.089442782 0
0.34068832 -2.101279 -0.090124361 0
0.37187716 -2.2033694 -0.077434041 0
0.37042728 -2.1986237 -0.046816695 0
0.36959863 -2.1959112 -0.016794382 0
0.37060577 -2.1992078 0.012526738 0
0.37147924 -2.2020669 0.041934099 0
0.37492302 -2.2133396 0.071212284 0
0.36755797 -2.1892314 0.10100622 0
0.28576046 -1.8437084 -0.090468787 0
0.3229773 -1.9553664 -0.090832032 0
0.3699283 -2.0962288 -0.090795688 0
0.42948124 -2.2748995 -0.089473747 0
0.51701093 -2.5375063 -0.089760982 0
0.65142238 -2.9407678 -0.091032736 0
0.86478639 -3.5809028 -0.090006702 0
1.3008263 -4.8891101 -0.090403743 0
3.2910986 -10.860328 -0.14094853 0
0.30523115 -1.8307298 -0.089220844 0
0.34897318 -1.9517006 -0.09178663 0
0.39359495 -2.0751042 -0.088792332 0
0.46434155 -2.2707574 -0.090531595 0
0.55799705 -2.5297663 -0.090478428 0
0.69614458 -2.9118199 -0.089850105 0
0.93150288 -3.5627151 -0.090336181 0
1.4029329 -4.8664775 -0.090968378 0
3.53708 -10.768566 -0.14080992 0
0.32988724 -1.8318086 -0.091279827 0
0.37175411 -1.9390513 -0.091066308 0
0.42757142 -2.0820282 -0.091822691 0
0.49199602 -2.2470529 -0.088780768 0
0.59655994 -2.5148952 -0.090437479 0
0.74902153 -2.9054282 -0.091028474 0
0.99892116 -3.5455503 -0.090871476 0
1.5000826 -4.8292837 -0.090939052 0
3.7833133 -10.677817 -0.14084946 0
0.35151601 -1.8243755 -0.091541238 0
0.39635998 -1.9312056 -0.091436423 0
0.45477325 -2.0703614 -0.091723703 0
0.52679414 -2.2419343 -0.089949884 0
0.63646126 -2.5031903 -0.090920143 0
0.79574865 -2.8826549 -0.090695493 0
1.0657644 -3.5259037 -0.091352649 0
1.5983469 -4.7946558 -0.091162138 0
4.0310493 -10.589995 -0.14111912 0
0.37201577 -1.8142455 -0.09130358 0
0.41446427 -1.9086231 -0.088894777 0
0.48265192 -2.0602276 -0.092022873 0
0.55992609 -2.2320347 -0.090530254 0
0.6692124 -2.4750159 -0.089426093 0
0.83928317 -2.8531418 -0.089788951 0
1.1284401 -3.4960372 -0.091184519 0
1.6925313 -4.750206 -0.091012321 0
4.2680483 -10.476467 -0.14089504 0
0.39010566 -1.7991965 -0.090024315 0
0.44433641 -1.9120675 -0.091855772 0
0.50426483 -2.0367973 -0.0900288 0
0.59125417 -2.2178493 -0.090579055 0
0.70916331 -2.4632549 -0.09014865 0
0.88952613 -2.8386464 -0.090539686 0
1.1882318 -3.4603462 -0.090684585 0
1.7870135 -4.7065978 -0.091026209 0
4.5072317 -10.368222 -0.14095792 0
0.41257048 -1.7933283 -0.09102913 0
0.46606657 -1.8978306 -0.091272451 0
0.53170234 -2.0260472 -0.090450116 0
0.61978406 -2.1981111 -0.089875914 0
0.75042957 -2.4533217 -0.091252081 0
0.9436093 -2.8306901 -0.092117973 0
1.2516602 -3.4324543 -0.09090846 0
1.875571 -4.651238 -0.090549581 0
4.7410011 -10.248735 -0.1408847 0
0.43165272 -1.780715 -0.090551816 0
0.48148796 -1.872293 -0.088374682 0
0.56343997 -2.0228896 -0.092426591 0
0.65227753 -2.1861391 -0.090520032 0
0.78354031 -2.4273498 -0.090374418 0
0.98345047 -2.7947085 -0.090884008 0
1.3125485 -3.3994648 -0.090856262 0
1.9705294 -4.6085825 -0.090857424 0
4.9729447 -10.125875 -0.14087631 0
0.44962353 -1.7663741 -0.089760892 0
0.50473434 -1.8618286 -0.088796727 0
0.58614355 -2.0028334 -0.091376059 0
0.67763627 -2.1613028 -0.089218251 0
0.81742752 -2.4034281 -0.089872502 0
1.0288639 -2.7696457 -0.090916432 0
1.3750206 -3.3692057 -0.091146909 0
2.5903645 -5.4742384 -0.14012556 0
5.2039933 -10.001167 -0.14097427 0
0.46751833 -1.7522413 -0.089121647 0
0.53009933 -1.8545812 -0.090064131 0
0.60973257 -1.984807 -0.09080983 0
0.70657784 -2.1431801 -0.089106746 0
0.85017121 -2.3780012 -0.089272909 0
1.0704556 -2.7382364 -0.090379484 0
1.4278564 -3.3227012 -0.090239115 0
2.7072413 -5.4149046 -0.14053084 0
5.4261746 -9.8612309 -0.14081645 0
0.48740086 -1.7414348 -0.089427389 0
0.54659027 -1.832957 -0.088270031 0
0.63658601 -1.972114 -0.091393761 0
0.74363405 -2.1376381 -0.091220282 0
0.88665432 -2.3587847 -0.089641996 0
1.1198653 -2.7193897 -0.091345914 0
1.4926825 -3.2958622 -0.09106379 0
2.8184037 -5.3457732 -0.14056183 0
5.6510663 -9.7258081 -0.14093511 0
0.50389564 -1.7255149 -0.088550232 0
0.57363677 -1.8276083 -0.090251409 0
0.65766978 -1.9506236 -0.090370648 0
0.77319235 -2.119736 -0.091424786 0
0.92178285 -2.3372564 -0.089819528 0
1.1552743 -2.6790626 -0.09004081 0
1.5489303 -3.2553325 -0.090881072 0
2.9316459 -5.2794785 -0.14091019 0
5.862133 -9.5693951 -0.14062327 0
0.5264101 -1.7182782 -0.090040334 0
0.5924871 -1.809953 -0.089568876 0
0.68564647 -1.9392016 -0.09147539 0
0.79932469 -2.0969179 -0.090909488 0
0.95478976 -2.312609 -0.089677535 0
1.199398 -2.6519766 -0.090337195 0
1.6061327 -3.2162774 -0.090943344 0
3.0466831 -5.2148857 -0.14152521 0
6.0845671 -9.4296236 -0.14093404 0
0.54291934 -1.7025298 -0.089437239 0
0.61893106 -1.8025665 -0.091413833 0
0.707533 -1.9191728 -0.090969391 0
0.82698858 -2.0763845 -0.090902887 0
0.98254144 -2.2811029 -0.088647269 0
1.2434372 -2.6244597 -0.090718187 0
1.6588056 -3.1711135 -0.090596087 0
3.1406593 -5.121336 -0.14062721 0
6.2862763 -9.2611866 -0.14057618 0
0.56419438 -1.6929414 -0.090611421 0
0.63781857 -1.7849226 -0.090981163 0
0.72129339 -1.8892103 -0.088477038 0
0.85133833 -2.0516796 -0.090269662 0
1.0233524 -2.2665823 -0.090242557 0
1.2828274 -2.5907528 -0.090498455 0
1.7181675 -3.1346374 -0.091137581 0
3.2397721 -5.0356269 -0.14031856 0
6.5014143 -9.1105022 -0.14088987 0
0.5796721 -1.6760187 -0.089919798 0
0.65678012 -1.7675209 -0.090715103 0
0.75074422 -1.8790258 -0.090255819 0
0.87180275 -2.0226829 -0.088945888 0
1.0544664 -2.2394452 -0.0900997 0
1.3237867 -2.559041 -0.090637662 0
1.7645344 -3.0820653 -0.090354763 0
3.3472953 -4.9602885 -0.14078534 0
6.7069516 -8.9471092 -0.14098731 0
0.5965277 -1.6608754 -0.089827858 0
0.6782999 -1.7530868 -0.091309302 0
0.78206754 -1.8701017 -0.092513226 0
0.90875345 -2.0129607 -0.091308542 0
1.0840229 -2.2106051 -0.089808904 0
1.3659606 -2.5285356 -0.091058113 0
1.8232584 -3.0442131 -0.091037832 0
3.4454374 -4.8734832 -0.14071625 0
6.9045835 -8.774231 -0.14095168 0
0.61667919 -1.6492759 -0.090886183 0
0.69146419 -1.729439 -0.089682616 0
0.79336053 -1.8386633 -0.089939602 0
0.93418074 -1.9896107 -0.091285489 0
1.1145871 -2.1829908 -0.089825027 0
1.394019 -2.4825182 -0.089642771 0
1.8607905 -2.9828577 -0.089630194 0
3.5430381 -4.7860847 -0.14076371 0
7.0981927 -8.5969086 -0.14093073 0
0.63925159 -1.6397642 -0.092742465 0
0.72554642 -1.7277076 -0.093885235 0
0.81650835 -1.8204074 -0.090401791 0
0.95487905 -1.9614217 -0.090433992 0
1.1489952 -2.1592464 -0.090600051 0
1.445365 -2.4612784 -0.091523729 0
1.9050728 -2.9297693 -0.089088671 0
3.6367991 -4.6945806 -0.14070334 0
7.278234 -8.4055862 -0.14061049 0
0.65433842 -1.6223656 -0.092410378 0
0.73176718 -1.6973896 -0.090690963 0
0.83673173 -1.7990944 -0.090290375 0
0.97860849 -1.936565 -0.090337209 0
1.1735463 -2.1254487 -0.089851059 0
1.4734695 -2.4160576 -0.090409197 0
1.9614036 -2.8888383 -0.089865156 0
3.7362726 -4.6085868 -0.14116637 0
7.479507 -8.23557 -0.14114366 0
0.67095953 -1.6064676 -0.092657767 0
0.74792957 -1.6773707 -0.090314277 0
0.86568141 -1.785841 -0.092253126 0
1.006366 -1.9154364 -0.091133632 0
1.2034024 -2.0969417 -0.090099432 0
1.509974 -2.3793485 -0.090532877 0
2.5529835 -3.3401453 -0.14159881 0
3.8172376 -4.5047474 -0.14058632 0
7.6536508 -8.038764 -0.14094433 0
0.6806432 -1.5843978 -0.091054447 0
0.76541728 -1.6586244 -0.090405561 0
0.87074196 -1.7508447 -0.08902844 0
1.0366472 -1.8961082 -0.092484809 0
1.2195899 -2.0562894 -0.088332154 0
1.5193495 -2.3187532 -0.087404422 0
2.5999963 -3.2649477 -0.14053123 0
3.9115567 -4.4133253 -0.14100929 0
7.8132448 -7.8295708 -0.14045499 0
0.69908452 -1.5700902 -0.092061661 0
0.7794019 -1.6369108 -0.089753859 0
0.89236766 -1.7308934 -0.089603074 0
1.0398455 -1.8535886 -0.08894708 0
1.2449746 -2.0242472 -0.088157497 0
1.5664957 -2.2917387 -0.089114733 0
2.6558573 -3.198041 -0.14046498 0
3.9865088 -4.3050861 -0.14039192 0
7.9993763 -7.6436195 -0.14093986 0
0.70681983 -1.5470002 -0.090247519 0
0.80660856 -1.6258459 -0.092421867 0
0.91697258 -1.7130475 -0.090897016 0
1.0674177 -1.8319182 -0.090038918 0
1.2794541 -1.9994539 -0.089462705 0
1.5955738 -2.2492287 -0.08872389 0
2.7082477 -3.1283827 -0.14024282 0
4.0817051 -4.2135887 -0.14115162 0
8.1674356 -7.4418344 -0.14102015 0
0.72686708 -1.5336633 -0.091894947 0
0.82203567 -1.6050334 -0.092333041 0
0.93659353 -1.6909441 -0.091236301 0
1.0768415 -1.7961206 -0.088019319 0
1.3161218 -1.9755648 -0.091155477 0
1.6303115 -2.2111859 -0.089127101 0
2.7609184 -3.0590656 -0.14020449 0
4.14781 -4.0991411 -0.14033996 0
8.3244972 -7.2313762 -0.14092883 0
0.73768157 -1.5132623 -0.091193415 0
0.82807434 -1.5775524 -0.090198375 0
0.96128976 -1.6722995 -0.092706688 0
1.1110176 -1.7787907 -0.090461545 0
1.3226027 -1.9292768 -0.088576071 0
1.6722366 -2.1779475 -0.090457402 0
2.82851 -3.0003264 -0.14159836 0
4.2291794 -3.9965274 -0.14058134 0
8.4656343 -7.0096292 -0.14053775 0
0.75303698 -1.4961045 -0.091800831 0
0.84432805 -1.5576252 -0.090578742 0
0.9671635 -1.6404035 -0.090516023 0
1.1254061 -1.7470425 -0.08958406 0
1.3397834 -1.8915105 -0.087714218 0
1.705497 -2.1379635 -0.090885289 0
2.8720446 -2.9240954 -0.14106679 0
4.312129 -3.8945627 -0.14105405 0
8.6268616 -6.8022437 -0.14087485 0
0.76750827 -1.4781946 -0.09228573 0
0.86188883 -1.5383914 -0.091358341 0
0.98453492 -1.6166161 -0.090759851 0
1.1463059 -1.719795 -0.089940585 0
1.3683343 -1.8614067 -0.088575505 0
1.7239786 -2.0882399 -0.089782856 0
2.9146488 -2.8476601 -0.14062743 0
4.3758364 -3.7796183 -0.14059998 0
8.7691879 -6.5817366 -0.14083087 0
0.77373564 -1.4551632 -0.090830259 0
0.86900377 -1.5125971 -0.089936413 0
0.99719274 -1.5898777 -0.090211563 0
1.1652148 -1.6911724 -0.090078793 0
1.4051509 -1.8358215 -0.090656333 0
1.7553172 -2.0469246 -0.090236224 0
2.9632506 -2.7751455 -0.140843 0
4.4459038 -3.6689856 -0.14065747 0
8.9116631 -6.3612361 -0.14094393 0
0.7858479 -1.435861 -0.090977944 0
0.88698483 -1.4934047 -0.091031618 0
1.0123626 -1.5647408 -0.090274654 0
1.187741 -1.6645257 -0.09091761 0
1.4192159 -1.7962277 -0.089735679 0
1.7854494 -2.0046031 -0.090666376 0
3.0060208 -2.6990702 -0.14073476 0
4.5189958 -3.5599062 -0.14102684 0
9.0389547 -6.1316214 -0.14079916 0
0.79033631 -1.412416 -0.089403294 0
0.89931691 -1.4708331 -0.091009162 0
1.0237057 -1.5375094 -0.089742444 0
1.2048836 -1.6346266 -0.090994708 0
1.4557198 -1.769083 -0.091936342 0
1.8135524 -1.9608928 -0.090989791 0
3.0491769 -2.6232276 -0.14081198 0
4.5692296 -3.4380248 -0.14033027 0
9.154521 -5.8958888 -0.14050101 0
0.80172396 -1.3928503 -0.089632548 0
0.90796018 -1.4463906 -0.090329893 0
1.0408267 -1.513352 -0.090407677 0
1.2187665 -1.6030293 -0.090677403 0
1.4570588 -1.7231226 -0.089597218 0
1.8399113 -1.9160708 -0.091242902 0
3.0907393 -2.5464571 -0.14091431 0
4.6367989 -3.3256326 -0.1407077 0
9.2872267 -5.6693316 -0.14080881 0
0.82238305 -1.3775913 -0.092155777 0
0.92110771 -1.4242607 -0.090726413 0
1.0621318 -1.490926 -0.091937162 0
1.2371 -1.5736376 -0.091180436 0
1.48514 -1.6908917 -0.090893768 0
1.8578247 -1.8670684 -0.090738587 0
3.131227 -2.4690351 -0.14108306 0
4.6883612 -3.2051287 -0.14040338 0
9.407238 -5.4358501 -0.14093444 0
0.82065094 -1.35176 -0.089536943 0
0.93534505 -1.4024787 -0.091458656 0
1.0671027 -1.460743 -0.09061671 0
1.2495412 -1.5414188 -0.090887107 0
1.4927943 -1.6489872 -0.089670129 0
1.8819927 -1.8210939 -0.091005169 0
3.1735823 -2.3922453 -0.14154297 0
4.7564592 -3.0922065 -0.14109987 0
9.5051041 -5.1920953 -0.14064641 0
0.83372808 -1.3326923 -0.090500943 0
0.9378491 -1.3756284 -0.089905463 0
1.07603 -1.4326096 -0.090149455 0
1.2492285 -1.5040308 -0.088782333 0
1.5167164 -1.6143339 -0.090650178 0
1.9015263 -1.7730167 -0.090918876 0
3.1996119 -2.3083041 -0.14091092 0
4.7966075 -2.9668517 -0.14052597 0
9.6151342 -4.9538512 -0.14082283 0
0.83959532 -1.3106017 -0.089924611 0
0.95277637 -1.3539659 -0.091010369 0
1.0859287 -1.4049819 -0.089983217 0
1.2704651 -1.4756851 -0.090083621 0
1.525515 -1.5734049 -0.089838006 0
1.9305075 -1.7285738 -0.091899656 0
3.2345145 -2.2281911 -0.14110862 0
4.8557596 -2.8493552 -0.14106356 0
9.7158709 -4.7114582 -0.14091663 0
0.85854954 -1.2932799 -0.092431091 0
0.95407963 -1.3271427 -0.089492656 0
1.0917276 -1.3759352 -0.089225776 0
1.2753482 -1.4410238 -0.089042149 0
1.5519022 -1.5390548 -0.091342695 0
1.9515159 -1.6807072 -0.09219376 0
3.2561889 -2.1431789 -0.1404741 0
4.8875661 -2.7214584 -0.14039283 0
9.8067122 -4.4651642 -0.14091715 0
0.85320401 -1.2673876 -0.089581989 0
0.9760316 -1.3074681 -0.092213131 0
1.1020217 -1.3485805 -0.089378931 0
1.2920383 -1.4105856 -0.089884497 0
1.5547284 -1.4963055 -0.090045579 0
1.958693 -1.6281251 -0.091246583 0
3.2853904 -2.0610461 -0.14055677 0
4.9423852 -2.6017482 -0.14101331 0
9.8971519 -4.2185621 -0.1410605 0
0.86005217 -1.2458272 -0.089604802 0
0.97661328 -1.2806343 -0.09081047 0
1.1130977 -1.3213907 -0.089783944 0
1.3111384 -1.3805289 -0.091187112 0
1.5487195 -1.4514745 -0.08781264 0
1.9602962 -1.5743781 -0.089893319 0
3.3195012 -1.9802592 -0.14114884 0
4.9842944 -2.4773939 -0.14114928 0
9.9659662 -3.9650033 -0.14082968 0
0.87057734 -1.2252439 -0.090557598 0
0.96574521 -1.2510661 -0.087315448 0
1.1194395 -1.2927682 -0.089497291 0
1.3071073 -1.3436887 -0.089223452 0
1.56875 -1.4146808 -0.088885821 0
1.9663155 -1.5225533 -0.089108072 0
3.3330877 -1.8934031 -0.14039838 0
5.0147362 -2.349689 -0.1408831 0
10.042652 -3.7139254 -0.14094475 0
0.87837464 -1.2037462 -0.091021694 0
0.99969321 -1.2333989 -0.092676722 0
1.1293079 -1.2650793 -0.089931674 0
1.3246757 -1.312831 -0.090531625 0
1.5805066 -1.3753611 -0.089069016 0
1.9781562 -1.4725544 -0.089013107 0
3.3660369 -1.8117799 -0.1412043 0
5.0354047 -2.2198062 -0.14030515 0
10.108027 -3.4596546 -0.14094062 0
0.88068157 -1.180925 -0.0904072 0
1.0018438 -1.2073185 -0.091965295 0
1.1366102 -1.2366756 -0.09004996 0
1.3149306 -1.2755204 -0.088016473 0
1.6036507 -1.3384143 -0.090732388 0
1.9938921 -1.4234232 -0.089411668 0
3.3833148 -1.7260907 -0.14103237 0
5.0776725 -2.0951841 -0.14091614 0
10.163036 -3.2029638 -0.140843 0
0.8824265 -1.1581298 -0.089799009 0
0.99043298 -1.1788179 -0.088783152 0
1.1493288 -1.2092535 -0.091194294 0
1.3425623 -1.2462664 -0.090996765 0
1.5994151 -1.2954652 -0.089240856 0
2.5433583 -1.4762726 -0.14065072 0
3.38994 -1.6384308 -0.14025736 0
5.1124005 -1.968359 -0.14131628 0
10.207741 -2.9443445 -0.14065567 0
0.88039875 -1.134842 -0.088504784 0
1.0030527 -1.1551419 -0.090339623 0
1.1360126 -1.1771475 -0.088112347 0
1.3438721 -1.2115494 -0.090320595 0
1.6181535 -1.2569445 -0.090605803 0
2.5559111 -1.4121486 -0.14075243 0
3.4116759 -1.5537826 -0.14071344 0
5.1276245 -1.8377815 -0.14094576 0
10.265254 -2.6880877 -0.14092514 0
0.88198811 -1.1123551 -0.088117801 0
1.0164711 -1.1311401 -0.092156388 0
1.1493126 -1.1496958 -0.089592867 0
1.3435045 -1.1768211 -0.089533366 0
1.6379786 -1.2179542 -0.092209153 0
2.5573509 -1.3463749 -0.13995926 0
3.4199638 -1.4668673 -0.14036974 0
5.1448417 -1.7078036 -0.1408255 0
10.30146 -2.4280958 -0.14084558 0
0.90655088 -1.0925661 -0.092768468 0
1.0117227 -1.1045601 -0.090639032 0
1.1551538 -1.1209173 -0.089950092 0
1.3396828 -1.1419613 -0.08838401 0
1.6328952 -1.1753999 -0.090993844 0
2.5790436 -1.2833006 -0.14122725 0
3.4412816 -1.381632 -0.14109845 0
5.1642952 -1.5781279 -0.14096428 0
10.330832 -2.16733 -0.14076014 0
0.90099651 -1.0689876 -0.091088675 0
1.018993 -1.0794361 -0.091524668 0
1.1340053 -1.0896201 -0.085973389 0
1.1248131 -1.0888062 -0.057585884 0
1.6294132 -1.1334876 -0.090095319 0
2.5838606 -1.2180021 -0.14106043 0
3.4410753 -1.2939069 -0.14046609 0
5.1774645 -1.4476609 -0.14096224 0
10.348918 -1.9055835 -0.14056528 0
0.90333104 -1.0462924 -0.091218658 0
1.0258209 -1.0540298 -0.092445202 0
1.1420479 -1.0613717 -0.086940371 0
1.140074 -1.061247 -0.059431661 0
1.6363422 -1.0925952 -0.0905414 0
2.5798006 -1.1521915 -0.1402179 0
3.4632645 -1.2079982 -0.14155875 0
5.1900411 -1.3170751 -0.14108631 0
10.377582 -1.6447613 -0.1407712 0
0.88552129 -1.0227889 -0.087185465 0
1.0143631 -1.0276679 -0.090039171 0
1.1417027 -1.0324901 -0.086644225 0
1.1301987 -1.0320544 -0.057838518 0
1.6426666 -1.0514609 -0.091037132 0
2.5842311 -1.0871166 -0.1403245 0
3.4601002 -1.1202844 -0.14102845 0
5.195066 -1.1859852 -0.14101207 0
10.392184 -1.3827926 -0.14080304 0
0.90497863 -1.0006986 -0.091201879 0
1.0166403 -1.0021075 -0.090346523 0
1.1329697 -1.0035753 -0.085089393 0
1.1405914 -1.0036714 -0.059198055 0
1.1262347 -1.0034903 -0.030552974 0
1.1311755 -1.0035527 -0.0045313742 0
1.1329736 -1.0035753 0.021826679 0
1.1280988 -1.0035138 0.048493329 0
1.1331717 -1.0035778 0.074644208 0
1.1363484 -1.0036179 0.10100281 0
1.1321871 -1.0035654 0.12733832 0
1.1334375 -1.0035812 0.15376084 0
1.1373242 -1.0036303 0.18048351 0
1.143652 -1.00371 0.20770262 0
1.1342268 -1.0035912 0.23349351 0
1.1300776 -1.0035388 0.25972691 0
1.127244 -1.0035031 0.28615513 0
1.1396818 -1.00366 0.31553146 0
0.89966172 -0.97795314 -0.090071626 0
1.0335696 -0.97626358 -0.093535431 0
1.1388574 -0.97493511 -0.086057119 0
1.138876 -0.97493488 -0.05895697 0
1.6453393 -0.9685446 -0.091227271 0
2.5926986 -0.95659125 -0.1409613 0
3.4607344 -0.94563884 -0.1409187 0
5.1809444 -0.9239341 -0.14020051 0
10.400303 -0.85807884 -0.14083786 0
0.9053089 -0.95504647 -0.091394566 0
1.0185806 -0.95075709 -0.090834133 0
1.1352272 -0.94633985 -0.085579209 0
1.1335787 -0.94640225 -0.05831385 0
1.6446544 -0.92704856 -0.09126962 0
2.5901158 -0.89124525 -0.14087419 0
3.4471779 -0.85878956 -0.14012441 0
5.1895328 -0.79280907 -0.14075428 0
10.386258 -0.59601653 -0.14066514 0
0.90891629 -0.93193948 -0.092408232 0
1.0217565 -0.9248116 -0.091678135 0
1.1318014 -0.91786033 -0.085252993 0
1.1411026 -0.91727281 -0.0595765 0
1.6459324 -0.88538373 -0.091664471 0
2.5899105 -0.82575452 -0.14116345 0
3.4617653 -0.77068126 -0.14145373 0
5.1846566 -0.66184974 -0.14083514 0
10.373618 -0.33407369 -0.14067887 0
0.88833648 -0.91071808 -0.088387109 0
1.0079368 -0.90012771 -0.089434095 0
1.1614754 -0.88653213 -0.090505801 0
1.3620999 -0.8687672 -0.091063388 0
1.6292126 -0.84511489 -0.090071775 0
2.5906723 -0.75997943 -0.1416987 0
3.4447391 -0.68435335 -0.14072323 0
5.1707892 -0.53151488 -0.14065026 0
10.363778 -0.071685463 -0.14091212 0
0.89516497 -0.88731706 -0.090332575 0
1.0160149 -0.87353504 -0.091452725 0
1.1620162 -0.85688478 -0.091085263 0
1.3426859 -0.83628082 -0.088808782 0
1.6299183 -0.80352432 -0.090643667 0
2.5731981 -0.69595075 -0.14067809 0
3.439544 -0.59715092 -0.14097619 0
5.1563625 -0.4013615 -0.14059259 0
10.338816 0.18965593 -0.14094697 0
0.89795613 -0.86399913 -0.091544934 0
1.0175102 -0.84729952 -0.092353977 0
1.1473552 -0.8291623 -0.089268051 0
1.3430811 -0.80182272 -0.089473285 0
1.6251096 -0.7624281 -0.090690516 0
2.5698042 -0.63047028 -0.14113294 0
3.4203222 -0.51166725 -0.14039505 0
5.1430531 -0.27103093 -0.14074141 0
10.296377 0.44880131 -0.14072628 0
0.88571656 -0.84286255 -0.089650519 0
1.0061626 -0.82292807 -0.090933345 0
1.145561 -0.79985684 -0.089703001 0
1.3387598 -0.76788139 -0.089592375 0
1.6231458 -0.72081393 -0.091197215 0
2.5559902 -0.56642294 -0.14075993 0
3.4078853 -0.42542955 -0.14044483 0
5.1224799 -0.14165458 -0.14070302 0
10.269133 0.71014518 -0.14101656 0
0.89267832 -0.81849116 -0.092017777 0
0.99673557 -0.79855955 -0.08999183 0
1.1441474 -0.77032357 -0.090327241 0
1.331309 -0.73447376 -0.089386545 0
1.3411894 -0.73258126 -0.058512498 0
1.3501295 -0.73086882 -0.027249565 0
1.3522702 -0.73045874 0.0047846902 0
1.3410928 -0.73259974 0.037447449 0
1.358748 -0.72921801 0.068827651 0
1.3488855 -0.73110706 0.10100958 0
0.88596535 -0.79650867 -0.091556676 0
0.98614794 -0.7746852 -0.088939659 0
1.1322129 -0.74286693 -0.089310311 0
1.2043617 -0.72715026 -0.072113298 0
1.2106434 -0.72578186 -0.043723155 0
1.200987 -0.72788537 -0.01366598 0
1.1974254 -0.72866124 0.015365632 0
1.2094499 -0.72604185 0.043390855 0
1.2110267 -0.72569835 0.072176352 0
1.2033678 -0.72736675 0.10100553 0
0.87632787 -0.77533871 -0.09057381 0
0.99747378 -0.74572825 -0.092246391 0
1.1257133 -0.71438402 -0.089323528 0
1.203149 -0.69545722 -0.072950147 0
1.1974883 -0.69684076 -0.042986665 0
1.209725 -0.69384986 -0.015176071 0
1.2104421 -0.69367462 0.013928184 0
1.1988786 -0.69650096 0.043560721 0
1.2040282 -0.69524229 0.072175451 0
1.2094761 -0.69391072 0.10100591 0
0.87491852 -0.75216287 -0.091513745 0
0.97634339 -0.72464299 -0.089383803 0
1.1242267 -0.68451744 -0.090312533 0
1.1982669 -0.664428 -0.073374517 0
1.1945186 -0.66544497 -0.043566722 0
1.2049409 -0.66261709 -0.015471546 0
1.217236 -0.65928102 0.01286787 0
1.2066778 -0.66214579 0.042809758 0
1.2148603 -0.65992558 0.071726531 0
1.1999036 -0.66398388 0.10100586 0
0.8711518 -0.72944301 -0.0920671 0
0.98178422 -0.6964063 -0.091826908 0
1.1142763 -0.65684199 -0.089986108 0
1.2061095 -0.62941909 -0.075782873 0
1.1955246 -0.63257992 -0.04473241 0
1.1979525 -0.63185489 -0.015631026 0
1.2062372 -0.62938094 0.013034591 0
1.2051226 -0.62971383 0.042465631 0
1.2060502 -0.62943679 0.071729288 0
1.2230763 -0.62435251 0.10100681 0
0.85696638 -0.7099694 -0.090423219 0
0.97370279 -0.67187655 -0.091751732 0
1.1066159 -0.62850505 -0.090173177 0
1.2093673 -0.59497577 -0.077663429 0
1.2155472 -0.59295917 -0.048347179 0
1.2054116 -0.59626657 -0.017286276 0
1.2114546 -0.59429461 0.011954913 0
1.209239 -0.59501761 0.041800987 0
1.1920886 -0.60061401 0.071839303 0
1.2108839 -0.59448087 0.10100673 0
0.84602743 -0.68974358 -0.089607097 0
0.95582974 -0.65082163 -0.089842387 0
1.0950538 -0.60147041 -0.089805759 0
1.2065431 -0.56195045 -0.078783117 0
1.2090807 -0.56105089 -0.04883327 0
1.2002177 -0.56419259 -0.017791925 0
1.208034 -0.56142193 0.011440838 0
1.2049873 -0.56250197 0.041500635 0
1.2068764 -0.56183225 0.071223252 0
1.2081256 -0.56138951 0.10100696 0
0.83677077 -0.66906524 -0.089281641 0
0.94900417 -0.62606412 -0.090249501 0
1.0895129 -0.57222956 -0.090614073 0
1.2084677 -0.52665323 -0.080753215 0
1.2168937 -0.52342492 -0.051211584 0
1.2081059 -0.52679187 -0.019690676 0
1.2027816 -0.52883184 0.010997089 0
1.2119714 -0.52531087 0.040596485 0
1.1982521 -0.53056723 0.071159892 0
1.210976 -0.52569222 0.10100739 0
0.82992244 -0.64746171 -0.089625932 0
0.93881553 -0.60255784 -0.090102367 0
1.0755132 -0.54618824 -0.090057589 0
1.1994119 -0.49509659 -0.081209488 0
1.2124352 -0.48972622 -0.052182857 0
1.210405 -0.49056339 -0.021139806 0
1.2021809 -0.49395481 0.010135034 0
1.1994048 -0.49509951 0.040620364 0
1.2150207 -0.48866007 0.070437491 0
1.2071005 -0.49192607 0.10100764 0
0.82768917 -0.6237123 -0.091172762 0
0.92392039 -0.5811581 -0.089105822 0
1.0701715 -0.51648468 -0.091168202 0
1.2124752 -0.45355687 -0.085191466 0
1.2112129 -0.45411512 -0.053686682 0
1.2161731 -0.45192161 -0.02305202 0
1.2136774 -0.45302525 0.0082716737 0
1.2098244 -0.45472905 0.039435845 0
1.2001573 -0.45900396 0.070484407 0
1.2151812 -0.45236024 0.1010083 0
0.81591624 -0.60405046 -0.090635322 0
0.92152333 -0.55412751 -0.090813003 0
1.0651873 -0.48621425 -0.092492647 0
1.2286353 -0.40894863 -0.089864619 0
1.4777704 -0.29117671 -0.089941077 0
1.8597609 -0.11060098 -0.090938486 0
3.1275108 0.48869374 -0.14079569 0
4.7014232 1.2327185 -0.141076 0
9.4005184 3.4540894 -0.14076164 0
0.80905724 -0.58203864 -0.091378085 0
0.91421181 -0.52904338 -0.091648482 0
1.0599873 -0.45557615 -0.093934067 0
1.2029903 -0.38350627 -0.088194646 0
1.4557891 -0.256102 -0.08943104 0
1.8481714 -0.058351066 -0.09210629 0
3.0856552 0.56531006 -0.1405163 0
4.6403866 1.3488557 -0.14089473 0
9.2874937 3.690882 -0.14081576 0
0.78862011 -0.56708866 -0.088989399 0
0.90019393 -0.50728148 -0.091196589 0
1.0249836 -0.44039026 -0.089980744 0
1.178827 -0.35792521 -0.086839952 0
1.4405627 -0.21762642 -0.089926444 0
1.8194317 -0.01454046 -0.091612436 0
3.0490358 0.64456719 -0.14080077 0
4.5772924 1.4637623 -0.14075617 0
9.1720295 3.9266899 -0.1409629 0
0.78013259 -0.54597545 -0.089580216 0
0.87943876 -0.48947337 -0.08939635 0
1.0138283 -0.41300997 -0.090551801 0
1.1770978 -0.3201147 -0.089196704 0
1.2069322 -0.30313984 -0.061190609 0
1.222787 -0.29411897 -0.030241435 0
3.0090976 0.72223622 -0.14098224 0
4.5112786 1.5769305 -0.14061348 0
9.0505266 4.1596212 -0.14110874 0
0.78874797 -0.51437098 -0.094556339 0
0.86893064 -0.4660317 -0.089920335 0
1.0081379 -0.38210854 -0.092312016 0
1.1649745 -0.28755721 -0.09003935 0
1.1375393 -0.30409691 -0.054135609 0
1.1962885 -0.26867911 -0.029307416 0
2.9563153 0.79237992 -0.14027686 0
4.4503984 1.6931105 -0.1409018 0
8.9074926 4.380137 -0.1408307 0
0.75464618 -0.50859368 -0.089042984 0
0.84914035 -0.44832447 -0.088510312 0
0.98786265 -0.35984614 -0.091408543 0
1.1514117 -0.25553319 -0.09079165 0
1.1464552 -0.25869444 -0.057818223 0
1.1783193 -0.23837122 -0.0293731 0
2.9118991 0.86732143 -0.14039941 0
4.3806496 1.8041036 -0.14086577 0
8.7704172 4.6039367 -0.14086479 0
0.75231433 -0.48296723 -0.09161558 0
0.85280496 -0.41524699 -0.092504077 0
0.97473282 -0.33308026 -0.092016168 0
1.1280773 -0.22974214 -0.090036727 0
1.1361923 -0.22427335 -0.059021179 0
1.1612371 -0.20739582 -0.029625108 0
2.8710434 0.94483608 -0.14098239 0
4.3097911 1.9144025 -0.14092278 0
8.6156282 4.8160892 -0.14055991 0
0.73446226 -0.46761218 -0.09035369 0
0.82512659 -0.40312883 -0.089517064 0
0.95043218 -0.31400743 -0.090516917 0
1.1178148 -0.19495967 -0.09163373 0
1.1469954 -0.17420539 -0.063390665 0
1.1430606 -0.17700401 -0.029845139 0
2.8154895 1.0124812 -0.14048137 0
4.235508 2.0224438 -0.14094289 0
8.4713831 5.0351338 -0.14070177 0
0.72440654 -0.44676664 -0.091241173 0
0.81476611 -0.37900302 -0.090621568 0
0.9301337 -0.29248503 -0.089909233 0
1.0904524 -0.1722568 -0.090410255 0
1.1019535 -0.16363177 -0.059868265 0
1.0975676 -0.16692087 -0.026970973 0
1.0965481 -0.16768548 0.0052348096 0
1.1067184 -0.16005841 0.036625553 0
1.102548 -0.16318592 0.06895633 0
1.1030632 -0.16279951 0.10100973 0
1.0936813 -0.16983536 0.13280481 0
1.103248 -0.16266099 0.16519214 0
1.0945264 -0.16920164 0.19660775 0
0.70909774 -0.42978474 -0.090864606 0
0.80248713 -0.35599527 -0.091432519 0
0.91784716 -0.26484618 -0.091080211 0
1.0545795 -0.15681031 -0.087739475 0
1.1055701 -0.11652127 -0.063562192 0
1.1076269 -0.11489615 -0.030677503 0
1.0994186 -0.12138167 0.003100971 0
1.0915588 -0.12759194 0.036262747 0
1.1016287 -0.11963549 0.068355538 0
1.0993446 -0.12144014 0.10101036 0
1.0982785 -0.12228248 0.13356587 0
1.0980897 -0.12243173 0.16614556 0
1.1046253 -0.11726764 0.19938445 0
0.69930142 -0.40831414 -0.092121623 0
0.78130865 -0.34008762 -0.090221025 0
0.89947808 -0.24177572 -0.091123246 0
1.0308813 -0.13245401 -0.08730831 0
1.1053708 -0.070481986 -0.066933222 0
1.0968009 -0.077611655 -0.032084528 0
1.0977597 -0.076813966 0.0012286028 0
1.1031927 -0.072293967 0.034220513 0
1.0962261 -0.078089863 0.067844696 0
1.1009779 -0.074136585 0.10101125 0
1.1049598 -0.070823759 0.13444228 0
1.1047007 -0.071039408 0.16789375 0
1.0988624 -0.075896591 0.20089442 0
0.67820716 -0.39631984 -0.090366207 0
0.76754051 -0.3181012 -0.090937115 0
0.87727731 -0.22201774 -0.090456076 0
0.99168712 -0.12184265 -0.084086649 0
1.1096177 -0.018584933 -0.071248792 0
1.0995699 -0.027382519 -0.035325129 0
1.0991026 -0.027791705 -0.0010679045 0
1.1014283 -0.025755372 0.032876316 0
1.0994388 -0.027497318 0.067024156 0
1.1035563 -0.023892131 0.10101224 0
1.0986899 -0.028153088 0.13497685 0
1.0967175 -0.029880013 0.16885632 0
1.1004531 -0.026609208 0.20321803 0
1.0993139 -0.027606752 0.23731823 0
1.0891917 -0.036469545 0.37348777 0
0.65387738 -0.38785282 -0.087720968 0
0.74895012 -0.30027398 -0.090575628 0
0.85802156 -0.19979987 -0.090541489 0
0.97039127 -0.0962874 -0.084259801 0
1.0531579 -0.020044651 -0.066225089 0
1.1078862 0.030369673 -0.039504949 0
1.1053165 0.028002653 -0.0039976444 0
1.1023865 0.025303517 0.03125469 0
1.1051377 0.027837906 0.066065826 0
1.1018749 0.024832282 0.10101313 0
1.0996497 0.022782359 0.13578682 0
1.0931822 0.016824756 0.17018847 0
1.0947719 0.018289123 0.20502149 0
1.1053557 0.028038774 0.2412111 0
1.0451747 -0.027398672 0.36845925 0
0.65076637 -0.35968027 -0.091353141 0
0.73651201 -0.27659759 -0.091935374 0
0.83902872 -0.17726466 -0.090816028 0
0.83976191 -0.17655417 -0.063167118 0
0.83750057 -0.1787453 -0.035163809 0
0.83726817 -0.17897049 -0.0077223759 0
0.84664941 -0.1698806 0.0186492 0
0.84166372 -0.17471144 0.046473593 0
0.84547228 -0.17102119 0.073630162 0
0.84265566 -0.17375031 0.10100386 0
0.83780748 -0.17844793 0.12812907 0
0.84204322 -0.17434373 0.15555882 0
0.84377348 -0.17266724 0.18307897 0
1.0951952 0.070946246 0.24327359 0
1.0027021 -0.01867434 0.29707396 0
1.0117894 -0.0098692439 0.33237517 0
0.99181616 -0.029222157 0.36091506 0
0.62730134 -0.35099909 -0.089115657 0
0.71971548 -0.2568194 -0.092317142 0
0.81781018 -0.15685055 -0.09070728 0
0.84024781 -0.13398424 -0.067432828 0
0.83569551 -0.13862351 -0.038319681 0
0.84199059 -0.13220814 -0.011111951 0
0.84507644 -0.12906334 0.016715685 0
0.8417694 -0.13243362 0.04508264 0
0.83310866 -0.14125976 0.073346294 0
0.84319407 -0.13098165 0.10100473 0
0.84283471 -0.13134792 0.12898605 0
0.84329081 -0.13088313 0.15702809 0
0.83402979 -0.14032111 0.18419072 0
0.84192258 -0.13227752 0.21311285 0
1.0952307 0.12587002 0.28365958 0
0.94448334 -0.027757253 0.29036728 0
0.94479626 -0.027438369 0.32252547 0
0.95775622 -0.014230814 0.35835382 0
0.61742145 -0.32851318 -0.091117479 0
0.69613391 -0.24414012 -0.090971999 0
0.79611808 -0.13696554 -0.090603985 0
0.84589946 -0.083604187 -0.073098101 0
0.84170151 -0.08810398 -0.043071512 0
0.84516984 -0.084386259 -0.014542615 0
0.84513837 -0.084419996 0.014457459 0
0.84140271 -0.088424295 0.043613948 0
0.84135652 -0.088473827 0.072326861 0
0.83919436 -0.090791434 0.10100548 0
0.84392595 -0.085719556 0.1297721 0
0.84809601 -0.081249624 0.15885471 0
0.84338599 -0.086298376 0.18737461 0
0.8421272 -0.087647647 0.21613811 0
1.1009365 0.18977395 0.28952041 0
0.93075967 0.0073587629 0.29260084 0
0.93600959 0.012986217 0.32632926 0
0.93136251 0.0080049969 0.357943 0
0.59634399 -0.31791642 -0.089769013 0
0.67180979 -0.23281655 -0.089466877 0
0.77223372 -0.11957225 -0.090077318 0
0.85459417 -0.026697483 -0.079836927 0
0.84359133 -0.039104965 -0.047456834 0
0.83969986 -0.043493237 -0.017022891 0
0.83864188 -0.044686284 0.012708047 0
0.83999908 -0.043155875 0.042098787 0
0.83924949 -0.044001129 0.071594849 0
0.84287804 -0.039909329 0.10100662 0
0.83838212 -0.044979241 0.13038765 0
0.84125036 -0.041744795 0.16000228 0
0.84166753 -0.041274395 0.18962425 0
0.84233433 -0.040522423 0.21940735 0
1.1033715 0.25383916 0.29525414 0
1.0993273 0.24927881 0.33371162 0
0.58378983 -0.29767951 -0.091278069 0
0.66069168 -0.20642206 -0.091858424 0
0.73407698 -0.11933753 -0.086004905 0
0.84842682 0.016358647 -0.083847903 0
0.84042597 0.0068641636 -0.051279534 0
0.84058315 0.0070506665 -0.020646116 0
0.83299023 -0.0019596482 0.01070662 0
0.83884579 0.0049890014 0.040438171 0
0.83881873 0.0049568745 0.070740215 0
0.84425008 0.011402164 0.10100776 0
0.833525 -0.0013250377 0.13108338 0
0.83618248 0.0018284653 0.16138437 0
0.83585179 0.0014361475 0.19161896 0
0.84362215 0.010656986 0.22310242 0
0.84194893 0.0086714365 0.25357208 0
1.1000233 0.31492177 0.34075788 0
0.5676437 -0.28133389 -0.091784708 0
0.63844603 -0.19287822 -0.091170304 0
0.72739148 -0.081755787 -0.090080865 0
0.84768641 0.068532497 -0.08944837 0
0.8448984 0.06504932 -0.056866739 0
0.83969176 0.05854455 -0.024307823 0
0.84266734 0.062261973 0.0068074632 0
0.83925837 0.058003101 0.038518619 0
0.83724332 0.05548564 0.069855541 0
0.8355037 0.053312335 0.10100852 0
0.83718884 0.055417571 0.13215968 0
0.84572071 0.066076666 0.16398098 0
0.84072608 0.059836779 0.19499327 0
0.84022331 0.059208665 0.22640537 0
0.85109323 0.072788745 0.26004487 0
1.1097648 0.39595547 0.3504318 0
1.0992266 0.38278976 0.38991913 0
0.54121417 -0.27829906 -0.088838153 0
0.62093329 -0.17338309 -0.092037179 0
0.69753468 -0.072570354 -0.088253312 0
0.73238528 -0.026704576 -0.068927668 0
0.72987419 -0.030009296 -0.039837394 0
0.72844183 -0.031894412 -0.011264136 0
0.72609079 -0.034988549 0.017181391 0
0.7221567 -0.040166046 0.045475673 0
0.72977382 -0.030141439 0.072962351 0
0.72993195 -0.0299333 0.10100479 0
0.7320677 -0.027122524 0.12913564 0
0.72847337 -0.031852927 0.15701999 0
0.73198521 -0.027231123 0.18550985 0
0.72980207 -0.030104246 0.21348417 0
0.72073519 -0.042036917 0.24008159 0
0.72568381 -0.035524156 0.26938152 0
0.72812933 -0.032305744 0.29857573 0
0.73392397 -0.024679568 0.3292262 0
0.53424418 -0.2494376 -0.092888229 0
0.60414994 -0.15245089 -0.093325727 0
0.68070197 -0.046243157 -0.090085603 0
0.73185289 0.024723206 -0.074692942 0
0.95798171 0.33845261 -0.090315543 0
0.85427636 0.19457272 -0.035244513 0
0.84018505 0.17502251 0.00063383044 0
